ncols 200
nrows 82
xllcorner 290000
yllcorner 930250
cellsize 50
296.3 299.8 304 306.7 310.4 313.5 319.2 317.1 316.7 322.7 325.6 327.9 328.4 326.8 326.2 323.2 318 305.7 323.5 337.3 347 344 362 383.9 390.4 397.4 403 405.6 408.3 411.6 414.2 416 419.1 420.6 423.3 424 424.5 427.3 429.1 430.6 430.4 430.6 432.6 431.8 431.3 431.3 432.2 432.9 432.7 432.6 433 433.3 432.6 430.7 429.5 426.8 424.2 423.1 420.9 420.1 419.9 418.4 416.8 417.4 417.8 418.7 418.2 417.5 417.3 415.7 414.2 411.9 409.9 408.1 406.5 404.8 403.6 402.9 403.4 402.2 402.1 402 401.4 401.5 402 402.1 402 401.5 400.6 399.7 397.1 396.1 392.4 388.4 384.4 379.9 374.8 368.8 364.2 361.5 364.1 367.2 368.5 368.2 367.5 365.2 362.7 361.5 359.8 360 358.3 359 359.7 358.6 356.6 354.5 352 349.3 346.8 343.8 341.5 340 339.2 339.6 339 339 337.3 335.4 333.7 331.8 329.2 328.3 327.5 325.6 321.8 319.6 318.1 316.2 314.2 313.4 310.4 301.8 306.4 311.3 313.6 316.5 316.3 310.9 319.9 324.2 327.3 330.7 332.1 330.3 328.7 326.5 322.3 316.4 312.4 308.1 304.5 302.1 301.2 301.7 302.2 301.2 300.1 299.3 297.2 293.9 286.8 279.7 275.1 266.2 261.1 258.9 247.5 241.8 225 240.5 249.4 263.8 272.3 274 274.1 272.4 269.5 266.9 265.9 266.4 266.7 267.8 267.8 265.7 262.5 256.7 248.1 248.9 251.6 250.4
305.7 310 314 317.5 322.2 327.2 333 334.9 336.5 340.1 340.6 344.4 346.1 344.8 344.9 341.1 335.3 329.4 324.5 319.3 332.1 353.4 372.4 383.1 391.4 399.1 403.4 406.4 408.7 410.8 412.9 416.9 419.3 421.2 423.1 424.1 425.9 428.1 429.4 431.1 431.7 432.7 433.1 431.6 431.3 431.3 431.3 431.3 432.9 432.6 432.3 432 431.1 428.9 427.1 425.3 423.5 422 421.4 420.1 419.2 417.7 416.3 416.4 416.5 417.3 417.1 416.8 416 414.4 412.4 410 408.7 405.7 404.7 403.1 402.4 402.4 403 402.6 402.4 402.6 403 403.6 403.4 403.1 402.9 402.2 401.2 399.6 397.4 394.9 391.9 387.8 383.6 379.3 374.9 369.4 366 362.3 356 357.7 360.9 360.9 359.5 357.6 355.9 354 352.8 353.8 353.2 352.9 353.2 354.3 352.4 350.1 347.6 345 343.4 341.6 341.4 342.3 341.9 341.4 340.7 340.3 339.2 337.6 335.7 333.7 332 330.9 330 327.5 324.6 321.5 319.3 318.1 316.3 314.4 313.8 311.8 306.9 298.4 299.6 309 311.2 312.4 318.7 323.4 327.5 330.2 331.6 331.3 329.7 326.8 322.1 317.5 313.1 309.5 304.8 302.4 298.3 298.5 299.2 298.5 297.1 294.8 293 289.5 283.8 276.9 271.7 264.1 258.8 249.1 229.6 233.4 241 250.5 258.9 271.4 277 278 277.1 274.8 272.7 271 269.7 268.5 269.5 270.5 268 265.5 261.7 251.8 254.2 256.2 257.9 257.2
314.8 319.5 323.3 328.4 334 339.9 345 348.3 350.7 352.5 352.8 353.3 356.1 356.8 356.5 352.3 348.8 344.9 344 343.8 343.5 346.1 362.7 383.3 392.6 399.9 404.1 406.7 407.5 410.1 413 416.5 419.3 421 423.1 424.6 427 428 429.1 431.8 431.4 430.5 433 432.6 432.3 431.3 433.5 433.7 433.1 432.1 431.9 430 429.5 427.5 425.1 423.4 421.7 421.3 420.5 419.9 419 417.6 416.5 414.8 414.9 415.6 413.2 414.3 413.6 411.5 409.8 407.7 405.8 405.2 403.8 403.2 402.6 402.9 402.3 403.1 403.4 404.3 404.1 403.6 404.1 404 402.8 402.7 401.1 399.5 397.8 394 390.9 386.7 382.4 377.2 373.6 370.5 368.3 364.2 360 353.5 351.3 354.6 354.3 353.9 353.2 350.4 349 349 348.8 348.8 348.3 348.2 347.1 346.8 345.6 343.9 343 342.6 345 345.9 345.9 344.7 343.6 343 341.5 339.1 337 336.2 335 333.8 332.3 329.5 325.7 323.5 321.5 320.5 318.4 316.7 316.8 316.4 314.7 312.7 309.4 298.2 301.5 311.1 318.5 321.6 326 329.2 331 331.6 329.9 326.4 323.2 318.7 314 310.3 306.5 302.9 296.3 295.6 295.6 295.5 293.8 290 286.6 282.6 278.7 271.5 265.6 259.1 241.8 228.9 239.5 247.6 254.4 261 268.3 275.5 280.8 281.3 279.5 277.2 274.9 273.4 273 272.4 271.9 270.8 269 266.4 260.7 253.2 259.3 261.4 261.8 261.3
322.5 328.9 332.2 337.6 343.5 348.4 354.2 358.2 360.4 362 363.5 364.3 364.8 365.1 364.2 364.2 362.1 358 355.1 351.8 359.8 360.7 361.7 382 392.3 399.3 403.4 405.6 408.3 409.9 413.4 416 418.2 419.8 422.9 426.1 426.9 428.4 430.8 430.9 430.5 430.5 433.4 433.1 432.6 433.1 433.8 433.4 432.4 431.8 430.1 429.9 427.7 426.3 424.1 421.6 420.4 420.5 418.9 418.8 417.3 416.6 415.5 414.4 412.9 412.9 412.9 413.6 412.1 410.7 409.3 406.9 405.1 404.9 402.5 402.4 401.9 401.7 401.7 402.3 403.9 404.3 404.2 404.2 404.1 403.4 403.5 402.1 400.4 398.8 397.1 393.3 390.7 386.2 381.1 376.8 374.9 372.6 370.4 367.1 362.2 357.8 353.2 348.6 350.3 351.2 350.4 348.3 345.8 345.6 345.2 345 344.7 345.4 344.2 343.8 344.4 343.6 344 345.7 348.1 349.7 349.4 348.9 348.1 347.1 345.1 341.7 339.2 338.7 337.2 335.6 333.8 331.3 328.3 326.6 323.8 322 320.6 318.2 317.7 317.9 316.3 314.6 312.2 306.3 291 309.8 316.8 321.5 325 328.2 331 331 329.9 327.4 325 320.3 314.6 310.7 307.4 304.6 298.7 295.3 292.5 291.2 289.9 286.5 282.9 277.8 271.4 265.8 257 242.6 232.4 244.7 250.9 256.6 265.4 269.6 274.3 281 283.7 284.4 280.4 278.4 276.4 274.9 274.3 273.8 272.7 271.2 269.3 265.7 260.6 257.7 262.5 264.5 265.3 264.2
330.2 337.5 342.3 345.6 349.9 353.3 360.8 366.2 368.4 369.2 371 370.6 371.5 372.3 370.8 371.5 369.3 365.3 363.6 361.4 369.1 372.8 366.7 380.3 389.8 396.8 401.7 404.4 407.4 410.3 412.9 415.7 417.3 419.7 422.6 423.6 426.3 429.5 431 430.8 430.5 430.5 430.9 430.9 432.2 431.9 432.2 432.1 431.4 430.2 429.6 428.8 427.2 426.2 423 420 419.1 418.9 417.2 416.6 415.7 415.1 414.1 413 413 412.9 413.5 412.8 411.1 410.4 408.6 407.6 405.8 404.2 401.5 400.9 400.3 400.4 401.5 402.7 403.5 404 404 404.2 404.1 404 403.2 401.5 399.6 397.9 395 393.5 390.7 387 382.8 378.7 374.4 373.3 370.9 367.7 362.4 356.9 353.4 351 345.8 347.4 347.4 345.4 343.4 343.2 343.3 341.7 341.2 342.5 341.6 340.9 342.2 342.8 344.6 347.5 350 351.6 352.6 352.3 351.8 350.6 348.1 345 343.1 341 339 337.4 335.4 333 330.2 328.9 326.8 325 323.3 320.9 318.8 318.3 316.7 314.4 311.8 300.3 290.9 308.5 315.9 320.3 325.1 328.1 331 330.7 329.4 327.6 325.2 321.2 317.5 313.4 310.6 307.3 303 297.8 291.9 286.7 286 283.7 281.6 273.6 266.8 259.4 250.8 238.5 240 250.3 256.4 264.7 273.8 277.7 281.6 284.8 286 285.9 281.8 279.8 277.8 276.3 275.4 274.2 272.1 269.7 267.1 263.9 258.7 261.1 264.9 267.5 268.7 268
338.9 345.7 349.5 352.9 357.5 363.4 368.8 372.1 372.2 374.1 374.2 376 377.1 377 376.9 375.1 374.7 372.9 374 375.2 379.1 381.5 380.4 380.7 384 395.6 401.3 404.7 407.2 409.8 412.2 414.3 416.4 418.2 421.1 424.3 425.9 429.1 430.2 431.1 431 431.5 430.9 431.1 430.7 430.4 430.3 430.1 429.9 428.9 428.2 427.3 427.3 425.2 422.4 419.2 417.2 416.8 416.1 414.8 414.7 414.4 413.2 413.7 412.9 412.9 413 411.7 411.5 410 407.5 406 405.1 403 400 398.5 398.5 398.6 399.8 401.2 402.2 403 403.3 403.9 403.7 403.4 402.6 400.8 399 397.2 393.9 392 389.3 386.3 383.3 379.2 375 372.7 370 366.5 362.3 356.8 352.9 349.8 348 343.2 342.8 341.7 341.7 340.3 341.5 339.3 339.8 340.5 340.5 339.5 340.8 342.3 344.9 347.9 350.7 352.8 354.2 354.6 354.1 353.4 351.1 348.6 346.6 344.8 342.7 340.2 337.4 334.8 332.4 330.9 328.7 326.8 324.6 322.4 320.4 318 316.2 312.6 308.5 292.5 292.7 308.9 315.1 318.8 323.6 327.7 330.7 330.5 328.9 327.1 325.1 322.1 318.8 315.9 311.8 307.9 303.8 299 293.7 287.1 283.7 280.9 274.6 267.1 260.8 260.9 250.3 236.8 250.3 257.9 264.3 273.3 279.3 282.5 285.8 287 288.2 286.5 283.3 281 278.9 276.9 275.7 273.1 270.1 267.5 264.9 262.1 258 262.2 266.6 270 272.1 272.5
345.7 350.7 354.5 360 365.9 371.5 374.8 376.4 376.4 377.3 377.9 379.8 379.7 380.1 380.3 381.2 380.2 380 382.8 384.5 387.4 388.5 388.4 387.3 392.6 395.6 400.5 403.4 405.7 408.3 410.3 412.5 414.5 416.8 419.9 422 425.1 427.3 429.5 430.1 430.8 429.6 430.2 428.9 428.3 426.8 428.1 428 427.8 427.1 426.5 425.7 426.4 424 420.9 418.4 417.3 415.2 415.1 414.5 412.9 413 413.1 412.5 412.5 413.7 413.2 411.1 410.4 410 407.4 405.4 403 400.5 396.6 393.6 393.7 394.9 398 400 400.6 401.1 402.7 403 403 402.4 400.4 400.3 398.6 396.4 393.7 390.3 387.4 385 382.3 378.7 374.8 371.7 368.6 365.6 361.9 356.9 351 349 347.7 343.6 340.5 338.8 338.1 338 339.4 337.4 337.8 338.4 338.7 339.1 340.4 342.5 345.3 348.1 350.7 352.6 354 354.7 354.9 355.1 353.7 351.1 348.4 346.7 344.6 343.6 340.4 338 336.1 332.5 330.5 328 325.1 322.3 320.2 315.7 313.3 311.2 303.7 287.9 295.3 309.3 313.7 317.8 322.4 325.9 329.4 329.7 328.5 326.7 324.7 322.1 319.6 315.5 311.7 307.8 303.8 299.2 294.3 289.1 283.3 278.1 271.5 266.4 264.3 258.2 247.5 237.1 254.8 265.2 273.8 279.6 284.1 287.3 290.4 290.5 290.4 288.8 285 282.3 278.8 276.4 274.3 271.6 268.3 265.9 264 262 258.8 263.5 267.6 270.9 274.2 275
349.3 355.6 360 366.2 372.7 376.8 378.7 379.1 379.5 379.4 379.7 382.1 382.5 383.1 383.7 385.9 386.6 387.1 389.2 390.6 390.6 391.3 392.6 393.9 394.3 396.7 399.8 403.6 405 407.7 409.3 410.4 412.8 414 417.2 420.4 423.6 425.6 427.3 428 428.9 428.2 428.3 427.6 427.2 425.3 425.9 425.9 425.5 424.8 425.6 425.7 425.3 422.5 420.4 416.7 416.1 415.9 415 412.9 412.6 412.5 411.4 412.6 412.2 412.6 412.3 409.9 410.4 409.4 407.5 404.7 401.7 398.7 398.5 395.4 391.6 387 393.6 396.5 398.1 399.4 400.4 401.1 401.2 400.8 400.6 399.7 398.3 395.5 392.4 388.7 384.8 381.7 380.5 377.6 373.3 368.9 365.8 363.3 360.4 355.2 352.2 350.7 349 346.2 340.7 337.2 336.3 334.8 335.5 334.6 333.5 334.8 336.1 338.1 339.7 342.7 345.5 347.8 350.1 351.4 352.4 353.4 354.5 355.1 353.7 352.2 350.1 347.7 346.2 345.5 344.3 341.8 339.4 336.3 332.5 328.6 325.7 322.8 319.3 314.9 311.7 308.9 301.7 294 291.7 306.5 311.4 315 319.6 323.3 326.8 328.1 327.7 326.2 324.3 321.1 317.6 314 310.4 306.5 302.5 297.9 292.7 288.2 282.2 276.6 268.5 265.5 263.6 254 243.3 245.9 261.4 273 279.5 284.6 288.7 292.4 294.7 295 294.9 293 288.4 283.2 277.6 274.9 274.1 271 267.1 264.9 262.5 260.5 258.5 264.4 267.9 270.6 274.3 276
353 358.8 363.7 370.9 376.4 380.3 379.5 380.4 380.9 382.1 382.4 383.4 384.3 384.7 385 387.7 390.3 392.4 393.6 394.2 394.3 395.1 395.7 396.8 396.9 397.9 400.7 402.4 404.9 407.4 409.4 409.9 411.6 411.4 414.8 418.3 421.6 422.5 424.4 424.7 426.3 427 426.5 426.6 425.2 424 423.6 423.7 423.3 422.8 423.8 422.8 423.7 422.3 420.3 417.8 417.1 414.9 414.5 413.7 412.9 411.4 410.9 411.4 409.9 409.4 410.1 409.4 409.4 408.5 406.4 402.6 403.7 403.8 402 399.5 394.9 388.8 384.4 391 394.3 395.7 396.6 397.5 398.1 398.4 398 398.1 396.7 393.8 390.6 386.9 382.6 379.3 375.4 373.2 368.9 365.8 362.7 360.2 357.4 353.1 352.5 351.2 349.4 346.7 341.4 337.5 334.7 332.1 332.3 330.7 330 330.7 333.5 336.2 339.3 342.2 344.5 346.8 348.5 349.7 350.7 351.7 352.7 353.7 353.2 352.1 350.5 348.4 347.7 347.4 346.1 344.9 342.5 338.9 335.1 331.3 328.3 324.9 320.5 315.3 313.3 309.3 304.3 292.4 284.1 301.9 308.1 312.3 315.8 319.4 323.2 325.7 326.7 324.4 322.9 319.4 314.2 311 308.2 305.1 301.2 296.6 291.1 285.7 281.7 276.4 269.4 265.7 256.5 247.4 239.5 255 269.5 277.9 283.5 288.1 292 295.3 298 299.4 301.4 298.1 292.2 287.1 280.3 273.7 272.7 270.8 266.9 264.2 262.1 261.3 260.2 264.5 266.8 269.6 273 275.3
354.8 360.3 365.8 372.3 376.8 380.9 380.5 380.7 382.2 383.4 383.9 384.6 385.3 385.7 385.6 388.2 392.1 394.8 396.6 396.8 396.5 396.1 396.7 398 399 399.3 400.3 402.1 403.7 406.2 407.9 410.1 411.8 411.6 412.4 415.1 418 419.2 420.9 421.7 422.8 423.7 424.4 422.9 422.1 422 420.9 420.2 420.6 420.9 421.1 422 421.2 421.2 420.2 419 418.1 415.7 415.2 414 413.5 411.7 411.5 410.7 411.6 412 411.3 410.1 408.9 405.9 405.5 406.9 406.6 405.2 402.7 400 396.1 390.5 383.2 381.1 385.4 388.5 390.9 392.4 393.3 394.1 395.3 395 393.1 390.7 388.4 384.3 379.9 375.1 370.5 367.7 363.7 359.9 357.9 356 354.1 352.3 351.4 350.9 349 346.1 341.4 337.7 336.4 335.2 332.2 328.3 327.8 328 328.6 334.2 338.5 341 343.3 345.1 346.6 347.9 349 350 350.9 351.8 351.3 350.8 349.5 348.5 348.3 347.8 347.8 346.7 344.6 340.7 336.8 333.3 329.4 325.9 321.3 316.9 314.1 310.3 308.3 301.5 288 288.1 302.7 308.1 311.2 314.9 318.4 321.8 323 321.7 319.1 315.4 310.1 307.1 304.1 301.3 297.5 293.2 288.3 282.5 278.9 275.3 271.6 262.5 246.7 240 249.1 262.8 273.2 280.7 286.8 290.8 293.8 297 301.2 305.7 307.5 303.8 297.9 291.6 283 274.5 272.4 271 269.2 266.9 264.3 260.7 260.3 263.8 265.5 268.4 271.8 274.8
355 361.6 367.3 372.3 376.3 380.4 381.4 382 382.9 384 384.8 385.1 385.6 386.3 386.5 390.3 394.4 396.9 398.1 398.2 396.5 395.7 396.3 398.3 400.3 400 400.6 402.6 403.3 405.2 406.6 409.1 410.3 409.9 412.1 413.5 414.9 417.6 419 417.7 419.4 420.5 421.5 420.4 420.5 419.6 418.2 418.4 418.6 418.5 418.6 420.1 420.2 420.2 420.2 419.8 418.2 416.4 416 415.4 414 413.3 412.8 412.8 412.9 412.8 412.5 411.7 409.4 409.6 408.8 408.7 407 404.9 401.7 398.9 394.7 392.4 391.1 386.2 376.1 375.3 381 384.7 386.5 387.7 389.4 389.8 388.8 387.2 384.2 379.3 376.3 372.1 367.5 362.8 359 356.1 354.2 352.2 350.3 350.1 350.7 350.4 348.4 345.6 341.4 338.4 336.5 335 333.4 330.7 330.7 325.5 325.1 330.8 336.6 339.8 341.5 342.9 344.4 345.2 346.7 348.1 349 349.8 350.4 349.6 349 347.7 348.4 348.7 349.1 348 345.3 341.8 337.9 333.9 329.8 325.8 321.6 318.3 315.4 312.4 309.4 305.5 299.8 285.5 293.7 302.8 306.8 309.2 312.8 316.1 317.1 315.8 312.7 309.7 305.5 302.7 299.9 296.9 292.8 288.6 284.6 282.4 278.6 275.5 271.2 259.9 241.6 251.6 257.9 267.7 275.4 282.4 287.9 291.7 295 299.1 305 309.3 311.1 308.6 303 295.3 286.7 278.2 273.7 272.5 271.1 269 266.5 263.7 260.3 263.8 265.3 267.1 269.3 273.1
354.2 362.8 368.9 372.5 376.7 380 381 382.2 383.4 384.1 384.7 385 387.6 388.4 390 392.4 394.7 397.5 398.8 398.4 396.7 395.5 397.1 399.3 401 402.1 402.3 403.3 404.2 405.9 407.5 408.3 408.3 407.6 410.1 411.5 412.9 414.1 414 415 415.7 417.3 418 417.5 417 416 414.4 415.1 414.8 415.3 415.5 416.9 418.6 419.1 420.6 420.7 418.8 418.1 416.2 416.1 414.3 413.5 413.1 413.5 412.9 412.9 412.4 412.3 411.5 410.5 410.6 409.9 408.3 404.6 401.3 399.6 397.7 396.6 394 390.2 387.5 383.9 377.6 370.5 379.2 381.4 383 383 382.5 381.5 378.6 375.2 372 368.7 364.8 360.6 355.5 352.6 350.7 348.8 347.2 347.3 348.6 349.8 347.8 345.4 342.6 340.4 337.7 335.7 334.5 333.2 331.4 328.5 324.8 329.7 335.4 338.7 340.8 340.8 342.2 342.3 343.1 345 346.8 347.9 348.8 349 348.5 348.6 347.9 348.5 348.4 347.2 344.3 341.6 338 333.1 328.6 323.8 319.6 317.4 315.9 313 310.9 308.5 305.3 295.4 279.5 293.6 299.4 303.7 306.4 309.2 310.5 309.7 306 302.9 299.5 296.9 294.3 291.8 288.4 284.7 281.2 279.7 277.1 273.9 265.5 244.7 255.2 257.7 264.5 272.5 276.8 282.8 288.7 291.9 295.5 301.6 307.8 312.1 313.9 311.9 307.5 299.8 291.3 282.7 275.6 273.2 271.5 269.8 267.8 265.2 262.4 262.1 264.4 265.7 268.2 270.8
353.5 363.3 368.9 373 376.5 379.2 380.8 382.4 383.5 384.8 386 387.5 389.6 390.6 392.8 394.6 395.7 397.8 398.2 398.1 398 397.3 397.4 400.4 401.6 402.8 403.1 404.1 404.8 405.4 406.2 408.1 407.9 406.2 406.2 408.6 409.5 411.2 411 412.8 412.9 413.7 414.2 414 413.9 413.6 411.9 412.5 413.4 414.3 414.4 415.2 415.9 418.7 421.2 421.2 420.7 419 418.2 417.1 415.8 415.1 414.8 413.3 413.9 413.8 412.6 412.6 411.2 411 410.6 409.2 408.4 404.4 403.4 402 400.1 398.3 395.1 393.5 390.5 387.6 385 379 365 374.7 376.3 376.6 376.7 375.7 373.1 370.6 367.5 364.3 361.1 357.2 352.3 349.8 347.3 346.1 345.3 345.4 345.7 347.2 345.6 344.3 343.1 341.8 340 336.7 334.8 333.5 332.1 327.3 322.4 328.9 334.9 338.3 339.9 340.7 340.6 339.5 339.5 340.7 344 345.1 346.2 346.9 346.8 346.9 346.7 346.5 345.4 344.5 343 340.9 336.9 331.5 326.3 321.5 318.2 316.1 314.4 311.6 309.9 308.3 305.6 300.6 291.1 278.7 288.8 298 302.3 304.4 306.4 305 300.7 298.3 296.4 293.7 291 287.8 285.5 283.2 280.3 277.3 274.1 269.2 255 258.4 265.4 259.7 270.6 277.4 277.9 284.2 289.9 292.8 297.5 303.7 309.6 313.7 315.7 314.5 309.9 302.9 294.4 286.8 279.4 274.6 272 270.8 268.5 265.9 263.2 264.5 265.1 265.6 266.5 268.3
353.4 362.1 368.3 372.4 376.3 378.8 380.8 382.8 384.1 386.4 388.4 389.3 390.7 391.6 393.7 396.2 398.2 396.8 396.2 396.7 397 397.9 399.1 401.1 401.9 402.2 404.2 405.6 405.2 405.8 406.9 408.4 408.2 407.1 406.2 406.2 407.5 408.6 409.4 410.3 411.3 411.8 412.1 411.3 411 411 409.3 410 411 411.8 410.5 411.6 414.8 417.8 420.8 421.8 421.6 420.5 419.7 418.2 417 415.3 415 414.6 415 415.1 413 413.5 412.7 411.5 411 409.2 408.3 407.2 405.7 404 402.2 399.8 397 394.9 391.9 389.1 385.3 381.4 374.5 361.4 366.9 370.8 371 369.3 368.8 367.1 363.9 360.2 356.5 352.9 349.4 348.3 346.1 344.9 343 342.8 343.7 344.5 344.7 343.7 342.5 341.3 340.2 337.6 335.2 333.9 332.5 330.4 322.1 326 334.9 337.4 339 340.3 340.4 339.6 339.2 337.6 339.2 341.9 343.5 344.8 344.8 344.5 344.1 343.3 342 341.1 341.1 339.3 335.7 330.4 325.4 321.2 317.9 315.1 312.1 308.8 306.3 304.9 302.6 297.6 284.5 287.7 282.2 287.9 296.9 299.4 300.9 299 296.7 294.4 292.5 290.4 288 284.8 282.1 280.5 278.1 276.8 271.7 256.1 247.1 267.6 267.9 263.6 273.4 278.5 280.8 286.3 290.5 295.4 300.8 305.8 310.7 314.5 317.3 317 312 305.7 297.5 290.1 283.7 279.5 274.4 271.8 269.3 266.8 264.7 265.9 267.2 267.3 268.3 272.4
353.7 362.3 367.5 371.8 374.7 377.8 379.9 382.1 385.8 387.8 389.6 391 391.5 392.7 394.6 397.1 395.9 397.2 395.9 395.9 395.9 395.9 397.5 401.6 402.1 402.5 403.7 405.6 405.1 405.1 408.1 408.4 408.4 408.4 408.3 408.1 406.9 406.2 404.7 407.1 408.1 409.4 409.9 410 408.3 408.2 407 407.8 409.1 408.1 405.6 408 412.7 417.1 420.3 422.2 421.9 420.6 420.1 418.8 418.3 417 416.3 416.6 415.8 415.6 414.7 413.2 412.4 412.4 411.3 409.7 407.9 407.4 407.2 404.5 403.3 401.4 398.8 395.6 392.5 389.1 384.9 380.1 374.4 364.8 358.9 363.4 364.9 365.4 364.9 364.1 361.3 357.8 353.6 350.8 348 346 344.7 342.4 342.4 340 341.1 341.2 342.1 342.1 341.4 340.2 339.4 337.1 335.8 334.5 333.1 332.2 327.6 320.6 333.6 336.4 337.9 339.1 339.8 339 338.7 336.6 335.6 335.7 338.9 340.3 341.1 340.8 340.5 340.1 338.7 338.6 338.7 338.3 335 331.2 326.7 322.2 318.5 316 311.8 308 304.3 302 291.9 297.3 297.5 294.9 291.7 279.8 288.2 292.6 295.3 295 293.3 292.9 289.8 286.8 284.7 281 275.6 272.3 271.3 269.6 261.5 248.7 259.6 266.7 268.8 272.1 272.2 280.1 283.5 287.7 293.9 298.4 302.7 307.1 311.2 314.7 317.5 318.2 314.6 308.4 300.8 292 286.3 282.2 277.8 275.3 270.6 267.6 266.6 269.3 270 271.5 271.6 274.8
355.4 361.9 366.4 370.7 374.1 376.3 379 382.4 386.1 389 390.9 391.9 392.9 394.1 396.2 397.8 397.7 395.9 395.9 395.9 395.9 395.9 400.4 402 401.8 403 404.3 406.3 405.1 407 407.1 409 408.2 408.3 408.9 408.8 407.9 406.8 403.3 404.3 405.7 406.5 407.8 407.6 406.1 404.6 405.8 407.2 405.9 404.6 402.1 406.1 409.7 415 419.5 421.6 422.2 421.5 421 420.5 418.6 418.3 416.5 416.1 415.9 417.1 415.6 414.4 413.2 412.3 412.1 409.6 407.1 406.7 407.5 406.1 404.8 402.6 399.6 396.5 392.6 387.6 382.9 377.5 372.3 365.6 355.5 356.6 358.3 359.4 360 359.6 357.7 354.9 351 348.4 346.5 344.8 343.2 341.7 338.7 337 338.2 338.2 339 339.9 339.5 338.9 338.5 337.5 336.2 334.9 333.7 331.4 328.6 317.5 331.1 334.7 336.5 337.5 338.5 337.7 336.6 334.8 332.8 332.5 333.7 335.8 337.3 336.5 336.5 336.2 336.3 336.2 337.7 337.1 335.2 331.9 327.6 323.3 319.1 316 312.1 308.3 305.2 294 301.8 302.5 299.7 294.7 290.6 285.9 274.1 281.6 279.4 284.4 289.3 290.8 289.4 285.7 282.1 277 269.5 262.6 255.3 253.5 250.6 256.3 265 266.5 270.4 275.9 279.3 281.5 286.5 290.9 295.9 300.3 304.4 308.2 311.6 315.1 317.7 318.3 316 310.9 303.8 294.6 290.9 285.6 281.6 279.2 275.8 271.6 272.7 274.9 275.2 276.8 277 276.2
355.8 361.6 365.3 369.2 372.7 374.1 377.5 381.2 385.7 389.3 391.4 392.9 394 394.9 396.4 398.3 398.4 395.9 395.9 395.9 395.9 395.9 397 401.5 400.9 403.3 405.7 406.8 406.8 408.4 409.1 409.4 409.3 409.7 409.8 409.9 408.4 406.8 405.1 401.2 402.9 402.8 403.9 404.9 404 402.4 404.2 405.4 403.4 401.1 398.7 402.3 406.5 412.6 417.1 420.4 421.9 422.3 422 419.8 420.2 418.8 417 416.1 415.6 415.5 414.8 414.1 412.4 411.6 411.7 410.9 408.9 408.2 407.2 407.1 405.3 403.1 400.1 396.3 392.3 385.4 379.1 373.6 368.5 363.1 358.5 351 353.7 354.6 355.1 355.3 354.7 352.1 348 346.2 344.4 342.4 340.6 338.8 339.3 335.7 335.5 335.4 336.1 336.9 337.4 337.1 336.4 335 333.3 332 332 332.9 330.8 322.8 322.4 330.2 331.7 333.1 335.3 335.4 336.2 335 333.5 332.8 332.3 331.6 331.4 331.1 331.7 331.9 331.8 333.2 335 335.3 334.3 331.3 326.6 322.7 318.6 314.8 309.1 303.3 298.6 303.8 303.4 300.9 296.6 293.8 291.2 287.4 285.1 275.7 265.4 267.5 276.2 287.2 288.1 284.7 279.3 265.9 257.2 255.3 254 252.2 252.8 261.1 262.6 264.6 272.9 279.6 283.9 282.1 288.9 293.2 297 301.5 305.5 308.8 312 315.3 318.2 317.3 315.6 312.3 306.5 300.8 295.9 290.6 285.7 281.3 279.6 278.5 278 279.7 280.7 281.1 280.1 279.7
355.1 358.9 364.2 368.4 371.4 374.9 377.3 381.8 386.3 389.6 391.9 393.7 395 395.9 396.8 397.7 398.1 398.6 395.9 395.9 395.9 396.6 399.8 400.2 401.5 403.2 405.4 407 407.7 408.8 409 408.8 408.8 409.3 408.7 409.5 408 406.6 405.3 402.4 400.6 400.1 400.4 400.3 400.7 399.8 402.7 403.5 401 398.5 397.6 399.3 403.1 408.4 414.2 417.9 420.4 421.7 422 420.9 420.1 419 416.9 415.6 415.6 416.9 415 413.3 411.3 411.6 411.1 410.2 408.7 407.2 407.6 406.8 405.7 402.4 399 395 389.4 382.6 375.6 369.6 364.9 360.6 356.8 353.3 346.9 351.4 352.2 351.3 351 348.7 345.7 343.5 341.9 340.3 339.4 337.6 337.6 335.9 332 333.2 333.7 333.9 335.1 335.3 334.4 332.7 330.7 330.1 331.4 332.6 332.6 327.6 314.7 320.9 326.4 330.2 331.4 332.8 335 334.4 334.5 334.3 335.2 334.6 335.1 332.2 330.5 331.1 329.6 326.4 330.2 331.4 329.3 327.3 323.7 320.2 316.2 311.1 304.8 304.8 305.5 303.6 301.5 297.5 292.8 290.3 287.5 285 280.5 276.5 272.2 265.6 263.7 278.6 282.3 278.4 268.1 255.6 261.4 262.1 261.3 259.8 262.1 267 268.7 270.2 277.3 284.5 289.2 289 289.9 294.1 298.5 302.3 306 309.5 312.6 314.6 316.3 317.1 315.9 313.5 308.3 304.5 300 294.2 289 283.8 284.7 285.1 284.2 284.1 284.2 284 282.3 282.4
354.1 360 366.2 370.4 373.9 377.8 381.3 383.4 386.6 389.5 391.6 394.2 395.4 395.9 395.6 397.8 398.3 398.6 398.6 396.4 398.2 398.4 399 399.8 400.7 402.4 404.9 406.6 406.9 409.1 409 408.9 409.2 408.8 408.7 409.5 408.1 406.7 405.3 403.4 401.8 398.1 396.9 396.8 397.3 398.7 400.7 401.2 399.8 397.4 396.5 396.5 400 402.9 409.2 414 417.7 419.8 421.2 420.3 419.5 419 416.9 415.6 415.6 415.8 414.6 412.6 410.9 410.8 410.4 408.8 408.4 407.7 407.6 406.7 404.5 400.6 396.6 391 383.7 376.5 372.1 366.5 361.8 358.1 354.9 352.8 347.1 347.3 349 348.1 347.2 345.2 343.2 341.3 339.5 337.9 337 336.3 335.5 334.6 330.9 329 330 331.2 332.5 332.3 331.5 329.9 328.4 328.3 329.7 331.4 332.6 329.6 324.7 312.9 320.3 325.6 327.2 330.1 333.9 335 336 338.3 338.5 339 339.2 337.6 335.1 332.5 330.1 329.3 326.3 322.9 323.2 319.1 316.2 312.8 311.1 306.4 307.1 309.5 308.2 305.7 300.4 296.4 294.1 293.5 291.1 288.1 283.8 277.8 274.5 274.6 264.2 261.6 268 259.3 264.9 274.8 271.9 271.8 271.4 270.4 271.3 274.1 274.2 278.2 286.1 288.4 291.5 291.6 290.5 295 298.9 302.2 305.9 309.6 311.6 313.6 315.1 315.9 315.5 314 311 307.2 301.9 297.9 291.6 289.4 290.4 290.4 288.7 288.4 287.8 286.6 284.6 284.5
354.3 360.6 367.3 372.3 376.1 380 384.4 386.9 388.3 390 391.8 393.2 394.2 395.3 397 397.6 398.1 398.3 398.1 398.8 399.1 397.6 398.4 397.2 400.1 402.3 404.2 406 406.9 407.2 409.4 408.7 409.6 408.9 408.7 409.3 408.1 406.7 405.3 403.5 402.2 400.3 397.7 395.9 394.6 395.3 397.2 398.1 398.1 396 395 394.7 397.2 399.7 402.7 409 414.2 417.1 418.5 419.3 418.7 418.8 417.6 415.5 415.2 413.7 414 412.2 410.5 409.9 409.4 409 407.9 407.2 407.4 405.1 402.2 398.7 392.8 386.1 379.2 374.1 369.3 364.2 359.9 356.2 353 350.7 348.3 342.9 347.3 346.5 345.8 343.9 341.6 340 337 335.6 334.5 334.1 332.9 333.1 331.8 327.4 327.3 328.3 330.8 330.7 330 327.2 327 326.9 327.3 329.3 331.3 329.9 326.6 315.2 313.6 320.6 327.1 331.3 332.8 336.1 338.9 340.2 339.9 339.4 340.4 340.1 338.7 337.2 334.9 334.1 333.3 333.1 332.5 330.8 328 324.2 317.4 313.6 314.4 312.4 310.1 307.5 304.4 300.5 296.4 295.3 293.5 290.2 285.1 280.3 280.2 278.5 275.8 266.5 272.9 275.1 279.9 279.8 280.2 284.8 285.3 284.8 283.8 285.9 283.3 289.1 292 293.8 294 294.3 294.4 295.2 299.3 301.8 305.3 309.2 311.4 313.2 314.4 314.7 315 314.1 311.7 308.9 304.4 300.1 295.1 294.2 296.2 295.7 294.6 292.8 290.8 289 286.4 286.2
357.6 363 367.9 372.3 377.5 382.2 385.5 387.5 388.7 390.5 392.6 394.5 395.6 396.4 396.8 397.2 398.4 398.5 399.6 399.4 398.3 397.4 397.2 397.2 399.8 401.2 404.4 406 407 407.5 407.6 408.9 408.5 408.4 409 409 408.2 406.8 405.3 403.8 401.4 399.9 398.2 395 395 392.4 393.3 394.1 395 395.6 393.9 391.4 394.1 396.5 399.3 403.5 410.1 413.9 415.8 417.2 417.7 417.9 417.5 416.8 415.8 414.4 413 411.1 410.4 409.7 408.7 408.8 408.9 407.8 405.8 404.4 401 396 388.7 381.1 375.5 371.4 367.4 363.4 359.1 354.7 350.9 348.1 344.9 339.6 344.6 345.4 345 343.5 341.5 338.7 336.7 334.1 333.1 333 329.5 329.5 328.7 325.9 324.6 326.6 330 330.6 330.3 327.6 324.8 324.5 325.7 328.3 330.4 329.2 325.8 319.4 311.1 322.3 327.6 330.8 334 337.2 340.5 342.1 341.4 340.7 340.2 341 339.9 338.9 338 337.5 336.5 336.3 335.2 333.1 330.7 327.7 324.3 321 317.7 314.9 313 310.1 306.3 301.8 298.4 296.9 294.4 290.2 284.4 285.2 283.7 280.2 276.5 272.8 280.7 282.4 283.9 285.8 290.7 293.5 294.6 294.8 294.9 294.7 295.5 297 299.6 300.1 299.8 299.2 298.2 297.3 299.6 302.1 306 308.8 311.1 312.5 313.1 313.5 313.9 313.7 311.8 309.2 305.7 302.1 297.5 297.9 298.7 299.2 297.6 296 293.5 290.9 286.4 288.5
361.1 366.6 370.8 373.9 377.6 381.7 385.6 387.2 388.6 391 393.3 394.6 395.4 396.4 396.5 396.8 397.8 399 399.4 399.8 397.4 397.2 397.2 397.2 397.2 400.3 404.8 406.4 406.6 407 407.8 408.6 409 409.1 409.5 408.8 407.6 406.2 404.8 403.3 401.1 398.5 399.1 397.7 396.3 394.3 392.4 389.2 390.9 392.3 391.4 390.2 389.3 393.1 395.8 399.8 404.9 410 412.3 413.9 414.6 415.1 415.6 415.2 414.4 413 411.3 409.3 409.3 408.8 409.5 408.3 409.3 407.3 405.8 404.4 400.8 393.9 385.1 376.3 372.1 368 364.5 360.4 358.3 354.2 349.3 345.2 341.2 338.5 343.7 344.2 344.1 343.1 342.7 342.1 338.8 335.8 335.3 334 332.2 330 328 324.9 321.7 325.2 328.5 330.3 330.2 327.8 325 322.6 324.1 326.7 328.7 327.1 323 317.7 309.1 319.9 325.4 329.6 334.3 337.4 340.2 342.5 342.3 340.8 340.4 340.7 340.5 338.7 338.3 338 337.7 336.6 335.7 334.1 332.9 330.2 327.5 323.9 320.7 317.1 314.3 311.4 308 303.7 300.5 297.8 293.5 290.6 288.8 288.7 285.7 282.9 279.3 274.4 279.9 282.6 286.6 292.4 297.2 298.7 300.4 300.3 301.2 300.8 301.6 303.1 305.3 304.4 303.1 302.5 301.3 301 298.9 303.4 305.8 307.9 310.2 311.7 312.6 312.8 312.7 312.6 311.2 309.1 306.5 303.4 300.6 301.5 301.6 300.6 299.3 297.8 295.5 292.2 291.2 291.4
362.6 368 372.2 376 379.7 382.5 385 387.2 388.6 391 393.4 394.2 395 395.9 396.5 396.4 397.2 398.6 400 400.1 397.2 397.2 397.2 397.2 397.2 400 403.5 405.2 405.6 406.9 407 407.7 408.4 408.9 408.5 408 406.8 405.5 404.1 402.4 401.6 399.2 399.6 399.1 397.6 396.1 394.3 391.8 388.1 388.3 389.3 386.9 386.9 389.2 392.2 395.6 399.4 404.3 408.2 410.5 411 411.5 412.1 412.1 411.7 411.1 409.6 408.3 407.5 408.5 408.4 409.1 409.1 407.8 406.2 404 399.6 393.5 386 380.5 373.6 368.3 363.9 357.9 353.4 350.6 346.5 343.1 339.7 337.2 342.2 342.7 342.6 343 343.2 342.5 340.4 337.4 336.4 334.6 332.7 330.8 328.4 325.2 320.7 321.8 325.5 327.5 328.5 327.4 324.3 321.2 322.2 324.5 325.5 323.7 320.3 317.1 305.9 317.2 321.8 326.7 331.1 335.2 338.9 341.2 342 340.9 339.8 339.6 339.5 338.5 338.3 337.6 336.9 336.3 335.5 334.5 333 331.4 329.8 327 323.1 318.3 315.3 312.5 309.2 305.1 301.6 298.1 296.2 294.5 291.4 288.5 286 284 282.3 279.3 279.6 281.6 287.2 293.9 298.9 301.4 303.7 305 306.1 306.9 306.8 307.6 309.2 307.5 306.3 304.7 303 302.6 301 303.5 305.2 307.1 309 310.8 311.6 311.3 311.2 311.1 309.8 307.8 305.1 303.9 304.9 304.2 303.2 302.1 301 299.6 295.9 292.5 294.6 294.5
362.1 367.1 370.9 374.4 377.5 381.2 383.9 386.4 388.6 390.8 392.2 392.8 394 395.3 396.2 396.2 397.5 399.3 401 399.4 397.6 398.6 397.2 397.2 397.2 398.6 401.1 403.6 405.7 406.4 406.9 407.1 407.4 407.8 407.4 407 406 404.6 403.3 401.8 400.5 399.4 399.5 400 398.9 397.5 394.8 392.1 390 385.6 386.4 385.2 384.1 385.7 387.3 390.1 394.8 397.9 401.9 405.6 407 407.6 408.9 408.9 408.2 407.6 407.1 406.5 406.1 406.9 407.3 407.7 407.9 407.7 406 403 398.7 392.6 386.7 380.6 375.4 369.2 364.8 359.2 353.7 348 343.6 338.9 336.3 335 337 339.4 340.7 341.8 342.4 342.8 340.8 338.3 336.6 334.8 333 331.1 328.7 325.6 320.9 318.1 321.8 323.6 325 324.2 321.7 320 320.9 321 320.9 319.8 318 315.7 306.6 311.9 317.7 322.7 327.7 331.8 335.3 337.9 339 338.6 338.5 338.3 337.9 337.7 337 336.3 335.6 335.2 334.4 333.5 332.7 331.3 329.8 327.3 323 319.3 315.9 313.2 308.8 305.5 302.4 299.1 297 295.9 292.1 288.2 287 285.7 282.8 280.6 281 282.2 285.6 292.9 298.1 301.1 304.3 306.5 307.8 308.8 309.4 309.8 310.4 309.4 308 306.3 304.6 303.7 302.1 303.5 304.4 306.3 308.7 310.4 310.4 309.9 309.7 309.5 307.5 306.8 306.5 306.7 306.5 305.6 304.7 303.7 302.5 300.9 300.2 299.4 298 297.5
360.8 364.8 369.1 372.6 376.5 379.7 382.3 385 387.7 389.6 390.2 390.8 390.1 393.9 395.1 395.9 398 399.9 400.7 400.8 399.3 398.9 398.9 400 400.4 399.1 399.8 402.5 403.3 405.6 405.9 406.2 406.1 404.9 406.2 405.9 404.9 403.7 402.2 400.7 399.5 399.4 399.4 400.2 399.5 397.3 394.8 392.3 390 388 386.3 383.7 383 382 383.3 384.7 390.2 393.1 396.5 399.3 401.6 403.7 405.4 405.8 405.2 404.6 404.2 402.8 402.7 403.9 405 406 406.1 406 404.7 401.6 396.8 391.5 385.8 380.9 375.9 370.3 365.3 359.7 354 350.4 347.2 342.9 338.3 333.4 330.4 332.1 336.9 338.6 340.4 342 339.9 337.6 336 334.2 332.5 331.5 329.3 325.3 322.1 317.9 317.4 318.8 321 321 318.4 315.9 317.2 318.6 317.4 316.1 315 313.9 308.4 304.2 310.5 317.5 323.1 327.1 330.1 332.2 334 335.4 335.3 335.9 335.1 335.8 335.4 334.9 334.2 333.7 332.6 331.6 331.4 330.3 328.8 326.9 323.3 319.5 315.1 312.5 309.6 307.2 305.3 302.1 299 297.4 295 291.2 289.8 287.4 284 282.1 282.3 283.4 284.7 290.5 297.3 300.8 304.4 306.9 309.3 310.4 311.1 311.2 311.5 310.5 309.2 307.7 306.1 303.2 304 304.9 306.2 308.3 310.3 311.5 311.4 310.3 309.2 308.1 308 309 309.6 308.8 307.4 306.5 304.7 299.2 298.4 298.4 298.7 299.9 302.3 301.4
359.5 362 366.7 369.7 373.5 377.8 379.9 383.2 386.5 388.5 389.1 388 390 393.1 395.2 396.7 397.4 399.2 400.2 400.2 400.2 399.7 399.8 402.2 402.2 401.2 400.6 401.7 402.4 404.4 405 405.3 404.7 405 405 404 403.7 402.5 401.1 400 399.7 399.9 398.4 399.9 399.3 396.8 394.4 391.9 389.5 388.8 387.2 385.2 383 381 380 381.6 384.6 389.3 390.8 392.5 396.9 399.2 401.4 402.4 402.1 401.6 401 399.9 401.2 402.1 403.2 404 404.1 404 403.4 400 395.2 390.1 384.8 380.1 376.3 371.1 365.7 360.2 354.6 351 348.8 346.1 343.6 340.4 337.5 330.2 329 334.1 335.7 338.1 338.2 336.9 335.3 333.6 332.4 331.2 329.2 324.5 321.4 319.4 315.5 314.7 316.7 316.9 315.3 314.1 314.1 315.7 315.3 314.4 313.1 311.8 309.8 301 307.3 313.3 317.9 322.6 324.5 326 328.5 330.9 332.3 333.1 332.2 332.2 333.5 333 332.6 332.3 330.9 329.9 330 329.3 327.4 324.5 321.4 318.9 315.1 313.8 311.7 309.4 307.4 303.3 301.4 300 298.3 295.6 292.9 289.7 286.3 283.6 283.4 284.6 285.8 290 296.4 300.5 304.1 307.2 309 310.9 311.4 312 312.3 311.6 310.4 309.3 307.5 305.5 305.9 307.6 309.2 310.1 311.3 312.4 312.1 311.3 310.7 310.4 310.9 311.7 311.9 311.1 309.5 307.7 304 298.4 298.4 298.4 298.4 301.6 304 303.9
357.4 360.5 364.4 368.8 373.1 376.7 379.8 382.7 384.8 386.8 386.6 388.4 390.4 393.2 395 397 398.4 399.9 400.7 400.5 399.9 399.9 400.3 403.2 402.6 401.6 401 401.5 402.3 403.4 403.9 404.6 404.5 403.9 403.4 403.2 401.9 400.4 400 400.2 399.3 399.2 399.7 398.4 398.8 396.5 394 392.2 391 388.9 387.3 385.3 383.7 382.3 381.8 380.4 379.5 380.4 379.5 380.3 387 392.5 396 398.4 398.2 398 397.4 395.4 398.9 399.9 400.3 402 402.8 402.7 400.9 398.4 393.6 388.7 384.5 379.3 375.6 370.7 364.8 359.2 354.3 351.7 349.6 347.8 346.1 343.6 339.1 334.1 326 326 330.4 333.4 334.4 334.8 333.4 332.3 330.7 329.1 328.3 324.5 321.7 319.3 317.4 314.3 310.6 312.1 311.5 309.4 311.2 312.8 313.7 312.6 311.4 309.9 308.7 298.7 305.6 309.2 314.3 318.8 321.1 322.6 324.4 326.6 328.5 328.8 329.1 328.6 331.1 331.2 331.4 331.8 331.1 329.7 329 328 325.8 321.3 319.7 319.7 318.8 317.6 314.5 311.4 308.9 307.4 305.3 303.4 300.7 297.8 295.4 292.3 289.2 287.1 285.7 285.9 287.1 290.1 295.9 300.2 304.4 306.7 308.6 309.5 309.9 311.5 311.4 311.4 312 311.1 310 308.9 308.9 310.5 311.2 311.5 311.6 311.9 311.2 312 311.7 311.4 311.2 312.8 313 312.7 311.4 309.3 306.2 302.3 298.4 298.4 298.4 303.4 305.3 305.9
356.1 359.4 362.9 367.3 370.1 374.4 378 381 381.9 382.7 386.5 389.4 391.6 393.9 396.2 398.1 398.5 399.8 400.9 401.4 399.9 399.9 400.4 402.9 402.4 401.5 401.3 400.6 401.4 402.5 402.6 403 402.9 402.8 402 401.6 400.3 398.7 398.9 398.9 398.9 399.3 398.4 398.4 398.8 397.2 395.3 393 391 389.3 386.7 385.8 384.9 385.8 385.6 388 388.4 387.3 385.7 382.2 374.3 379.3 387.7 392.4 394 393.7 393.5 392.8 396.4 396.2 396.4 400 401.1 400.9 399 396.9 392.5 387.8 383.8 379.4 375 369.6 363.7 357.9 354.4 352.3 350.4 348.1 344.9 342.4 337.5 331.7 328.3 324.7 323.9 327 330.6 331.2 330.8 329.8 327.9 327.1 325.5 323.6 321.8 319.1 318.1 316.4 314 309 304.5 305.2 307.4 309 310.4 310.7 309.1 307.8 306.1 300.3 303.2 308.1 312.2 315.2 317.8 319.8 321.6 323.2 324.9 325.2 325.4 325.7 328.3 330.2 331 331.3 330.9 329.9 328.8 327.3 325.3 324.1 322.2 321.4 321.1 319.7 317.1 314.9 313.2 310.9 307.8 305.4 302.6 299 296.1 292.1 289.1 287.4 287.2 287.4 288.1 290.1 294.8 298.7 302.4 305.3 307.1 307.5 307.9 310.1 311 310.9 311.6 312.3 311.5 311.7 311.7 312.6 312.9 313.2 313.1 312.5 311.7 311.9 312.2 312.4 311.5 313.3 314.3 314.2 312.9 310.8 307.7 303.6 298.4 298.4 301.1 304.9 306.8 307.9
352.8 357.5 360.9 363.2 366.2 370.8 375.1 377.7 377.9 381.9 386.2 389.4 391.4 393.7 395.5 397.4 398.5 399.7 400.8 401.3 400 401 400.6 402.3 401.8 401.4 400.3 399.3 398.8 400.7 401.1 401.7 401.8 401.5 400.7 399.9 398.4 396.8 397.4 397.4 399 399.7 398.4 399.6 399.6 397.9 396 393.6 390.9 387.7 385 386.9 388 389.7 391.3 393.3 394.3 394.1 393.3 389.2 383.3 377.2 371.2 383.4 387.8 388.9 389.4 390.4 392.7 392.9 396 398.3 399.3 399.3 397.8 395.3 391.5 387.1 382.9 377.9 373.7 368.1 362.3 357.2 354.4 351.6 350 347.2 342.6 340.5 336.9 332.5 328.4 325.8 320.6 321 325.4 326.2 326.5 326 324.4 324.4 323.6 322.8 321.6 320.5 318.9 317 313.9 310.6 307 300.2 300.3 302.3 303.4 306.6 305.6 304.6 303.4 298.2 298.3 304.8 308.7 311.2 314.1 316.7 318.4 320.1 321.6 322.3 323.1 324.5 326.2 327.8 329.5 329.8 329.6 329.2 328.8 327.8 325.7 324.8 323.8 322.7 322.2 321.3 319.9 318 315.4 312.4 309.3 306 302.6 299.2 294.2 290.2 287.8 287.2 287.8 288 288.8 289.5 291.9 296.4 300.1 303.2 304.9 305.4 306 308.6 310.5 310.5 311.1 312 312.9 313.4 313.8 314.5 314.7 314.7 314.5 313.6 312.5 312.7 312.9 313.3 313.6 314.4 314.9 315.5 314.2 312.4 308.8 304.9 302.2 302.2 303.3 306.7 309.5 309.9
348.3 353 356.8 359.2 362.4 367 371.1 372.1 376.8 380.6 384.6 387 388.8 390.8 393.8 396.5 397.2 398.3 399.3 399.9 400.5 400.6 399.7 401 401.5 400.1 398.6 397.1 397.3 398.5 398.8 400 400.5 399.5 398.8 398.3 396.5 395.5 396.6 397.6 399.4 400.2 399.5 399.4 399.7 398.3 396.4 393.1 390.8 387.6 387.5 389 391.5 393.1 394.1 396.5 398.7 399.4 398.4 396.1 392.7 387.3 383 372.5 373.2 382.1 380 387.4 388.4 391.5 394.5 397.2 398.2 397.7 395.9 393.3 389.8 385.7 381.7 376.3 372.4 366.8 361.6 356.9 354.3 352.2 350.4 348.9 347.1 343.5 338.5 332.9 329.7 327.2 325.4 321.1 320.5 322 322.2 322.4 320.9 321.5 321.6 321.4 321.2 320.6 319.9 318 314.5 310.6 306.2 298.1 296.2 295.6 295.7 294.7 295.6 298.3 297 295.9 297.1 301 302.9 305.9 308.2 313.1 315.1 316 317.3 318.6 319.1 321.7 323.8 325.5 326.7 327.7 327.9 327.5 327.3 327.3 326.3 325.2 324 322.9 322.4 321.7 320.3 318.9 316.4 313.8 310.7 307.2 303.3 298.8 292.6 290.3 288.5 288.6 288.7 289.4 289.1 288.5 289.6 293.6 298 300.9 302.8 303.3 304.5 307.1 309.7 310 310.7 311.6 313.2 314.1 314.5 315.9 315.5 315 315.5 314.4 313.6 313.5 313.7 314.6 314.2 314.5 315.4 316.4 315.4 313.6 309.8 305.8 303.5 303.6 304.8 309.5 311.5 311.6
340.1 345.1 350.8 354.9 358.2 362.8 365.2 367.9 375.1 379.5 382.5 384.5 386.2 388 390.9 393.9 395.2 395.8 395.8 397.6 398.4 398.9 399.5 399.7 399.5 399.2 397.8 395.6 395.5 397.6 398.7 398.5 398.5 397.8 397.7 396.5 395.4 395 396.5 398.2 399.4 400.7 400.8 400.9 400 398.5 396.6 393.5 389.8 387.2 388.9 391 392.9 394.4 395.9 398.3 400.6 402 401.1 399.2 397.1 393.4 389.5 383.9 373.8 367.2 376.8 382.3 381.8 387.3 392.9 395.7 396.6 395.9 394 390.5 386.6 382.6 379.5 376.2 371.7 367.6 362.4 355.8 353.9 351.2 349.8 349 346.9 344.6 338.8 333.9 330.8 327.9 325.8 323.3 321 316.4 316.8 317.6 317.6 318.6 319.7 319.8 320 320.4 320 318.5 315.1 307.9 300.5 297.4 296.5 300.1 302.5 301.4 299.2 294.4 293.3 291.9 292 291.6 297.3 301.1 303.4 307.7 310.9 311.1 311.2 312.4 314.7 316.9 321.5 322.8 323.9 325 326.1 326 325.7 326 325.6 324.9 324.2 323.1 322.6 321.6 320 318.2 316.2 314 311.1 307.3 302.9 297.9 292.9 292.4 289.8 289.9 290 289.2 288.9 288.5 287.8 290.6 295.9 298.6 300.6 301.2 303 305.6 308.2 309.6 310.2 311.8 313.4 314.3 315.3 315.7 315.6 315.4 315.5 314.9 314.5 314.3 315.1 315.9 315.4 314.6 315.4 316.5 316.1 314 310.7 306.6 303.8 305 306.8 311.5 312.3 312.9
331.7 336.9 343.3 350.5 354.1 356.4 356.9 368.3 374.3 377.2 380.3 382 383.7 385.4 387.8 390.4 392.3 392.7 392.5 393.6 395.7 397.3 397.9 398.2 398.3 398.1 397.2 395.6 394.9 396.6 396.9 396.9 396.7 397.2 397.2 396.5 394.1 393.7 396.3 398.3 399.5 400.7 400.3 400.4 400.5 399.1 396.9 392.5 388 386.3 389 391.9 393 394.9 397.7 399.6 401.4 403.5 402.3 401.5 400.1 396.9 392.6 387 380.2 371.8 363 364.5 368.1 379.5 389.6 393.2 394.6 393.2 391.1 387 383.2 380.7 377.7 374.6 371.2 367 361.2 354.7 352.3 349.1 348 347.5 346.4 344.1 337.7 332.6 329.5 326.1 324.3 322.7 320.6 318.3 315.1 312.9 313.9 315.7 316.7 316.9 316.6 317.4 317.7 316.9 313.2 303.7 299 298.7 301.2 306.2 305.6 303.8 302.2 299.8 292.5 294.3 292.4 292.7 290 290.1 297.8 302.4 305.7 305.9 306.7 308.3 308.7 312.4 318.1 320.6 321.7 322.5 323.7 323.7 323.8 324.2 324.3 323.6 322.9 322.2 321.5 320.4 319.2 317.4 315.5 313.4 310.2 306.2 302.2 296.1 293.9 293.7 291.5 289.4 288.3 287.6 287.1 285.8 285.2 290.2 294 296.2 298.3 299.1 301.5 304.1 306.7 309.1 310.2 311.7 312.9 314.2 315 315.1 315.6 315.5 315.5 314.5 314.5 315.4 316.9 317.3 316.4 315.5 315.7 315.8 315.3 314.4 311.2 307.7 305.5 305.9 309.9 312.5 313.3 313.6
323.3 328.9 336.4 343.8 346.3 350.4 359.2 365.1 370.1 373.9 377.5 379.7 381.3 383 384.8 386.7 388.9 389.4 389.2 390.8 393 395.2 395.6 396.7 397.1 397 395.9 394.3 394.8 396 395.5 395.4 396.3 396.4 396.4 395.2 393.3 392.1 395.7 397.9 398.7 399.6 400.1 399.9 400.1 399.2 396.9 393.4 388.6 384.8 388.8 392.7 393.9 395.3 398.2 400 401.8 403.2 402.7 401.9 401.4 398.6 394.5 390 384.8 378.6 374.8 364.9 359.6 361.1 381.8 388.5 390.4 389.7 387.2 383.5 380.4 378 375.8 372.9 369.7 365.3 359.5 352.8 349.6 346.4 345.2 344.7 342.7 340.3 334.8 330.2 328.8 324.8 321.8 320.3 318.7 316.9 315.7 313.9 310.8 312.9 313.3 313.6 313.3 312.6 312.8 312.3 309.4 299.4 298.5 300.4 304.4 308.6 308.6 307.2 304.8 302.5 300.9 299.4 296.4 293.9 291.6 291.1 289.7 296.8 300.5 300.9 301 301.9 304.5 309.3 314.5 317.9 318.8 320.5 321.3 321.5 321.7 322 322.1 322.3 321.6 320.9 320.3 319.5 318.2 316.6 314.9 312.8 309.6 305.4 300.2 295.6 291.9 291.2 288.7 287.3 286.4 285.8 284.2 283 284.5 288.7 292.2 294.1 296.4 297.5 300.3 303 305.8 307.9 309.5 310.7 312 313.2 314 313.3 314.4 315 315 314.6 314.6 315.5 316.4 316.6 316.3 316.1 316 314.6 314.1 313 311 308.6 306.8 306.8 310.5 312.9 313.8 313.8
317.4 322.7 329.2 334.4 339.6 350.4 356.6 362 366.6 370 372.8 376.4 378.7 380.8 382.5 384 385.7 386.6 386.4 387.5 389.5 392.8 395.5 395.9 396 395.4 393.8 392 394.6 395.2 395.3 395.2 395.4 394.6 394.1 392.8 392.7 392.6 395 396.5 397.7 399.1 399.6 399.7 399.7 399 396.9 394.1 390.2 384.2 388 392.4 394.2 395 398.7 400.3 402 402.3 402.4 402 401.3 400 396.4 392.5 388.4 381.8 376.1 365.5 366.3 364 364.6 377.8 384.4 384.6 381.7 378.9 377.2 375.4 373.3 369.6 367.3 362.1 356.4 350.8 346.1 343.4 340.1 339.4 338.2 335.2 330.8 325.3 323.5 320.3 317.8 316.5 314.9 314.1 313.4 312.9 309 310.6 310.4 310.2 309 307.5 304.5 301.9 300.8 299.6 303 304.8 308.6 310.1 310.7 309.4 306.9 304.3 302.8 300.9 299.2 297.7 295.8 293.5 292.3 289.1 290.7 294.9 294.7 295.7 300.4 305 310.3 315.3 316.7 318.4 319 319.2 319.4 319.2 319 319.8 320.3 319.6 318.9 318.3 317.3 315.7 314.1 311.5 308.8 304.7 299.5 293.6 290.3 288.4 286.5 285.5 284.6 283.1 281 283.5 285.1 290.2 294.1 296 297.5 299.1 301.2 303 304.6 306.3 307.9 309.5 310.9 312 312.4 312.9 313.1 313.2 313.5 313.8 314.6 315.3 315.1 315.3 315.5 315.3 314.4 313.3 312.3 311.2 310.4 309.1 307.9 308 310.6 312.8 313.3 313.8
309.7 314.6 317.2 327.2 338.8 347.1 353.2 358.8 362.8 366.2 368.4 372.9 374.6 377.9 379.7 380.3 381.7 381.7 383.9 385.8 389.8 393.3 395.6 395.3 394.8 393.2 391.4 390.7 393.8 394.9 395.1 394.3 392.6 392.6 391.2 390.7 391.8 392.4 393.4 395.4 396.6 397.6 398.1 398.7 399.4 398.8 396.7 393.6 388.9 383.9 387.6 392.1 394 396.8 398.6 399.1 400.9 401.3 401.1 400 399.9 398.7 396.2 392.4 388.2 379.2 377.8 376.3 376.3 370.4 355.6 359.4 366.3 371.8 371.6 372.7 371.9 370.8 369.2 366.1 363.1 358.6 353.5 347.3 342.1 338.3 332.7 330.9 330.4 328.6 324.4 320.7 318.6 315.4 315.3 313.3 311.9 311.9 312.3 311.5 309.2 308.8 307.6 306.3 303.8 302.7 301.8 301.7 306 306.3 308.8 310.4 310.9 312.6 313.4 311.5 308.1 304.8 304.1 302.4 300.9 300.1 299.4 298.6 298.1 297.2 292.3 288 289.1 290.4 295.5 301.5 307.1 310.8 313.7 315.2 315.7 315.9 315.6 316.1 316.3 317 317.7 318.2 317.8 317.5 316.4 314.8 312.8 310.1 307.2 303.8 299.2 293.5 289.9 287.2 284.1 282.3 281.9 279.9 279.6 283.2 288.5 292.5 295.4 297.2 298.9 300.6 301.7 303.1 304.6 305.6 307.3 308.6 309.1 310 310.3 311.7 311.4 311.4 311 311.1 311.9 311.1 310.7 310.8 311.5 313.3 312.6 311.8 310.3 309.6 309.5 308.7 308 308.5 310.5 312.9 312.6 313.1
299.2 301.1 312.8 323.1 332.5 341.8 349.1 354.4 358.4 361.7 364.6 368.1 370.9 373.2 374.6 375.6 377.1 378.5 381.4 384.2 388.4 392.4 393.2 393.1 392.5 391.5 389.3 388 391.7 393 392.8 392.9 391.6 390.8 391 390.5 390.9 389.8 392.5 392.1 394.3 395 395.1 395.8 396.7 396.9 395.3 391.8 385.3 382.7 388.2 392 394.1 397 398.6 399.6 399.9 399.3 398.8 398.6 398.5 396.3 394.9 392.5 384 384.5 384.3 382.6 381.4 375.7 366.8 368.9 363.7 349 349.2 355.9 360.7 362.4 362.5 361.3 358.6 355.2 349.8 342.5 335.9 330 326.7 323.7 323.4 321.8 319.8 318.8 317.7 318.8 320 319.7 316.2 311.6 310.3 310.4 309 306.6 306.7 305.1 303.3 303.4 306.8 309.8 311.3 312.8 313.3 313.2 313.5 313.8 314.9 312.2 307.9 305.9 303.8 303.8 303.1 301.8 300.7 299.8 300.8 299.5 296.6 289.2 286.6 288.8 289.1 296 303.2 307.7 310.2 311.4 311.5 311.4 311.8 313 313.5 314.4 315.3 315.9 315.9 315.8 315.3 313.9 311.4 308.8 305.9 301.7 297.5 293.4 289.7 284.5 281.2 279.9 278.2 278.4 280.2 285.3 290.5 294.3 296.6 298.4 300.2 301.9 302.1 303.2 304.1 305.1 306.4 307 307.5 307.8 309.3 310.4 310.2 309.8 308.9 308.7 308.4 307.6 305.9 305.8 305.5 308.1 308.7 309.7 307.7 307.2 307.7 307.7 307.5 308 310.7 313 312.6 312.3
290.5 299.5 307.3 316.9 325.9 335 343.4 349 353.1 356.2 359.2 362.7 365.5 368.1 369.7 372.5 374.7 377.8 380.2 382.9 385.4 388.4 390 390.3 390 389 387.9 384.4 387.9 389.8 389.9 390.1 389.9 390 389.3 386.9 389.5 390.5 391.3 391.3 392 393.3 392.9 393.9 394.3 394.1 392.2 388.5 379.4 382.9 388.4 391.6 394.6 397.1 398.3 399.7 399.3 399.7 398.2 398.4 397.3 396.3 393.2 388 389.6 389.7 388.2 386.6 383.9 374.6 378.7 378.6 374.1 369.9 360.4 351.4 342.8 342.5 348.7 350.7 352.1 346.6 340.4 336.6 330.8 326.7 328 333.9 332.5 329.4 326 325.9 325.1 326.2 325.9 324.3 321.1 317.2 308.5 307.8 306.8 305.7 306.1 304.3 304.2 309.4 312.9 315 316.3 316.2 316.1 316.2 315.8 315.3 315 312.7 307.6 305.2 305 304.9 303.6 302.6 301.5 300.5 300.7 299.2 297.2 293.7 285.6 286.4 288.4 288.9 296.9 303.4 305.6 305.9 305.4 305.7 307.6 309.9 311.4 312.3 312.8 312.6 313.2 313.3 312.6 311.9 309.6 306.9 303.9 300.3 296.3 292 286.8 282 280 278.3 276 277.1 280.3 287.5 293.2 295.8 298.1 299.8 301.4 302.4 302.6 303.4 303.5 304.8 305.1 305.5 305.9 305.6 307.9 309 309.1 308.9 307.6 307.7 307.5 306.1 304.9 304.8 303.8 303.6 305.2 306.8 305.9 305.5 305.4 306.4 307.5 310.4 312.5 313.2 313.3 312.3
291.8 298.6 303.5 311.6 319.6 327.5 335.8 340.6 345.2 348.8 350.5 354.7 358.9 362.4 365.2 368.3 372.6 376.7 378.9 380.1 381.8 384.6 386.3 386.7 387.1 385.9 384.6 381.1 382.8 385.2 387.3 387.8 388.3 388.1 386.9 386.9 388.3 390.9 391.9 391.1 391.8 390.9 390.8 390.9 391.5 390.2 387.5 381.3 378.1 385.7 388.8 393.1 396.4 397.9 399.3 400.2 400.8 400.6 399.8 398.4 397.2 396.4 393.5 389.9 393 393 391.7 388.6 384.4 385.1 384.4 383.6 381.5 378.6 373.5 365.4 357.9 350.9 347.6 340.1 336.2 333.7 332.1 331.3 334.4 338.8 343.7 342.4 339.5 335.2 332.1 332.7 332.1 331.1 330.1 327.3 324.1 320.9 318 316.4 314 309.8 308.5 311.1 312 313.4 315.9 317.4 318.6 319 318.7 317.5 316.6 315.4 313.3 312.1 306.8 306.7 306.4 305.2 304.1 303.1 302 301 299.2 297.2 294.9 291.8 285.6 285.5 285.9 286.7 288.1 295.6 298.2 297.5 299.2 300.1 303.2 306.3 309 309.1 307.5 308.8 309.5 310.1 309.6 308.8 306.9 304.4 301.4 298.3 294.7 289.7 284.5 281 279.4 277.7 275.1 276.7 283.8 290.4 294.3 296.8 299.1 301 301.7 302.5 302.3 302.6 303.4 304 304.2 304.1 302.8 305.5 307.4 308 308.1 308.3 307.8 307.3 306.3 305.2 303.9 303.4 302.7 302.1 303.8 303.8 304.2 305.1 306.4 308 310.5 312.7 313.7 313.4 312.8 311.6
287.3 296.6 302.6 309 315 319.3 327.2 332.5 337 339.4 343.2 346.9 350.8 353.5 358.1 363.9 368.6 372.8 375.6 376.7 378.1 380.3 381.6 382.6 383.2 381.8 380.4 378.7 379.9 381.2 383.4 385.4 386.1 386.4 384.6 385 387.5 389.8 391.7 391.6 390.8 389.1 388.2 387.8 386.1 383 377.6 374.7 380.5 385.9 390.3 393.5 397.1 398.8 400.2 401.5 401.7 401.3 400.1 398.7 396.8 396 395.1 394.4 395.4 395.1 392.4 390.6 389.6 389 387.4 386.6 385 382 377.8 375.4 373.1 367.1 363 355.9 345.2 349.7 350.1 346.6 344.4 351.4 351.7 350.2 346.5 341.9 338.3 337.6 336.9 334.9 332.8 329.7 326.4 323 319.8 318.4 312.4 312.6 312 311.8 313.9 316.5 318.3 319.4 320.6 321.5 320.5 319 318.1 316.5 315.1 313.6 310.2 308.7 306.9 305.1 303.5 302.4 301.4 300 297.2 293.8 290 288.4 287.7 285.6 285 285.1 284.4 285.2 285.1 285.1 286.1 290.9 296.7 302 304.3 305.7 303.6 305.3 307.2 306.9 306.3 305.1 302.5 300.4 298.3 295.5 291.1 286.7 284.1 281.4 277.5 275.5 274.4 277.7 287.1 291.4 294.2 297 299.7 301.8 302.5 301.9 300.6 300.6 301.1 302.4 302.8 302.5 301.9 302.4 305.2 305.6 305.5 306 306.6 305.9 304.7 303.9 303 299.8 302.8 303.4 303.9 305.2 305.7 306.5 307.9 310.4 312.2 312.9 313.2 313.2 311.6 310
280.7 290.3 299.2 306 310.9 314 318.7 324.5 327.9 328.3 329.8 337.5 343.5 346.1 350.5 358.7 363.9 367.8 370.6 372.3 373 375.4 376.6 378.5 379 379.1 378.6 376.8 378.1 379 380.7 383.1 384.1 384.3 383.1 383.2 385.8 387.8 389.7 389.4 388.4 386.9 384.9 383.1 377.4 370.8 371.9 378.8 385.8 387.9 391.5 392.5 397.1 399.8 401 401.9 402.3 402.1 400.8 399.3 397.9 396.5 396.8 397.2 397.5 395.4 395.5 394 392.9 391.8 390.3 388.6 386.5 384.4 382 379.6 377.6 375.6 372.5 365.9 350.7 360.2 359.5 355.4 356.6 358.2 357.6 355.4 351.6 346.2 342.7 341.1 339.3 337.2 334.3 330.2 327.2 322.5 319.6 315.5 316.2 317 317.7 314.9 318.3 319 320.6 321.7 322.8 323.5 323 321.1 318.4 315.3 314.6 312.8 310.6 308.5 306.5 304.3 302.9 301.8 299.7 298.6 295.7 292.2 288.3 287.4 289 288.5 284.6 284.5 283.8 283 287.2 288 283.1 281.1 286.1 296.2 299.8 300.8 301 302.9 304.6 304.8 304.2 302.2 300.3 298.4 296.4 294 289.8 287.3 284.8 279.2 276.5 275.3 272.5 279.9 286.9 291.2 293.6 295.6 298.6 301.5 302 302.1 301.8 300.6 300.6 301 301.4 300.5 299.7 298.6 300.5 302.1 303 303.3 304.8 304.5 303.1 301.5 299.2 303 304.5 305.3 306.8 308.1 308.4 308.6 310.2 311.7 312.1 311.9 312.1 311.9 309.9 308.3
298.4 296.9 291.9 298.3 303.3 306.8 308.8 310.8 312.8 317.4 321.5 323.7 329 333 337.8 342.1 350.3 356.6 363.8 365.5 368 370 371.9 373.8 375 375.5 374.7 375.2 376.1 376 376.4 378.7 381.9 382.3 381.1 379.4 382.4 385.3 386.8 386.6 385.8 384.3 381.9 373.7 367.5 370.9 381.2 386.1 388.3 390.4 391.8 393.9 397.4 400 401.8 402.2 401.7 402.7 401 399.3 398.2 397.1 398.2 398.9 398.6 398.2 397.4 395.9 394.3 393.7 392.4 389.9 388.6 386.9 384.5 382.2 380.1 378.4 375 365.2 363.6 365.5 364 362.1 363.9 365.2 361.5 358.8 353.6 349.3 345.7 343.2 339.7 336.8 332.4 328.9 324.6 321.2 317.9 317.7 319.8 320.7 321.7 319.7 322 321.5 322.8 324 324.8 325.2 325.2 324 319.9 315.7 314.9 314 310.9 307 305.5 302.4 301.3 299.8 297.3 295.8 294 290.6 288.1 291.3 293.3 292.3 291.5 289.4 288.8 293.7 295.1 294.8 294.1 287.5 280.2 286.5 294.1 296.6 297 299.2 301.4 301.7 301.9 300.1 298.1 296.2 294.1 292.8 291.1 288.6 285.7 281.9 277 273.9 272.4 279.7 285.9 289.7 291.8 293.8 296.8 300 300.9 302 300.6 300.6 300.6 301.1 300.6 299.2 298.4 297.3 295.9 297.4 299.3 300.6 301.6 301.9 300.1 297.1 301.2 305 307.1 308.3 309 309.9 310.1 311 312.4 312.3 311.9 311.7 311.1 310.8 308.6 306.6
305 305.8 304.9 302.5 300.6 306.5 310.2 318.6 322.8 326.6 333.7 338.2 335.8 340.7 350.7 355.6 359.2 360.7 359 358.5 363.8 362.2 361.9 363.3 366.9 367.1 370.9 370.1 371.4 374.1 375.2 377.1 378.1 378.9 378.4 373.5 378.1 380 381.8 383.2 382.7 381.4 377.7 367 367.8 377.7 383.9 387.5 390 391.8 393.5 395.8 398.8 400.3 402 402.6 402.5 403.1 402.1 399.7 399.3 399.7 400.3 400 399.1 398.3 398 397.7 395.8 395.7 393.1 391.7 388.9 388.3 386.5 384.3 382.1 379.1 372.8 361 372.1 370.1 368.1 367.9 370.6 369.4 367.3 362.6 355.8 351 346.7 343.4 339.5 335.6 331.6 328.5 324.6 320.4 319.8 320.3 323.1 323.9 324.2 322.8 321 323.3 324.5 326 326.7 327.1 326.8 326.1 321.6 316.5 315.9 314.5 310.6 307 304.1 301 299.6 297.9 295 293.5 291.6 289.7 291 294.4 298 300 302 296.1 297.2 297.8 298.5 298.4 296.9 294.4 290.4 284.2 281.3 288.8 291.3 294.7 297.1 297.8 298.6 297.7 295.7 294 292.7 292 291 289.1 286 281.3 277.8 274.3 271.7 276.8 284.4 287.4 289.6 291.7 294.3 297.9 299.6 301 301.6 301.9 301.8 300.6 299.5 298.4 297 296.1 293.7 294.9 295.6 296.5 296.3 296 295.3 297.5 302.7 306 308.1 309.3 310 310.7 311.4 312.4 312.9 312.6 311.3 310.5 309.9 309.4 307.3 305.1
307.9 308.8 308.9 311.1 313 315.1 318.5 321.4 326.4 330.2 337.5 342.8 348.1 353.1 358.3 362.8 365.4 367.5 369 370.1 370.5 370.8 372.2 372.6 373.7 374.4 374.7 374.8 374.8 375.1 376.2 376.7 376.7 376.8 375.6 371 373.7 375.7 376.9 377.6 377.4 376.4 371.5 361.8 372.5 379.5 384.2 387.4 389.9 392.5 394.7 397.1 399.1 400.4 401.7 402.9 402.6 402.8 403.2 401.4 400.1 400.8 401.4 401.1 399.5 398.8 398.9 398.4 397.6 396.4 394.1 392.5 390.5 390 388.1 386.1 382.6 375.5 366.3 375 375.9 374.7 372 373.3 374.5 373.8 371.7 369 363 354.3 349.7 345 339.6 333.6 330.1 327 323.1 320.4 320.7 323.6 325.7 326.4 328.4 326.3 323 324.6 326 328.1 328.9 329.4 328.1 327.1 323.2 318.3 316.3 313.9 309.2 307 303.8 298.6 296.9 295.9 292.3 291 289.4 289 292.4 294 297 300.2 300.2 300.3 300.8 301.2 300.9 300.3 300.3 297.9 294.8 289.2 282.1 276.9 285.2 291.2 293.2 292.9 293.6 295.5 294.1 292.7 291.9 291.3 290.7 288.6 284.3 280.5 277.9 273.9 270.2 274.5 281 284.6 287.1 289.2 291.5 294.7 297 298.7 300.5 300.4 299.9 298.5 297.1 296.2 295.4 294.2 292.8 292.5 293 293.3 293.2 293.5 293.3 297.6 303.7 306.2 308.3 308.8 309.4 310.4 311.6 312.5 312.2 310.4 309.1 307.9 307.6 307.1 305.7 303.9
310.6 311.8 312.6 314.1 315.4 317.2 320.3 324.3 328.7 333.7 340.5 345.1 351.5 356.9 362.1 365.3 368.5 370.3 371.7 373.2 374.7 375.2 375.7 376.2 376.5 376.8 377.2 376.9 376.8 376.6 376.6 377 377 376.4 374.3 368.3 366.7 368.8 370 370.5 369.1 367.8 360.7 361.5 369.3 378.1 381.4 386.3 389.7 391.4 393.4 397 399.3 400.7 401.8 402.8 403.2 402.6 402.9 402.8 401.1 402.3 402.2 401.9 399.9 399.5 399.1 398.5 398.5 396.5 394.3 392.5 391.2 390 388.4 386.8 382 372.3 376.7 379 378.2 377.3 376.3 376 376.6 376.1 374.7 371.2 365.9 361.4 355 349.1 342.3 335.1 331.4 328.9 325.6 321.5 323.1 325.5 327.9 329.7 332.3 332.6 333.4 330.4 328.3 331.6 331.1 331.2 329.6 328 323.9 320.6 318.3 314.8 307.4 307.2 303.5 298.5 294.8 292.2 292.8 294.7 291.8 293.1 293 294.4 297.6 299.3 300.4 301.7 302.3 302.7 302.3 301.8 301.4 300 297 292.3 286.6 278.7 277.9 285.8 289.2 289.6 289.7 291.9 292.7 291.9 291.2 290.4 289 285 281.2 279.1 276.6 274.1 270.6 271.8 277.1 280.9 284.4 286.8 289.1 291.4 293.2 296.2 298 298.1 296.7 295.6 294.6 294.5 294.4 292.4 290.8 288.9 290.3 291.7 290.6 293.1 295.2 299.7 304 306.1 307.6 308.2 308.8 310 311.2 311.5 310 307.7 307 305.5 305.6 304.8 304 302.9
311.7 312.5 314.2 316.9 318.2 320.7 323.4 327.3 332.3 337.9 344.3 349.4 354.7 359.8 364.7 367.8 370.5 373 374.5 376.1 376.4 377.5 377.9 377.8 377.9 377.6 377.6 377.5 377.2 376.7 376.7 377.4 377.3 375.9 374 369.5 364.4 361.8 362.6 363.2 361.2 354.8 360.7 368.3 373.9 377.1 380.6 384.4 388.9 392.7 395.1 396.7 398.6 401.1 402.4 403 403.8 403.5 403.7 403.5 402.1 403.3 402.9 402.6 401.3 400.4 400.1 399.9 399.1 396.9 395.4 393.3 391 389.1 386.9 384.9 376.8 382.5 383 382 381 380 379.1 378.1 377.9 377.4 375.3 373.8 370.1 365.1 358.3 351.6 344.4 340 336 332.2 327.1 324.4 326.1 328.8 330.3 333.4 336.2 337.3 336.9 335 335.8 333.9 332.7 331.4 328.8 327.5 323.8 318.8 316.8 310.9 307.2 306.5 305 301.9 296.3 296.6 296.9 299.1 297.4 298.5 298.3 298 300.6 302 301.6 302.7 303 303.7 302.8 301 300.8 298.9 296.1 292.8 288.6 282.8 276.9 279.8 286 286.9 286.2 287.5 289.5 290.2 289.4 288.3 286.1 279.9 276 275.4 274.2 273 270.6 268.7 273.1 277.2 280.3 282.5 284.8 287.3 288.6 291.8 293.7 294.6 293.3 292.5 292.3 290.8 291.4 289.7 288.4 286.5 288 291.3 292.4 293 296.6 300.4 303.1 305.6 306.9 307.5 308.4 309.5 309.4 309 307.6 307 305.6 304.6 303.8 303.9 302.9 301.5
312.3 314.1 316.5 319.7 322 324.5 327.3 332.2 337 343.6 348.6 353 357.5 362 366.4 369 371.6 374.1 376.2 377.3 377.5 378.6 378.7 378.6 378.1 378 377.9 377.8 377.6 376.9 377 377.6 376.9 375.5 373.8 370.8 367.6 365.5 361.2 353.7 352.5 356.1 364.1 369.7 374.9 379 381 385.5 389.7 393 394.6 397.5 399.2 400.4 402.9 403.8 403.1 403.4 404 403.2 403.9 404 402.8 403.4 402.4 401.9 401 399.5 399.1 397.6 396 393.9 391.6 389.1 385.5 381.7 383 386.6 386.1 384.8 383.8 382.8 381.9 380.4 379.6 377.9 376.2 374.8 372.4 368.4 361.5 356 349.4 343.1 338.9 335.5 330.3 328.8 331.2 332 334.6 337.6 340 340.8 339.2 340.4 338.2 336.1 334.4 330.7 327 325.9 322 320.2 318.1 312.8 310.3 307.3 306.2 304 302.4 300.6 299.4 301.8 301.3 301.2 301.8 302.7 304 302.9 301.6 301 300.6 303 300.7 299.6 298.4 296.7 295 292.8 289.7 286.5 280.1 273.9 277.9 280.6 281.6 282.3 285 287.1 286.3 284.3 281.3 274.4 272.2 271 270.2 269.7 268.9 264.8 268.5 272.4 276 278.2 281.3 283 284.6 287.4 289.3 290.4 289.6 288.9 288.5 286.5 286.9 285.3 285 287.6 289 290.8 291.1 293 296.4 299.3 301.8 304.3 306.1 306.9 307.4 306.9 307 307.4 307.2 306.4 305.7 304.2 302 298 301 299.3
312.9 316.4 319.4 322.5 325.4 328.4 332.1 337.9 343 347.5 351.6 354.3 357.6 362 366.4 369.5 371.9 374.6 376.2 377 377.9 378.7 378.5 377.4 377.7 377.9 378.2 378.1 377.7 377 376.9 377.1 376.6 375.6 373.3 370.7 369.2 367.7 366.7 362.6 351.7 353.9 364.4 370.4 375.5 379.5 381.4 386.1 390.6 394.4 395.9 398.7 400.3 402 403.4 403.1 402.4 403.3 403.4 403 404 403.4 403.6 404.2 403.1 402.3 401.9 400.3 398.9 397.4 395.9 394.3 392.2 388.7 383.9 382.3 386.4 388.2 388.4 387.4 386.6 385.7 383.9 382.7 381.6 379.5 377.7 375.9 374.1 370.2 366.4 360.3 352.9 346.1 340.7 338.6 333.3 333.9 335.4 336.3 339 340.9 343.5 343.6 343.4 344.4 341.7 335.7 333.5 331.2 329.5 327.3 322.8 322.8 321.8 317.5 314.8 313.5 309.1 305.2 304.3 302.1 302.7 304.5 305.7 308.2 309.5 307.6 307.3 307.9 303.7 301 300.4 300 299.6 298.4 298.1 295.8 293.9 292.2 290.7 287.7 283.6 277.8 273.7 274 273.9 275.4 277.2 279.2 279.5 277.9 274.3 269.8 266.1 265.3 267.5 267.2 266 263 265.4 266.7 270 273.3 277.5 279.8 281.1 282.6 282.6 282.5 282.5 281.7 283 282.3 281 280.3 284.4 286.7 288.2 288.7 289.8 292.8 295.7 297.6 300.1 302.5 304.5 306 306.6 307.1 307.5 307.9 307.4 306.5 305.7 303.8 297.4 297.4 297.4 298.5
314 316.5 319.9 323.5 327.4 331.2 335.4 340.2 344.8 348.8 352 355.1 358.4 361.8 365.7 368.9 372 373.9 375.1 376 376.9 377.6 376.7 377 377.1 377 377.4 377.7 377.4 376.7 376.1 376.1 374.8 373.7 372.4 371.1 369.2 369 368 364.4 353.8 349.9 363 371 376 379.4 382.2 386.3 390.3 394.4 397.6 399.5 400.4 402 402.3 403.2 402.4 403.4 403.7 405 405.9 405.2 404 405 404.1 403.2 401.3 400.2 398.7 396.6 395.2 393.7 391 387.2 385.4 386.6 388.6 388.8 389.3 389.8 388.8 387.6 385.8 384.8 383.6 381.8 380.1 378.4 376 372.7 368.5 362.6 355.5 348.8 343.1 338.8 336.9 338.3 340.1 340.8 342.3 344.4 345.8 346.2 347.1 348.2 346.5 344.3 342.8 338.4 336.1 329.6 326.3 327 325.7 322.8 318.9 313.7 311.3 309.3 307.2 305.7 306.4 309.3 311.5 313.6 314.8 315.5 316 315.6 307.1 302.4 300.2 298.7 297.2 296 297.4 294.9 292.9 290 290 289.4 287.3 285.7 281 271.7 271.2 269.7 268 267.7 267 269.5 269.4 266.9 264.9 263.7 263.4 264.4 264.1 264 264 264.5 265.6 268.3 273.4 276.4 277.9 277.8 277.2 276.8 275.8 275.8 276.7 278.4 276.9 280.4 284.2 284.6 286.5 289.4 290.5 293.8 295.9 297.7 298.3 300.7 303 304.4 305.8 306.4 306.9 306.6 306.4 306 305.3 301.7 297.4 297.4 297.4 299.6
314 316.1 318.9 322.3 326.4 332 337.3 341.6 345.3 348.5 352.8 356.7 360.5 362.6 365 368.2 371.2 372.8 374.1 375 375.9 376.1 376.2 376.2 375.9 376.1 376.3 376.5 376.3 376 375.6 374.9 374.4 373.3 371.9 370.6 369.4 368.1 367.2 363.7 353.4 347.1 363.1 371.1 376.1 380 383.6 387.2 390.4 393.8 397.5 400.4 401.4 402.5 403.2 402.6 404.1 404.1 404.7 405.3 405 405.8 405.2 405 404.3 402.1 399.9 399.4 397.7 395.4 393.1 391.6 390.4 389.2 388.9 388.9 389.3 388.9 389.1 390.3 389.6 389 387.9 386.7 385.5 384.1 382.6 380.5 378.1 374.6 370.1 364.4 357 351.2 345 342.2 340.7 343.8 345.7 346.9 348.8 350.3 349.7 349.9 350.6 350.9 349.8 348.7 347.2 344 339.9 334.2 330.2 331.4 329 325 318.7 317.6 316.3 313.8 311.6 310.7 310.8 313.3 316.5 318.3 319.7 320 320.7 317.9 309.2 303.3 301.2 300.1 298.8 294.4 294.1 293.6 291.7 291 290.9 290.9 288.8 286.7 282.8 277.1 273.1 270.3 269.1 268.6 268.4 266 265.7 265.4 266.7 264 263.4 264 263.1 262.3 262.2 262.5 263.2 265.2 269.1 272.1 274.9 274.1 273.3 272.9 272.7 272.4 273.1 275.2 278.6 284.1 286.9 288.1 288.7 290.6 292.9 295 296.9 298.1 298.2 298.9 301.2 302.7 304.2 305.5 305.8 306.3 306.3 305.8 304.1 298.7 297.4 297.4 297.4 301.5
314.2 316.6 318.6 322 325.7 331.5 336.7 342.1 344.8 348.1 352.7 357.3 361.1 363.5 365.9 367.1 368.9 370.5 371.9 372.8 373.9 374.7 374.7 374.6 374.6 374.6 374.8 374.9 374.8 374.5 374.1 373.7 373.1 372.1 370.9 369.4 367.7 367 365 357.9 343 350 362.9 370 375.1 379.4 382.9 386.1 389.5 392.9 396.7 399.6 401.3 402.2 401.8 403 403.6 404 404 404.8 405.2 406.1 405.3 405.4 404.1 402.5 401.4 398.8 398.3 396.6 395.2 392.7 392 390.6 390.4 389.9 389.7 389 389.2 389.9 389.5 389 388.6 388 386.9 385.6 384 382.5 379.9 376.2 371.3 365.5 356.5 350.6 346.1 346.7 347 347.2 349.6 352.4 354.2 354.9 355.9 355.3 355.2 353.1 352.1 351 349.5 346.7 342.7 337.8 334.6 336.4 334.2 331.2 327 323.5 320.5 319 318.2 316.4 316 318.1 321.1 323.6 324.3 324.4 323.5 320.1 311.5 304.1 302 300.9 299.7 297.7 296 294.9 293.3 292.2 292.2 291.9 289.8 288.3 283.9 281.2 280.1 278.1 276.5 274.6 271.1 270 269.9 271.2 270.1 269.4 262.8 262.3 260.2 260 259.7 259.3 260.4 262.9 266.4 269.3 271.3 271.7 270.8 270.3 268.5 272.9 275.8 276.5 280.6 285.7 287.5 288.4 289 292 294.2 296.1 297.2 297.6 297.5 298.4 299.5 300.8 302.3 303.8 304.3 304.8 305.3 305 303.4 297.5 297.4 297.4 297.4 304.7
314.1 316.7 318.5 320.5 323.7 329.7 335.1 341.3 344.8 347.8 352.4 356.6 361.7 363.9 365.5 366 366.4 367.9 369.3 370.3 371.8 373.2 373.2 373.2 373.3 372.9 373 373.2 373.2 372.8 372.4 371.7 371.6 370.6 369.2 367.8 366 364.8 361 345.7 341.5 355.8 363.4 368.1 373.7 378.3 381.3 385.2 388.6 392.2 395.3 397.9 399.4 401.8 402.1 403.6 404.1 403.9 403.8 404 405.3 405.2 406.1 405.1 403.8 402.8 402.2 400.5 399.1 398.4 397 395.7 394.5 393.2 392 391.6 390.3 389.3 388.9 388.7 388.3 388.2 388.3 388.1 387.4 386.7 385.2 383.8 381.3 377.8 372.9 367.5 360.3 354.3 352.5 351.3 351.7 351.9 353.6 356.3 359 360 359.9 359.5 358.4 356 353.9 352.8 351.2 348.6 344.4 341 338.6 339.6 338.1 335.6 333.8 331.2 328 326.4 325.2 324.5 324 325.8 327 328.1 328.4 328.4 326 321.6 313.9 305.8 302.4 301.2 300 298.5 296.8 296.6 294.8 294 294 294.3 292.5 290.1 287.5 283.7 282.6 281.6 279.4 277.3 276.3 275.7 275.1 274.4 274.3 273.7 272 271 269.7 266.8 265.7 260.2 258.6 260.7 263.8 265.8 267.4 268.1 268.2 266.9 273.4 274.7 276.6 277.8 280.3 284.8 287.2 288.3 290 293.2 295.1 296.2 297.2 296.7 296.5 297.1 298.2 299.3 300.4 301.9 302.5 303.4 303.9 304.1 303.1 297.4 297.4 297.4 302.9 305.9
314 316 318.1 320.3 323.9 327.5 333.8 340.1 344 347.7 351.1 355.2 360.5 362.8 364.5 364 364.5 365.7 366.8 368.1 369.6 371 371.8 371.8 372 371.5 371.3 371.4 371.5 371.2 370.7 369.6 369.8 368 367 365.8 364.4 361.8 356.8 340.7 342.5 356.6 362.3 365.6 370.6 375.5 379 383.1 387.3 390.5 393.5 394.9 398.5 400.8 401.7 402 403.3 404.1 404.8 404.7 405.2 406.1 406.9 406 404.9 402.8 403 401.7 400.1 399.4 398.2 397 395.3 393.6 393.1 391.9 390.5 389 388.6 387.9 387.6 387.4 387.5 387.7 387.4 386.8 385.7 384.3 382.2 379.1 375 370.5 364.3 359.4 357.9 356.8 357.4 357.8 358.2 360.2 362.2 363.4 363.2 362.6 361.5 358.9 355.9 354.6 353.8 352.4 349.9 346.2 344.6 343.4 342.2 340.1 339.2 337.5 334.7 332.1 331.2 331.2 331.2 332.5 333 331.8 331.3 330 327.9 322.3 314.5 306.7 303.5 301 299.8 298.2 296.4 296 296.1 295.4 295.7 295.4 294.9 292.5 289.7 286.2 285.1 284.2 282.4 280.7 279.7 279.6 278.9 277 276.9 276 274.8 275.2 275.2 271.2 269.1 263.2 259.5 261.4 261.8 263.1 263.6 264.2 265.2 271.2 274.8 276.2 277.4 278.6 279.8 283.7 286.2 289 290.7 294.1 295.2 296.3 296.6 296.1 294.4 295.8 296.9 297.9 299 300 301.1 302 302.8 303.2 302.1 297.4 297.4 297.4 303.3 305.6
313.9 315.8 317.9 319.8 322.3 325.7 333.1 339.2 342.8 345.9 347.8 350.9 355.4 359.7 360.4 361.7 361.8 363 364.3 366 367.4 368.8 370.3 370.3 370.6 370.6 369.5 369.7 369.8 369.5 369.1 368.1 367.4 365.6 364.4 363.5 362.7 360.7 355.2 335 338.9 354.6 358.9 362.6 366.2 370.9 375.6 379 383.5 387.8 392 393.7 397.6 398.8 400.6 402.9 402.9 403.7 404.7 404.8 405.9 405.8 407 406.1 406.2 404.9 404 402.9 401.5 399.6 398.2 397.3 396.2 394.4 393.2 392.2 390.7 388.6 387.6 385.3 385.6 384.7 385 386 386.2 386.1 385.2 383.5 381.8 379.2 375.8 373.3 369.2 366 363.8 362.3 362 361.2 361.2 363.2 364.3 364.9 365.4 364.9 363.4 361.3 358.8 356.8 355.8 354.8 353.7 351.4 348.3 347.1 346.5 345.8 344.5 342.6 339.8 337.3 336 337 337.5 337.7 337.9 336.8 333.9 331.4 327.8 321.9 315.2 308.1 303.7 301.3 299.8 297.4 295.8 295.2 296.9 298.1 297.3 296.4 296 294.8 291.9 288.7 287.6 286.6 285.4 283.7 282.9 283.5 282.4 279.5 279.3 278.5 279.2 281.7 280 275.8 271.4 267.4 257.5 259.4 260.5 261 260.4 262.7 267 271.1 274.8 277 278.3 279.3 280.3 282 284.5 287.3 289.9 293.2 295.1 296 296 295.1 294.1 294 295 296 297.1 298.3 299.5 300.4 301.1 301.7 299.8 297.4 297.4 297.4 302.9 304.7
313.9 315.8 317.6 319.4 321.1 323.8 330.7 337.1 340.5 342.7 344.5 347.8 351.1 354.2 355.6 357.2 358.3 358.8 361.2 363.4 365.2 366.7 368.1 368.9 369.3 368.3 367.9 368.5 368.1 367.9 366.7 365.3 363.8 362.9 361.4 360.2 359.3 358.5 355.8 340.6 337.9 351.6 356.4 359.9 363.9 366.5 371.5 375.3 379.7 385.7 390 392.5 395.7 398.5 400.4 401.3 403.8 404.6 404.6 404.3 406 406 406.3 406.2 406.4 405.9 404.7 403.4 401.9 398.5 398.4 397 395.8 393.5 392.7 390.7 390.7 388.4 387.4 386.7 386.3 384.8 383.3 384.3 384.3 384.5 384.1 382.8 380.2 379.1 376.8 374.2 372.6 371.2 368.8 367 365.6 364.7 364 364.7 365.7 365.8 365.8 365.1 364.2 362.4 360.6 358.8 357.7 356.6 355.4 353.9 352.1 350.9 350.6 350 348.8 347.7 345.3 342.8 340.8 340.4 340.6 341 341.3 339.2 335.9 332.2 327.2 322.2 314.2 308.2 305.5 303.1 300.6 297.7 294.2 294.3 295.6 296.8 296.8 296.3 295.8 294.6 292 288.8 288.7 288.5 287.9 286.8 286.2 285.8 284.3 282.6 281.7 281.7 284 285.1 282.5 279.2 274.5 269.7 260.4 256.8 258.1 259.4 258 261.9 265.7 269.6 273.4 276 277.5 278.7 279.8 281.2 282.8 285.4 288.4 292.6 294.9 295.2 294.7 294 292.6 291.6 293.2 294.1 295.3 296.5 297.7 298.8 300.1 301.4 302.5 300.4 301 299.3 303 303.5
313 315.6 317.1 318.3 320.7 322.5 328.3 334.1 337.4 339.5 340.9 344.2 347.6 350.4 352.3 353 352.9 353.1 355.5 358.1 361.9 364.1 365.6 366.3 366.1 365.5 364.6 366.7 366.7 365.5 364 362.6 360.6 359.6 358.1 355.5 354.8 354.9 353.9 342.9 331.5 350.8 355.6 358.2 359.9 361.2 366.6 372.2 376.7 383 387.9 392.4 394.9 397.4 399.3 401.3 402.4 404.1 404.2 404.8 405.6 407.2 406.4 406.7 407.1 406.6 405.3 403.9 400.9 400.4 399.4 397.4 395.4 392.5 392.2 391.5 390.6 388.9 387.8 386.9 386.5 384.9 381.7 381.1 381.2 382.3 382.1 381.3 380.1 378.2 376.2 376.1 374.8 373.2 371.2 369.2 368.1 367.1 366.4 366.4 365.2 365 365.3 365 364 362.8 361.7 359.9 358.8 357.8 356.5 355.1 353.5 353.4 353.1 352.8 352.7 351.6 349.5 347.1 344.8 343 343.1 342.4 342.3 340.2 337.3 333.1 328 321.8 313.8 308.3 305.7 302.6 300.6 297 293.3 293.1 290.4 291.3 293.6 293.4 293.1 292 290.5 287.7 289.5 289.3 289 288.7 287.3 287 285.5 284.1 283.5 285.2 286.5 286.4 283.9 279.8 276.4 272.3 267.8 260.7 255.2 256.5 257.1 260.5 263.7 267.5 271.7 274.6 276.6 277.7 278.5 279.9 281.3 283 286 291.1 293.9 293.5 293.3 292.9 290.9 289.4 290.1 292.4 293.6 294.8 296.3 298.1 300.6 302.4 303.6 303.3 302.2 301.9 302 302.8
311.4 314.9 316 317 318.2 320.8 325 330.7 334.2 336.4 337.3 339.4 343.2 346.4 348.5 348.8 348.9 349 350.5 354.1 358.1 360.5 362.4 363.2 362.9 362.8 363.1 364.7 364.8 363.1 360.3 359.2 357.4 355.4 352.5 349.4 349.8 349.3 349.6 346.1 324.3 346.6 352.3 351.9 348.1 349.8 359.5 368.2 373.7 379.3 386.5 391.2 394.1 396.8 399.5 400.5 402.4 403.3 404.9 405.2 405.6 407.4 407.7 407.1 407.8 406.9 405.4 403.8 401.6 399.9 399.5 398.3 395.8 394.3 392.7 390.8 390.3 389.4 388.3 387.4 385.9 384 382.1 379.3 377.8 379.1 379.1 379 378.1 376.8 376.3 375.7 375.1 373.6 371.2 369.2 368.2 367.1 366.9 365.9 364.7 363.9 363.7 363.5 362.7 362.3 361.3 360 359.5 358.7 357.2 355.6 353.9 354.8 354.7 354.5 354.5 354.7 352.9 349.8 347.5 345 343.6 342.9 341.8 339.9 336 331.5 326.8 320.7 314.9 307.8 304 300.9 298 295.6 294.3 294.1 292.6 291 289.8 289.8 288.7 289.8 286.4 286.8 288.8 289.5 288.9 288.2 286.6 285.9 285.1 284.2 284.9 285.5 286 285 283.3 280.5 277.1 273.5 269.9 266.9 264.3 254.7 254.8 257.4 260.9 265.3 269.7 272.7 275.4 276.2 277 278.1 279.4 280.6 283.7 287.3 290.1 291.5 291.2 291 289.7 288 288 290.6 291.8 293.5 295.3 296.7 298.9 301.4 302.4 302.4 301.8 301.8 301.7 302
309.6 312.9 314.7 315.8 316.8 318.1 322.8 327.8 330.9 332.9 333.6 334.2 337.3 340.7 343.5 344.4 343.6 343.8 346.7 350.4 353.9 356.7 358.3 358.9 359.1 359.6 361.2 362 361.5 359.8 358.1 356 351.7 350.8 347.9 344.6 343.7 342.4 344 339.2 321.2 339.5 344.4 340.8 353.8 362.5 365.3 369.2 374 379.5 386.2 391.2 394.6 398 399.9 401.2 403.1 404.3 405.4 405.1 406.3 407.9 408.3 408.2 407.9 406.9 405 402.7 402.5 401.6 400.4 399.2 396.8 395.6 394 392 391.1 390.4 389.4 388.4 386.7 385.3 382.6 380.2 377.9 374.6 374.3 375.6 375.3 375.2 375.4 375.2 374.3 372.4 370.5 369.3 368.2 367.4 367 365.8 364.4 364 362.7 361.9 361.2 361.1 360.3 359 357.8 358.1 357 356 354.4 355.3 356.3 356.1 355.9 355.1 353.5 350.7 347.6 345 344 342.2 340 336.9 332.8 329.2 325.1 319.5 313 307.9 304 301.4 300.4 300.5 299 297.4 297.4 294.9 291.7 288.3 284.6 285.6 286.1 283.8 286.4 288.5 287.6 286.6 285.5 284.6 283.8 283 282.7 283 283.8 283.3 281.1 278.5 275.7 272.8 270.3 268.2 266 263.4 261 254.1 257.8 263.2 267.7 270.7 273.3 274.6 275.6 276.6 277.6 278.5 280 282.9 285.8 288.2 289.2 288.9 288.6 286.5 287.1 288.8 289.8 290.8 291.7 293.1 296.8 298.9 300.6 300.9 301 301.1 301.2 301.4
308 311.3 312.8 313.8 314.8 316.5 318.5 322.9 326.7 328.7 329.2 328.8 329.7 332.3 335.7 337.2 336 337.1 344.2 345.3 350.2 353.1 354.6 356.4 358.1 357.6 358.3 359.2 359.1 357.9 356 354.3 350.6 344.3 344.4 342.5 336.9 335.1 336.8 320.8 321.5 328.6 339 354.1 361.4 365.5 368.3 371.2 373.5 378.5 385.4 390.1 394.6 397.6 399.9 401.9 403.1 404.1 405.1 405.5 405.9 407.3 408.6 408.3 407.7 406.9 404.9 403.3 403.6 402 400.9 399.8 398.4 396.8 394.9 392.8 391.7 391.4 390.2 388.9 387 385.7 383.8 381.5 378.8 375.9 370.6 370.8 372.2 372.9 373 372.6 371.5 370.1 368.6 368.4 367.9 368.1 367.6 366.8 365.7 363.9 362.8 362.1 361.4 360.3 359.3 358.2 357.7 356.3 353.6 354.2 354.9 354.7 355 355 354.9 354 352.7 350.2 347.2 345.2 343.4 340.9 337.8 333.9 330.8 327.8 323.2 317.2 311.5 308.7 305.8 305.1 304.8 303.9 303 301.9 300.9 297.5 292.2 289.7 286.1 281.9 283.5 281.1 282.7 285.7 286 285.2 284.2 283 281.8 280.5 280.2 280.5 281.2 280.4 278.5 276.2 273.6 271.2 269.3 267.8 266.1 264.1 260.5 254.6 253.8 261.6 265.2 267.3 269.5 271.5 273.6 275.1 275.6 276.7 276.7 278.9 282.6 285.1 287.1 287.8 287.2 285.4 285.6 286.1 285.4 286.8 288 291 294.5 296.3 297.7 298.7 298.8 298.9 299.1 299.7
306.6 309.4 310.8 311.8 313.3 315 315.1 318.2 322 324.5 324.8 324.1 324.3 324.4 326.5 329.4 329.7 338.7 345.4 349.1 350.5 352.1 354.5 356.5 358.2 357.5 356.5 357.2 356.6 355.7 354.4 352.3 350 345.3 342.1 335.2 331.5 324.4 322 313.2 332.9 339.8 350.4 356.8 361.8 365.7 368.6 370.8 373.6 377.4 383.5 388.1 392.7 395.8 398.8 400.8 401.8 402.9 404.3 405.2 405.1 407.1 408.2 408.2 407.5 405.9 404.6 403.7 403.2 402.6 401.4 400.2 398.8 397.2 395.5 394 392.8 391.4 389.8 388.6 386.9 385.4 383 381 379.3 376.4 372.8 368.2 367.8 369 370.3 369.8 368.4 367.9 367.5 367.2 366.7 366.3 367.3 366.1 365.9 364.9 364.2 363.5 362.8 361.9 361 360 357.5 353.3 350.3 350 350.1 350.6 351.1 350.9 351.2 351 350.9 349.2 346.7 344.6 342.1 339.6 335.9 332.4 329.6 325.8 320 314.9 310.2 308.1 308.5 307.6 307.4 307.1 305.2 304 301.7 298.1 293.8 289 285.8 282.1 280.9 280.7 279.7 280.1 282.6 282.4 280.9 279.2 277.6 276.2 275.5 275.9 276.6 275.8 275 272.8 270.9 268.9 267.3 266 264.8 263.1 259.4 253.5 252.6 259.4 262.6 264.5 265.6 267.3 269.4 272.1 273.3 273.4 273.8 274.8 277.6 281.2 283.9 285.6 285.6 283.9 283.1 282.4 282 282 284.1 288.2 291.5 293.2 294.7 296.1 296.5 297 297.6 298.3
305.1 307.4 308.8 310.1 311.5 311.5 311.5 314.3 317.9 320.8 321.1 320.4 319.6 320.6 322.4 322.2 331 338.7 344.5 349.4 351.2 353.8 356.3 356.9 358.4 357.5 356.4 354.7 354 353.2 353.2 352.6 350.4 347.3 343.2 338.7 333.8 322.4 311.7 321.1 337 343.8 350.2 355.6 360.3 364.4 367.6 370.1 374.2 378.3 382.3 386.5 390.8 393.8 396.3 398.5 400.2 401.5 402.2 402.9 403.9 406.5 407.2 407.2 407 406.4 405.4 404.6 403.8 402.8 401.6 399.9 397.5 396.4 395.3 393.8 392.6 391.2 389.6 387.8 386 384.6 382.9 380.7 378.3 375.9 372.8 369.8 365.2 363.9 365.5 366 365.7 366 365.9 365.8 365.4 365.1 366.5 366.8 367.1 366.2 365.6 364.9 364.1 363.3 362.4 360.8 359.1 356.3 352.9 347.7 343 344 344.1 344.5 346.5 347.3 347.7 346.8 344.8 343.1 340.6 338.1 334 331.4 329 326.3 321.6 316.2 312.3 310.8 310.4 308.6 307.3 306.5 305.7 303.5 301 297.6 292.9 287.8 281.9 281.7 279.3 276.4 276.2 273.9 276.3 278.1 277.7 275.2 273.4 271 269.9 270.8 271.3 271.1 270.1 268.7 266.7 264.6 263.6 262.7 262.3 260.9 257.4 251.4 252.5 258.5 259.8 261.7 262.3 263.1 265.8 268.7 267.8 268.8 269.6 271 272.4 275 277.3 279.4 280 278.5 276 275.7 276.5 276.8 280.7 285.2 288.5 290 291.6 293.5 294.4 295 295.6 296.2
302.2 304.9 306.6 308.1 308.1 307.6 308 310.4 314.4 317.4 317.6 316.9 316.9 317.5 318.8 318.9 331.1 338.5 344.1 350.2 352.9 355.5 357.9 358.7 358.8 357.4 355.9 353.1 347.8 349.1 350.8 351 349.2 346.4 342.6 337.6 334.1 324.7 308.1 325.4 334.4 341.2 347.6 352.2 357.2 361 365.2 368.8 372.6 376.8 380.8 385.1 388.6 391.1 393.7 395.5 396.7 397.7 399.4 400.1 402.5 405.2 406 406.1 405.9 405.6 404.7 404.1 403.3 402.2 400.5 399.1 396.6 395.8 394.3 393.6 392.5 390.9 389.1 387.4 385.3 383.5 381.7 379.7 377.3 374.9 372.2 368.6 364 361.9 361.9 361.5 362.1 362.2 363.1 364.3 364.5 364.4 365.9 367.3 368.2 367.6 367 366.3 365.4 364.5 363 361.4 359.5 356.9 354 349.1 341.6 333.3 331.2 332.9 334.4 339.1 341.3 341.8 341.5 339.8 338.1 336.5 333.1 331.2 329.4 326.9 323.9 319.8 315.6 312.7 311.2 309.4 306.6 305.2 303.7 301 298.3 295.7 291.2 285.9 282.3 281.1 279 277.2 276.3 273.1 268.9 273.1 273.6 272.8 269.7 267.6 266.6 266 265.1 264.1 263.8 263.9 262 260.6 259.4 259.4 259 256.6 253.9 251.1 252.9 256 257.4 259 259.4 259.4 262.3 265 265.1 266.9 266.8 267.9 269 270.2 271.3 271.7 271.6 270.4 270 270.8 272.1 274.4 277.7 282 285.5 287.1 288 289.9 291.6 292.3 292.9 293.4
301.8 302.7 303.6 303.9 304.2 303.7 304.4 306.7 310.4 312.5 312.7 312.6 313 314 315.4 320.6 331.7 338.3 344.6 350.3 354.4 357 358.5 359.6 360.4 357.6 355.4 353 348.2 341.5 345.6 347.4 346.1 343.5 339.5 335.4 329.8 317.3 305.1 323.6 331.6 338.7 343.5 348 354.2 358.3 363.1 367.4 371 374.4 378.5 382 384.8 388.6 390.7 391.7 392.8 393.6 395.6 397.9 400.6 403 404.8 405 404.8 404.5 403.3 402.4 401.9 401 399 397.2 395.6 393.5 392.9 391.9 390.9 389.5 387.8 386 383.9 381.7 378.7 377.5 375.7 372.4 369 366.1 368 366.4 361.5 358.4 359.6 359.9 360.6 361.7 363.1 363.7 364.3 366.2 367.9 368.7 368.4 367.3 366 364.5 363.6 362 359.6 356.9 352.5 344 332.1 325.4 324.2 324 322.3 324.8 330.1 334.6 337.7 338.4 336.8 336.6 332.1 330.4 328.7 326.9 324.6 321 317.4 314.7 312.5 310.2 307.4 304.5 301.3 299 297.3 293.2 289.2 285.4 281.5 282.7 281.9 279.8 277.1 273.6 270.1 265.9 269 268.3 265.8 264.6 263 261.1 260.8 258.7 259 259.3 258.9 258 254 253.1 252.9 251.8 251.5 250.8 252.1 253.5 255 256.5 257.2 257.6 258.8 260.6 262.6 263.8 262.8 263.5 265.9 267.5 268.4 268.5 267.9 265.7 266.7 267.8 268 272.7 276.6 279.2 281.7 283.9 285.2 285.8 287.2 288.8 290.1 290.8
300.6 301.4 301.6 300.6 300.2 299.7 299.9 301.1 305.3 307.3 307.7 307.8 307.2 308.1 313.5 320.1 330.3 337.7 344.6 350 353.9 357 358.3 358.8 359.3 358.5 356.6 353.3 349.2 344.2 330.6 340.1 341.4 338.3 333.9 327.2 320.8 302.2 304.8 318.7 327.4 333.8 334.9 344.6 351.7 357.1 361.7 366 369.4 372.6 375.4 377.8 380.3 384 386.8 387.2 387.2 389.2 391.9 394.4 397.9 400.5 402.6 403.7 403.7 403.5 402.4 401.6 401 397.9 396.4 395 393.3 391.6 390.8 390.3 389.5 387.9 385.5 383.9 381.8 379.3 376.8 375.1 373.3 370.3 367.7 370.7 370.4 368.7 365.8 360.5 357.4 357.5 358 358.9 361.2 361.8 362.3 363.4 366.1 368.1 368.4 367.5 366.1 364.8 362.9 359.9 356 347.7 334.8 329.5 333.5 337.3 332.2 321.3 319.5 317.8 318.8 318.9 327.2 334 335 333.8 331.3 329.6 327.9 326.1 323.8 320.7 317.4 315.6 313.4 311 307.9 303.6 300.2 298 296.2 294.2 292.1 287.3 285.3 284.6 283 280 277.1 274 270.7 268.5 264.1 265 264.5 263.3 261.2 258.1 256.7 256.6 256.7 257.5 257.9 255 254.3 252.1 253.1 254.7 257.8 252.2 250.1 250.6 251.9 253.4 255.4 256.1 256.5 257.2 258.6 258.7 257.5 260.4 262.8 265 266.2 266.1 265.2 262.5 261.8 264 264.9 270.3 274.1 276.6 279.6 281.7 283 283.7 284.2 285.4 286.5 287.6
299.2 299.8 299.4 299.2 296.4 295.7 295.4 296.6 299.3 301.5 303.1 303.1 303.6 307.9 312.4 319.6 327.6 336.2 343.1 349.4 353.3 356.1 357.7 358.1 357.8 356.3 355.1 353.1 350.4 344.8 329.7 327.7 333.2 328.7 320.9 311.4 299.7 299.2 302.7 306.1 314.6 323.9 334.3 343.9 350.4 356.3 360.4 363.7 366.4 369 371.4 373.6 375.8 378.6 380.3 381.5 381.5 383.6 388.3 391.6 395.5 398 400.8 401.9 402.5 402.3 401.5 400.7 398.5 394.9 392.3 390.9 389.4 388 388 387.2 386.6 385.7 383.9 380.5 378.7 374.9 375.4 371.6 370.4 370.7 371.5 372.6 372.3 370.1 367.5 364.5 360.2 354.8 354.8 356.5 359.1 360 359 360.2 362.3 365.1 365.7 365.2 364.7 362.5 360.4 353 341.6 334.9 341.1 346.8 348.8 348.3 346.2 342.2 334.8 327.4 317.2 314.8 314.1 313.6 329.1 329.1 327 325.7 323.9 322.8 322.5 318.9 317.9 316.1 314.3 311.9 309.6 306 303.7 303.1 301.4 299.7 296.2 290.8 288.5 285.5 283.1 280 276.4 273 269.8 267.2 261.8 263 260.8 258.7 258.1 260.1 260.1 257.8 255.6 255.7 254.6 253.5 253.7 258.9 258.8 259.3 258.6 258.4 256 253.5 249 247.9 252.1 253.6 253.9 253.7 254 253.7 253.4 254.8 258 260 261.4 262.4 262.6 261.5 256.9 259.6 263.2 266.5 270.6 273 275.7 278.1 279.4 280.8 282 282.8 283.6 284.4
296.9 297.7 297.1 296.1 293.1 292.2 291.3 292 294.1 295.8 297.6 298.2 301.9 306 309.9 317.4 325.5 333.6 340.3 346.8 352.4 355.1 356.7 357.4 355.8 354.3 352.1 349.7 346.8 343.9 334.1 315.1 313.8 310.3 302.6 294.7 296.5 303.8 310.7 317.7 312.9 317.2 328.3 338.2 348.8 355.1 358.2 361 363.7 365.4 366.6 368 369.9 372.2 373 374.3 376.4 380.3 384.3 390.1 393.3 396.2 399.1 400.7 400.9 400.7 400.4 399.5 397.5 393.3 390.9 388.9 386.6 386 384 383.3 382.1 382.3 380.1 377.1 379.2 378.8 378.3 376.4 374.5 373 374.1 374.5 373.8 371.6 369.3 366.7 361 357.1 354.1 353.5 354.9 358 358.4 356.8 357.1 359.5 360.4 361.2 360.7 358.7 356.4 347.1 342.3 349.2 354.2 353.7 354.4 353.3 351.7 349.5 345 338.5 332.1 327.8 321.4 316.4 310.9 312.3 316.5 320.2 319.8 320.4 318.9 316.6 316.4 316.3 314.7 313.7 312.4 309.7 307.1 306.6 305.7 303.5 300.1 294.6 290.7 287.3 283.5 279.9 275.8 271.4 268.5 263.4 261.3 260.5 260.6 261.6 261.7 262 263.1 260.9 259.8 259.6 258.4 255.5 255.5 257.3 260.8 256.7 259.7 260.4 257.5 255.5 253.1 250.4 247.6 250.9 251.3 251.2 251.5 251.8 251.7 250.2 252.5 254.2 255.6 257.2 258.1 255.8 253.9 255.4 257.3 261.7 265.8 268.2 270.7 273.8 275.5 276.2 278.2 279.7 279.3 281.2
291 292.3 292.7 292.1 289.9 288.9 288.1 288 289.7 293 294.5 294.8 298.6 302.8 307.4 313.9 323.2 331.2 337.3 342.9 348.5 352.3 354.6 355.2 353.6 350.9 348.1 344.2 341.3 338 333.8 323.8 307.9 297.6 292.1 295.3 301.9 308.8 319.6 327.2 330.3 318.3 321.7 331.7 343.6 351.1 355.1 357.9 359.9 361 361.7 362.5 365.4 366.9 367.7 369.9 372.3 377.2 382.7 388.2 392.2 395.3 397 398.7 400.3 399.3 399.7 398 395.6 392.2 390.6 389.4 386.4 387.2 387 385.8 384.2 380.1 382.1 382.7 382.9 381.6 380.5 379.2 376.2 374.5 376 376.2 374.6 372.5 370.2 367 362 357.4 355.4 352 353.4 354 356.1 355.4 353.2 353.2 353.4 352.4 351.6 347.8 342.6 343.1 353 358.2 357.9 357.7 357.2 355.8 354.1 350.7 346.7 341.9 336.7 332.1 324.5 320.3 315.3 309.9 308.9 308.6 311.6 314.1 314.4 314.4 315 315.4 315.5 315.3 314.2 312.7 310.3 309.4 308.6 306.7 304.2 299.4 293.9 290.3 286.2 281.6 277.5 273 269.1 263.2 263.4 262.1 262.2 263.5 263.6 263.2 262.7 261.3 261.6 261.6 261.3 259.2 257.5 259.3 256.5 254.9 256.9 259.1 257.5 254.2 253 253 253 250.6 248 249.6 250 249.9 249.8 249.1 248.8 249.8 251.7 252.1 248.8 245.2 242.1 246.7 249.6 255.6 260 262.6 265.5 268.6 271 272.6 273.7 275.8 277.8 279
284.9 285.9 287.4 287.4 286.5 285.3 285.4 285.4 285.9 288.3 290 291.5 295.1 300 305.6 311.3 319.2 327.9 333.1 338.2 343.2 347.3 350.1 351 349.3 346.3 341.1 328.9 324.1 329.6 325 312.2 297.3 291 294.2 302.8 310 319.6 329.1 335.7 339.2 338 325.3 326.8 334.9 344.1 348.6 348.9 349.2 350.2 352.3 354.3 358 360.7 362.7 365.6 369.7 375.5 380.4 385.6 389.8 394.4 395.9 397.3 398.8 398.4 397 395.9 393.8 391.1 390.3 388 388 388.1 387.6 384.7 383.4 382.7 385.4 385.7 385.9 384.6 383.7 381.6 377.8 378.9 378.5 377.5 375.1 372.4 369.8 366 361.5 357.1 354.1 352.2 351 351.5 352.8 351.3 349.6 347.4 344.9 344.9 343.7 343.3 348.5 355.4 358.5 359.6 360.1 359.8 359.4 357.9 355.5 351.9 348.1 343.1 338.8 334.1 328.6 323.5 315.3 316.4 313.9 305.4 304.3 302.9 307.9 310.2 311.2 312.2 312.9 313.1 313.2 312.4 310.7 309.5 309.1 307.9 304.9 301 297 293.8 290.8 285.7 283.9 277.9 272.7 268.7 264.9 264.5 264.3 264.1 264.4 264 263.3 261.1 259.4 259.1 260.2 259.2 257.3 258.8 260.1 261.5 257.7 255.2 253.2 253.8 252.4 253.2 250.1 249 248.4 245.6 247.4 248.1 247.3 246.6 244.8 244.6 247.1 245.8 244.3 241.7 241.5 240.9 240.2 244.4 249.7 253.4 257.5 262.1 264.4 266.1 269 271 273.2 274.2
283.6 283.4 282.9 282.8 282.3 282.3 282.5 282.8 282.9 285.3 286.4 289.2 292.4 297.7 302.6 308.9 316.4 322.7 327.8 332.8 337.4 340.7 343.3 344 343.1 339.8 325.4 309.4 305.5 306.1 303.7 297.5 289.1 292.3 305.3 319.6 324.3 329.9 339.3 345.2 347.7 347.5 347.1 338.2 328.6 333.1 334.5 337.7 345.9 347.2 350.5 350.5 351.8 353.7 356.7 360.9 366.9 372 378.4 383.8 388.5 393 394.9 396.4 397.3 396.1 395.3 393.9 392.1 391.2 390.6 389.6 389.8 388.5 388.3 386.5 385.9 386.9 386.9 388.1 388 386.9 386 384 382.4 383.2 381.9 380 376.5 372.1 368.1 365 359.8 356.8 353.4 350.8 348.8 348.5 349.3 348.7 347.4 344.9 345.5 344.5 350.8 355.9 358.6 359.8 360.3 361.2 361.5 361.1 360.7 359.2 356.7 353.1 349.4 343.9 339.8 335.7 331 320.8 323.9 323.3 320.5 317.1 311.5 305.1 300.1 303 305.1 307.4 308.3 309.2 309.6 309 308.8 307.9 306.5 306.4 304.1 300.3 297.7 295.3 291.9 288.8 287.5 283 276.9 273.1 266.9 266.8 266.2 265.7 266.7 266.2 265.4 261.6 261.7 259 258.3 257.9 261.5 261.4 262.6 264.7 264.4 262 258.8 258.2 256.7 255 254.2 251.3 250.1 249.1 245.9 245.2 245 243.9 244 243.3 242 241.7 241.5 241.3 241.5 241.4 245.8 245.1 239.6 246 249.8 253.4 255.3 257.4 260.9 262.8 265.9 269.4
283 281.3 279.1 278.5 278.7 279.2 279.5 279.4 280.1 281.4 281.2 287.4 290.1 295.5 300.5 305.1 311.3 317.3 322.4 327.3 330.8 333.7 336.2 336.3 335.1 327.1 307.4 290.2 284.9 281.4 282.9 284.5 295.7 310.8 322.1 327.6 333.4 340.9 348 352.2 353.7 353.3 353.2 349.8 340.4 344.4 348.1 356.4 359.5 359.4 359.1 358.6 357.5 356.3 359.9 362.4 364.2 367.6 374.7 380.2 386.5 390.8 393.9 395.2 396.1 395.2 395 394.6 393.3 391.8 391 391.4 390.6 390.4 390 388.8 387.7 387.9 388.3 389.8 389.5 388.7 387.8 387.1 385.6 385.5 383.9 382 378.8 373.2 368.7 365.3 360.2 356.2 353.6 352.7 350.3 350.4 350.6 347.1 346.8 347.9 348.5 351.4 356.4 359.6 361.2 362 362.5 362.8 362.3 361.8 360.7 359.8 357.4 354.3 350.3 345.4 340.4 335.3 330.2 324.4 328.5 327.7 324.7 320.9 315.7 308.3 299.4 298.6 298.8 300.8 303.4 304.3 304.5 305.2 305.4 304.9 303.3 301.9 300.8 300 297.4 293.7 291.2 288.8 287.3 283.6 275.9 267.8 265.7 268.5 270.5 273.1 273.2 272.8 271.5 268.8 268.4 267.6 264.7 264.5 262.2 264.2 265.5 265.9 265.7 265.7 264.7 264.6 260.5 256.5 257.6 254.7 253 253.7 252.6 245.1 244 248.4 245.6 246.6 247.1 244.7 248 250 248.5 249.6 250 249.3 245.8 238 245.9 246.3 247.9 250.2 252.9 255.8 257.7 262.3
282.3 280.1 277.2 276 276 276.1 276.3 275.9 275.8 276.3 280.8 284.9 289.4 293.6 298 302.2 306.2 311.2 316.6 320.3 322.5 325.7 327 327.2 325 313.3 296.4 278.3 285.4 296.9 303.2 306.8 316 328.3 337.7 341.9 345.4 351.9 355.4 358.5 360.2 359.3 359.3 355.8 351.8 356.3 360.6 364.8 365.6 366.1 364.8 364.1 363 361.4 361.1 366.4 369.1 369.1 371.9 377 381.5 386.7 392.6 394 395.3 394.9 394.6 394.4 393.6 393.1 393.5 393.2 392.7 391.3 391.5 390.6 389.8 389.7 389.8 390.5 390.8 390.1 389.3 388.7 388.1 386.8 385.3 383.3 379.9 376.3 370.2 365 360.2 356.2 355.2 353.7 355.1 354.2 353.2 351 350.8 352.4 354.9 357.2 359.4 361.5 362.4 362.9 363.2 362.6 361.8 360.6 359.5 358.6 356.7 354.3 350.9 347.2 341.2 335.4 326.4 330.8 331.7 329.6 327.3 323.9 321.6 315.6 303.8 301.8 295.9 294.7 298.3 299.6 300.2 301.6 302.3 301.7 300.5 298.4 297.3 296.9 293.6 290 287.2 283.3 280.2 274.1 269.3 266.3 269.1 272.4 276.9 278.6 278.2 278.1 273.7 276 276.6 275.5 272.5 270.9 268.7 269.8 272.8 270.4 270.1 270.2 269.2 267.3 265.4 263.1 261.5 260.2 258.8 257.8 257.5 257.6 256.2 255.1 252.9 251.2 249.2 253.5 253 255.3 253.2 246.9 249.9 249.3 248.4 243 239.4 241.9 242.9 244.4 246.7 249.5 252.2 256
282.8 279.8 276.7 273.4 273.4 273.5 272.1 272.3 271.3 275.3 278.6 281.7 285.9 290.2 294.5 298.2 301 305.4 309.8 313.6 314.3 316.1 317.1 316.7 311.9 300.2 280.5 276.8 292.2 308.9 323.5 330.9 339 346.5 350.1 352.8 356.2 358.7 362.2 364.4 365.4 365.5 365.2 364 362.8 366.1 367.6 371.1 372.5 373.3 371.4 369.6 367.9 366.5 365.9 369.9 374.6 376.6 376.2 382 387 390.5 392.6 393.3 394.7 395.2 394.8 394.4 394.8 396.1 395.5 395.2 394.7 394.4 392.8 390.9 391.1 391.2 390.9 391.7 390.7 390.5 390.2 389.8 389.2 388.3 386.8 384.1 381.6 377.3 371.6 365.3 359.9 356.4 359.9 358.9 358.1 358.2 355.6 355.1 354.9 355.4 358 359.8 360.9 362.3 362.4 362.7 362.5 361.7 360.4 359.2 358.2 357.2 355.7 353.4 351.2 347.7 342 333.3 334.1 335.9 334.8 332.8 330.2 329.2 328.3 323.7 316.3 310.2 304.6 298.9 293.3 293.9 296 296.9 298.2 298.8 297.9 296.1 293.5 291.8 289.7 286.3 282.6 277.2 272.7 269.8 267.7 272.6 275.5 280.7 283 284.3 283.6 281.6 278.9 278.9 280 278.7 279.4 280.8 280.5 278.9 277 275.2 274.4 274.9 272.7 270.5 269.2 268.8 266.6 266.5 266.3 263.6 262.6 261.2 260.1 259.7 258.7 258.9 258.7 258.6 262 259.7 253.7 249.4 247.8 243 245.3 244.3 239.8 240.6 241 240.3 243 245 246.6 250.2
285.2 281.7 277.9 274.7 271.8 269.5 268.7 268.3 269.7 273.3 276.5 279.8 282.6 286.7 291 294.2 297 300.1 304.4 306.8 307.2 306.5 304.3 301.2 296.3 283.7 273.7 286.4 298.6 316 333.9 342.1 347.9 352.1 355.4 359.1 362.9 364.9 368.2 369.6 370.3 369.4 370.8 371.1 371.2 373.2 375.1 377.4 379.1 379.3 378.6 377.2 374.9 373.9 373.7 372.6 379 381.8 382.6 384 389.3 391.8 394 396.2 395.9 395.5 395.9 396.4 396.6 397.7 397.1 396.4 395.2 394.7 393.2 391.6 391.5 392.1 392.5 392.7 393.1 390.9 391.1 390.9 390.3 389.5 387.6 384.9 381.7 377.1 369.7 363.5 358.7 361.3 364.9 364.2 364.3 362.1 362.6 360.7 359.1 360.9 363.1 363.2 363.2 362.1 362 362 361.4 359.9 358.9 356.7 355.1 355 353.8 352.2 350.3 347.7 342 336.5 339.5 340.1 339.4 337.4 336 335 333.3 329.3 323.3 315.2 309.4 303.7 300.3 296.1 290.9 291 288.5 287.2 287.3 290 289.9 287 285.4 281.9 277.6 272 271 269.9 269.4 278.2 285.1 287.8 289.1 289 287 284.8 282 282.4 284 282.3 283.2 285 286.8 287.7 287.4 286.2 284.1 279.6 277.4 275.8 272.7 272.1 270.8 270.4 269.1 266.6 264.5 263.4 263.4 264.2 265.8 270.3 269 265.9 263.7 260.1 255.7 252.1 249.1 245 243.3 240.8 238.5 237.1 239.7 238.6 238.8 241.2 244.9 246.5
287.6 283.8 279.8 275.7 273.2 270.1 265.9 266.4 267.5 271.2 274.4 277.6 280.7 283.5 287.5 290.2 293.3 296.1 298.6 299.5 296.5 291.4 286.6 281.1 275.2 272.8 279.4 291.9 304.2 320.7 336.5 345 350.1 354.6 358.3 362.3 365.8 369.8 372.3 373.7 372.9 374.2 375 376.3 377.2 378.1 379.7 383.3 384.8 385.7 385 384.5 383 381.5 380.4 379.7 381.6 386.3 388.7 389.9 390.2 394.4 396.6 397.3 397.2 397.4 396.5 396.9 397.9 397.5 398.3 397.1 396.4 396 394.2 394.1 392.9 392.3 393.4 392.8 392.5 392.5 391.9 391.7 391.2 390.2 387.9 384.8 381.1 372.7 367.5 365.3 365.5 366.5 369.9 369.3 369.1 368.5 366.9 365.8 364.4 367.4 368 367.5 364.5 363.3 363.3 362 360.6 359.1 356 355 353.7 352.7 351.3 350.3 349.2 345.9 341.5 342.4 343.6 343.7 343.7 342.4 340.6 338.1 335.7 332 325.8 320.2 315.8 311.3 307.2 302.9 298.1 293.1 291.9 288 288.9 283.5 282.1 280.7 278.4 274.6 278.7 275.5 273.4 271.1 275.6 285 290.5 292.3 292.2 292.3 290 287.8 284.3 286.9 288 286.4 286.8 288.8 290.3 292.1 292.2 290.8 290 287.3 285.1 284.2 282.4 280 276.7 272.4 270.5 269.7 268.8 268 266.3 267.8 270.2 270.9 267.6 264 262.3 258.6 257.5 254.1 249.9 245.1 242.8 239.2 238 238.1 236 237.7 236.9 238 244.6 242.2
290.2 286.4 282.2 277.9 272.9 269.9 266.8 264.1 264.9 267.8 271.7 275.5 278.7 281.6 284.2 287.7 291.1 292.3 293.7 291 281.3 270.8 264.2 265.1 271.5 272.8 289.2 298.5 305.4 318.5 337.3 345.5 350.9 355.8 359.7 363.7 367.7 371.6 374.9 377 376.7 377.4 378.9 379.9 381 381.8 383.4 386.8 389.3 390.6 391.1 390.9 389.8 387.3 385.7 386.6 381.9 389.5 392.3 393.6 393.8 396.2 398.3 399 398.4 398.5 398.6 399 399 397.8 398.5 398.8 397.5 397.2 395.8 395 394.8 394 393.9 393.2 393.5 392.3 392.6 392 391 389.6 387.7 383.3 374.6 375.1 372.2 372.3 370.2 371.8 374.5 373.8 373.6 371.3 370.6 371.9 372.6 372.6 371.2 369.1 367.4 365.5 364.2 362.3 360.8 359.7 358.2 355.2 351.4 349.4 347.6 347.6 347.3 345 344.5 345.4 347 348.5 348.3 347.7 346 342.2 337.6 333.7 328.7 324.1 319.8 316.6 311.8 306.8 303.3 300.8 300.6 300.3 297.3 293.7 292.1 290 287.9 285.5 281.5 277 275.4 275 285.5 290.8 292.5 293.9 294.1 293.9 293.1 291.3 287.9 290.6 290.8 290.8 290 291.8 292.8 293 293 292.5 291.9 289.7 288.3 286.9 285.7 284.9 283.7 281.6 279.9 275.2 274.1 271.8 269.9 269 265.2 264.2 263.2 261.2 259.8 257.9 256.1 253.7 249.6 243.7 239.4 243.2 240.6 239.7 238.7 241.8 241.1 237.6 235.9 236.1
292.4 288.9 284.6 279.7 274.8 269.3 266.2 263 260.7 264.6 268.5 272.3 276.2 279.6 282.2 284.7 288 288.6 287.8 282 264.6 261.7 277.5 285.3 292.7 285.8 278.7 296.8 305.3 314.7 334 344.6 350.3 355.6 359.5 363.5 367.5 371.5 375.5 378.4 379 380.3 381.5 382.6 383.3 384.9 387.7 389.8 392.1 394.4 395.7 395.8 394.2 392.9 391.6 391 390.2 393.2 395.4 396.4 397.1 398.4 401 401.1 401 399.8 401.1 401.2 401 400.1 399.7 400.8 399.3 398.2 396.3 395.6 395.2 395.1 394.3 395 394.5 393.9 393.1 392.3 390.9 387.6 383.5 384.9 384.6 383.1 378.2 377.3 376 376.9 378.1 378.9 378.9 375.7 376.7 377.1 376.7 375.5 374.2 372.3 370.4 368.4 365.8 363.7 362.2 360.9 359.1 356.1 352.8 349.6 347.3 345.7 344.7 344.7 348 349.2 350.9 351.7 351.9 351.2 349.4 346.8 343.4 338.2 332.7 328.2 322.1 319.1 314.6 309.5 306.7 306.9 306.2 305.6 303.9 299.7 297.8 295.7 292.1 287.3 283.3 277.3 274.2 283.8 293.2 295.7 295.6 295.3 295.8 295.4 295.1 293.4 290.6 292.5 292.5 292.8 292.8 292.8 293 293.2 292.9 292.4 291.9 290.7 289.3 288 286.8 285.7 284.4 284.5 284.4 281.6 282.1 279.8 277.2 272 270.8 270.2 266.9 261.3 259.1 256.4 254.1 251 246.3 242.4 245.2 247.9 245.6 244.6 244.4 244.2 243.3 241.8 240.3 238.8
293.9 289.7 286.3 280.9 274.8 269.7 266.1 263 257.9 262.4 266.2 269.9 273.7 278.1 280.8 282.8 284.9 285.5 282.5 269.1 258.7 271.3 286.8 293.9 297 296.7 289.1 282.9 300.6 310.9 329.7 340.6 348.2 353.7 358.1 362.1 366.2 370.4 374.1 377.1 379.9 381.5 383 385.4 387 388.7 390.5 391.6 394.7 396.7 397.6 397.8 397.9 396.7 396.4 396.5 396.5 396.3 398.6 400.6 400.7 400.6 403.4 403.3 403.2 402.4 402.8 402.4 401.5 402.6 402.4 402.5 401 399.3 397.2 397.1 395.7 396.1 395.1 395 394.8 394.4 393.5 392.5 390.1 387.5 389.5 388.2 387.9 387.1 383.8 382.4 381 380.1 382.5 382.9 382.2 381.1 381 380.3 379.1 377.3 375.3 374.3 371.5 368.4 366.4 365.9 364 361.6 358.4 354.6 352.1 350.3 346.5 348.9 348.4 349.9 350.8 351.7 352.5 353.4 353.6 353.1 351.5 348.7 346 341.6 335.3 328.9 322.9 320.6 318.1 314 311.9 310.7 309.5 309.1 308.5 305.2 302.6 299.1 292.8 285.7 280.2 276.4 281.3 292.7 299.5 301 301.3 300.8 298.3 297.7 297.1 293.7 292.2 292.3 293.3 293.6 293.7 293.4 292.9 292.8 291.9 291.4 291.1 290.6 289.4 288.3 287.1 285.9 284.6 284.4 284.2 280.6 278.7 277.1 276.6 276.5 276.2 272.6 270.5 266 264.1 258.6 251.7 247.4 243.1 245.5 251.6 253.2 252.3 252.5 249.4 248.1 244.3 242.3 240.3 238.9
292.7 289.6 285 280.2 275.5 270.4 266.1 263.5 260.4 259.3 264.4 268.8 272.5 275.9 279.3 281 281.9 280.6 275.4 259.2 258.5 274.7 289 296.6 301.1 302.9 300 289.3 294.4 306.9 323.4 336.5 345.1 351.8 356.2 360.7 364.8 368.3 371.5 374.8 377.7 381 383.9 386.4 389.1 390.9 392.7 393.9 397.2 398.4 399.3 399.9 399.9 400.1 400.6 400.7 400.6 400.7 402.3 404.2 404.9 404.7 406.1 406.5 406.4 405.5 404.6 404.5 403.7 404 403.8 402.8 401.5 399.4 399.3 398.1 396.6 396.7 396.2 394.9 394.6 394.2 393.9 393.3 391.3 390.3 392 391.5 389.8 390.1 389.4 386.6 384.1 383.8 384.7 385.1 384.8 384.2 383.4 382.3 380.5 378.5 376.5 375.6 373.6 370.4 368.3 366.1 363.1 360 354.4 351.3 351.1 349 349.4 349.7 350 350.9 352.4 353.3 353.8 354.2 354.1 354.3 352.6 350.6 348 344 337.7 331.7 328 324.1 322.1 317.3 318.9 316 312.8 310.7 309.8 308.4 304.5 299.4 292.3 286.2 277.9 282 286 298.7 303.8 305.4 304.8 303.8 302 300 298.8 295.4 293.6 293.3 294 294.4 294.5 294.2 293.7 292.9 292 290.8 290.3 289.8 289.3 288.4 287.3 285.6 284 281.6 280.7 277.9 275.5 275.1 275.5 275.6 273.9 268.1 265.8 260.9 255.2 249.3 249.2 254.6 256.1 256.5 257.8 256.2 254.9 253.6 251.2 248.2 245.2 243.4 241.1 240.7
291.5 286.8 282.4 279 275.2 271.2 266.9 263.9 261.4 255 261.9 267.2 271.6 274.6 277.6 278.6 278.1 276.8 268.1 254.3 264.2 279.5 291.4 301.3 306.7 312.4 311.7 302.8 291.1 306.8 319.5 332.6 341.4 349.1 354.5 358.9 361.9 365 367.8 370.8 373.6 377.6 382.5 386.6 389.5 392.2 394.2 395.8 397.9 398.3 400.3 401.1 401.3 402 402.7 403.8 404.1 404.3 406.3 408 408.7 408.2 408.4 408.5 409.7 408.8 408.1 406.6 404.2 404.8 404.8 403 402.4 402.3 401.3 400.1 398.4 397.9 397.3 395.7 395.3 394.8 394 392.6 391.1 392.9 393.8 393.7 392.4 392.3 391.8 388.9 386.6 386.1 386.8 387.1 386.8 386.4 385.4 382.4 380.1 378.7 377.1 375.9 374.4 371.9 368.2 365.6 361.5 358.4 353.9 350.1 350.7 351.5 349.2 350.5 351.2 351.9 353.7 354 354.4 354.6 354.5 354.1 353.6 351.9 349.9 347.1 341.6 337.6 331.5 330.2 325.9 324.4 323.7 321.3 316.4 314.4 312 309.7 305.2 298.6 291.9 282.8 283 288.7 293.2 303 306.6 307 306.8 306.1 304.1 302.2 300.3 298.7 296.4 295.4 295 295.2 295.1 293.9 292.9 291.7 291.2 290.4 288.9 288.1 287.6 286.7 286.5 284.8 283 279.4 276.3 274.9 273.6 272.5 272.9 272.3 268.8 259.7 255.4 252.7 250.4 250.7 258.2 261.3 261.9 262 262 260.8 260.9 257.9 255 251.6 250.9 244.3 247.5 245.9
289.7 285.1 281.1 277.4 274.9 271.3 268 264.3 261.3 253.7 258.8 265.2 270.7 273.3 274.7 275.2 273.8 270.4 259 257.4 271 285 294.9 305.4 314.3 320.4 321.4 313.7 303.8 303.1 316.6 328.9 338.1 345.7 351.9 356.5 359.2 360.3 362 367.8 373.7 379.1 384 384.7 385.4 389.1 392.5 394.8 397.3 398.1 400.5 401.5 401.7 403.4 403.4 405.9 406.9 408 409.8 412.2 412.7 413 411.4 411.6 412.6 412.3 411.5 410.6 408.9 407.8 407.1 406 405.3 404.4 402.7 401.2 399.8 397.6 395.8 396.6 396.2 395.2 393.9 393.2 394.8 394.2 395.6 395.8 395.1 394.6 392.3 391.9 390 389.1 389.1 389 388.7 387.9 386.1 383 379.9 378.4 376.9 375.8 374.5 372.2 368.5 365 360.6 356.9 354 352.4 351.5 351.3 350.1 350.5 352.4 353.5 354.2 354.6 354.8 355.1 354.9 354.1 353.4 352.8 351.3 348.7 345.8 341 336.9 333.9 331.5 329.4 327.7 326.3 321.8 317.5 316.8 313.8 307.2 298.5 289.8 281.2 287.9 294.3 300 304.9 307.4 308.5 307.4 306.2 304.6 303 301.8 300.2 298.8 297.5 296.5 296.7 295.5 294.1 293 291 289.7 289.6 288.1 286.9 285.9 286.6 285.2 283.2 282.1 279.8 276.6 273.6 271.8 270.4 268.2 263.3 259 255 252.5 255.6 255.6 262.1 264.2 266 266.5 266.9 266.1 264.8 262.9 261.1 257.1 254.6 252 251.5 253.9 255.1
288.5 283.4 279.9 277.8 274.5 271.3 268.1 265 261.7 257.5 252.5 260.5 266.5 269.9 270.7 270.2 267.6 257.8 250.1 264.9 274.5 286 298.2 310.3 319.5 326 329.9 325.8 313.3 299.2 311.2 325.1 334.8 342.2 348 352.2 354.9 357.2 364.5 370.7 377.4 382.7 387 390.2 391.9 391.8 391.9 391.6 394.2 397.5 399.9 401.2 402.6 404 404.9 406.9 408.5 409.3 412.3 413.4 414.9 415.8 414.7 414.4 415.2 415.2 414.9 414.3 411.8 409.7 408.4 408 406.9 405.1 404.1 402.5 400 397.9 397.7 397.3 396.4 396.2 394.6 395.6 395.2 395.6 396 397.4 396.9 395.9 394.3 393.6 393.1 391.1 390.6 390.6 390.2 388.8 386 383.3 381 379.3 378.1 375.8 374.2 371.8 368.3 364.5 362.1 360 357.1 354.6 353.1 351 349.5 352.3 351.7 352.8 353.2 353.5 353.5 354.5 354.9 354 353 353.4 351.8 349.9 347.5 344.6 341 336.8 332.9 331.3 330.2 328.4 324.8 319.8 317.8 315.4 308.1 299.4 289.3 287 293.5 299.5 304.4 306.7 308.3 308.1 307.3 306.1 304.6 303 301.5 300.5 299.6 297.9 297.4 297.3 298.4 297.2 295.9 293.6 290.9 289.9 287.8 288.8 286.7 284.6 284.6 285.3 284.3 280.3 276.8 274.4 271.6 267.6 264.2 261.4 253.6 258.8 260.9 262.9 264.7 267 269.2 270.7 271.2 270.4 269.1 267 264.5 262.3 261.2 256.7 250 254.6 260.8 262.5
285.5 281.4 278.8 276.9 274.2 271.1 267.9 264.4 261.3 257.4 251.8 252.8 259.1 264 265.3 265.6 256.4 248.4 259.7 268.7 278 289 300.9 312.2 323.2 330.3 334.6 335.4 326.9 314.1 304.8 319.7 331 339 343.5 347.5 349.7 358.4 363.9 371.7 378.5 384.7 389.6 392.4 394 395.5 396.2 396.6 395.7 395.5 397.7 400.8 402.4 403.8 405.7 407.8 409 412.2 414.7 416.3 417.6 417.2 416 416.3 418 417.6 417.2 416.8 414.2 412 410.4 408.2 408.7 406.2 405.1 403.7 400.9 400.2 399.7 398.8 397.2 396.4 396.9 397.1 397.1 397.3 397.2 398 397.8 397 396.2 395.4 394.5 392.6 392.2 391.6 389.7 389 386.3 384.6 382.2 379.8 378.9 376.4 373.1 371.3 368.4 367.3 365.1 361.2 357.3 355 353.3 352.2 351.4 352.8 353.9 353.8 352.9 353.1 353 353 353.8 352.8 352.5 353.3 352.5 350.6 348.4 345.9 343.4 340.3 336.3 333.2 331.5 328.8 326 321.3 317.6 313.4 306.9 295.2 285.5 293.6 300.4 304.5 307.1 307.8 307.8 307.6 307.1 306 304.6 302.9 301.5 300.8 300.3 299.6 299.4 300.4 300.6 300.3 299.6 298.5 296.6 294.7 293.2 291.5 290.8 290.1 288.9 287.4 285.7 282 277.6 273.8 270.6 266.5 262.1 255.3 259.9 263.7 267.2 268.4 270.5 273.3 275.1 275.5 274.5 272.7 271 269.1 266.7 264.4 261.7 256.8 256.8 261.6 265 268.4
282.1 278.4 276.8 276.6 273.7 270.4 267.6 263.4 260.3 256.7 252.5 245.8 252.5 256.7 258.3 255.1 247.9 253.4 262.4 269.7 279.9 291.1 303.5 314.2 325.7 333.5 339.2 340.6 338 326 314.2 313.2 324.8 332.1 339.5 340.7 351.6 357.5 364.1 371.6 379 386.3 391.3 394.4 396.1 397.7 398.7 399.5 397.8 398.4 399 400.6 403.1 403.6 406.5 408.7 411.3 414 416.4 418.3 419.1 419.3 418.3 419.1 420.3 419.9 419.5 418.9 417 415 412.7 411.2 409.3 406.3 405.1 404.6 402.6 401.3 400.8 398.5 398.1 396.9 398.2 397.8 397.2 397.6 397.9 398.2 397.5 397.4 396.7 396.2 395.2 394.1 393.2 391.9 390.8 389.9 387.5 385.6 381.5 379 377.8 376.2 370.8 367.2 367.7 367.1 364.9 361.7 357.4 355.4 353.4 351.3 352.6 353.2 354.6 355.1 351.5 352.1 351.9 351.7 352.3 351.9 352 353.2 353.3 351.1 349 346.6 344 341.1 336.9 333.9 331.4 328.7 325.8 321.8 315.8 306.9 301 291.7 292.2 301.2 304.3 307.9 309.5 309.9 308.3 307.7 306.8 305.6 304.1 303 301.9 301.5 299.6 300.7 302.1 302.8 302.6 302.3 302.4 302 299.7 296.6 294.8 293 292.1 291.2 290.1 288.6 285.7 281.8 278.9 270.9 267.6 263.7 256.5 262.7 265 269.5 272 273.4 276.5 279.4 279.6 279.2 277 274.9 273.2 270.7 268 265.4 261.4 257.5 261 266.5 270.1 273
