ncols 200
nrows 83
xllcorner 250000
yllcorner 344550
cellsize 50
553.6 549.9 547.3 544.9 543.2 542.1 542.5 543.2 546.2 550.1 553.9 557.3 555.2 550.5 545.9 544.1 541.7 537.2 531.1 522.8 515.6 508 500.3 493.5 483.2 474.3 468.6 462.7 463.1 465.4 466 468.6 467.6 467.1 469.4 474.8 482.6 485.9 486.7 476.8 458.6 442.3 430.1 405.2 377.3 367.7 356 356.8 347.8 343.1 340.9 333.5 328.8 324.4 306.5 297 292.1 288.5 285 269.2 252.1 267.1 266.2 254.8 258.9 242.8 231.9 221.2 205.5 178.4 160.4 140.3 135.7 133.6 138.8 143.6 153 164.4 170.1 187.5 204.5 210.3 212 222.9 226.8 238.6 247.3 265.3 281.4 290.5 298 306 311.3 314.6 321.7 332.9 362.5 409.9 462.3 527.7 552.4 567.8 585.6 600.6 615.2 626.4 627.2 601.5 578.3 553.1 526.7 496.9 470.5 452.1 440.7 420.1 396.2 370.7 354.6 347.3 340.1 335 339.5 356.9 342.7 321.2 314.5 310.3 303.9 290.8 272.8 253.8 241.4 232.9 222.8 221.8 220.3 219.9 217.2 213.3 213.1 212.5 208.2 201 193.1 183.1 171 161.1 152.1 145.4 139.6 135.1 129.9 125.3 120.2 115.7 109.1 102.2 96.7 89.1 80.8 70.8 72.9 77.1 82.8 91 93.4 97.3 98.4 107.5 123.4 124 132 132.3 126.3 122.1 116 113.7 110.1 107.2 104.9 101.8 97.8 92.7 87 82.4 72 48.9 45.9 45 44.6 44.3 44.5 44.3 46.2 46.8 46.5 46.5 47.2 49.6
559.2 555.9 552.5 550.7 548.6 547.3 548.6 548.1 551 554.8 558 560.1 559.2 553.2 547 543.7 540.4 533.4 525.8 519.8 508.6 499.9 493 484.2 473.9 463.8 454.5 447.2 444.7 446.3 450.6 455.2 453.8 453.5 456.1 460.5 467.9 473.2 475.7 473.3 465.9 453.2 432.6 413.3 396 379.8 367.8 357.5 347.4 344.7 344.8 334.3 328.7 322 307.7 292.4 288.5 283.1 278.9 270.6 258 225.6 234.7 241.1 247 239.1 217.8 208.4 187.4 160.4 142.6 134.8 133.5 134.4 139 146.5 155.2 167.4 175.1 188.9 204.7 209.8 213.9 221.2 228.3 242.4 248.7 265.8 276.3 285 292.2 296.5 315.5 325.9 330.4 352.9 380.3 425.6 496.5 531.5 551.3 568.5 585 599.3 614.2 627.3 624.2 605.5 576.4 556 527.8 502.5 478.6 453.9 435.1 408.7 390.4 372.6 357.7 349.4 345.8 339.2 342.5 348.1 349.2 338.9 323.4 311.1 301.2 284.7 265.3 250.5 241 234.2 233.5 232 230.1 228.3 225.2 221.8 223.1 224.2 215.6 206.1 197.1 186.1 173 165.2 158.8 152.3 145.5 139.5 133.2 128.5 123.3 117.6 110.6 104.8 99.1 90.8 81 76 69 66.5 78.5 81.3 84.9 88.2 87.3 94.6 107.3 116.5 118.6 115.8 116.3 114.5 109.7 107.6 104.9 109.3 107.8 102 97.3 94.5 89.8 72.9 63.7 48.7 45.2 44.3 44.1 44.1 43.8 44.7 45.8 45.9 46.7 47.4 50.4 51.3
563.3 560.2 556.7 555.1 553.3 552.7 553 553.1 554.2 556.9 558 558.8 557.5 551.5 546.1 541.6 537.6 530.4 520.6 512.3 504.2 494.5 486.4 476 466.9 458.4 447.8 434.1 429.6 429.4 435.7 440 441.1 441.7 445.1 447.7 451.2 456.9 460.4 461 460.8 452.2 447.9 430.3 415.8 396.3 378.2 364.1 352.3 351.4 343 338.1 329.7 320.7 305.7 294.3 289.4 283.8 278.7 268.3 272.1 256.6 207.1 227.7 234 233 216.4 199.4 178.8 149.9 137.3 133.1 133.1 137.9 142.2 148.8 161.8 167.3 176.3 191.2 205.5 207.6 215.5 222.1 232.1 242.5 253.9 271.9 279.8 289.7 292.7 301.4 322.3 336.6 341.4 356.7 402.8 430.5 478 526 548.4 569.4 585.7 599.4 612.3 628.8 622 601.9 578.4 555.8 529.8 504.6 480.2 450.7 429.8 409.6 391.9 378 366.2 366.3 360.6 349.9 343.4 343.2 339.7 332.3 321.9 310.7 299.9 285.3 274.3 256.2 248.5 241.6 245 247.3 253.3 241.1 236.4 232.9 231.6 229.1 224.3 216.1 204 191.4 178.5 171.3 164.7 157.9 150.2 144 137.6 131 125.4 119.2 115.4 107.9 100.5 91.6 82.2 78 74.5 70.2 71.2 75.4 76.7 79.1 79.7 88 93.1 102.6 102.7 107.3 114.6 109 105.5 102.9 100.6 104.4 103.3 100.4 108 103.9 95.9 84.5 77.7 46.3 43.8 43.3 43.6 43.3 43.9 44.6 44.5 45.7 47.4 55.3 56.3 59.5
566.7 563.6 560.8 558.4 556.3 555.3 556 556.1 556.6 558 558.6 558.1 555.4 550.5 545 539.7 534.5 526.1 515.3 507.9 498 491.5 480.4 470 462.7 453.4 442.3 428.8 413.2 413.7 417.3 422 427.7 430.7 431.5 433.1 435.5 441.1 447.9 449.3 451.5 447.3 432.6 425.7 418.8 397.4 385.2 378.6 373 362.6 350.7 338.4 326.6 309.2 300.8 296.5 293 286.9 272.5 262.9 269.9 260.7 226.1 205.8 207.3 204.7 202.1 185.7 162.8 142.4 133.4 132.4 133.2 137.2 145.3 154.1 161.2 167.4 181.2 195.3 203 207.4 217.2 223 234.6 246.5 258.7 271.3 282.8 296.5 292.6 304.5 327.2 348.2 351.2 373.4 408.5 453.1 487.1 526.2 550.5 568.9 585.1 599.7 610.6 626.2 627.1 601.3 577 555.4 524.3 494.4 471 449.3 427.2 408.3 391.7 383.3 374.2 368 361.8 353.4 347 341.7 336.1 329.3 321.9 314.6 306.4 294.6 282.3 266.8 258 256.7 258.3 264.6 269.8 258.3 252.9 247.3 244.8 238.9 231.6 220.8 210.5 199.8 186.5 179.7 171.8 163.8 157.9 150 141.9 134.8 130.1 124.1 118.8 108.9 99.3 92.7 84.9 79 74.5 70.6 64.4 70.3 71.8 71.4 71.9 76.3 87.1 96 90 95.5 97.9 108 106 97.8 92 94.3 97.9 97.9 119.1 113.4 104.3 88.4 74 44.6 41.2 43.5 42.8 43.9 44.2 44.7 45.5 47 55.1 62.9 69.6 68.6
569.2 566.2 563.5 561 558.1 558 558.3 558.5 558.5 558.8 559 557.7 554.1 549.9 544.2 538.5 531.4 522.1 511.7 504.7 495.5 487.3 477.4 466.6 457.7 448.5 435.8 422.2 410.8 393.9 399.8 403 408.4 412.9 416.9 418.1 421.8 425.5 429.7 431.8 430.4 425.7 416 401.7 393.8 385.2 383.4 383.8 381.6 368.4 357.2 343.2 328.4 310.7 304.7 301.6 298.8 286.7 266.4 261 261.7 245.3 224.9 202.9 194 180.1 179.7 171.7 149.9 135.7 133.1 132.1 137.2 141.7 146.9 152.9 159.5 170.5 182.7 196 202.3 209.1 217.5 225.2 238 248.2 262.7 274.3 288.1 289.7 291.7 317.4 341.3 368.3 370.2 403.5 426 454.9 490.4 521.8 544.4 566.1 581.4 597.5 606.5 617.4 622.5 592.9 573.6 552.1 522.4 497.8 469.1 444.6 425.8 409.8 395.7 386.1 375.6 366.9 360 352 347.1 343.6 340 333 324.2 317.9 316.8 304 292.8 278.7 270.1 270.5 280 289.5 292.3 280.7 271.2 267 269.4 258.3 238.9 226.2 215.7 207.6 197.1 189.1 179.9 172.1 163.7 155.5 148 140.9 133.8 127.1 121.3 111.4 100.7 93.8 85.9 80.8 75.6 71.4 67.1 63.7 66.9 67.1 65.8 68.5 75.1 80.3 76.9 88.7 94.3 100.3 104.2 99 86.7 91 94.4 94.5 112 115.6 116.2 88.4 57.3 41.3 44.2 44.5 44.4 45 45.5 47.7 50.2 61.2 72.7 83.6 82.2 79.1
573.9 569.1 566.1 563.4 560.7 560.5 560.6 560.1 559.9 559.9 559.5 557.5 553.8 549.3 543.3 536.3 529.3 519 505.8 498.9 492.2 483.5 474.9 464.2 454.5 444.4 430.2 415.5 403.3 391.5 375.1 383 387.9 390.8 394.4 397.1 401.7 405.3 404.6 403.7 404.2 398.4 393.4 386.6 375.6 369.1 372.6 379.6 381.8 369.7 356.8 343.2 327.7 314.2 309.6 305.9 298.3 281.5 268.7 254.9 224.8 207.4 201.7 184.5 194 169.6 169.6 151.2 139.8 133 131.8 132.3 141.2 145.1 148.5 157.1 162.6 170.5 181.9 194.2 201.9 211.6 218.7 228.4 241.5 250.9 265.3 277.8 281.9 287.5 297.9 322.7 342.6 372.7 384.8 411.8 436.8 459.3 485.9 513.9 537.5 559.9 573.8 588.7 596.2 604.7 608.3 595.5 575.3 556.5 530.6 497.3 469.8 450 427 412 396.7 385 374.8 366.6 360.3 356 351.1 346.4 341.2 337.2 330.4 326.7 320.3 317 308.1 298.4 287.4 288.8 300.5 302.3 325.2 308.7 294.1 287.6 289.6 286.9 260.3 234.1 222.6 218.7 208.1 198.5 189.1 179.5 168.3 160.6 152.7 145.3 139 132.3 123.7 114.7 104 96.2 87.6 81.9 75.2 72 70.2 66.6 59.8 61.2 61.8 63.7 69.3 68.5 66.8 73.2 76.3 83.4 83.3 89 78.7 88 88 90.8 109.3 123.6 113.6 72.8 43.6 44.7 56.5 52.9 50.7 51.3 54.9 60.4 64.9 79.8 84.5 98.4 87.7 85.7
575.3 570.6 567.9 565.5 563.2 563 562.9 562.1 560.9 560.3 559.5 557.3 553.7 548.3 541.5 533.9 525.2 516.7 503.2 495.5 489.4 479.6 469.4 462.6 452.5 441.4 426.6 412.8 397.7 384.9 372.1 361.8 367.9 373.8 372.6 374.3 380.4 386.5 388.2 385.1 375.8 370.8 364.2 358.9 353.6 351.6 359.4 374.1 379.5 367.2 356.5 344.4 331.9 320.5 313.6 317.4 290.6 278.9 269.5 254.4 226.1 198.9 177.7 165.9 178.7 165.2 154 139.8 136.7 132.6 131.5 138.1 144.1 146 151.8 160.5 170.6 178.2 186.6 193.5 206.9 213.4 222.5 230.4 245.8 256 268 276.2 277.6 291.9 311.3 319.6 333.4 354.9 375.5 413.5 442.6 462.9 480.1 504.5 523 543.2 558.7 572.5 580.3 588.9 593.6 590.7 576.8 556.9 527.8 493.1 468 446.8 427.4 412.5 399 387.4 378.4 370.7 363 358.1 353.3 348.8 344.9 341.6 336.7 330.1 329.4 331.4 321.5 317.4 309.1 305.1 310.7 324.3 349.6 328 319.7 315.8 314.6 304.1 286.6 250.8 233.6 227.5 217.1 205.3 195.1 183.4 175.6 167.1 157.8 154 146.1 136.2 128.6 120.6 110.6 98.6 90.9 85.7 78.1 73.4 71.9 68.6 61.9 59.5 57.8 56.5 59.3 59.8 56.7 56.3 60.1 63 72.6 71.5 69.5 75.4 90.6 100.6 112.1 121 74.4 47.1 40.5 56.9 76.8 65.5 63.3 62.8 68.2 72.7 81.4 97.3 102.2 101.6 96.9 98.5
574.6 570 568 566.1 564.6 563.7 563.5 562.7 561.5 560.3 559.3 556.9 552.7 546.7 538.8 531.1 523.4 513.4 501.1 491.1 485.4 476.9 468.2 460.2 451.8 441.9 427.9 412.3 395.2 379.8 364.9 354.8 349.9 353.4 355.6 358.9 363.6 368.6 368 366.7 361.5 348.4 336.1 335.9 332.9 341.2 351.7 368.3 376.6 366.6 354.1 341.9 326.2 320.9 314.1 306.2 290.3 280.7 266.4 249.1 220.5 193 168.6 158 159.6 152.5 140.4 137.4 136.7 132.5 131.3 138 143.2 150.2 159.1 166.8 178.8 185.6 191.2 197.6 209.6 216.7 228.6 239 250.7 258.9 266.8 273.9 280.2 299.1 306.7 317.5 327.1 352.4 370.4 411.5 441.9 457.3 472.5 494 511 531.4 546.4 558.1 571.1 585 591.2 593.2 579.1 558.4 539.5 505.6 478.4 458.7 435.1 419.7 404.7 392.6 380.6 373.3 365.8 360.5 354.9 350.6 348.7 345.3 341.9 339.5 340.1 340.6 336.1 330.5 327.9 317.9 330.1 346.9 363.4 348.9 349.5 350.6 342 324.8 305.8 265.3 245.2 236.4 224.6 212.7 200.8 192.3 185.1 173.4 166.2 162.1 155.3 146.4 137 122.8 113.9 102.9 94.3 89.6 82.6 76.9 72.7 69.3 65.1 55.5 54.6 55.7 49.6 48.7 47.3 46.5 46.2 53.5 64.4 57.7 57.3 67 80.4 98.8 108.2 69.8 51.1 40.8 42.1 63 82.3 77.5 73 72.9 78.4 91.9 97.9 111.2 120.5 114.2 110.3 110.8
572.6 568.1 565.7 564.3 563.5 562.7 561.7 561.1 560.4 559.8 559.1 556.9 551.8 544.7 535 528 520.3 508.5 496.1 486.5 478.2 471.6 464.3 456.3 449.2 440.2 431.6 414.9 395.8 376.9 362.8 352.1 342.3 340.6 342.3 346.7 350.5 354.8 355.2 354.3 351.1 340.3 324.6 319.4 320 330.4 344.7 361.7 369.3 367.3 352.3 336.5 325.2 323.2 311.8 301.7 293.4 285.5 269.3 246 220.8 190.4 164.5 152.1 146.7 141 135.4 134.8 132 131.1 134.1 140.9 144.9 156.3 167.2 174.9 186.8 191.9 197.4 205 212.2 221.3 234 245 254.6 261.9 272.6 274.7 280.1 295 304.3 314.9 329.2 352.4 364.7 403.2 425.2 449.2 463.8 480.4 496.1 515.2 531.8 552.5 564.1 575.4 588.1 590.7 577 556.8 551.3 513 482 458.6 440 425.7 411.5 397.7 386 376.4 369.1 362.3 357.5 354 352.9 351.2 347.7 345.8 349.4 349.4 348.2 347.5 349.7 339.3 350.6 367.8 377.2 373.7 375.9 373.7 367.2 340.6 311.5 279.9 256.9 242.7 231.4 220.4 210.8 199.7 191.4 181.7 172.8 165.5 158.3 150.3 134.5 125.2 114 104.6 97.6 92.6 87.6 82.6 74.1 69.1 65.6 64.6 63.4 59.7 55.1 48.6 48.1 44.7 39.3 41.1 43.5 43 45.5 54.8 71.2 85.3 72.4 49 41.5 38.9 44.5 66.5 86 85.2 85.2 85.9 91.4 108.9 123.6 136.8 137.7 130.5 129.6 126.9
567.3 562.9 561.7 560.3 558.8 557.5 557.5 557.3 557.1 557.4 558.4 556 550.6 541.2 532.7 525.3 517.9 506.1 494.5 484.6 473.7 467.2 460.3 454.3 447.3 439.4 430.5 413.9 398.3 382.5 366.3 351.9 342.9 335.2 334.1 336.1 340.8 343.3 344.7 341.4 336.2 329.1 318.1 307.7 307.3 317.4 335 352.5 363.1 363.3 352 332 328.8 324.8 313.8 300.7 297.4 288.5 270.3 247.8 219.9 186.7 162.4 143.3 141.2 137.1 131.7 131.6 130.7 132 135 139.7 149.9 162.6 174.1 184.2 192.9 197.9 203.1 210.7 216.3 226.8 237.6 249.8 258.2 265.4 274.3 275.7 286.7 292.8 309.8 318.6 333.7 358.6 367.7 395.3 420.8 443.2 462.1 476.7 495.4 516.5 533.6 541.5 551.6 560.1 570.5 576.6 579.5 564.4 546.7 517 487.9 467.6 447.4 431.8 415.5 401.2 389.6 380.8 371.1 365.4 360.8 357.4 356.2 354.3 352.5 353.4 356 356.7 356.6 362.7 369.5 362.5 369.3 388.7 399.4 395.9 394.1 388.5 376.3 342 319.8 290.7 268 251.9 237.7 226.9 215.5 205.1 199 192.5 181.2 171.6 162.8 151.1 134.2 123.9 112 105.2 98.8 93.3 89.9 79.8 75.5 70.8 67.7 66.1 64.9 62.4 59.8 55.5 48.5 45.6 43.7 42.5 39.8 39.8 40.3 47.6 66.3 84.8 54.8 41.7 38.4 39.1 48.8 65.2 86.2 93.2 97.9 103.4 113.4 135.5 160.4 156.4 152.9 150.4 150.3 156.8
557.9 556.4 554.8 552.4 552 550.3 550.1 550.6 551.4 552.3 552.4 551.7 545.9 537.2 529.9 521.7 515.1 505.8 492.2 481.8 471.9 463.3 457.8 450.6 443.4 434 427.9 413.8 400.9 388.8 373.3 357.8 347.4 339.8 334 329.6 332.6 332.3 330.1 325.7 320.4 312.6 303.7 296.3 295.5 303.1 321.1 337.1 351.6 355.2 343 327.8 328.7 328.3 320.4 304.7 297.6 292.8 270.1 248.9 216 183.9 158 141 136.8 134.8 130.3 129.8 133.6 132.4 135.8 145.1 154.3 169.4 182.1 191.9 196 201.6 207 213.2 221.5 234.1 245.8 256.4 261 268.3 274.2 275.1 286 290 303.7 319.2 341.8 358.7 378.3 397.3 431.6 444 456.8 475 491.8 513.2 528.3 538.5 543 554.6 562.2 569.2 579.1 569.9 551.4 527.8 500.2 477.5 461.9 441.8 421.4 404.6 393.4 384.1 373.7 367.2 364.6 361.7 360.6 358.2 358.6 360.3 361.2 361.2 364.3 385 381.6 382.6 396.6 410 426.2 411 405.7 395.8 367.1 346.9 321.4 295.1 280.6 260.6 243.3 233.4 223.8 222.4 210.9 200.8 187.6 176.2 164.1 146.6 135 120.6 111.7 104.5 99 93.8 91.2 86.1 76.1 72.8 70.2 68.1 66.1 63.2 65.5 61.9 57.5 50.1 44.4 41.9 40.7 39.2 38.8 39.3 50.6 67 43.7 37.4 39.5 40.2 74.9 97.7 92.6 110.2 115.8 122.9 128 150.5 171.8 173.7 165.6 173.3 179.3 189.4
548.5 548.5 546.4 544.3 544 542.8 541.1 541.8 543.6 545.8 545.9 543.2 539 533.4 526.2 519 512.2 503.9 492.1 481.7 470.4 460.4 454.1 447.6 440.8 432.4 424.9 414.6 404.2 393.4 378.4 367.1 353.3 345.6 341.5 333.8 325.5 323.1 316.4 313.2 309 298.3 288.9 283.6 283.4 291.3 299.6 313.1 339.5 328.2 314.4 322.8 325 326.5 324.7 314.4 296.5 287.2 269.6 241.5 209.7 181.7 159.9 139.1 133.3 130.7 128.3 127.8 131.4 132.2 134.1 141.9 156.3 175.1 187.9 192.5 197.3 202.5 209.6 219 227.2 238.8 252.1 261.4 265.7 268.5 272.1 278.1 286.2 299 311.4 327.6 353 362.4 372.5 392.5 422 440.6 452.7 468.4 486 503.9 517.5 531.6 540.1 544.9 554.6 564.1 575.1 571.9 560.4 544.8 522.9 497 480.4 461.1 442.3 424.2 405.9 391.1 380.8 373.2 368.9 367.9 366.2 364.6 365.5 366.8 367 369.4 377.1 390.6 401.8 413.5 430.7 430.8 431.2 423.1 412.4 385.5 362.6 338.9 325.9 307.6 287.9 263.5 249.4 239.7 236.9 228.7 218.7 208.1 189.9 180.9 164 147.8 131 119 110.1 105.5 99.4 94.6 91.9 85.8 80.1 75.1 70.4 68 65.8 66 68.6 68.5 63.7 56.2 51.5 44.2 40.1 39.5 38.6 38.6 36.1 38.2 37.1 37.2 37.8 42.5 65.8 87.3 110.6 128.9 135.2 138.7 147.5 165.4 179.5 181.7 184.7 193.9 200.7 214.8
540.9 538.5 536 534.2 533.7 534.7 533.5 532.2 532.9 535 534.4 535.6 532.9 528.3 522.1 515.7 509.2 498.5 489.6 481.2 472 462.3 454.6 447.9 441.3 433.7 425.1 417.3 408.1 396.7 385 372.2 362.2 356.1 350.3 344 334 324.3 307.1 296.9 297.1 288.7 278.2 274.9 275.1 283.3 289.1 300.3 308.9 298.4 299.3 306.6 310.7 319.9 322.6 315.6 303 284.3 261 244.1 201.9 179.7 161.6 136.6 129.7 128.2 127.3 127.5 132.2 130.3 133.9 146.1 162.2 181.7 190 192.8 196.9 207.3 216.3 227.4 233.5 248.1 262.7 266.7 270 269.6 272.1 277.3 287.4 305.7 317.4 334.7 354.6 361.9 371 400.9 414.4 433.1 447.1 462.1 478.2 494 504.9 515 526.6 536.8 552.9 563.8 577.4 575.4 568.5 558.7 551.7 532.3 520.7 504.1 486.5 461.6 425.2 400.9 392.2 381.8 375.4 373.3 371.5 371.5 372.9 374.4 375.8 380.2 391.3 402.4 427.8 440 447.7 442.6 441.5 434.1 408.4 377.8 347.7 330.1 325.9 313.8 296.7 272.5 257.3 252.7 247.4 238.8 230.1 205.6 191.4 187.1 161 148.6 128.4 117.4 109.4 105.9 100.9 96 93.1 87.2 79.3 76.4 76.1 71.1 66.4 67.5 72.1 71.7 69 61.1 54.7 45.5 41.7 39.8 38.4 38.3 37.6 37.2 37 35.9 36.7 39.7 47.4 76.6 119.3 144.1 153.2 160.6 164 174.4 179.6 196 201.8 213.9 219.7 237.3
525.8 527.6 524.8 523.6 520.9 520.6 520.5 521.4 524.1 525.1 525.9 526.1 524.9 521.4 517.3 511.9 502.6 492.9 486.1 478.9 471.8 466 459.4 452.7 446.3 439.2 428.9 423.3 413.1 402.1 391.9 383.3 373.7 366.2 361.2 353.1 342.5 332.2 319.9 303.5 284.7 280.5 274.5 272.3 272.7 276.6 284.5 298.7 297 283.1 285.7 281.9 287.8 299 309.1 305.8 299.6 288.4 268.4 223.9 190.3 170.4 154.4 136.2 127.8 127.1 126.2 127.2 131.7 127.8 133.5 150.7 171.5 183.1 189.4 191.8 197.4 211.8 222.9 231.3 240.5 256 264.5 269.1 269.4 270.1 273.2 281.6 287.1 300.5 314.4 346.4 354 360.2 371.7 391 405.9 426.6 444.5 453.3 464.8 479.6 494 503.4 515.5 532.4 551.1 565.5 580.8 584.3 579.9 577.2 574.6 568.2 567.6 548.3 521.9 495.1 446 417.6 401.9 391.7 384.8 380.6 378.6 380.2 381.4 384.5 388.9 392.8 401.7 427.2 445.2 453.1 458.1 456.4 446.8 423 389.4 366.8 343.8 329.7 322.8 314.9 301.9 282.5 272.5 269.4 259.2 240.7 219.9 204.3 191.1 173.5 158.4 143.8 127.6 117.5 110.7 107.5 101.3 98.2 91.2 90 86 82.2 80 74 68.3 65.1 68.7 70.4 68.3 61.1 53.6 49.4 43.9 42.7 37.7 37.6 37.6 37.5 35.4 36 36 40.2 55.3 78.7 101.7 125.5 145.1 166.7 172.3 177.9 197.1 206.9 218.9 231.3 236.3 250.5
514.9 515.2 513.5 512.2 510.1 509.8 509.6 511.5 512.5 514.3 515.5 515.6 516.1 513.1 510.1 503.3 495.8 487.2 481.3 475.8 470.4 465.3 460.3 455.7 451.1 445.5 438.9 430.6 423.5 414.5 401.9 391.4 382.6 376.7 368.4 360.6 353.9 340.3 326.6 310.7 287.4 277.6 272.6 270.8 268.8 274.4 281.2 291.4 289.4 273.1 267.3 267 272.6 276.1 284.7 281.2 292.1 279.5 248.6 217 184.6 157.2 146.5 130.6 126.5 126.1 126.5 127 127.7 126.5 139.4 158.6 175.9 183.4 187.9 191.2 198.2 212.4 226.7 235.9 245.4 256.4 259.7 263.6 269 272.5 276.8 279.5 289.1 303.3 321.9 346.4 352.1 365.8 374.2 393.2 403.4 417.9 435.4 445.6 455.8 467.4 481.6 489.9 507.4 522.9 544.9 561.8 578.4 588 593.2 594 596.9 598.1 594.8 575.2 547.1 504.7 476 433.9 411 402 393.5 386.1 385.3 388.7 391.6 395.8 400.1 403 412.7 434.3 455.6 468.3 468.5 460.1 435.5 403 379.5 363.9 348.3 334.5 327.8 322.2 306.7 294.3 288.2 279.9 267.7 247.5 225.1 214.9 191.6 172.4 154.4 138.5 126.7 118.2 112 107.3 101.6 97.7 97.1 95.1 93.9 88.9 84.8 77.3 71.8 65.1 63.9 65.3 60.8 58.9 55.6 53 42.1 38.9 37 37 37 36.2 35.5 34.5 34.8 39.8 50.4 78.5 104.3 142.3 157.5 175 182.8 198.4 211.3 223.9 237.8 245.9 250.8 254.5
502.8 502.4 504.1 502.6 500 496.9 499 498.6 499.8 501.6 504.4 505.2 505.1 503.7 498.7 491.6 486.5 480.7 476.3 471.9 467 462.3 458.5 454.5 451.4 448.6 446.6 442.8 438.2 430.1 419.6 410.1 400.8 391.8 379 369.7 361.2 349.1 331.4 310.2 290.6 278 273.1 270.3 267.4 268.6 272.8 277.4 274.8 258.9 259.6 255.6 248.1 250.4 269.2 263.6 257.5 248.3 224.4 205.1 183.1 154.6 134.4 125.9 125.6 126.1 126 126.5 126.2 126.3 139.2 165.1 176.5 182 184.3 189.8 199.8 209.3 222.5 235.9 246.8 253.3 258.6 267.2 273.1 276.3 273.8 272.1 289.9 304.4 327.5 347.5 351.6 363.9 374.8 385.4 395.4 406.8 426.7 436.3 445.7 459 471.4 484.2 498.8 515.6 539.8 562.1 578.8 595.7 610.1 614 614.5 616.2 612.7 595.3 564.3 544.3 494.6 454.7 425.6 412.5 403 396.8 394.1 397.2 400.7 405.8 410.8 414.6 422.9 442.9 470.6 473.6 474.9 445.8 413.1 385.2 364.1 348.8 339.1 330.9 334.1 331.2 321.7 310.8 304.7 296.2 283.4 260.4 238.5 215.1 190.1 171.5 152.9 138.2 127.1 120.8 112.7 106.3 102.2 99.4 99.9 99.3 96.7 91 89.3 79.7 73 72.5 62.2 61.3 60.1 58.7 61.5 51 40.4 37.3 36.4 36.4 36.4 35.8 35.3 34.2 35.6 39.6 50.1 70.8 98 145.1 172.8 186.1 205.9 217.9 232 241.1 252.2 262.2 258.3 263
491.1 492.5 493.5 490.5 487.3 486.1 487.2 487.8 489.3 491.3 493.9 495.1 493.7 490.3 487.9 484.2 480.9 475.7 471.5 467.1 463.2 459.7 456 451.6 449.3 446.7 448.9 448.4 446.6 443.5 436.6 428.7 421.5 409.8 398.5 380.1 370 362.3 349 325.3 301.2 284.7 273.8 272 271.4 264.9 263.4 263.9 263.3 249.9 251 242 237.4 234.3 234.7 238 234.8 242.5 225.6 196.5 172.7 147.1 127.1 126 125.5 125.7 125.4 125.9 125.8 126.6 141.7 164.7 173 177.1 183.3 192.1 197.8 206 217.4 233.9 244.9 251.2 259.6 267.2 271.5 273.6 264.9 269 286.6 309.2 334.7 343.7 349.9 359.5 375.2 380.6 385 400.2 417.9 428.1 441.9 453 466.3 481.1 493.4 510.1 533 557.6 575 604.2 620.7 633.8 642 638.5 627.7 612.2 591.5 573.6 547.3 475.1 445.7 431.7 424.7 408.1 403.3 409 412.6 416.2 421.2 428.3 433.7 454.8 477.2 482.9 469 431.5 403.7 377.7 358.6 347.9 341.1 337.2 343 343.2 332.5 327.2 320.5 312.9 298.5 279.8 246.8 218 193.5 170.8 155.3 139.8 129.5 123.3 113.3 107 104.2 101.4 102.5 101.5 97.3 95.9 90.7 80.4 74.2 70.1 62.5 60.9 60.4 62.6 60.1 46.5 38.5 36.6 35.9 35.7 35.7 35.6 35.3 33.9 34.9 40.2 52.9 75.5 108.4 143.6 179.2 208.6 222.8 235.5 244.4 255.4 265.7 272.5 266.4 258.3
478 479.3 478.6 476.2 476.4 475.2 475.4 476.6 479.5 480.9 483.5 483.2 482.9 480.9 477.5 475.9 474.1 470.5 466.4 462.2 458.1 455 452 448.3 446.9 445.9 449.1 450.7 451.5 450.3 448 442.8 436.4 424.4 408.3 397.7 388.3 376.3 371.1 351.9 316.9 295.5 283.4 275.4 275.6 271.4 265.7 261.5 248.8 244.6 239 232 228.4 226.5 222.5 219.6 214.4 217.8 221.9 195.9 175.8 148.7 126.5 125.2 125.3 125.4 125.8 125.7 125.6 126.2 147.9 165.9 168.8 172.6 182.9 188 192.3 201.7 212.3 230.3 243 249.9 254.7 259.7 260 259.1 260.1 269.8 283.5 310.6 335.6 339.8 347.6 357.3 368.3 371.9 384.1 402.4 417.8 428.9 443.5 454.9 467.4 482.4 490.9 506.3 526.5 551.5 573.1 594.9 614.5 634.2 646.7 648.1 641.3 625.1 605.2 584.6 565.2 541.8 475.5 452.6 445.2 425.6 418.2 421.9 425.6 429.3 434.9 441.9 448.4 468 494.3 487.2 455.9 425.2 395.4 384.8 366.4 357.2 347.4 347.7 352.2 357.5 346.3 339.1 333.2 326 306.1 270.8 245.5 223.2 197.5 176 158.4 145.3 131.2 122.4 115.1 107.7 105.8 104.7 105.9 105.6 101.5 98.3 91.5 82.7 76.7 70.2 63.7 61.4 60.7 57.3 51.4 41.7 43 37.1 36 35.4 34.8 34.8 34.3 33.9 34.5 37.3 50.1 86 125.7 173.8 212.1 222.1 239.9 250.7 252.5 265.8 279.6 269.5 269.8 261.9
465.3 466.6 466.3 465.3 464.1 464.4 464.9 465.5 467.8 469.4 469.1 470.6 471.3 469.8 469.4 467.7 466.2 463.4 461 456.4 453.3 450.1 446.7 443.7 442.3 444.1 447.8 450.9 453.6 455.2 454.5 452.4 447.9 439.6 429.8 417.5 404 393.3 381.7 355.3 326.8 310.3 295.6 283.1 283.8 278.7 272.6 265.9 263.4 254.4 239.6 228.1 222.9 218.3 217.2 211 209 213.1 218.4 190 166.8 138.1 126.8 125.2 124.8 125.2 125.4 125.4 125.3 126 149.7 159.4 164.6 169.4 177.5 182.4 189.9 194.3 207.1 229.3 243.6 247 248.2 244.7 245.8 253.5 258.5 265.5 281.6 305.5 330.5 333.5 343.4 352.3 362 371.1 383.1 402.5 419.2 431.6 444.8 456.9 468.4 482.7 487.1 504.4 525.8 544.1 567.9 583.2 597.8 617.4 627.6 638 637.5 631.4 615.3 591.4 570.3 545.4 496.2 470.5 453.3 439.5 434.8 438 439.8 439.8 450 458.6 473.1 485.5 512.5 485.1 457.2 423.7 407 395.6 381.8 369.5 362.1 364.6 367.1 370.6 361.2 358.1 345.5 335.2 312.2 279.7 250.7 226.4 204.4 184.4 163.3 146.2 133.6 123.1 114.5 110.2 106 108.8 111.2 110.9 106 102.1 95.2 87.8 81.6 74.7 68.3 63.6 61.3 56.1 49.3 40.4 36.9 36.9 35.7 36.5 36.6 34.3 34.4 33.4 35 37 62.7 96.5 149.2 210.4 225.1 231.3 251.1 260.3 263.9 276.3 283.9 271.9 271.4 263.8
453.7 454.7 455.7 454.4 453.9 453.3 453 452.6 452.4 455.1 456.2 458.8 459.7 460.3 459.5 459.6 458.9 458.4 454.8 451.6 448.7 444.6 441.4 439.1 437.7 441.4 445.2 449.1 453 456.7 458.1 455.7 452.2 446.9 439.7 428.6 414.4 398 386.2 364.5 337.7 321 306.8 288.7 287.1 281.4 272.6 267.1 262.3 256.7 241.5 235.1 227.4 219.7 216.6 212.7 202.6 209 208.4 188.6 162.6 137.4 128.5 125.2 125 124.7 124.6 124.7 124.8 125.8 147.6 153.7 159.8 168 173.4 177.9 185.8 190.1 199.9 220.1 234.7 233.7 235.6 232.2 238.2 247.2 253.5 267.6 284 298.6 312.2 327.5 340.2 351.3 362.5 369.9 384.8 404.2 419.8 432.9 446.7 457.8 469.1 482 487.9 503.5 525.9 544.7 558.4 565.5 579.4 593.8 604.6 610.5 619.9 625.5 612 591.7 571.8 553.9 519.4 491.5 475.3 464.3 453.5 453.2 452.4 450.7 459 479.5 499.1 515.9 513.6 477.3 448.7 422.7 410.5 406.3 398.7 391.6 392 390.1 387.3 387.9 382.9 375.4 357.4 341.5 314.7 286.9 255.9 230.7 206.5 188.3 168.8 150.6 136.3 126.2 117.1 112.1 109.8 111.9 115.2 115.3 111.2 106.2 100.8 92.6 86.6 75.8 75.4 71.7 65.2 60.7 54.2 45.3 37.1 35.7 35 35.6 34.9 34 33.7 33.5 33.7 42.6 77.1 113.4 170.6 219.9 233.4 244 261.5 269.1 281.3 284.9 290.9 280.4 270.2 264.3
440.8 443.3 443.2 443.8 441.7 441.3 437.8 437.1 437.9 440.1 441.5 442.7 445.1 449 451.1 451.3 450.9 450.3 449.4 446.9 444.1 440.5 436.9 434.8 434.1 438.2 441.6 445.8 449.8 454.6 457.7 457 450.8 445.7 439.4 429.9 419.8 403.7 386.2 363.3 345.3 325.8 305.5 293.1 289.1 284.9 270.9 267 258.8 251.8 244.4 237.8 227.3 219.9 216.3 216.2 200.1 202.6 206.4 190.7 167.5 141.2 131.3 125.5 124.1 124.3 124.2 124.4 125 126.5 139.9 147.6 154.3 162.5 167.7 172.8 178.2 183 192 206.9 221.2 227 226.3 225.1 232.9 241 251.3 265.3 283.4 302.8 317.5 328.3 339.7 353.1 364.6 376.1 387.9 406 420.3 436.2 449.9 461.4 468.3 479.5 487.7 498.9 524.6 543.6 548.2 552 560 575.8 579.8 586.1 580.6 585.5 590.9 581.4 563.5 559.1 531.3 509.2 491.6 478.8 469.7 468.3 467.3 468.1 476.3 501.9 534.5 541 501 474.5 452.8 426 418.6 419.2 421.2 415.6 411.9 404.6 401.6 405.8 399.8 384 363.6 335.1 312.9 290.9 259.7 235.1 212.3 191.6 173 158.1 144.9 132.1 121.2 114.9 110.7 115.1 118.4 119.4 116.8 113 107.1 99.3 91.1 88.7 83.8 78.6 78.3 76 65.6 50.9 41.1 37.2 35.5 34.5 34.2 33.6 33.9 34.3 33.4 49.8 84.3 129.9 195.5 223.7 241.4 257.5 274.4 285.8 286.6 286.6 295.4 282.4 267.5 249.5
426.7 429 427.6 427.1 428 427.1 426.9 426.8 426.8 428.4 431.2 433.4 434.7 437.6 440.6 443.4 444.3 443.7 442.7 441.9 440 436.6 432.7 430.4 430.3 433.7 436.3 439 442.4 447.1 451 451.6 446.6 436.8 428.8 421.4 414.8 401.3 390.2 372.2 347.9 323.8 304.1 295.7 290.9 282.8 272.9 267 259.3 252.9 245.3 235.8 228 220.3 212 210.2 196.4 198.7 199.7 193.5 173.2 147.2 133.6 126.7 123.8 124 124 124.1 124.6 127.2 133.1 142.9 148.3 155.1 160.5 165 170.4 177.2 186.4 197.6 211.1 216.5 216.7 220.7 233.9 241.3 253 266.9 289 305.7 317.1 329.3 340.2 352.9 366.9 381 393.5 406.5 423.5 440.4 451.8 461.6 465.9 476 483.3 491.7 508.8 529.6 532.7 530.1 530.7 547.9 565.6 564.4 569 569.1 572.3 567.6 560.8 564.2 541.5 522.8 508.1 498.2 486.1 481.5 483.7 497.4 502 526.1 549.1 556.8 521.4 486.4 463.6 434.2 427.6 429.8 432.2 426.1 430.7 422.1 420.6 419.7 401.5 378.7 355.2 329 307.1 289.2 264.8 244.4 220.9 202.5 184 167.7 154.2 139.9 127.3 119.2 118.1 118.8 122.2 122.9 121.5 118.8 113.6 109.3 99.3 97.1 93.4 89 88.7 92.4 73.6 58.3 45.6 38.3 35.3 34.7 34.2 33.5 33.4 34 34.1 58.3 95.7 134.5 191.2 232.2 247.8 273.3 281.7 297 291.4 291 301.8 287.3 265.6 242.9
414.2 416.2 416.7 415.6 415.4 416.5 417.8 416.4 415.6 416.7 417.9 422 426.8 430.2 434 435.6 436.4 437.4 437.6 437.1 435.3 430.8 428.9 426.4 426 428 430.3 431.5 432.9 435.2 437 436.5 435 428 418.6 414.3 407.4 397.8 380.6 361.8 330.5 316.7 304.1 297 294 285.7 275.3 270.1 261.2 254.8 246.7 239 228.1 219.2 202.7 194.1 192.1 199.7 211.9 200.3 176.8 155.1 137.4 126.9 125.2 123.7 123.7 123.8 124.7 127.8 131.5 142.2 147.7 152.6 157.3 163.3 168.7 175.5 183.4 191.2 199.4 206.4 211.4 221.8 237.5 246.1 255.2 273 291.1 306.8 317.3 329 339.2 352.2 369.4 383.2 394 405.7 428.2 444.8 453.7 457.4 461.5 468.8 475.2 483.1 490.6 504.5 503.6 503.3 512.1 516.2 534.5 550.2 557.5 557.4 563 560 560.8 571.3 548.8 534.4 525.3 530.6 513 508 505.7 518.5 529.5 553.2 566.8 573.7 553.3 497.8 481.9 455.7 439.1 436.1 441.3 438 452.9 450.1 445.2 425.9 394.1 369.5 342.4 327.3 309 288.7 272 252 233.9 212.9 194.7 181 167.2 147.2 135.5 125.9 123.5 123.6 125.8 127.1 126 123.3 120 114.6 108.2 105.6 105.3 94.5 94 83 77.4 71.4 48.7 39 34.8 34.4 33.9 33.9 33.8 32.9 34.5 62.7 103.2 153.8 200.6 234.9 258.8 291.6 288 305.7 298.2 296.9 288.4 278.7 258.2 230.4
400.6 401.9 404.6 405.5 405 405.4 404.1 404.1 404.6 406.4 409.1 411.9 416.5 421.5 426.4 428.4 429.6 431.7 433.2 432 429.9 427.5 424.4 421.5 420.4 422.4 422.9 423.2 424.6 424.3 423.8 422.9 419.9 416.4 413.3 408 397.1 385 370.5 345 326.6 314.6 308.5 306.6 304.9 290.5 277.8 270.9 264.8 253.9 246.8 237.9 226.4 214.6 196 190.8 189.8 196.9 205.2 197.7 177.6 155.4 140 129.8 125 123.3 123.4 123.6 124.5 128.1 134.7 141.2 146.7 151 156.5 162.6 169.1 177.7 186.3 189.4 193.6 204.2 213.5 227.3 239 249.3 258.6 275 293.1 306.3 315.9 325.4 339.5 353.8 369.5 382.8 392.3 409.5 431 448.3 454.3 452.9 455 458.9 466.2 474 477.3 481.3 483.8 484.9 480 482.6 492.3 521.3 539.5 548.4 548 562.1 571 553.5 536.6 537.1 542.4 545.2 543.3 543.5 543 544.1 559.7 575.6 584.8 591.1 576.7 517.5 490.4 468.3 450.1 448.9 447.4 449 473.8 474 458 429 389.9 365.5 345.7 327.7 311.6 294.9 279 262.3 242.6 221.6 209.5 192.4 176.4 160.1 143.7 131.3 128.7 127 130.4 131.6 131.2 129.1 126 119.9 114.6 109.7 104.5 97.5 95.2 87.7 87.3 71.6 54.6 42 34.7 33.9 33.7 33.6 33.4 32.6 34.9 69.8 111.6 162.1 204.8 242.6 267.1 292.9 296.1 301.7 293.9 296.7 282 263.8 247 223.9
386.4 390.9 392.1 392.7 393.7 395.8 396.1 394.5 394.9 398.6 401.7 403.4 410 415.4 420.1 422.4 423.9 425.7 426.9 426.7 425.7 423.6 420.4 416.9 414.7 414.7 416.7 416.2 416 416.1 414.4 414.4 413.4 412 408 402.2 391.4 376.3 358.7 344.6 329.7 317.4 314.6 309.3 307.3 293.2 280.8 271.1 263.3 252 245.4 234.5 224.2 209.7 191.5 188.7 191.4 202.8 210.4 193.8 171.3 152.6 144.8 132 124.3 123 123.5 123.8 124.8 130.2 135.2 140.9 146.6 151.5 156.7 164.7 175.6 180.5 185 186 194.1 206.8 216.8 232.7 243 256.1 260.6 277.8 294.4 304.9 314.7 325.6 337.3 352.5 368.6 381.4 391.4 412.5 432.5 446.3 448.6 446.1 448.3 448.3 451.6 459.5 464.3 469.9 471 468.7 472.5 469.9 468.3 480.5 494.8 522.3 545.9 545.2 541.3 534.9 540.2 545.8 563.9 565.1 566.5 565.2 568.6 569.4 577.5 589.7 602.1 611.7 605.5 541.3 502.7 487.9 467.4 468.3 466.4 472.6 494.9 489.6 455.5 420.7 390.4 369.2 349.8 334.2 322.5 307.8 290 277 248.8 232.3 220.7 208.5 196.2 181.1 157.3 136.9 133.7 133.2 136 138.1 138.1 135.9 132.8 127.1 122.1 116 114.9 107.6 101.4 99.5 93.1 72.5 62.4 47.2 36.5 34.4 33.6 33.5 33.3 32 38.7 71.9 115.7 153.7 207 223.8 247.7 276.5 299.8 292.4 295.4 283.6 270.3 251.8 237.1 216.7
376.1 379.2 381.1 382.5 384.6 385.9 386.6 386.3 386.5 391.4 395.2 399.1 405.6 410.8 413.7 414.5 417.7 419.9 420.5 421 419.9 418.4 415.1 410.8 409.9 409.4 410.5 410 410 408.4 408.2 407.4 405.3 404.8 402.8 395.5 384.2 368.6 355.7 345.9 328.6 317.3 314.8 308.4 305.1 293.7 287.3 267 260.9 247.4 239.1 232.4 222.5 211.3 187.7 186.3 189.2 185.7 185.6 178.2 166.6 146.5 140.8 131.8 124.7 124.5 122.4 123.1 124.3 131.4 136.8 143.2 147.7 155.5 162.9 171.2 179.4 181.5 182.7 185 195.6 209.9 221.7 234.1 243.6 255.2 265 281 291.3 300.9 312.8 325.1 338.4 356.1 368.3 379.9 391.3 412.6 428.6 435.7 436.8 432.6 432.5 437.1 441 447.9 451.1 458.4 454 449.6 451.3 454.5 462.5 468.8 483.1 494.5 504.9 511.3 518.6 525.3 534.5 545.7 565.8 576.5 580.7 578.7 578.2 584.9 589.5 613.4 624.6 629.6 640 591.1 526.4 504.4 487.7 488.7 491 507.4 511.2 490.9 455.8 419 394.6 372.7 359.5 344.8 339.8 323.7 307.5 283.7 255.1 244.6 234.2 225.4 216.1 201 169.1 145.2 139.7 137.7 143 145.4 145.2 143.4 139.7 135.5 131.5 126 121.6 113.4 110.9 112.3 96.8 81.7 74.1 59 39.5 36.7 34.4 36.7 32.8 31.6 40.8 70.2 113 157.8 201.9 223.1 240 263.3 293.6 284.9 285.3 268 257.4 245.7 229.7 211.8
364.6 364.5 367.7 370.8 373 374.6 378.1 378.6 381.8 386.8 390.9 397 401.3 403.7 404.7 407.1 409 412.3 414.1 414.4 413.5 411.9 408.7 405.8 403.4 404.9 404.7 404.7 404.4 403.1 401.9 398.9 398.4 396.8 396.2 393 381.4 364 354.1 342.5 330.1 314.2 312 301.9 298.9 293.7 290.2 262.9 256.8 249.4 240.4 228.4 223.2 205 186.8 182.3 181 173.3 170.7 166 157.1 137.6 134.9 130.5 126.7 124.5 122.4 122.5 125.3 131.9 139.2 144.3 151.3 159.7 169.7 177.1 182.1 179.2 180.1 186.3 197.9 212.5 228.1 233.1 246.1 256 266.3 277.9 289.1 298.8 310.7 326 340.8 356.8 367.1 375.7 384.9 404.7 418.4 422 417.4 415.7 421.3 425.7 429.4 433.2 434.5 440.4 440.5 433.4 436.9 451.8 454.3 456.2 476.5 482.3 485.7 501.4 514.6 520.5 543.1 554.7 570.3 584.2 590.7 588.7 588.9 595.6 603.3 623.9 641.8 646.8 656.2 627.3 554.8 534.2 517.2 515 524.8 529.3 517.6 497.1 464 421.7 397.7 380.8 366.9 357.2 351.7 337.2 324.6 292.5 267.1 254.3 245.9 240.1 231.4 196.7 171 152.6 146.1 144 148.8 151.9 152.7 152.1 148.8 145.3 142.2 137.2 133.5 126.8 122.7 117.9 101.7 96.4 91.4 71.2 50.2 46.2 43.6 39.5 34.6 33.2 40.6 64.6 109.2 152.2 183.3 204.6 226.3 260.3 279.4 269.1 259.4 249.4 244.1 235.7 224.5 214.5
350.5 351.5 354.5 357.8 360.8 365.5 369.5 372.1 376.1 381.3 387.7 391.9 396.4 399.8 403.3 404.7 405.2 406 406.7 407.5 405.8 404.3 402.6 400.4 399.5 400.3 400.4 399.4 398.5 395.7 394 390.8 388.8 385.6 383.6 384.1 371.4 354 344 332.5 324.5 307.5 306.5 296.6 295.6 292 286.7 265.9 253.8 243.2 234.6 226 220.2 197.6 186.5 183.5 175.3 164.5 163.4 157.3 148.7 128.3 127.3 125.1 123.9 122.5 122.5 122.9 127.2 135.8 141.6 146.7 156.1 165.6 174.5 183.6 185.3 177.4 178.4 186.2 202.5 223.5 228.5 234.2 244.3 254.4 266.1 276.9 286.3 297.4 312.7 326.8 343 354.3 363.3 369.4 374.1 396.4 408 407.5 404.2 402 400.3 399.1 409.8 414.3 418.2 428.3 428.4 428 429 433 449.4 452.1 464.3 476.4 484.4 491.6 505.4 528.5 544.9 561 578.6 595.8 598.1 597.1 602 612.1 623.3 634.9 655 660.8 673.6 664.1 590.1 568.1 557.6 548.2 557.6 544.9 528.2 503 458.8 430.3 405.2 387.2 376.2 368.7 365.5 355.1 338.7 299.6 278.5 265.5 257.8 249.5 221.3 199.4 179.7 161.2 153.7 149.6 155.9 160.4 161.8 162.4 158.2 158 155.3 152.4 145.8 138.9 135.3 128.6 121.7 120.5 92.5 79 55.6 52.3 48.4 44.5 40.4 31.3 34.3 54.4 97.1 141.2 159.5 185.4 218.1 254.4 260.6 252.1 235.8 237.4 234.3 227.6 225.8 213
334.8 340 343.7 347.6 352 357.5 361.5 367 371.7 376.1 382.1 388.3 391.9 394.7 397.8 399.8 400.4 401.3 401.7 402.2 400.6 399.3 396.8 394.9 393.5 394.7 395.6 394.3 392.5 389.4 385.5 381.3 377.4 374.8 370.1 363 352.6 341.1 331.5 324.2 312.4 301.4 298.2 289.9 287.6 290.3 285.4 267.7 253.4 240.2 231 223.2 215.1 193.6 188.7 186.1 175 161.8 153.9 150.2 137.8 126.5 124.6 123.6 122.8 122.4 121.9 126.2 130.1 138.4 143 150.9 160.9 170.2 177 184.6 184.1 176.1 177.6 187.3 208.1 224.1 228.6 234.6 242.1 256.8 265.3 275.7 284.3 298.7 313.1 326.6 340 350.5 358.4 363.1 366.4 383.2 396.2 397 392.2 383.8 379.8 381.2 393.1 398.9 402.6 413 415.2 423.3 427.2 432.7 445 450 457.7 466.7 477.3 487.2 508.5 528.9 547.2 566.6 582.2 605.4 612 614.5 623.4 634.5 647.1 654.4 670.6 685.7 696.7 699.7 640.2 599.4 590.9 578.7 570.4 553.2 537.2 508 467.6 441.6 417.2 397.7 384.7 377.1 371.8 359.8 338.2 311.1 289.7 280.3 271.9 256.9 238.5 205.6 184.9 169.2 163.6 160.7 166 169.8 171.4 171.4 169 169.1 168.7 165.5 160.4 156.2 149.5 146.6 151.2 121.9 95.9 76.4 60.8 55.9 52.7 49 45.7 40.3 30.5 46.8 80.5 120.6 154 181 210.1 253.8 244.4 228 224.6 223.8 223.8 225.1 228.9 221.3
323.2 327.1 333.8 338.8 343.6 348.7 355.2 361.7 367.6 372.9 378.7 383.3 387.1 389.2 392.2 393.2 395.2 396.2 396.6 396.8 395.8 392.7 390.4 386.6 386.9 389.9 390.6 390.4 389.1 385.3 380.3 375.4 369.9 365.4 361.2 353.8 345.3 333.6 324.3 314.6 305.8 296.5 290.7 282.5 279.6 289.7 279.4 269.6 258.1 237.8 229.4 223.6 211.7 196.1 191.5 183.1 170.5 163.3 153.3 139.4 134.2 126.7 124.3 122.8 122.4 122.1 122 127.5 133 140.9 144.4 154.9 164.5 172.4 177.9 183.6 182.8 174.2 176.4 189 207.4 219.6 231.5 235 242.2 257.6 265.3 272.7 284.5 299.3 311.8 324.1 335.9 346.7 353.2 355.9 359.1 370.7 381.7 384.4 378.4 374.8 373.9 374.1 379.3 383.3 386.5 389.5 406.3 421.8 429 430.6 445.2 449.3 455.1 466.2 472.9 487.2 495.5 516.1 539.4 562 588 616.4 627.9 634.4 646.9 661.9 672.4 685.6 697.8 709.3 717.8 721.3 694.9 651.1 614.8 583.2 570.4 552.9 539.5 516.5 491.8 458.4 433.3 413.1 401.2 387.4 375 365.2 343.1 322 305.8 291.6 283.3 260.5 236.9 211.7 193.6 181.1 173.2 172.2 176.3 179.7 180.6 181.2 181.4 182.1 180.4 177.2 173.6 171.4 166.7 171.9 150.4 110.2 92.2 70.6 62.8 59.3 62.6 61.8 48.6 34.5 31.1 43 73.3 115.2 154.7 163.8 188.8 217.7 219.5 220.5 218.1 219.1 221 226.1 220.3 216.1
316 319.7 324.2 329.3 335.5 339.8 348.7 357.5 363.1 368.9 372.8 376.4 380.4 384.4 386.1 386.6 387.9 389.3 388.6 389.6 388.4 385.5 384.1 376.6 377.7 381.9 383.1 385.7 384.8 381.2 376.1 369.8 362.2 355.8 348.8 345.2 334.5 326.4 317.5 308.3 299.9 293 286.2 277.6 274.9 278.4 276.3 265.9 251.2 237 224.3 213.8 208.8 202.7 190.5 168.4 162.7 164.3 147.4 135.8 130.9 124.8 126 122.8 122.1 121.9 122.9 128.2 138.3 142.1 147.6 158.2 168 174.2 181.2 184.9 183.3 171 175.1 187.5 202.2 214.6 228.4 233.7 243.2 256.9 265.1 272.2 286.5 299.7 310.1 320.7 330 339.2 346.1 348.7 351.9 360 366.4 370.6 366.3 364.2 368.9 369.8 376.1 378.3 380.1 386.5 399 410.6 421.6 429.5 438.5 453.6 471.1 475.4 481 489.8 495.7 517.2 533.2 556.9 593.9 612.8 641.2 654.6 669.2 686.5 704.8 717.2 727.5 737.9 736.6 709.2 682.9 651.5 617.7 588.4 564.9 549.8 537.7 519.8 506 481.1 457.6 438.6 417.6 402.5 385.7 377.5 359.5 334.1 316.6 303.2 279.6 255.4 236.1 221.6 205.9 191.9 180.8 185.1 187.8 190.7 191.8 193.2 193 193 192.1 189.5 187.8 186.2 187.5 181.5 147.3 114.8 91.3 67.5 64.5 59.6 50 39.1 33 29.9 31.9 34.4 62 108.7 149.2 148.9 176.3 205.6 219.6 216.3 214.7 222 227.2 217.3 202 210.5
308.3 312.4 317.9 322 326.3 334.3 342.4 350.9 357.2 363.6 368.5 370.4 373.3 376.4 378.9 376.6 381.1 381.2 381.1 381.6 379.1 377 374.6 366.6 371.6 375.4 379.8 383.1 381 376.9 372.1 366.3 358.7 349.8 342.9 333.8 325.4 319.3 312.3 303.2 294.2 286.6 281 273.8 272.1 272.6 272.6 262.2 244 237.3 222.9 212.7 204.8 198.1 183.2 165.2 161.3 159 137.9 127.4 126.1 125.5 128.3 122.1 121.8 121.5 122.8 132.6 140.3 144.8 153.4 163.1 170 174.6 181.2 179.7 174.5 170.1 173 185.5 199.2 214.4 227.7 233.7 239.5 252.9 262.6 271.1 286.2 298.3 307.4 315.9 325.7 333.2 337.3 339.5 341.4 352.5 354.9 353.3 352 352.3 360.8 362.9 365.1 372.1 381.8 388.4 407.9 415 420.5 427 443.9 464.9 474.8 485.6 487.9 493.4 501.5 521.1 534.2 562.6 589.2 610 640.2 665.4 683.9 703.8 722.5 738.4 750.4 762.1 737.6 705 677.2 644.4 612.1 580 563.2 548.9 539.3 524.1 508.4 485 469.6 454.7 440.2 418.8 398.7 382.1 359 343.3 326.7 306.9 286.3 259.5 244.3 228.1 213.5 197.9 194.3 197.7 200.2 203 205 206 205.7 205.5 204.7 204.8 203.8 202.3 198.8 195.4 158.8 122.8 91.7 71.4 61.5 51.2 38.9 34.7 32.7 29.4 31.8 33.5 62.8 97.4 135.3 143 167.9 208.3 207.9 211.9 217.9 225.7 220 222.8 205.7 185
300.4 305.9 311.3 316.9 321.7 325.6 336.2 342.5 349.5 356.9 362.2 366.7 368.2 369.7 371.9 370.6 371.5 372.4 371.4 371.4 370.7 369.7 366.6 360.7 364.7 371.7 378.1 380.1 378 373.9 369 363.6 356.2 346.2 338 330.3 322.9 314.1 306.3 295.9 289.6 281.4 275.3 269.1 268.9 268.4 263.8 256 240.1 230.1 217 209.6 195.3 198.1 181.2 166.4 158.7 152.4 133.5 125.8 124.7 126 126.8 121.4 121 120.7 123.9 134.5 141.9 147.2 156.7 166.8 172 167.7 169.3 171.3 168.4 170.3 177.4 195.4 201.9 213.9 226.3 234.1 239.6 248 259.7 271.1 284.1 293.6 301 311.6 320.3 326.5 329.1 329.8 331.6 338.5 338.3 341.7 340.6 341.5 349 355.5 362.3 368.2 377.4 392.9 411.8 421.5 426.4 437.1 451 458 476.4 483.2 489.2 496.3 511.2 527 548.9 565.7 589.2 610.9 645.4 676.9 698.2 718.2 736.5 751.3 762.9 768.2 729.6 695.5 668.4 639 602.7 573.4 557.8 540.1 534.3 528.3 514.6 494.5 468.4 456.7 446.8 436.8 415.9 381.4 364.8 352.4 333.4 308.4 285 267 248.3 230 218 212.7 210.1 212.1 213.6 215.7 217.5 219.8 218.2 217.5 217.9 217.3 216.6 217.3 213.7 198.7 177.7 132.4 97.2 79 62.6 46.8 36 33.5 32.3 29.1 31.7 32.7 51.3 89.8 119.1 131.9 167 199.1 204.3 212.8 218.2 217.6 220 206.9 192.8 180.5
292.5 296.8 305.6 312.8 318.1 321.8 326.6 335.1 341 349.2 356.5 359.5 361.5 361.8 362.9 362.4 360.9 361.3 362.3 362.1 360.9 361.4 359.5 355.5 361.4 372.8 379.3 380.8 377.4 373.2 368.8 361.7 353.1 343.5 334.6 326.6 319.3 309.7 301.4 289.9 279.9 273 271.8 264 264.9 264.1 259 248.7 235.3 225.3 211.7 202.5 194.2 182.8 176.7 162.5 154.1 139.8 124.9 124.6 124.3 125.2 122.3 120.4 120.9 123.7 125.7 135.8 141.1 147 157.8 165.5 165.3 159.9 160.5 161.9 167.2 171.6 179.8 193.9 200.6 211.2 223.1 231.1 237.2 247.5 259.2 269.9 279.3 287.6 297.2 305.3 314 320.2 322.9 322.6 322.3 326.2 328.4 332.3 333.1 336.5 346.5 355.8 366.5 373.5 385 404.5 420.1 429.2 431 446 463.2 470.2 473.9 481.5 486.8 495.7 515.8 536.2 558.6 575.7 605.3 627.8 661.9 686.1 710.1 729.3 747.9 762.5 773 764.3 718.5 683.4 654.8 628.1 592.4 558.1 543.9 527.7 528.1 522 513 492.3 469.1 454 446.1 440.1 411 391.1 372.2 357.1 328.3 307.6 291.7 277.7 253.5 234.9 232.3 227.6 224.6 225.7 227.7 230.2 232.7 233.6 234.6 232.6 232.1 231.9 233 228.8 214.3 199.3 171.4 148.4 115 92.8 71.5 53.4 40.3 34.1 32.6 29.1 30.8 32.2 43.9 78.2 106.8 132.5 168.9 188.9 196.9 208.7 215.6 212.9 205 202.4 188.7 171.7
283.7 293.5 301.1 307.7 312.6 315.7 318.7 322.2 331.9 338.9 344.2 349.5 351.1 351 353.2 352.5 350.4 351 352.7 353.3 354 354.1 353.4 350.9 358.1 368.7 376.8 379.9 378.3 373.6 368.1 360.3 351.1 340.8 330.4 322.3 313.6 305.6 296.6 285.7 274.4 266.7 265.7 259.5 254.5 258.4 256.2 242.9 232.6 223.8 210.2 201.3 196.7 184.8 152.9 139.6 133.9 130.4 124.5 123.5 123 122.2 121.1 120.3 122.2 125.4 128.2 132.5 137.9 146.7 152.6 152.6 155.2 156.8 159.2 164.6 169.3 174.8 180.4 193.1 203.6 214 220.4 228.4 237.1 247.1 257.6 268.7 277.7 286 295.1 302.8 309.7 315.1 316.9 317.3 317 318.6 320.7 324.4 331.1 335.5 350.9 358.7 369.1 375.4 388.9 409.5 416.7 437.8 435.9 451.7 469.3 482.9 484.6 489.2 491.5 496.4 520 545.2 569.2 584.8 615.5 640.6 669.7 692.9 713.8 737.5 759.3 774.4 781.8 759.2 711.2 673.7 645.1 618.9 579.8 546.9 530 522.6 518.3 514.2 506.8 491.6 471.2 456.9 447.8 428.1 414.5 388.6 372.7 361.3 335.2 317.2 298.7 275 255 251.5 248.4 244.7 239.9 240.3 243.4 245.4 246.9 247.6 246.5 246.1 244 243.8 247.2 230.5 209.8 199.2 179.6 161.5 132.6 110.4 88.2 68.5 53.4 39.5 36.5 32 28.8 32.1 43 66.1 99.4 130.4 165.9 175.2 191.2 200.6 207.1 202.8 184.6 187.6 191.2 169.5
278.3 289 297.1 301.1 307.5 309.9 312 314.6 319.3 328.7 334.3 338.9 340.3 342.6 344 344.6 343.2 343.3 345.1 345.2 345.9 347.1 345.4 348.6 352.8 361.8 370.1 376.5 375.7 370.8 365.4 357.7 350.4 339.3 328.3 319.1 310 299.5 289.3 278.9 268.5 260.7 263.3 253.7 249.5 250.9 249.7 237.4 231.5 222.1 205.1 196.1 186.4 159.7 135.9 126.9 124.2 123.1 122.4 122.2 121.9 121.6 120.4 119.7 122.9 127.4 136.1 138.4 143 147.1 153 156.4 158.9 157.6 159.7 167.3 172.2 176.4 184.9 198.1 205.4 211.2 218.1 226.6 235.4 247 257.9 266.7 274.7 283.5 291.7 298.9 306.3 310.9 311.2 311.8 309.8 312.8 317.5 325.2 329.4 335.1 351.4 361.7 372 382.3 395.1 409.6 417.3 435 435.3 457.9 476.1 483 487.5 497.6 501.6 510.7 530.3 556.7 577.1 604.9 631.7 653.4 674.2 695.3 718.6 739.1 763.2 777.8 777.8 756.2 704.8 668.7 636.3 606.8 569.5 539.6 525.6 520.8 507.5 502.5 494.5 478.4 470.4 458.8 442 426.3 415.4 394.3 378.9 370.6 344.7 320.7 294.1 277.9 275 267.9 265.4 262.8 254.5 256.9 259.2 260.5 260.7 260.7 259.4 256.5 256 257.3 259.7 234.1 207.2 196.7 187.9 166.7 150 124.1 102.9 83.3 71.7 56.5 43.3 37.8 30.8 27.7 43.9 69.7 96.7 125.1 145.2 160.3 191.6 200.5 194 179.5 161.4 168.5 174.2 159.2
270.5 276.8 288.1 296.6 302.2 304.9 307.2 311 313.8 317.9 323.9 330.6 333.6 336.4 338.3 337.4 336.3 336.4 336.8 336.6 337.5 338.3 337.6 341.3 344.1 347.6 360 367.4 366.4 364.9 362.5 357.6 350 339.5 326.6 317.7 305.9 295.3 285.3 274.3 263.7 255.4 255.8 249 244.9 246.1 243.1 233.6 229.3 219.6 206.4 196.4 170.9 151.2 134.8 126.8 124.6 122.7 122.3 122 121.6 121 120.2 120.6 124 131.5 139.7 140.9 143.8 148.2 155.3 158.6 157.1 157.5 164.5 171.3 173.6 176.2 186.7 198.6 203.1 209.5 217 225.8 237.3 249.3 257.4 265.1 272.8 279.1 287.5 296.1 303.2 306.5 307.2 304.3 308.2 312.5 319.6 327.5 331.7 335.5 353.8 364.7 378.2 385.1 398.4 406.6 416.1 427.1 435.2 460.3 472.4 482.2 492.8 504.6 512.8 537.1 556.5 575.7 597.5 618.1 640.3 658.6 678.4 701.3 720.7 739.7 758 770.2 769.2 755.9 703.3 661.9 615.3 583.8 555.8 538.2 527.9 510.3 500 491.9 487.7 475.6 462.9 456.5 440.3 432.4 416 401.7 389.5 364.7 339.6 312.3 301.8 296.4 300.2 290.9 290.2 284.8 278.5 276.4 277.7 275.8 273.6 272 274 270.2 274.3 275.1 266.2 235.3 215.6 205.1 186.9 179.3 158 138.9 117.7 101.4 92.3 79.9 62.5 45.1 31.4 26.9 32.4 52 69.9 111.8 118.4 144.5 190.3 198.1 178.4 150.4 136.1 135.4 124.5 125.7
270.1 273.8 278.4 289.4 294.1 298.9 302.7 308.4 313.5 317.3 319.7 322.7 327.2 331.1 332.5 332.4 330.1 330.2 330.2 327.3 324.8 325.9 330.4 332.7 333.5 333.8 336.1 352.6 362.4 364.8 364.8 363.5 355.3 343.3 330.4 316.7 304.2 292.3 280.6 269.8 258.3 250.3 249.2 248 239.4 237.6 235 227.2 232.9 216.7 204.9 195.4 174.6 151.6 134.7 127.5 124.1 122.7 121.9 121.7 121.1 120.7 119.7 121.5 124.3 135.3 140.1 139.7 145.3 153.6 158 156.7 157.2 158 170.8 172.8 174 176.2 185.1 194.5 199.9 206.8 214.8 224.6 235.9 248.8 256.8 264.6 271.4 277.8 285 293.2 300.4 303.7 302.9 300 306.1 312.5 318 325.7 330.8 335.9 353.4 362.2 379.6 381.9 393.6 403.8 416 425.9 438.5 471.4 484.2 495.1 503.3 514.4 526.1 546 566.8 588.4 608.1 625.5 643.7 662.5 681.8 702.5 722.8 738.3 751.2 761.4 762.3 743 698.4 645.2 601.1 576.8 550.7 535 525.8 506.7 492.2 486.2 478.9 467.4 457.6 445.3 438.5 424.4 411 398.6 383.5 363 337.4 327.6 332.1 326.3 324 318.9 315.8 313.2 309.6 301.2 299.2 294 288.2 286 292 290.8 294 282.8 261.3 243.5 233.6 210.4 203.5 188.3 164.5 148.1 127.4 123.1 117.8 103.9 88.1 64.3 41.3 28.6 25.9 31.9 46.3 79.1 97.3 136.6 190.7 185 170.5 153.1 133.8 118.3 115.5 116.2
271.8 275.3 280.7 287.5 292.6 296.1 301.4 307.3 310.8 313.4 316.2 318.5 319.6 324.2 325.5 325.8 322.7 323.4 318.4 315.5 314.4 323.1 316.3 320.2 321.7 324.6 327.7 339 352.7 357.1 366.8 356.8 350.6 340.7 327.7 315.9 302.5 286.3 274.6 264.9 253.3 244.7 237.8 238.1 236.5 233 229.1 225.5 225.5 212.9 198.4 188.9 170.8 150.8 136.8 130.9 125.7 123.8 122.6 121.9 121.3 120.1 119.3 121.5 125.8 134.7 136.2 138.6 148.3 156.3 156.3 153.9 155.1 163.9 173 172.6 174.3 177.5 184.4 192.1 198.1 204.7 213.4 223.6 236.6 248.6 255.9 262.8 268.9 274.1 282.5 290.7 296 298.6 291.9 299.1 306.3 314.4 323.5 327.7 330.7 337.7 357.8 363.3 381.4 385 394.3 404.3 419.1 428.6 449.6 473.1 493.4 500.5 511.8 527.8 541.4 555.2 574.4 593.4 612 630.1 648.6 665.5 684.7 704.9 721.4 738.4 751.9 758.1 755.9 731.7 679.4 636.4 603 579 548.7 522.9 508.1 497.8 486.9 479.8 466.5 458.6 447 437.2 433.9 418.2 401.4 394.3 377.2 362.6 357 355 358.7 362.6 375.9 365.2 361.9 347.5 338 331.1 320.7 310.3 311.7 316.3 312.1 310.9 300.6 287.7 269.3 258.5 241.7 224.7 215.8 200.5 176.7 157.8 140.2 144.4 138.3 129.6 120.2 90.4 64.7 45.1 27.9 25 33.1 62.9 90 140.1 189.4 185.2 175.4 152.8 134.2 119.6 105.5 100.5
276.6 278.5 282 286.3 291.8 296.2 301.2 305.5 308.3 308.1 309.4 314.1 317 317.1 318.2 318.8 316.1 313.1 306.7 307.8 306.9 310.3 312.4 313.6 314.9 315.9 323.1 328.4 331.7 337.1 343.4 343.5 340.9 335.5 322.4 311.2 297.8 281.1 267.7 258.8 250.1 238.8 232.7 231.2 231.8 228.5 222.5 221.5 222.4 208.3 193.7 182.5 166 150.7 139.6 133.8 126.4 124.2 122.4 122.3 122.4 120.4 119.3 122.2 126.7 131.3 133.7 138 150.2 155.2 154.1 153.5 156.6 169.8 171.2 172.2 174.5 177.9 183.8 188.1 197.9 202.9 212.4 223.7 237.6 248.2 254.7 261 267.2 274.2 280.7 286.5 290.2 291 290 300.2 307.5 321.2 329.8 332.2 336.6 338.3 356.8 364.2 380 386.2 392.5 405.5 422.4 440.1 455.5 477.3 493.6 505.2 513.3 533.1 546.5 564.5 581 598.6 616.9 634.4 653.3 670.5 687.2 704.8 721.2 740.5 752.5 757.2 750.7 742.6 681 635 601.2 577 541.4 527.8 506.8 493.5 481.7 474.5 467.3 458.9 448.9 437 425.8 416.4 404.1 396.1 384.4 379 385.9 408.4 411 402.9 386.8 376.4 364.3 355.3 343 341 327.3 320.9 321.9 321.1 323.2 314.9 302.9 288.9 282.3 264.7 240.3 231.4 223.1 210.8 192.2 172.4 161.7 155.9 151.2 144.6 138.7 118 96 73.4 50.1 30.5 23.2 40.3 87.6 112.2 148.8 190.4 179.3 159.5 136.1 123.6 93.6 94.5
280.1 283.7 286.6 287.5 292.6 297.1 298 302.4 303.8 306.2 306.3 307.4 311 311.8 312.1 315 310.1 305.7 300.6 298.9 298.3 299.1 306.1 308.4 307.4 307.3 316.9 324.6 321 322.9 322.2 317.4 311.9 309.8 309.8 303.8 289.2 273.8 261.1 254.4 244.1 234.1 229.9 226.7 223.6 221.7 218.6 218.1 217.8 204.2 196.5 179.5 162.9 151.3 140.1 131.5 126.7 124.8 123 122.7 123.1 122.1 119.1 121.9 126.4 129.7 132 139.2 148.7 152.5 153 153.3 158.7 168.9 169.4 173.6 176.6 178.8 184 192.4 199.5 205.7 213.3 224.2 237.6 246.6 252 258.9 264.8 271.3 276.9 281.3 282.9 282.8 291.6 303 313.8 323.8 336.7 341.1 345.9 348.9 355.6 365.5 378.4 386 394.3 408.3 421.9 447.6 462.2 482.3 494.8 507.5 518.3 536.7 554.7 571.4 587 601.9 619.7 637.9 656.6 672.9 687.4 705.4 723.6 737.5 746.6 748.5 744.5 736.5 701.8 652.3 596.6 570.5 535.6 518.9 510.6 498.1 486.5 483.6 475.3 464.2 451.1 439.7 436.4 418.9 412.8 408.5 403.6 408.1 421.5 430.3 415.5 395 381.2 364.1 344 335.2 327.1 315.9 310 307.8 308.6 311.2 311.4 307.2 296.8 289.6 285.1 267.5 249.1 239.4 231.8 213.9 196.3 179.5 173.8 168 159.4 155.5 159.6 155.2 130.2 101.3 81.1 59.4 34.3 21.8 45.3 75.2 136.7 178.5 174.9 156.7 136.2 114.7 88.2 89
281.4 286.1 289.8 293.4 294.4 297.6 300.4 302.1 302.7 303.9 304.3 304.9 305.6 306.9 310.6 309.8 303.7 299.7 295 292.2 294.7 290.5 295.4 297.2 295.9 293.4 302.7 308.6 314.1 309.8 306.5 300.6 304.4 304.6 297.8 290 280.8 267.3 258.2 250.7 239.8 232.1 226.6 223.6 218.5 214.8 214.1 210.5 213.1 198.1 192.4 179.9 158.5 152.4 147.9 128.4 126 124.9 123.5 123 126.9 124 117.5 121.2 126.2 129.9 132.3 139.3 147.4 148.9 151.3 153.6 158.6 166.9 170.7 177.2 180.3 182.2 189.3 198.7 201.7 207 214.4 223.3 236.6 242.8 249.6 256.4 262.2 267.4 269.9 270.2 281.7 286.8 297.6 307.2 315.8 327.6 340.7 348.9 356.5 358.9 362.6 370.1 379.2 386.9 393.9 404.2 420.4 449.2 466.8 483.4 496.8 508.3 521.8 539.1 558.9 575 592.3 608.3 624.2 641 658.5 675.1 691.9 705.6 723.3 734.7 742.4 745.6 738 727.8 702.9 665.4 610.2 581.5 539.4 527.9 516 506 498.8 490.9 484.7 466.1 446.1 445.9 433.1 425 421.1 414.8 416.8 423.1 432.9 419.1 402.3 386 371.4 342 326.2 317.4 300.6 291 288.3 289 293.8 296.9 298.9 297.2 293 291.7 283.8 265.3 252 247.4 238.2 217.1 197.5 189.8 182.5 172.9 162.5 158.3 174.7 170.1 152.2 132.4 119.6 101.4 60.2 32.4 28.3 60.3 120.1 164.9 154.3 130.6 111.6 86.7 79.8 93.7
283.4 288.3 292.3 295.7 298 299.5 299.9 299.6 299.6 299.4 301 301.6 303.6 304.6 305 301.7 296.3 294.8 291.5 288 287.5 284.2 285.6 288.8 287.8 285 285.7 294.9 303.3 299.3 295.3 296.3 299.8 303.2 295.3 285.4 276.4 262.7 257.6 250.2 240.5 229 226.8 222.4 217.4 213.8 210.6 208.3 206.5 192.6 184.2 175.6 154.3 147.6 135.5 128 126.2 124.8 123.6 122.2 121.9 121.9 116.8 120.9 123.1 128.1 130.9 138.5 140.7 145.4 150.1 152.7 159.7 168 174.6 180.9 184.1 188 195.5 201.3 203.2 207 214 222.3 233.5 239.5 245.5 243.7 253.2 264.2 270.7 276.6 282.4 289.7 299.8 307.2 316.8 330 340.1 352.7 359.9 362.3 369.4 375.9 383.5 390.5 395.9 404.6 420.5 442.4 464.9 483.6 497.3 513.3 529.3 544.6 562.8 581.4 596.6 613 627.7 643.9 660.8 678.1 694.1 708.2 721.9 732.1 738 736.1 730.3 719.3 694.7 656.6 611.6 577.5 549.5 532.1 521.2 510.2 504.5 496.6 486.2 471.4 459.3 444.6 440.5 427.7 426.5 421.5 426.8 428.3 419.9 403.4 391.8 378.1 365.6 329.5 316 298.7 281 271.9 270.4 272.9 279.5 278.6 283.5 286.7 290.7 285.1 275.6 263.4 257.9 249 233.7 220.2 202.3 190.7 185.4 175.5 162.3 159.6 181.9 170.9 158.8 157.5 157 127.1 88.7 48.5 19 46.5 95.5 141.7 123.3 93.6 73.7 77.3 85.3 83.3
284.4 288.1 291.9 294.7 297.1 298.6 297.4 298.4 297.1 295.5 297 296.3 298.6 300 296.8 294.3 290.2 291.5 288.4 284.3 281.9 279.9 279 283.2 281 277.4 276.4 277.6 282 280.8 283.2 293.6 304 299.1 289.8 278.2 266.5 261.8 255 249.9 236.2 224.2 223.8 221.3 215.8 210.8 208.4 207.4 210.1 193.3 173.8 164.4 151.7 136.9 130.8 127.4 125.9 123.3 121.7 122 120.4 118.1 116.9 117.8 118.5 120.9 122.9 129.3 137.4 146.8 152.4 158.8 165.5 173.4 180.8 185.1 188.6 193.9 199.1 202.2 203.1 205.3 211.7 218.5 226.5 229.3 237.6 250.3 259 265.6 272 277.3 284 290.9 299.6 308.4 317.9 329.4 340.7 352.4 360 366.3 373.4 379.1 385.7 390.9 395.4 405.7 422.2 442.8 460.9 481.6 501.9 517.7 533.3 550.7 568.5 585.4 600.2 615.3 631.3 647.1 663.4 679 694.4 708.9 719.3 727.9 732.3 729 724.4 712.5 684.9 653.2 604.8 571.8 549.7 530 519.8 507.8 501 493.2 480.8 474.1 465.1 455.2 444.1 435.8 427 427.8 429.3 425 407.9 388.7 378.2 363.3 355 328 311.8 290.4 273.6 263.1 259 257 260.2 259.2 267.1 278.6 282.9 277.9 270.2 261.2 258.1 256.2 233.8 220.6 212.5 195.4 189.4 178.4 168.1 167 176.2 163.3 162.3 169.3 161.4 133.9 91.4 48.3 25.5 44.2 114.9 119.3 96.5 73.1 63.2 65.7 64.3 70.8
284.7 288.2 291.4 293.7 294.9 294.7 295.1 296.1 290.9 289.2 290.1 289.7 293.1 293.7 290 288.3 286.1 286.4 281.8 282.3 280.8 277.7 274.5 275.4 269.1 268.3 264.7 263.9 260 267.6 276.8 282.7 289.9 290.5 283.6 273.1 263.6 261.7 255.3 240.8 230.8 219.7 218 217.7 214.8 208.4 206.1 205.2 207.6 200.4 175.8 159.8 144.7 141 130.7 129.3 131.1 126.5 124.7 123.5 122.8 119.5 118 115.7 117.4 120.8 126.7 136.1 144.6 151.1 158.6 167.2 176 183.2 186.5 189.8 194.9 199.9 200.9 201 200.9 202.3 206.5 209 220.5 234.4 243.8 251.6 259 265.4 271 277 283.8 291.5 300.2 308.8 319.6 330 342 356.5 366.1 372.5 376.2 383.3 387.6 392.8 399.3 406.3 423.7 441.2 462.1 483.5 504.8 520 535.7 553.5 570.9 588.5 604.3 617.5 633.7 648.7 661.4 673.1 691 703 713.4 718.3 722 721.6 717.2 700 671.5 647.6 611.7 575.5 545 522.8 512.1 501.2 495.6 489.6 482.6 480.5 467.9 452.2 448 426.2 426.4 432.4 429.3 413.2 396.8 378.7 368.4 358.5 343.1 335.2 319 290 274.5 263.9 257.7 254.5 249.5 248.1 251.2 263.3 265.8 269.9 259 254.9 254.8 253.7 239.9 225.6 219.8 204.4 191 179.7 170.5 163.5 166.1 170.2 167.7 163.1 145.3 118.5 77.5 50.7 18.4 46.6 118.3 111.8 77.8 62.6 51.2 55.7 66.5 77.3
285.4 288.8 290.7 292.6 291.1 289.5 291 290.8 287.5 286.4 285.3 284.6 288 285.2 277.9 281.5 278.6 275.2 273.5 273.9 273.3 275.4 269.3 268.5 260.3 258.3 256.7 254.2 251.3 254.7 267.5 278.2 285.5 285.2 278.2 271.2 260.8 261 251.9 236.6 225.7 219.2 217.2 214.9 210.3 207.1 205.8 203.4 206.5 197.3 174.6 163.1 145.3 141.5 132 131.7 137.5 131.7 129.2 125.7 126.7 122.5 117.2 115.1 119.1 124 131.8 139.3 145.8 156.4 165.1 175.3 183 188.9 191.3 195.3 203 205.2 200.4 196.5 197.8 199.7 207.2 215 224.6 235.9 244.5 252 259.1 264.8 271.1 277.5 283.8 293.6 302.7 311.3 320.9 334.1 348.8 362.9 371.6 377.6 381.3 386.5 390.7 395.6 401.3 410.4 426.3 441.9 462.2 485.3 505.7 521.5 538.8 554.9 573.9 591.5 605.5 619.7 634 646.8 659.5 670.9 684.2 692.4 701.7 708.1 712.6 712.7 705.1 687.3 668.6 641.1 616.3 582.2 541 519.2 508.7 496.6 492.8 484.1 475.1 477.1 467.6 451.4 440.3 430 435.8 434.8 425.2 404.7 391.2 384 374.3 362.1 350.3 335.9 327.2 295.5 280.7 268.4 261.2 256.7 251.4 246.6 243.9 246.4 250.5 259.7 253.9 252.4 242.2 245 239.7 226.5 220.1 204.8 196.9 184.3 171.8 156.5 150.9 152 151.3 131.8 97.9 80.2 79.8 52.1 10.8 66 122.2 102.6 73.9 48.1 45.4 48 62.5 79.7
286.4 289.6 290.9 289.4 286.3 283.2 284.3 282.8 284 286.3 282.9 280.2 278.8 271.6 264.6 268.5 269.8 269.4 263.2 259.6 265 262.4 258.7 257.2 254.8 253.4 249.2 244.1 240.7 247.6 250.9 266.9 274.5 276.6 272.7 265.9 256.2 252 240.9 231.2 221.9 219.4 216.6 218.3 211.9 208.5 206.3 202 202.2 195.6 169.6 156.9 151.2 146.1 136.1 142.1 145.7 134.5 131.7 127.3 125.3 120.7 115.7 116.7 123.2 129.8 135.1 141.5 150.1 161.5 173.4 186.5 196.8 195 196.5 202.8 211.3 207.9 193.9 194.1 194.5 201.2 207.8 217.4 226.7 236.7 245.1 253 260.1 265.3 271.8 277.7 285.4 295.6 305.2 314.7 325.1 342.9 357.1 367.2 375.4 380.4 385.3 389.5 393.4 398.4 404.3 414 429.6 447.3 467.4 486.6 508.2 525.5 541.2 556.7 576.1 591.8 605.4 616.7 633.6 644.8 656.9 665.3 674.8 682.3 690.6 697.9 702.8 698 685.5 673.7 655.6 635.2 610.6 573.5 541.3 520.7 507.5 496.4 486.5 476.2 469.3 465.1 461.6 452.3 441.9 436.7 437.7 430.8 416.1 411 403.9 389.4 384.9 375.6 366.3 344.1 328 308.6 287.5 273.6 265.5 260.2 252.3 246.9 243.8 242.6 244.4 248.3 251.3 261.3 234.7 235.6 234 217.1 207.4 199.8 193.2 182.7 174.6 158.8 139.7 129.2 119.1 94.6 71.4 58.2 36.7 18 7.7 68.8 116.2 98.7 70.5 42.2 34.2 40.5 65.1 71.8
286.4 287.6 285.3 283 277.6 274.8 277.5 275 277.4 283.7 281.5 276.4 271.7 261.7 257.5 255.9 255.8 255.3 253.4 255 256.3 253.2 252 252.1 252.3 249.6 239.3 234.6 234.7 237 241.8 249.1 257.7 262.5 262.7 259.7 252 241.7 233.6 225.7 222.7 218.9 217.8 219.5 214.3 211.8 204.4 200.6 194.8 183.2 174 161.2 156.9 150.2 141.5 149.1 143.1 131.9 126.9 126.6 126.4 123.4 114.8 116.8 123.5 131.1 139.3 147.3 157.6 170.7 180.2 195.3 205.6 199.8 200.6 208.1 211.2 198.9 190.6 190 194.9 201.6 210.1 220 228.6 237.2 246.3 253.1 259.9 266 272.1 278.6 286.3 297.2 307.6 319.4 331.7 349.1 361.3 371.3 378.2 382.6 387.2 391.1 395.1 400.7 407.8 421.2 437 455.5 473.5 493.1 510.9 529.8 545.7 558 578.2 589.5 604.1 617.6 630.4 640.8 650.9 656.8 663.4 671.6 680.3 686.9 682.2 673.7 665.3 654.2 640.3 623.7 596.7 559.3 529.9 517.2 498.7 492.2 479.7 471.8 463.9 456.1 447.8 445 445.3 439.6 436 427.2 424.8 421.1 416.2 410.6 403.6 388.2 373 356.2 334.6 315.9 295.3 283.7 275.1 269.3 256.8 249.1 245.9 241.5 241.1 243.5 255 254.9 231.7 225.6 218.7 211.8 201.8 190.7 187.2 177.6 168.8 152.6 135.9 122.2 100.3 91 66.9 40.2 18.5 6.1 27 88.9 99.8 81.1 44.9 28.1 24.3 38.7 60.8 69.2
282.9 281.5 280.1 278.4 268.5 265.2 264.9 262.2 265.1 269.7 270.8 268.5 266 257.2 251.1 250.4 251.9 251.2 249.4 250.9 250.5 246.3 247.4 246.9 248.4 244.6 234.8 229.9 234.1 235.9 234.3 241.3 248.9 262.1 260.4 257.5 246.4 238.5 231.1 227.1 221.6 218.3 219 214.8 217.1 211.8 206.1 197.3 186.4 178.7 178 169 169.8 146 148.8 141.6 136.3 127.9 120.4 126 124 119.3 113.5 117 125.4 136.5 147.7 153.6 165.5 176.5 186.1 200.1 203 200.1 204.7 212.3 206.7 195.5 186.9 191.1 195.9 203.7 212.1 221.4 229.6 238.4 246.2 252.6 259.4 264.2 271.4 278.6 288.8 298.9 311.7 323.5 337.1 352 366.4 373.1 379.3 383 386.8 390.5 394.8 403 411.3 427.9 444.4 461.1 480.3 495.1 515.2 532.1 547.4 559.7 573.8 588.1 598 614.7 624.7 632.5 640.1 644.1 650.4 659.1 664.6 661.5 652.9 649.5 642.1 631.3 615.1 597.2 570.6 543.3 518 505.3 487.7 489.8 471.9 468 464.6 458.6 450.9 449.1 446.1 441.2 438.2 436.4 436.1 439.1 440.9 433.6 422.8 403.7 384.6 366 344.2 323.9 307.2 292.3 284.2 275.3 261.7 251.1 245.2 241.1 240.6 246.2 253.1 244.6 229.9 226.7 214.7 210 199.5 181.3 172.2 164.6 157.3 137.6 121.5 102.8 96.6 92 65.8 29.8 5.2 16.8 47.7 72.5 46.1 33.6 23.5 18.9 28.8 45.5 63.9 71
279 278.3 276.9 270.8 261.1 250 253.7 246.6 244.8 242.1 255.8 262.2 259.1 251.8 244.8 253.3 252.1 248.3 246 247.5 244.4 242.4 243.3 244.1 240.5 237.8 231.7 228.1 231.4 234 230.8 231.6 245.6 257.1 261.4 261 245.5 236.2 231.3 226.3 219.5 218.3 219.1 213.2 215.1 213 208.9 197.5 189.4 181 173.8 170.1 169.7 146.9 146.4 133.9 131.1 121.6 116.9 120.1 123.8 116.5 111.7 120 130.4 144.7 152 159.5 171.4 180 189.9 199.3 198.1 200.2 212.4 215.5 198.1 186.2 187.7 190.3 195.6 203.6 214 223.4 230.4 239.8 246.6 252 258.2 263.1 269.7 279.8 289.5 301.3 314.4 327.6 339.3 354.9 366.8 375.2 379.3 382.9 385.8 389 394.6 403.6 415.3 432 449.4 467.1 484 500.9 519.3 535.3 548 558.8 568.9 581.6 591 602.6 613.6 618 623.1 628.7 634.6 640.4 642 631.4 629.5 622.7 613.8 604.9 579.3 560.9 543.1 529.7 505.6 492.9 487.9 485.3 475 468.5 466.7 459.2 455.7 448.3 445.5 443.4 443.1 441.8 443.2 449.8 455.3 458.8 445.3 420.3 394.2 383.1 358.1 340.6 316.1 299 289.6 279.6 263.2 252.9 247 242.3 240 239.8 254.4 249.2 226.3 211.3 198.2 193.5 191 180.8 167.1 151.4 142.9 130.7 118 97 100.3 90.3 62.7 34 12.2 19.1 29.6 32.5 24.4 25.7 14.1 21.7 27.6 54.9 61.9 61.2
269.8 269.1 263.1 255.3 246 242 238.8 235.8 235.4 236.8 244.3 248.4 246.7 242.1 241.4 244.7 247.6 245.1 242.4 243.1 240.8 239 239.2 240.5 235.8 231.9 229.4 226.4 226 227.4 228.5 231.6 240.9 253.4 259.2 256.9 244.4 238.4 232.1 223.4 217.4 215.3 211.7 210.3 215.7 215.4 212.7 204.2 199.1 181.2 171.5 156.9 154.8 143 133.5 125.2 120 117.3 116.1 117.4 116.5 111.8 118.3 123.9 133.7 149.3 157.3 164.6 172.3 181.4 191.1 195.6 195.7 205.4 216.1 205.5 190.8 182.3 186.7 189.8 198.3 208.8 218.5 225.4 232.9 241.1 246.6 251.7 256.2 261.9 269.1 279.7 288.8 300.9 314.5 327.8 340.8 355.9 367.4 374.7 378.6 381.7 383.9 386.8 394.2 402.6 417.8 434.8 451.5 469.8 488.7 507.3 522.6 538.3 546.4 553.4 562.6 570.6 578.9 589.5 594.3 599.7 602.5 608.6 615.3 615 609 605.6 599.4 591.8 582.9 567 548.4 532.9 524.3 513.5 487.9 487 493.5 490.8 483.8 478.9 475.8 466.6 465 451 448.2 447.4 445.1 445.9 452.3 458 466.6 474.4 463.5 436 409 387.5 368.8 347 322.8 309.4 295.6 278.6 261.3 251.5 247.8 244.2 240.5 239.8 232.9 234.2 202.1 191.3 187.8 187.4 187.3 178.6 152.8 142.3 130.3 118.8 98.2 88.9 92.1 65.6 63.4 53 24.5 2.4 11.7 12.5 10.1 8.1 7.8 17.5 19.2 42.9 38.7 54
251.1 251.5 247.8 245 238.2 235.8 233.7 230.4 231.6 234.5 236.2 237.6 238.2 238 237.7 242 245.4 240.4 239.7 238.7 236.8 236.3 235.6 235.3 229.6 225.4 227.7 227.9 222.2 221.3 228.9 232.7 244.1 248.2 255.4 247.2 245 238.8 232.4 220.5 215.9 213.1 209.9 209 213 212.4 213 212.3 199.6 191.8 179.8 168.2 145.9 137.2 127.9 121.7 117.3 115.9 114.7 115.4 111.4 113.6 121.1 129 139.7 152.5 161.8 165.2 171.8 181.6 189.1 191.1 193.3 204.3 209 197.9 184.6 180.9 185.7 193.5 204.3 213.1 219.8 226.5 236.3 241.7 246.1 249.8 253.5 258.8 268.9 279.5 289.3 298.7 314 325 342.4 356.5 365.8 372.8 376 379.1 380.6 383.8 393.1 402.9 418.1 434.8 453.8 469.6 490.6 510.3 523.6 536.1 542.1 546.7 551.8 557.4 565.5 569.5 577.3 580.3 585.1 590.3 590.9 589.5 584.6 576.1 561.7 554.5 533.7 528 516.6 507.6 503.3 491.8 477.5 486.3 495.3 491.6 484.9 479.5 479.9 476.7 470.3 460.3 457.9 455.4 452.2 452.5 458.5 467.4 478.3 487.3 468.1 440.6 409.6 387.2 372 346.7 327.6 315.5 298 276.8 263.3 252.8 248.6 245.4 241.7 229.7 222.7 204 196.6 190.9 184.4 188.1 191.1 167.2 150.3 135 120.4 108.1 94.8 81 67.3 60.4 48.4 23.8 12.3 5 2.5 5.6 3.4 3.4 4.4 4.1 10.4 19.9 24.7 39.5
242.3 242 239.6 236.5 232.1 231.9 229 225.2 227.1 234.3 234.8 234.1 235.5 235.6 235.6 235.7 236.2 235.1 236.8 237 234.2 233.1 231.4 228.1 225.6 222.5 221.7 222.6 220 218.2 220.1 232.7 238.8 246.6 242.7 237.4 238 239.2 235.6 225 215.6 212.2 209 206.7 209.4 210.8 210.4 207 196.5 193.2 185.5 178.5 150.3 137.5 127.7 120.9 116.3 114.5 113.3 115.6 109.4 114.7 124.3 134.5 145.2 154.6 160.2 166.1 172.4 183.6 186.4 188.2 190.7 197.6 200.8 187.4 179.8 181 187.8 198.1 209.7 214.8 220.8 229.3 237.1 242.2 245 247.6 250.9 257.4 266.3 279.5 289.6 298.5 312.8 321.1 339.6 354.9 363.3 368.3 370.9 373.4 376.1 379.4 388.4 400.1 416.3 430.7 450.2 467.4 487.6 507.3 520 528.3 531.6 536.1 541.4 544.6 549.8 553.2 560.7 567.3 569.9 567.6 569.9 564.5 556.2 543.3 517.2 508.6 500.4 496.9 488.3 478.4 470.1 467 465.4 466.7 482.6 477.2 455.8 450.7 455.1 468.4 474.4 465.7 466.4 460.6 456.1 459.7 462.4 473.9 486.9 488.6 470.9 439.4 410.9 391.1 370.5 346.5 328.8 317.5 300.9 283.5 267.2 254.4 248.6 244.7 245.7 219.9 208.9 200.7 196.2 192 185.5 175.2 171.9 162.4 146.6 136.3 122.3 106.2 89.1 77.3 58.6 37.1 26.5 11.8 4.8 1.8 8.4 13.8 8.7 3 2.7 3.5 5.5 17.6 17.5 27
235 233.2 232.6 231 229.8 230.3 226.9 222.2 222.2 226 227.5 231.8 235.5 236.5 236 235.4 235.3 233.7 232.2 231.1 230.8 233.1 230.7 226.4 222.1 219 220.5 221.1 222.7 219.1 217.5 223.9 228.9 228 225.7 225.8 230.2 237.1 233.3 224.3 217 213.1 208.9 206.1 208.2 204.3 203.9 198.6 195 195.4 191.5 174.5 157.1 137.6 131.8 121.8 117.3 115 113.6 111.7 109.4 117.1 128 139.3 147.9 156.5 164.2 169.8 175.8 181.9 183 185.3 188.4 190.3 189.5 181.7 176.5 182.1 192.9 202.6 210.5 215.3 223.8 230.4 237.6 242 242.9 244.7 248.8 255.9 267 280.7 289.7 297.6 310.4 318 335.1 350.3 354.9 358.3 359.6 362 367.1 374.4 384.3 395.8 409.3 426.2 444.8 460.8 478.8 498.5 510.7 515.6 520.1 523.3 526.7 528 534.8 539.8 549.1 553.6 553.5 549.7 547.6 534.6 520.5 496.3 482.3 479.2 473 467.8 464.6 447 445.4 451.7 453 458.1 440 434.2 421.4 424.3 435.3 467.5 477.1 474.8 468.2 462.3 457.1 461 465.9 474.4 491 493.3 473.9 439.8 412.5 392.1 370.4 346.9 332 317.4 300 291.4 274.8 261.5 250.1 243.7 234.2 218.3 213.1 202.6 198.7 193.3 176.8 171.7 162.3 155.1 153.2 144.5 128.8 112.2 95.7 83.1 66.1 47.2 27.7 14.1 3.1 3.3 7.8 11.7 15.5 8.1 2.6 2.9 3 12.1 18.4 24.4
229.1 230.9 228.3 228.1 227.7 227.4 224.3 220.4 219.5 219.9 224.5 231.2 237.5 239.8 238 237.4 235.7 233.1 231.1 228.6 228.2 227.1 228 219.7 217.5 215.2 220.3 222.5 219 214.7 215.5 217.2 219.4 221.1 223 225 226.9 227.6 230.4 229.7 224.9 218.6 208.8 205.9 204.3 203.7 203 203.3 203.7 197.1 192.3 178.8 159.3 139.6 135.9 125.4 119.4 116.8 115.2 110 111.7 119.2 132.3 142.5 151.2 156.5 158.8 165.5 176 176.6 180.1 183.7 185.9 185.2 182.3 174.1 176.2 183.9 195.8 205.2 210.4 216.6 224 231.6 236.9 240.1 241.8 243.2 247.3 256.7 268.9 280.5 289.8 297.2 307.4 313.8 328.9 340.1 344.2 348.1 349 353.8 357 366 376.3 387.5 406.1 423.7 436.7 452.9 468.8 486.6 496.2 499.5 504.2 509 513.1 519 524.9 530.9 535 535.9 534.5 531.1 517.8 497.1 482 467.2 451.9 444.8 435.5 435.9 427 413.9 428.3 434.3 432.1 436.7 413.7 402.7 396.7 405.9 413.4 436.7 478.2 480.5 467.2 456.6 456.8 457.8 467.3 479.2 495.6 493.7 474.9 440.1 414.2 390.8 369.4 347 329.8 313.3 302.4 294.9 282 263.6 251.6 244.4 228.9 226.4 211.5 201.9 199.3 182.8 175 168.6 158.2 154.2 155.7 139.4 131.9 114.1 101.9 89.1 74.6 57.3 30 17.1 3.5 1.9 5.5 10.9 23.2 14.5 2.8 2.6 2.8 9.1 21.4 20.5
226.6 226.4 225.3 225.5 226.2 226.5 222.6 218.7 217.6 218.7 221.5 231.2 238.1 236.6 237.7 235.2 232.2 231.7 231 230 225.5 226.4 224.3 215.8 214.7 213.8 213.8 218.4 214.8 213.6 214.6 217.9 221.2 222.6 226.3 226.5 227.1 232.5 235.3 232.4 224.7 215 210.7 207.3 205.7 207.7 205.4 203.3 201.1 199.3 196.1 184.3 161.9 143.3 135.9 128.5 124.1 119.8 112.4 108.6 111.1 117 126.4 134 140 147.2 150.3 154.8 167 172.7 178.1 183.5 183.6 180.3 173.2 170.9 177.3 186.7 197.2 205.2 210.8 218.4 224.8 231.8 236 238.5 240.4 243 247.9 259 270 279.9 289 296.6 304.4 310.3 323.3 331.1 333.6 339 342.2 344.4 348.1 358 362 378 397.6 416.5 430.9 443 455.4 470.7 482.9 486.8 489.8 494.9 500.9 506.9 514.7 515.7 518.9 519.2 512.6 506.3 480.7 461.6 449.9 442.4 421 410.6 399.1 394.5 378.9 376.1 383.2 396.5 396.2 392.9 387.2 378.8 376 389.1 390.1 416.3 445.5 460.6 456.6 452 454.6 459.5 470.4 487.3 501.1 494.8 471.5 441.4 415.8 394 371.9 350.3 332.3 316.4 303.9 291.4 284.5 260.1 250.6 240.9 234.6 224.1 208.8 202.7 190.6 183.3 173.5 164.7 160.2 157.2 145.3 136.5 127.8 119.3 106.7 90.8 67.6 49.3 31.6 13.8 3.3 2.3 3.3 3.1 10 2.9 2.5 2.1 2.4 3.5 5.3 11.9
225.6 221.8 223.7 224.2 225.5 225.9 222.8 217.7 216 216.9 220.6 229.5 232.1 231.7 234.1 232.2 232.1 233.8 232.6 233.2 226.8 220.6 215.4 213.3 213.3 212.9 212.4 212.2 212.1 213.7 213.8 217.5 230.9 227.3 229 228.6 230.4 236.7 241.9 235.5 226.7 220.3 217.1 211.2 215 213.7 210.8 210.4 210.2 202.5 193.9 184.6 166.1 150.7 137.8 131.7 125.3 118.1 110.6 108.5 109.7 112.8 119.2 127.4 140 145.4 145.4 148.6 162.1 174.2 181.4 183.5 181.5 176.1 165.9 172.1 179.7 187.9 196.9 203.9 210.3 218 225.3 230.5 234.8 237.5 239.9 243.3 251.4 262 270.2 280.2 289.2 295.8 301.3 307.5 318 323 325.9 331.4 333.8 336.4 339.2 345.7 350.2 367.7 383.4 406.7 422.5 433.6 443.4 452.6 463.8 470.3 474.5 480.5 487.3 495.2 498.1 501 503.4 499 489.7 468.9 449.1 432 422.8 405.6 394.9 391.1 371.8 358.4 347.7 347 352 357.3 360.2 368.7 357.6 361.5 367.4 371.3 385.1 397.4 415.8 436.2 437.6 443.9 461 472 479.7 492.7 501.2 491.8 469.9 443.6 417.5 391.9 370.5 346.8 332.6 316.2 302.2 293.2 283.8 261.4 250.9 240.9 233.5 219.8 207.7 201.6 189.2 185.2 179.2 168.7 162.3 157.8 146.9 133.5 123.6 118.5 108.6 89.1 69.4 50.4 31.5 13.7 3.2 2.5 2.6 2.3 2.1 2.4 2.3 2.6 2.4 2.9 9.1 7.4
217.7 214.9 218.9 221.7 227.6 227.2 223.9 217.1 214.8 215 221.8 230.8 222.6 225.8 231.9 232.3 232.2 235.5 231.5 228.1 223.1 218.5 214.3 213.3 215.2 212.9 211.4 211.5 215.1 213 214 217 225.1 229.3 229.6 230 231 237.3 241.2 234.4 226.3 222.8 218.7 213.8 215.1 217.6 218.2 220.3 221.4 214.7 206.4 192 171.9 156 141 135.8 127.7 118 113.2 107.8 109.2 111.9 119.3 132.7 140.9 143.3 139.8 146.2 153.6 171.2 186 183.2 180.2 167.8 166.9 173.9 180.6 189.2 198.3 204 211.5 218 226.5 230.6 234.1 236.9 239.7 245.1 255.4 262.4 271.6 280.7 287.2 295.7 301 306.9 312.1 315.6 319.1 324.3 327 329.3 333.2 337.7 342 358.1 375.6 391.3 411.4 423.6 431.2 440.5 447.7 455.2 461.5 466.7 473.9 477.7 482.7 485 481 474.5 447.8 435.4 422.1 403.7 391.2 378.2 371.5 361.9 352.2 342.3 334.4 329.4 332.8 333.8 329.8 336.5 342 349.4 358.9 371 381.1 386.9 405.4 422.1 435.8 458.4 468.9 478.7 480.9 493.2 508.1 493.9 470.8 443.4 415.9 390.4 370 348 328.2 314.5 300.4 287.4 277.3 263.4 252.3 241.5 232.4 218.4 206.4 194 192.1 189.6 191.5 179.7 166.7 162.5 156.9 146.5 128.6 119.8 107.5 97.8 79.2 61.5 40.3 22.8 4.1 0.8 2.7 2.7 2.6 2.2 2.2 2.8 2.4 8.4 15.4 5.1
207.8 211.5 217.7 218.9 225.2 230.2 224.3 217.7 212.6 213.1 213.6 214.8 220.4 220.8 229.6 233.3 233.1 235.7 230.7 223.5 220.1 217.6 212.9 211.5 210.3 209.9 210.8 211.2 212.1 212.7 214.2 220.9 231 232.6 230.8 232.3 244.1 246.9 246 237.6 230.3 227.9 221.2 216.7 215.5 219.8 222.4 222.8 228.2 226.7 212 196.9 177.4 159.7 147 141 132.7 127.5 116 107.8 108.3 114.4 125.4 135.8 140.1 137.6 141.2 142.4 147.9 164.2 175.9 181.4 170.7 160.8 167.2 175.4 182.3 191.7 199.1 205.5 213.4 219.8 228.2 231 234 237.2 241.4 248.6 257 264.8 273.2 279.9 286.1 295.8 299.9 304.2 307.8 310.9 313.2 317.8 322.3 324.1 327 331.3 336.8 348.2 367.3 385.7 401.6 413.6 423.5 428.5 436 441.9 447.2 454.8 457.6 463.6 466.5 463.5 460.2 439.9 422.6 409.2 397.6 383.7 368.4 356.6 348.4 341.1 336.6 329.2 325.7 321.7 318.9 316.9 318.9 322.3 327.5 336.9 350.9 359.8 373.3 389.9 403.6 428.9 446.3 454.8 466.7 475.9 482.3 495.6 514.9 496.6 469.4 442.4 414.3 390.4 365.7 343.2 328.2 310.6 300 287.8 277.4 269.3 254.4 245.3 231 220.4 205 198.4 201.9 202 196.4 186.7 178.1 169.7 167.3 155.6 128.9 119.7 104.3 94.7 85.5 75.5 58.8 36.9 15.5 1.1 2.3 2.6 2 1.7 2.3 2.2 2.2 2.5 7.5 3.8
201.4 205.8 210.7 211.8 221.5 230 227.4 217.2 212.3 211.9 212.7 213.5 215.2 219.9 226.7 231.7 235.7 231.3 228.9 225.4 220.4 218.8 213.5 211.3 210.1 209.6 209.9 210.8 216.1 219.6 224.6 223.1 228.3 236.4 232.2 239.2 245.2 248.5 239.6 232 230.6 228.6 222.5 217.6 218.3 221.3 224.5 228.1 222.4 209.6 198.1 189 184.6 170.6 153.7 145.3 138.3 131.9 117.4 111.8 109.4 107.9 118.1 128.7 136 130.3 138.8 140.4 144.9 151.8 164.2 169.4 159.6 161.9 168.5 175.9 184.1 193.4 200.5 208.9 214.7 224.2 229.1 232.4 235.1 239.3 244.1 251.8 260.8 267.5 274.4 279.4 286.2 293.7 299.1 302.1 305.3 307.3 310.3 314.6 319 321.2 324.8 330.2 336.7 345.4 357.1 377 391.9 403.7 413.6 420.5 425.8 433.2 437.5 440.4 443.8 444.2 436.7 437.8 430.9 420.9 402.5 389.3 374.5 363.8 352.7 342.4 332.4 332.5 326.1 317.1 316.5 312.8 310.1 307 310 313.5 318.5 324.4 339.7 358.4 379 405.9 419.6 433.4 452.5 474.1 486.4 485.3 494.9 509.1 516.1 497 465.4 441.1 412.5 389.1 364.2 341.8 325.8 312 301.5 291.3 280 267.6 254.7 244.4 232.5 217.7 208 207.1 203.1 204.6 193.8 182 173.9 174.5 159.3 141.4 130.3 116.6 107.8 97.4 93 91.4 60.1 40.8 34.2 4.5 1.7 2 2.4 2.4 2.4 2.2 2.6 3.1 2.8 12
195.2 200.1 202.8 209.1 215.7 221.4 220.8 213.1 207.5 211.9 215.5 213.2 214.4 223.7 229.3 228.8 228.7 228.2 229.8 228.2 223.6 219.5 215.9 213.9 212 209.7 210.3 213.7 216.5 219.5 219.6 226.1 230.2 228.1 227.1 231.6 243.3 239.9 230 234 232.2 229.2 228.1 221.5 225 232.8 238.4 244 231.6 204.1 191.7 187.8 175.8 168.1 157.4 149.3 137.3 126.1 115.8 112.7 109.8 106.9 110 114.1 117.5 127.1 133.5 140.7 144.9 150.5 155.6 153.3 157.6 162.3 172.1 180.6 187.3 195.3 202.6 210.5 220.2 227.7 230.6 232.9 236.7 241.4 248.1 255.5 263.3 270.2 275.8 280.3 287.1 291.3 296.3 299.7 302 304.1 307.8 311.6 317.3 320.8 325.7 331.3 337.5 345.5 355.6 365 382.6 394.8 404.4 412.2 420.8 424.9 427.2 424.8 424 416.4 421.9 410.1 403.2 391.1 379 365.5 351.2 341.4 332.1 330 326.3 318.9 315 310.2 307.1 304.7 301.6 297.3 299.7 302.4 307.1 315.4 329.4 353.8 378.6 413.1 438 455 472.9 487 487.7 488.3 492 509.8 512.8 492.5 460 433.5 408.1 391.1 366.4 343 324.6 311.1 301.2 291.2 286.2 271 258.4 245.2 232.3 223 216.3 221.3 205.2 194.5 187.3 182.9 174.8 170.7 148.3 138 131.2 119.6 112.9 104.1 88.9 88.2 64 40.7 37 11.4 1.3 2.8 2.4 2.4 2.4 2.3 1.8 2.6 2.4 7.5
186.1 190.7 198.4 206 210.4 211.8 212.1 206.6 205 211.6 214.7 212.5 215.3 222.7 228.6 229.3 227.6 231 230.1 231.1 228.4 226 218.3 215.6 214.5 212 210 208.9 212.5 213.3 217.3 225 224.7 224.7 222.8 227.2 229.8 232.2 225.2 226.4 233.2 230.3 227.8 230.1 243.2 245.3 242 234.2 208.5 191.5 184.7 180.8 173.3 159.5 149 150.5 145.8 138.7 119.3 109.1 106.5 107.7 108.6 109.8 111 121.8 137.4 140.8 142.3 150.1 142.8 152.8 158.6 167.9 175.4 183.3 190.4 198.1 204.8 213.9 225.1 229.4 231 234.1 238.1 244.2 251.1 257.8 264.8 270.5 275.4 280.2 285 288.4 293.3 296.3 298.8 300.3 307.4 313 317.1 320.4 326.3 332.6 339.9 348 356.5 366.9 379.8 389.1 398.4 404.7 409.1 413 413.4 412.3 407.1 408 397.8 385 372.6 372.2 356.9 343.3 337.5 330.5 323.9 318.6 313.2 308.5 305.4 303.5 302 297.1 291.6 287.6 289 293.3 297.1 311.5 325.2 346.2 386.8 423.6 444.8 450 456 470.8 481.4 495.8 507 516.4 508.3 490.4 456.6 433 415 389.9 366.5 344.4 323.8 307.1 298.9 291.4 286.1 275.6 259.9 248.3 245.2 229.8 220 224 207.6 197.8 197.4 187.7 173.4 164.1 148.9 139.7 139.1 131.4 117.9 109.2 92.8 81 53.9 40.8 31.8 6.4 2.6 0.7 2.6 2.4 2.6 1.9 2.2 2.2 2.2 3.8
174.5 184.4 192.5 199.7 203.6 205.2 206.2 202.9 201 204.5 207.5 208.4 221.5 225.7 225.8 227.6 231 231.8 232.1 233.5 232.9 231.4 227.6 229.4 220.1 222.5 210.7 205 204.2 204.8 207.4 215.3 219.8 218.5 218.7 220.2 223 225 221.9 225.7 230.8 231.6 235.4 245.1 255.1 258.7 249.5 207.9 189 191.2 182.2 162.5 154.1 142 142.4 145.6 145.1 140.7 130 106.3 107.2 108.3 109.4 110.1 111.8 119.8 135.8 123.5 126.7 130.9 144.7 155.8 158.6 171.6 181.8 187.5 194.5 200.5 208.6 216.6 228.2 230.3 231.4 233.8 239.8 247 252.3 259.2 265.1 269.6 272.9 277.1 280 285.6 290.1 292.7 296.3 301.7 306.3 313.5 317.9 322.1 327.3 334.5 342.2 350.4 358.2 367 378.3 388.9 397.3 400.7 403.3 403.5 403.3 397.8 391.7 380.3 373.4 365.2 357.9 350.9 337.2 330.9 327.3 322.9 317.2 308.9 304.9 302.8 296 292.4 287.6 285.2 278.6 278 285.8 286.7 285.6 295 312.1 344.4 381.4 407 423.9 423.5 434.9 450.5 459.2 474.7 498.7 512.5 506.3 482.1 454 436 413.5 388.3 364.2 345.5 323.6 310.7 299.2 293.9 285.8 274.3 264.6 255.3 245.6 231.2 231.9 226.5 207.9 196.6 190.9 186.1 176 160.9 155.5 147.8 140.9 130.7 120.3 102.7 95.9 85.1 51.2 25 13.5 3.7 1.4 0.7 2.6 2.4 2.3 2.3 2.3 2.2 2.5 2.4
173.6 180.6 187.2 198.5 201.6 204.4 202.5 201.3 198.1 199.2 202.1 203.4 208.3 224.3 227.5 232.1 225.9 232.1 237.5 237.7 240.5 240 244.3 243.1 234.5 229.1 220.5 210.9 204 204.1 211.2 215.1 218.2 214.5 211.7 211.1 211.4 215.6 218 218.9 222.4 227.1 230 242.5 253.6 259.1 218.4 190.6 175.6 176.4 151.3 136 130.5 132.4 135.8 139.6 139.7 126.8 108 106.2 107.6 109.3 111 112.3 113.1 115.3 119.3 128.8 138.6 144 148.6 152.7 165 175.8 185.2 192.4 198.1 203.5 210.4 216.2 228.1 229 230.1 233.7 241.7 248.5 253 257.5 263.3 267.9 270 273.2 277.4 282.4 286.6 293.1 297.1 301.9 308 313.3 319.5 324.5 328.3 335.5 343.9 352.7 360.9 370.3 381 388.9 394.3 396.4 396.9 395.3 390.5 383.1 373.8 361.2 350.4 348.1 337.9 331.7 331 328.2 321.9 312.9 306.6 303.7 302.7 298.4 290.7 285.7 281 272.7 270.1 273.3 277.1 280.8 288.1 293.7 307.9 335.5 362.1 391.9 397.2 398.6 417 432.2 444.2 457.4 478.3 504.7 497.4 473 450.4 433 410.3 388.7 365.6 342 323.9 309.1 301.6 295 286.1 278.2 267.2 263.3 254.6 241 240.4 233.1 220.4 205.9 197.4 188.6 180.4 158.9 154.2 157.2 139.9 128.2 125.1 123.2 101.8 71.4 40.7 26.9 11.3 3 1.7 2.5 2.8 2.6 2.5 2.3 2.4 1.8 5.2 3.2
175.7 180.6 187.7 198.9 204.6 202.6 200.1 200.3 196.1 195.5 200.5 200.1 204.3 216.2 223.2 222.1 222.4 224.2 228.9 239.5 239.8 251.1 249.6 247.3 243.9 238.2 228 213.8 203.3 203.1 211.3 213 210.7 208.7 206 205.4 208.8 213.1 218 221.9 226.5 228.7 232.1 244.4 242.4 222.5 194.4 169 159.2 142.1 126.7 117.9 121 115.3 114.7 107.7 106.9 105.2 105.7 106.7 108.2 109.9 111.5 113.6 116.5 120.1 126.8 133.3 141 145.4 149.1 155.2 169.9 179.5 186.5 193.3 199.1 205.9 211.8 217.9 223.6 227.3 230.3 234.9 244.5 248.2 252.8 256.6 260.1 263.6 267.1 271 274.6 281.3 287.2 292.4 297.8 302.5 307.4 313.7 320.2 326.2 331.6 340.6 347.6 357.6 365.9 374.6 381 387.8 390.6 392 390.6 384.6 374.9 368.2 360.7 346.6 343.1 335.2 324.7 320.9 323.8 313.9 313.2 305 300.3 298 296.3 290.4 286.5 281.4 275.9 268.5 268.6 272.9 279 277.6 279.9 286.1 300 336.5 351.4 366.7 372.8 384.3 407.4 421.6 431.9 448.6 468.1 491.7 483.1 461 441.5 428.9 405.3 386.5 365.8 343.6 324.8 314.5 307 299.5 291.8 282.9 275.3 271.6 259.7 253 246 242.9 231.1 220.8 211.2 194 171.7 156.1 150.8 139.4 138.2 122.8 129.8 118.2 93.6 60.5 30.6 20.7 27.1 3.2 3.1 2.5 0.1 2.7 2 2.4 2.5 2.4 1.9 2.1
174.4 179.4 184.9 197.9 199.8 195.3 195.1 194.5 193.1 193.5 194 195.4 201.1 215.1 218.8 221.2 224.2 228.6 233.5 240.1 239.2 251.5 256.7 260.8 249.7 246.2 236.2 223.4 207.4 202.4 206.5 211.3 200.7 200.7 202 203.5 211.6 210.8 217.8 225 229.9 229.5 231.2 237.2 234.6 203.2 171.3 147.7 133.2 122.5 111.7 105 103.2 105.1 112.4 112.9 114.4 114 107.7 107.6 108.2 109.6 112.1 114.8 118.6 122 126.8 138.6 143 148 151.3 163.3 176.7 183.4 190.1 195.2 201 206.1 213.5 219.3 222.9 227.4 230.4 237.4 243.8 247.2 251.7 255 257.1 260 265.3 269.5 273.3 278.9 287.2 292.6 298.3 302.4 307.4 314.7 322.6 330 337.1 347 355.8 364 370.1 376 381.6 385.2 387.1 387.5 384.8 377.1 367.4 359.9 344.7 333.6 324.4 318.4 312.4 309.9 306.4 305 300.2 299.9 295.1 290.4 288.8 283.9 281 278 267.4 266.5 267.2 262.8 257.6 260.2 267.5 271.8 291.6 325.3 334.7 344.9 361.8 381.8 391.7 406.5 418.1 436.6 456.7 484.7 468.5 446.9 434.2 421.7 400.2 382.2 362.9 346.9 331.4 319.7 311.3 303.5 299.7 289.7 283.9 278.3 263.7 258.9 254.7 250.5 238.7 230.1 219.9 186.8 168.2 155.6 141 132.2 119.4 114.3 121.1 120.8 70 40.6 21.6 13.3 25 12.2 2 1.8 0.1 2.5 2.3 2.3 2.4 2.6 2.7 2.3
168.9 173.3 179.9 188.2 192.3 189.9 190.4 189.6 192.8 192.9 193.4 194.8 198.7 214.7 221.4 219.1 228.7 241.9 238.6 246.1 243.2 251.3 259.5 256.6 251.4 245.5 238.2 226.5 217.6 206.7 200.2 198.8 198 197.5 198.8 201.5 205.5 211.4 217.6 223.7 225.6 223.5 224.6 222.4 220.1 184 153.6 132.5 119.2 111.8 109.7 102.8 106.9 114.7 118.9 120.4 120.5 117.8 114.4 112.2 112.3 114.3 117.2 118.7 121.8 126 129.8 133.7 143.1 150.1 157.6 170.4 181.8 187.2 192.5 198.2 201.5 207.5 214.5 221.8 224.3 227.5 230.7 237.9 242.5 246.1 249.8 250.8 256.7 261.6 265.7 269.9 273.8 281.6 289.6 294.8 299.6 304.3 309.5 317.7 328.4 335.3 343.2 354.2 360.3 366 371.4 377.3 381.5 382.7 382.7 381.2 377.5 368.9 361 351.8 337.2 324 315.3 307.9 308.6 307.6 303.6 299.8 294.1 287.7 286.5 283.6 281.6 275.6 274.1 268.9 262.3 263.2 260.1 258.5 255.7 255.9 257.6 264.1 282.7 311.5 321.9 327.8 335.4 330.4 351.7 387.4 396 418.7 443 467.4 451.4 430.7 416.1 411.8 393.5 378.2 361.6 347 333.8 322 312.5 311.3 305.3 297.5 299.3 294.1 279.1 266.5 262.5 256.7 241.7 229.2 224.4 199 173.4 151 142.7 124.6 113.5 101.1 98.3 91.8 66.1 36.4 14.1 4 2.9 3.4 2.3 2.5 2.4 1.1 2.7 2.8 2.4 3.5 2.7 2.9
168.4 170 176.2 180.4 182.3 181.8 182.6 190.8 193.8 193.7 193.8 195.2 203.2 209.8 219 219 220 234.3 241.2 259.3 258.8 255.5 247.8 245.3 243.7 241.1 236.7 227.1 222.3 216.4 207.9 201 197.1 194.2 196.1 199.2 205.4 209.7 214.7 219.1 214.7 216.2 216.8 217.2 197.7 165.6 137.3 120.4 112.9 110 104.9 101.9 114.5 123.2 127.4 126.3 125.8 123.3 120.3 117.8 119.2 125 125.4 127.6 130 133.4 136.7 142.6 148.6 152.2 159.7 173.5 183.6 189.2 193.6 199.8 203 209.4 216.4 220.9 225.6 228.1 231.3 236.6 241 245 246.4 250 256 259.2 265.2 270.1 277.4 286.1 291.7 296.7 301.4 307.8 317.3 324.6 336 341.4 348 357.7 364.6 369.4 373.5 379.2 381.9 380.4 378.3 375.5 373.3 364.9 353.6 342.5 330.6 320.7 308.6 303.6 300.3 297 294.6 288.2 283 279 277.8 278.4 274.3 273.9 268 260.2 257 255.8 255 255.1 255.2 256.8 259.7 261.1 271.3 297 303.2 313.4 317.1 315.1 329.9 346.1 371.4 398.7 423.3 444.6 433.8 418.1 406.5 400.1 385.7 371.2 358.4 348.7 333.6 322.1 320.1 315.5 307.6 305.9 307.2 308.1 293.5 278 263.7 255.5 239.2 233 221.6 196.5 168.2 158.9 143.6 129.7 116.5 106.8 84.7 72.1 58.1 38.6 9.8 3.7 2.7 3.2 2 2.2 2.4 2.1 0.9 2.9 2.3 3.1 3.4 6.4
168.2 169.9 171.5 173.3 176.3 181.9 187 188.3 192.4 199.1 202.6 197.5 211.7 212.5 218.2 218.8 223.2 247.9 249 245.1 246.9 263.4 263.1 246.8 242 239.7 234.9 228.9 225.7 220 210.8 201.7 198.3 195 193.1 194.7 199.8 206.2 207.9 207.4 201.3 203 206 204.3 182.4 152.5 125.7 114.6 109.3 104 102.8 101.5 122.5 131.1 132.7 132.9 131.2 128.6 127.5 128.5 130.2 134.4 134.4 135.9 138.3 141.1 145.1 152.8 157.1 160.5 167.1 172.6 183 189.3 193.5 200.5 205 209.7 215 219.8 229.4 228.9 230.8 235.2 238.8 241.1 245.5 249.1 253.8 258.8 265.2 272.4 279.5 286.9 293.3 298.4 304.6 313.5 322.7 332.4 341.4 346.8 354.5 362.6 368.5 372.5 374 381.3 382.8 377.3 373.4 368.7 362.1 354.2 345.7 333.5 323.4 316.8 305.5 299.3 293.6 290.5 286.1 279.9 276.5 270.5 269 270.6 269.1 266.5 262.8 256.4 254.4 254 254.4 254.2 255 257.2 264.1 266.2 272 278.3 285.7 294.9 302.8 302.6 303.4 335.3 349.4 374.3 391.3 417.8 416.9 406.8 394.4 386.6 378.7 368.8 353.6 348.1 336.6 322.2 320.9 320.4 325.8 319.5 313 310.4 298.5 287.7 276.6 262.9 246.2 230 209.2 188.2 171.7 162.3 147.7 129.8 121.7 112.2 96.3 71.5 54.6 27.7 10.7 4 2.6 3.1 2.5 2.2 2.2 2.7 2.3 0.5 2.7 2.5 8.7 12.4
167.9 169.7 170.7 172.2 179.8 189.1 192.1 194.3 195.8 198.9 202.7 201.3 208 220.8 217.9 221.8 232.7 244.3 244.5 248 248.9 256.9 261.5 263.5 251.2 246 240.2 233.9 230.3 221.4 212.1 203.8 199.6 196.8 191.3 193 196.6 199.4 197.4 192.9 192.8 194.4 193.8 176.3 163.6 144.8 118.5 110.2 107.6 103.3 102.3 105.7 115 129.9 147.1 157.3 153.2 146 142.2 137.9 138.8 143.7 146 151.2 152.7 158 160.5 165.4 167.1 170.7 174.3 180.4 182.5 188.4 193 199.7 204.8 210.2 214 217.2 224.3 225.7 229 230.5 236.8 240.6 244.6 248.9 254.2 258.7 265.6 272.5 279.1 286.8 294.3 300.2 307.3 318.1 330.7 340.6 347.8 355 362.3 366.8 371.3 373.7 374 381.7 381.9 374.1 368.5 362.6 355.7 346.5 336.7 323.8 314.7 310 303.8 296.1 285.1 278.6 276.1 273.7 268.2 264.8 265.4 262.1 261.5 258 253 252.1 250.7 251.7 253 254.5 254.9 255.8 259.2 264.7 273.3 275.4 277.4 279.7 291.3 291.1 306.5 324.8 339.6 359.8 378 397.4 399.9 391.2 383.3 376.7 369 364.7 354.8 344.9 334.4 328.4 333.1 330.7 328.7 328.5 318.4 311.8 302.5 290.3 284.5 265.7 245.4 226.3 200.3 185.5 171.9 158 141.9 132.3 126.5 117.1 103.9 81.9 65.4 45.2 14.9 3.4 3.5 3.2 2.8 2.5 2.3 2.7 2.8 1.1 1.6 10.6 20.9 31.9
167.8 169.2 169.6 171 176.5 182.8 189.6 192.9 194.5 205.7 207.3 206.7 207.8 222.4 230.9 227.5 229.5 245.2 253.3 250.8 251.3 255.4 263.5 263.1 257 253.1 245 239.5 234.3 224.2 214.3 209 202.5 198.5 194.6 191 193.7 194.9 190.5 186.2 184.8 183 173.1 154.8 154.6 131.7 111.3 110.8 109.2 102.9 101.4 105.2 119.9 146.4 162.3 162.5 170.2 160 151.3 148.6 152.5 162.2 168.9 166.6 169.9 176.9 180.9 181.7 181.2 183.7 184.7 183.9 185.2 187.2 193.2 197.4 203.5 208.7 209.6 212.6 220 224.9 228.7 235.4 240.6 242.1 247.4 252.2 256.2 260.5 266.7 274.6 281.9 288.5 295.2 302.2 310.1 324.2 337.5 346.9 354.4 362 365.9 370.7 373.7 374.9 373.9 376.4 376.1 369.6 361.7 353.5 344.5 336.8 326.9 316.3 308.1 304.9 299.3 290.6 281.5 272 268.6 262 260.8 259.8 259.1 257.2 257.1 254.3 251 249.7 248.9 248.2 248.1 250.1 256.4 258.5 259.9 261.2 267 272.8 276 279.3 289.9 290.9 304.2 316.2 330 354.2 365.9 384.9 390.8 377.7 372.7 365.4 365.6 362.1 354.1 343.9 331.3 327.6 327.2 336 326.1 324.4 324.2 313.2 304.8 297.9 285.5 261.8 242.9 216.4 193.1 194.8 182.7 172 152.2 139.2 124.6 121.5 117.4 90 70.3 42.9 25 2.7 3.5 2.5 2.6 2.5 2.4 2.9 2.7 1.2 3.1 22.7 39.8 39.3
167 168 168.8 169.2 171.7 178.4 184.7 191.4 192.9 197.5 203.7 209.2 218.6 219.7 224 225.4 240.2 253.5 260.1 256 261.5 270.9 274.4 277.6 269.3 261.8 256.3 248 239.9 229.8 220.3 214.1 204.5 200.1 196.1 191.7 188.3 187.3 187.8 181.9 174.1 175.5 163.3 159.9 144.4 116.1 113.1 118.4 113 102.4 100.6 110.3 142.8 149 141.8 136.3 145.1 146.2 141.8 154.7 165.1 182.3 184.1 178.3 185.7 194.9 201.4 195.9 197 196.3 191.6 189.1 188.1 190 193 199.5 202.9 210.8 212.7 221.1 225.6 227.3 232.8 237.8 243.1 245.9 250.5 255.7 261.2 265.1 272.8 279.8 285 290.2 297.1 304.8 313.1 329.2 343.8 351.2 358.2 364.3 368.1 373.5 377.4 375.6 370.9 366.8 366.1 360.6 351.4 343.9 334.5 327.9 320.9 313.5 305.1 299.4 293.6 283.9 275.2 265.5 258.3 257.3 253.5 252.7 250.4 248.2 251.1 249.2 247.2 247.5 247.5 246.3 245.8 247.7 251.7 255.2 257.1 262.7 268.4 274.3 277.9 288.1 287.9 299.7 298.6 312.6 328.6 344.3 358.1 369.7 380.6 375.6 364 363.9 363.9 360.4 354.7 335.1 330.1 327.5 328.4 327.8 326.8 320.7 319.7 311.7 306.2 293.3 281.7 259.5 247.1 213.6 196 193.3 192.5 171.7 160.3 148.6 140.7 124.3 126.3 106.1 66.8 42.9 24.1 7.3 3.2 1.9 2.9 2.7 2.7 2.7 0.3 1.3 10.1 16.8 18.2 26
166.9 167.6 168.2 168.8 170.8 178 183.8 186.9 191.1 197.5 204.9 209.1 226.6 223.6 224.4 231.5 253.1 253.8 263 285.3 294.7 304.6 309.1 303 290.6 278.3 263.6 257.5 247.5 235.7 225.7 218.1 208.1 202.3 198 193.6 190.7 184.3 181.1 180.7 186.2 164.2 157.7 145 135.4 124.9 133.9 120.2 109.5 102 101.3 117.6 151.2 136.3 120.6 117.4 122.8 127.3 127.3 146.6 171 186.3 192 193.6 199.9 211.9 214.9 214.3 219.1 207.6 199 193.6 191.1 192.2 196.9 202 207.6 211.3 218 225.9 230.5 232.9 237 240.4 244.1 247.3 255 261.2 264 270.6 277.6 281.8 284.9 289.8 300 307.3 317.5 331.7 348.2 357.2 362.4 366.4 370.4 378.1 379.8 372.7 365.5 359 352 349.3 341.2 330.1 325.1 320.6 314.7 310.8 302.3 293.2 285 277.9 268.7 258.8 251.5 250.2 250.1 248.6 245 243.6 243.2 240.3 238.8 240.2 239.7 241 243.6 248.3 252.4 254.9 260.4 267.1 272.7 279.9 283.2 286.8 290.8 300.6 312.9 315.8 335.6 342.5 353.5 365.1 373.2 369.3 353.9 361.7 358.8 355.2 350.3 330.7 327.9 325.1 326.2 331.7 326.3 318.9 310.9 302.8 306 295.8 274.5 243.5 239.9 212.4 201.6 204 193.3 180.3 166.5 158.6 144.4 137.1 117.3 73.7 51.5 47.5 25.6 5.8 2.4 2.2 1 2.6 2.7 0 1.2 3.3 22.7 22.3 20.4 23.6
167.7 167.9 168.2 169.1 171.3 175.1 180.7 186.9 189.8 195.4 207.8 210.7 219.6 222.6 224.9 230.5 244.7 256.5 276.3 305.6 314.3 320.2 317.5 314.2 310.3 297.2 277.8 268.4 258.1 243.5 231.5 223.1 213.4 204.1 200.6 195.9 191.2 187.9 174.4 168.7 170.8 158 140.6 134.6 130.5 138.9 131.4 116.3 107.1 112.3 105.2 101.8 115 113 103.9 102.4 104.3 107.2 117.2 127.6 136.8 153.4 172.7 191.8 201.7 209.5 224.8 220.8 216.1 213.2 207.1 206.5 195.9 197 201 205.1 209.8 213.7 220.8 227.9 232.5 237.3 240.5 243.4 246.2 249.3 251.4 263.6 276.4 280.1 281.9 284.7 287.7 293.1 302.7 309.4 320.7 333.1 347.2 358.2 364.4 364.8 371.9 380.2 375.3 363.6 353.2 347.4 344.3 336.6 327.4 322.3 318.4 313.7 312.3 304.6 293.9 283 276.9 269.3 261.1 252.7 246.4 244.6 242.4 241 238.1 235.8 234 232.2 230.7 230.6 234 239 242.3 245 252 260 264.7 274.1 281.4 289.4 294.1 295.1 299.3 309.1 317.6 320.6 331 340.5 353.2 357.5 365.9 359.3 349.1 352.9 352.2 351.3 342.7 330.4 326.5 324.5 324.2 324.8 318.7 310.7 305.3 298.5 301.2 290.7 247.6 232.8 219 209.8 212 213.6 206.9 187.6 169 160.3 150.6 133 107.2 77.6 46 23.2 17.1 4.5 0 0 1.8 1.5 0 0.6 2.9 16.1 37.2 32.9 28.4 31.1
174.2 171.8 170.2 170.3 172.5 176.3 179.7 186.4 189.8 198.7 204.6 210.9 216.9 222.7 235.8 240.1 245.5 262.8 287.5 305.6 322.5 327.2 325.9 320.8 314.7 303.4 293.5 276.9 268.1 254.7 241.1 228.1 219.1 212.7 206.4 199.3 194 187.2 181.4 171.5 163.2 154.2 144.7 138 145 141.2 123.8 112.8 110.7 127.8 118.4 101.3 100.6 99.6 98.9 98.8 98.8 100 105.3 113.4 118.2 126.6 138.6 169.4 202 227.6 229.4 223.5 223.3 214.8 210.8 212.3 205.6 204.1 208.3 211.8 214.9 219.1 224.2 230.7 235.5 241.3 245 248.1 251 253.1 263.6 274.1 281.2 280.2 281 283.7 289.8 294.8 303.2 306.9 323 335.8 352.7 362.2 362.7 361.4 366.6 377.1 366.1 349.6 338.7 330.4 327.2 320.1 314.1 310.8 308.2 302.6 298.9 291.4 283 275.1 268.5 261.2 256.7 247.4 239.8 238.9 235.9 232.2 228.6 225.8 224.6 222.7 223.4 224.2 234.4 234.9 241 245.9 255.2 265.9 272.5 281.7 288 304 313.5 320.4 325.9 327.2 325.6 332.3 342.7 349.6 354.6 355.2 355.1 352.1 347.9 348 346.6 350.2 338.3 329.9 329.9 337.8 340.8 337.5 327.8 310.4 293.9 292.7 291.5 273.8 240.6 226.1 218.5 217.6 215.2 217.4 202.4 180.9 172.2 163 151.3 128.2 110.2 85.6 56.8 22.6 9 0.3 1.4 2.7 -0.4 -0.4 1.3 2.8 3.1 19.8 40.2 38 33.2 40.9
181.4 180.1 177.2 176 177.6 181.1 182.8 187.6 192.3 197.3 203.6 211.6 217.3 228.9 239.6 249.4 256.8 277.1 288 304.6 316 325.3 327.2 323.6 319.2 309.3 296.9 284 273.2 262.3 252 238.7 229.9 225.9 214.4 205.7 201 190.4 182.9 178.1 170.8 162.7 149.7 142 151.7 139.9 120.1 111.6 112.5 125.9 126.9 112.9 105.9 99 98.4 98.8 98.7 99 99.2 101.1 106.5 110.1 118.8 137.4 184.2 224.6 221.9 221.7 213.9 203.2 212.3 216.4 213.5 212.6 214.6 217.1 219.7 223.6 228.2 233 238.3 243.2 248.6 256.7 262.6 263.4 267.9 272.8 275.7 274.8 277.1 281 287.3 293 298.6 301.9 315.8 333.8 349.6 360.8 359.1 357.7 362.7 369.7 353.1 333.7 324.7 314.4 306.3 299 298.4 299.8 294.6 288.8 283.4 275.8 270.9 264.8 258.5 253.4 247.9 239.7 233.1 231.2 224.9 223 219 216.7 215.1 215.8 217.2 219.9 231.1 231.6 245.6 250.2 258.8 268.9 275.7 284.6 292.8 310.3 321.5 330.1 334.7 342.2 347.3 345 348.8 353.6 354.1 353.8 351.2 349 357.9 347.5 343.2 342.9 333.9 329.7 334.2 355.8 358.7 341.3 329.9 316.4 300.7 288.5 269.6 251.1 234.7 227.4 222.3 220.3 224.3 225.2 198.9 178.7 170.9 158.6 142.9 126.1 108.9 92.1 66.5 32.5 6.1 -0.4 2 2.7 2.7 2.2 2.9 2.6 3.4 28.9 44.8 44.7 48.7 53.6
187.7 187.9 188.6 187.7 188.5 190.1 190.3 193 197.1 208 214.8 221 223 233.3 243.7 256.9 273.9 285.6 292.3 305.9 320.2 335.7 334.2 331.4 327.1 310.7 299.1 286.1 280.4 267.7 258.5 244.2 236.3 233.4 219.8 211.2 206.3 195.5 186.7 182.4 177.5 165.6 152.3 144.7 139.5 129.3 117.5 112.4 112 126.9 129.9 123.7 112.7 101.3 99.8 97.5 98.1 98.5 98.7 99.4 99.9 100.9 105.5 116.6 142.6 165.7 185.5 191.7 192.7 202.5 219.8 227.1 225.7 221.4 220.7 222.8 224.7 227.8 230.9 237.3 241 248.7 258 265.9 270.1 269 265.4 265.6 267 268 271.7 276.1 281.8 288.8 292.2 296.2 307.5 323.5 345.7 357.8 353.4 349.9 359.7 362.2 341.3 324.1 314.5 302.3 292.4 286.7 283.5 284.5 283.2 276 270.4 264.6 258.7 253.7 246.8 239.1 238.4 234.5 229.1 223.3 217.5 213.4 210.9 206.9 207.3 211.5 213.4 214.7 220.7 229.6 243 252.5 260.6 267.4 277.9 295.1 311.6 322.4 336.3 347 350 347.8 348.3 355.4 361.8 362.1 360.5 354.9 348.9 348.6 348.7 343.3 338.8 335.1 334.1 330.4 340.5 354.2 355.5 340.9 328.2 313 297.8 290.6 268.7 257.5 240.1 228.9 224 225.8 226.1 220.1 204.9 180.5 172.2 159.9 143.2 127.6 112.1 96 70.9 31 3.7 0.2 2.7 2.5 2.6 2.7 2.5 2.9 6.5 31.7 41.8 46.1 42.6 35.7
193.3 194.6 196 198.4 201.2 202 201.3 201.7 205.2 212.3 223.6 229.8 235.5 242.2 250 256.9 271.3 290.2 302.4 314.2 320.4 328.6 338.3 338.3 324.6 313.2 303.5 292.2 282.4 271.5 263.6 247 240.8 234.9 225.9 216.4 207.9 198.8 191.1 189.4 177.7 165.2 159.2 158.2 140.6 127 118.8 113.1 112.1 125.1 128.9 125.5 110.6 102.1 99.3 98.4 98.2 98 98.8 99.3 99 100.9 102.9 117.5 123.4 140.1 150.1 164.8 173.6 191.2 214.1 226 235 234 231.9 231.6 230 231.2 235.3 240.1 245.9 255.3 262.2 269.5 270.9 267.3 259.9 257.7 258.9 261.8 265.1 269.9 274.6 278.9 283.8 288.2 300.5 319.8 336.4 349.7 346.1 343 353.7 349.8 329.4 316 306.9 295.2 280.5 273.2 269.4 269.2 266.8 262.4 255.9 252.9 250.3 243.8 238.9 235.5 229.2 227.2 216.6 214 208.8 206.9 204.9 204.9 204.9 204.9 204.9 210.6 218.8 226.5 237.6 252.7 269.9 281.6 292.5 305.9 322.3 339.9 357 366.2 372 376.4 379.9 380.3 376.5 368.2 368 372.8 357.2 350.3 346.1 337.9 332.5 332 330.4 330.2 334.3 343.8 335.1 327.1 315.8 303.5 293.4 279.7 269.5 260.7 242.4 233.3 228.2 228 225.2 216.3 201.5 181.9 173.3 161.4 144.7 127.3 106.1 86.4 61.2 26.5 2.2 0.9 2.9 2.6 2.4 2.5 2.9 3.1 6.9 31.4 45.3 48.1 32 16.2
196.9 199.4 203.2 204.9 208.8 211.3 214.3 214.5 215.7 222.1 229.2 233.5 239.9 245.6 249.4 257.5 271.5 292.3 306.6 316.8 324.6 328.9 328.7 325 317.9 310.9 299.2 291.9 282.3 275.1 267.8 252.1 244.1 240.2 232.4 221.6 209.8 201.2 196.9 190 183.3 167.4 166.8 161 144.4 127.9 124.1 115.1 111.9 120.5 124 122.6 109.8 103 99.2 98.2 97.6 98 98.5 98.9 99.7 101.6 103.9 110.4 120.1 119 128.5 156 170.2 193.3 210.4 231.4 248.7 249.1 240.7 237.9 236.8 236.9 239.8 244.5 249.6 254.5 261.3 265.9 266.1 262.6 255.8 252.2 252.5 255.2 259.2 263.1 266.8 269.5 273.3 277.3 292.9 312.6 329.6 340.1 339.5 335.7 338.3 336.7 320.5 309.3 299.6 287 273.4 266.6 262.2 257.1 253.9 249.7 246.6 244.5 241.3 235 233 229.6 222.7 218.4 211.2 207.6 204.9 204.9 204.9 204.9 204.9 204.9 204.9 210.7 218.5 228.1 244.7 261.4 270.6 282.2 295 306.3 327.8 347.5 363.3 370.8 380.5 389.7 397.2 405.3 410.5 400.5 397.6 383 371 356.1 350.9 341 333.1 333 331.6 330.9 342.6 336.6 340.2 336.9 325.6 306.3 291.6 282.4 275.4 266.7 248.4 234.2 228.4 227.5 231.6 218.3 200.6 184.7 172.8 159.1 141.1 125.2 101.1 72.5 47 18.6 0 1.6 3.1 2.6 2.4 2.4 2.5 3.4 15.1 32.2 46 41.9 22.5 10.5
196.7 201.2 205.5 209.2 213 215.3 219.3 221.3 223.9 228.6 232.4 236.1 239.7 244.1 249.1 259.9 275.4 291.1 312.5 323.6 335 341.9 342 330.3 320.1 313.1 302.4 292.8 285.2 277.2 270.4 254.5 250.4 239.8 232.2 222.9 208.2 200.2 197.3 191.2 183 170.1 168.8 157.3 142 132.7 126.9 118 112.2 115.7 122.5 122.3 104.1 99.9 99 97.9 98.2 97.9 98.7 99.1 101.2 105.8 108.7 117 123.7 132.1 143 154.6 174.4 188.8 200.6 223.2 242 256.7 257.4 249.2 244.3 243.2 244.6 249 250.3 253.4 257.1 262.2 264.8 260.1 252.6 248 247.7 250.5 254.1 257.3 259.6 260.6 266.3 269.8 280.2 303.3 317.8 327.6 329.6 324.6 322.6 326.8 312.5 302.2 290.5 278.5 267 262.3 256.5 252 247 243.1 241.6 240.4 235.3 226.7 222.5 220.3 219.1 214.4 204.9 204.9 204.9 204.9 204.9 204.9 204.9 204.9 204.9 217.1 222.1 235.1 255.2 268.3 267.6 283 288.4 302 326 352.1 365.7 377.9 385.8 390.4 396.3 410.7 424.5 427.1 421.7 400 379.9 366.9 362.4 356 352.7 345.2 349.6 342.3 348.6 346.6 355 346.4 332.6 324.1 300.7 286.5 282.7 272 253.4 239.6 228.9 224.5 214.1 208 182.4 169.7 160.3 154.7 134.5 118.6 101.3 65.2 35.2 12.7 -0.6 1.8 2.9 3.1 2.4 2.4 2.4 3.5 27.4 38.9 33.8 30.3 20.2 10.7
189.5 195.5 201.6 206.5 212.4 214.8 219.9 222.8 226.3 228.7 231.9 234.5 239 244.5 250.2 262.5 276 293.8 310.2 326 340.9 343.9 346.8 342.8 325.1 314.1 304.4 295.8 285.8 279.5 269.8 255.7 251.4 239.4 230.5 219.3 207.6 200.4 194.9 195 185.5 169.2 153.9 149.2 138.6 135 125.5 114.5 111.8 115 118.4 118.1 99.5 97.6 97.6 97.3 98 98.3 99.6 100.9 104.9 110.3 112.9 122.3 130.1 139.5 151.8 164.9 171.9 181.2 196.5 214.9 238.6 263.9 270.1 261.2 253.6 249.6 250.5 252.1 252 251.4 253.5 257.3 260.6 256.2 247.5 244.2 243.5 246.3 249.7 252 253.7 253.2 259.1 264.1 269.3 287.8 308.2 318 319.3 313 311.2 319.8 307.5 294.6 280.8 270.4 262.5 257.6 252.7 246.9 242.3 236.9 234.4 232.4 225.2 216.9 216.6 216.9 209.5 206.1 204.9 204.9 204.9 204.9 204.9 204.9 204.9 204.9 204.9 217.6 222.1 239.2 253.5 264.5 261.8 273 285.4 296.7 327 345.1 364.4 378.2 385.3 393.4 399.5 414 431 438.4 428.8 407.6 389 373.6 371.7 367.5 364.3 353.8 356.4 351.8 355.8 354.2 362.9 356.1 344.4 328.7 311.4 301.3 301 284 264.9 245.8 234.5 222.3 208.5 194.8 175.6 163.1 153.5 143 128.5 106.9 82.8 58.3 28.8 10.7 -0.6 0.9 2.8 2.9 2.7 2.4 3 18 38.6 38.6 28.3 22.8 13.4 9.7
181.4 187.3 192.7 198.4 204.3 208.9 215.3 219.9 225.2 228.7 229.7 231 234.5 244.3 251.3 259.4 272.5 295.6 311.5 326.6 339.2 340.3 345.8 344.6 332.5 316 303.8 294.7 286.6 283.5 269.4 255.3 253.4 239 225.9 214.6 202.3 195.6 192 193.4 184.3 173.1 153.8 141.5 138.6 132.9 126.1 111.6 107.5 109.3 110.8 105 95.1 97.7 98.8 100.4 101 102.2 103.7 105 108.2 112.8 118.2 125.6 138.2 147.8 157.9 177.3 184.4 193 207.8 222.2 240.7 267 275 266.1 260.6 257.1 255 254.7 252.4 249.7 248.9 249.6 249.5 247 241.4 238.6 239.9 241.6 244 245.8 246.8 247.1 251.9 257.9 261.3 278.3 293.2 297.9 306.5 302 302.4 306.3 294.2 283.6 271.6 266.1 259.2 254 248.9 243.5 236.9 231.8 225.2 222.2 216.6 210.9 211.7 210.7 207.1 206 204.9 204.9 204.9 204.9 204.9 204.9 204.9 204.9 207.6 213.9 223.3 239.5 251.2 257.7 258 272.7 284.2 298.8 311.6 329.9 355.1 364.3 373.8 382 391.7 416.3 431.7 444.4 434.9 415.9 397.1 388.2 380.2 376.1 371.8 363.8 366 361.3 364.9 360.8 359.2 359.5 348.7 334.6 323.7 313.6 317.7 305.4 280.2 257.7 234.2 225 211.2 197 183.7 169.4 156.3 150.3 136 110.4 86.3 58.6 31.8 7.2 -0.4 0.7 2.9 2.7 2.5 2.6 3.3 28.5 44.4 33.2 17 11.9 9.8 8.8
174.2 176.1 182.7 191 197.1 201 204.6 214.6 221.1 223.3 223.2 226 232.9 241.8 251.1 258.8 269 283.9 309.2 324.2 333.7 332.9 335.8 338.5 330.6 316.5 303.5 294.8 287 278.9 269.6 255.2 251.1 236.2 222.2 212.9 200.4 193.5 188.6 190.3 177.7 164.2 140.7 136.1 136.2 129.8 121.5 110 100 100.6 101.5 100.1 96.3 100.3 103.3 104.9 105.5 106.7 109.1 109.6 110.2 116.9 122.9 126 136.7 151.1 160.3 172.1 185 203 218.1 232.6 251.5 269.8 279.6 272.5 266.7 261.6 257.1 254.5 250.4 246.1 243.3 242.9 240.1 235.7 234.6 233.5 234.9 236.7 238.1 239.8 242.1 242.7 247.4 253.5 255.2 265.4 281 288.9 291.7 291.7 291.4 294.6 280.6 273.2 265.8 261.7 257.2 251.5 246.3 241.1 232.6 226.9 223.3 219.5 213 206.3 204.9 206.8 204.9 204.9 204.9 204.9 204.9 204.9 204.9 204.9 204.9 204.9 208.6 215.2 223.1 236.2 246.3 251.5 254.2 268.2 286.9 299.5 310.3 321.8 340.5 354.6 361.9 377.6 391 417.7 437.8 447.9 436.8 422 405 397 391.8 389.4 377.4 373.5 378.4 376.4 371.8 368.1 369.9 364.3 353.8 341.7 333.1 327.1 312.6 302.8 283.7 263.5 240 229.1 220 207 194 170.8 164.9 161.8 141.3 114.5 88.3 63.4 41 10.5 -0.6 0.8 2.2 2.9 2.8 2.7 3.5 34.6 40.2 24.9 14 11.9 10.3 9.7
