ncols 200
nrows 82
xllcorner 270000
yllcorner 625550
cellsize 50
262.2 269.7 272.9 276.9 281.6 286.2 290.8 294.7 298.3 301.8 301.3 306.5 312.1 314.5 316.5 321.9 326.1 330.8 333.7 336.5 339.8 342.9 345.8 348.7 351.7 354.7 357.3 359.5 361.4 361.7 361.6 359.5 355.8 352 348.9 345 339.4 334.2 328.5 325.2 321 317.5 314.5 311.8 309.7 307.6 306.3 303 298.9 289.8 282.4 269.5 259.8 273.6 291.5 306.5 306.1 299.4 304.4 314.2 316.8 315.7 312.2 309.5 313.8 322.3 327.1 329.9 336.6 348.5 355.3 358 358.2 358.9 358.3 352.2 344.7 340.3 340.9 351.9 354.6 350.6 335.4 326.3 321 317.7 312.5 302.9 295.7 289 284.1 281.6 278.2 281.2 280.7 281.7 284.5 285.4 284.6 283 282.3 281.9 285.3 287 289.7 291.9 298.9 305.1 310.1 316.1 324.4 332.9 341.6 344.7 346.2 330.8 336 341.7 347.3 361.4 371.9 385.9 401.5 414.4 429.2 445 458.3 465.4 464.4 458 448.7 437.4 422.9 406.5 393.1 382.1 371 362.7 354.4 343.8 334.2 324 314.4 306.2 293.2 291.7 278.6 269 273.4 297 317.8 338 355 370.7 387.2 405.8 415.3 420.2 420.7 416.6 410.2 398.1 391.8 383.7 378.1 370.7 360.7 348.1 338.2 322.5 326.1 330.4 334.3 340.4 346.5 349 349.2 346.3 342.3 337.6 332.5 326.1 321.6 314.6 312 321.4 329.2 334.4 334.9 338.8 338.6 337.5 334.8 335.2 335.1 332 327.7 322.6 318.5 316.2
271.2 274 278.9 282.9 285.9 290 293.7 296.7 300.7 305.5 308.2 309.9 313.9 316.2 321.9 326.4 330.6 334.5 337.2 339.8 343 346 348.8 351.6 354.6 356.9 359.4 361.5 363.1 363.4 361.4 356.8 353.6 350.2 344.9 339.2 333.3 326.4 322.4 319.7 317.2 315 313.5 311.9 310.5 309.1 310.2 308.3 304.7 296.7 287.9 279.7 261 259.5 272.5 282.2 291 297.6 297.1 302.2 308.2 310.1 306.6 305.1 304.7 312.4 319.2 323 330.5 339.9 347.2 353.1 357.2 357 353.9 350.4 342.2 341 333.4 338.1 342.1 337.2 331.5 318.9 314 313.1 311.9 307.5 290.8 283.6 275.7 279.6 275.3 273.4 274.4 278 279.7 282.9 283.2 277.6 278.8 279.3 280.7 280 285.1 288.7 293.7 301.5 309.9 317.1 323.7 327.9 329.5 328.8 324.5 326.3 331.8 339.4 347.5 355.8 365.4 373.9 385.3 399.4 413.8 432.3 447.8 456.6 457.8 452.8 444.2 433.4 418.7 405.4 394.7 386.9 378.2 369.2 358.8 347 335.5 323.9 316.2 298.8 303.9 298 288.4 271.3 266.4 275.1 298.7 321.1 336 349.6 366.8 384.3 399.1 408.4 411.7 411.7 408.3 398.4 394.9 384 381.2 372.9 361.7 350.4 341.4 333.7 321.4 323.4 329 331.7 338.5 342.4 342.2 340.2 337.8 334.3 328.4 323.9 319.8 314.9 306.7 322.2 328.4 328.8 330.6 333.3 333.9 332.9 328.9 328.8 324.9 320.9 316.6 315.1 311.2 309.7
273.6 278 281.4 285.7 290.2 293.4 297.4 302.4 307 311.9 314.5 316.9 320.7 324.7 327.2 330.1 334.2 337.6 340.7 343.4 346.3 349.1 351.5 353.4 354.8 357.2 359.6 361.2 361.2 360.4 356.5 352.4 349.1 345.1 338.3 330.1 323.9 320.6 317.3 316.3 313.9 313.2 312.5 311.3 310.2 312.8 314.5 315.3 312.7 303.7 293.4 284.9 277.2 259.8 258.3 259.9 273.9 291.4 293.2 292.8 294.5 301.1 303.7 301.9 299.1 302.5 306.8 311.2 320.3 328.8 337.1 341.9 344.2 346.5 349.2 342.3 339 340.4 337.1 327.8 324.5 324.6 319.4 319.6 318.6 317.4 315.9 312.9 287.7 279.2 274.6 275.8 275.1 273.2 273.5 276 279.9 280.1 279.9 275.7 276.6 280.6 280.8 280.4 281.5 284.1 287.7 294.5 308 316.1 316.9 318.7 320.4 321.5 320.1 324.9 332.9 339.6 348.2 356.9 366.2 374.4 383.3 394.4 408.6 421.5 431.5 439.8 445.4 443.5 437 427.3 417.5 409.9 403 395.3 386.5 376 363.8 351.7 338.2 326.7 318.4 315.4 311.6 305.6 296.9 285.1 270.1 265.4 280.9 299.5 319 336.2 354.2 366 375 386.5 393.6 400.5 398.7 396.8 392.6 383.1 371.5 367 358.3 349.9 341.5 334.1 325.4 319 323.7 325.5 329.1 335 336.8 334.3 331.9 328.6 324.6 322.9 319.2 313.4 299.5 319.9 323 323.6 325.5 326.8 327.7 326.6 321.8 316.5 312.6 310.3 309.1 304.9 303 301.5
276.3 280.6 283.8 288.2 293 298.1 303.6 308.7 317 321 324.5 327.2 329.9 331.1 332.6 333.3 337.2 340.5 343.3 346.1 349.3 351.7 352.9 353.3 354.9 356.6 357.5 358 358 355.5 352.4 347.9 342.8 334.4 326.1 319.1 315.7 315 313.7 313 311.8 311.1 310.8 310.2 312.7 314 314.7 315 312.6 309.4 301.3 294.2 289.7 281.9 269.7 259.7 264.8 268.8 276 283.6 288.2 288.4 291.8 294.4 295.2 292.4 293.4 298.4 307.1 316.1 322.3 326.6 330.1 333.4 337.6 333.8 336.9 339 339.3 332.6 323.5 316.7 316.6 318.9 321.1 322 322 316 298.7 276.6 277.5 277 278.9 275.4 275.8 272.3 272 271.6 271.5 270.7 270 269.7 273.6 281.9 281.1 283.7 288.1 294.5 311 312 313.2 315.2 317.5 314.6 321 324.4 331.8 341.4 348.9 358.2 367.5 375.3 387 399.3 411.2 420.7 429.1 435.2 439 438 434.2 428.5 425.8 418.5 411.2 401.5 391.7 380.4 368.4 355.2 341.5 329.9 322.1 321.9 317.5 312.2 302.8 294.8 282.8 264.6 267.9 290.8 308.6 325.9 339.5 350.1 358.6 364.8 370.9 382.3 386.5 384.8 381.8 377.2 370.3 362.6 355.6 347.9 339.9 332.7 326 319.9 312.5 319.4 320.7 323.3 325.8 325.9 323.7 322.3 322 321.3 317.4 312.5 296.4 313.8 315.5 316.6 317.9 318.3 318.1 315.3 308.9 304.2 301.2 299.4 297.3 295.8 294.6 293.8
281 283.6 289 294.8 301.3 307.6 314.6 321.6 327.4 331.1 334.2 338 338.5 336.8 336.2 337.3 339.7 342.2 344.8 347 349.8 351.2 352.2 352.9 354 355.2 355.8 355.8 354.9 352.7 348.5 341.1 332.6 324.8 317.2 310.9 308.2 310.3 309.7 309.7 309.7 309.1 308.9 309.9 312.2 312.9 312.1 311.6 310.5 308.4 301.3 295.3 291.5 287.3 280.6 275.6 265.5 257.6 255.7 266.7 267.1 277.8 286.3 283 284.2 288.2 287 290.3 293.2 300.4 307 311.7 314.5 318.3 323.9 328.5 335.7 338.2 336.9 334.4 327.1 318.6 311.8 313.6 316.8 321.7 322.5 317.4 309.9 279.3 279.8 282.9 281.6 278.9 278 275.7 271.2 270.9 270.2 269.5 268.2 271 266.5 273.5 268.2 278.4 287 299.9 307.5 308.1 309.8 312.5 311.3 317.3 322.1 327.8 333.7 340.9 349.4 357.8 370.3 379.6 391.3 401.9 413.8 421.7 427.3 433 435 434.7 433.8 433.6 427 422.7 413.5 404.8 395.3 383.9 370.9 357.8 343.3 327.4 334 327.9 322.2 316 307.4 299 292.2 279.3 263.4 276.7 300.4 314.4 325.7 334.2 340.8 343.6 355 366 371.2 372.1 371.6 368.8 361.9 356.5 349.5 343.4 338.1 333.1 327.6 322.2 318.9 311.3 308 311.6 317.2 318.8 319.3 320.1 318.1 315.4 313.8 311 297.7 307.4 308.1 307.9 310.4 309.5 307.3 305 300 295.7 291.8 288.3 286.9 287.9 287.6 285.1
288.1 291 297.8 304.7 311.2 317 324.7 330.8 336 341.3 343.8 343.1 342.9 340.8 339.4 339.7 341.7 343.6 345.3 347.5 349.5 350.6 351.4 351.7 352 351.8 351.6 351.5 350 346.7 339 329.2 321.8 315.6 305.5 302.6 301.6 304.4 304.9 305.1 305.8 306.3 305.3 307.3 309.8 308.4 305.1 301.4 295.4 292.7 290.9 291.3 291.5 289.9 289.7 286.1 280.9 273.6 268 260.4 256.8 257.9 264.7 272.2 270.3 274.4 282.1 284.8 288.4 291.2 297 305.3 313.4 320.9 322.9 328.3 334.6 335.6 334.6 332.9 326.6 314.8 308.9 307.1 311.2 315.7 320 319.5 312.8 288.9 287.1 282.9 279.8 282 280.8 278.5 278.3 273.4 274.4 274.7 276.1 278.1 275.2 274.4 276.7 262.4 289.3 300.9 303.5 305.2 307.4 305.1 312.6 316.2 321.8 327.2 334.7 343.2 352.7 365.6 377.9 385.2 393.3 403.7 412.8 420 427.5 433 434.6 435.2 435.3 432.5 427.5 421.1 412.3 403.7 390.9 380 366.3 353.9 347.8 344.1 340.9 335.6 327.2 319.7 310.1 302 293.7 283 264.8 266.8 280.2 298.4 309.5 318.5 321.3 323.6 332.2 340.1 347.4 350.6 352 352.3 350.7 354.5 344.9 340.9 339.2 335.1 329.6 324.3 321.4 318.3 316.6 311.3 304.4 310.5 314.5 318.5 313.1 311.1 310.8 307 299.2 299.8 301.9 300.1 299.4 300.4 298.7 294.9 292.4 289.2 286.5 284 283.9 284.4 285.3 283.1
295.8 303.6 310.5 314.9 321 327.9 334 339.5 345.8 350.7 348.8 347 346.3 344.2 343.4 342.4 344.2 345.5 345.3 345.7 347.6 349.8 349.1 347.3 347 346.3 345.6 344.8 341.7 333.3 326.5 319.5 312.8 303.5 296.6 295.7 294.2 296.2 300.1 300.3 301.4 302.2 298.9 296.8 300.3 296.9 294.1 290.8 282.7 283.8 284.1 287.7 293.6 296.1 296.6 294.7 291.6 285.9 284.7 272.4 262 254.6 257.1 244.8 253.7 261.4 272.1 278.2 287.5 293.2 305 312.3 319.8 327.6 327.8 332.1 333.9 331.8 328 323.6 318.4 309.1 305.9 303 303.3 307.7 313.7 316 313.4 304.4 294.7 292.6 288.8 288.4 286.8 284.1 280.3 281.2 281 278.1 276.4 276.9 280.4 284.3 275 265.9 290.1 298.2 299.9 302.8 305.1 306.4 310.2 314.6 320 327.1 335.4 345.1 358.4 371.5 385 394.4 404.1 413.4 420.2 426 429.5 432.6 435.2 435.9 437.6 436.5 432.3 426.3 417.1 403.1 390.7 379 369.2 361.3 354.4 350.5 345.3 339.8 330.9 321.1 310.8 301.6 286.2 277.1 274 260.5 262 280.2 293.3 299.3 303.5 306.5 313.7 318 324.4 327.7 333.2 338.3 341.5 344.8 346.7 342.4 340.4 336.2 331.7 327.1 323.7 322 320.7 319.1 312.8 308.1 299.7 308.2 308 306.5 304.9 300.5 297.3 288.9 293.3 291.3 290.8 291.5 289.2 286.2 283.3 282.3 281.6 281.3 281.9 282.8 282.3 280.7
307.9 313.8 320.4 325.2 332.3 338.4 343.2 347.6 352.5 352.9 351.4 349.8 347.8 346.4 346.4 346.9 347.1 345.8 342.2 340.6 342 342.1 341.7 342.2 341.7 340.4 338.3 333 327.7 322.6 317.9 311.6 304.9 295.9 290.2 289.9 289.1 290.8 293.8 294.4 295.3 294.6 291.9 285.9 282.4 284.1 283.2 280.8 278.2 279.7 282.9 288.1 302.6 304.2 302.8 300.8 298.3 292.5 284.6 268.8 255.7 258.3 252.9 239.7 239.2 242.8 251 272.9 288.4 294.4 304.4 314.4 325.9 330.5 328 329.6 323 318.8 314 309 306 300.5 301.1 301.9 300.2 302.2 304.2 306.6 305.6 300.7 298 293 290.3 288.9 287.7 286.7 284 283.6 282.9 281.3 279.9 275.1 279 280.9 269.2 265.4 289.1 292.9 294.8 295.9 295.6 299.3 305.3 312.9 318.8 325 334.9 346.3 359.9 372.3 387.9 398.7 410.8 420.2 426.9 430.7 434.3 436.7 437.7 438.9 441.8 440.3 436 429.1 417.7 407.6 399.3 389.3 379.6 367.7 357.3 351.6 343.4 336.5 322.5 315.1 307.8 303.7 297.5 289.8 280.7 274.3 262.2 265 282 287.2 291.2 293.4 299.1 302.2 306.8 311.2 322.8 330.6 335.9 340.7 345.6 345.1 343 339.8 335.4 331 327.6 325.5 324.3 322.4 320.1 316.6 313 306.2 297.9 292.8 293.4 295.3 294.2 297.9 287.8 291.6 280.7 279.3 280.3 281.1 279.2 278.5 278.5 279 280.3 281.4 279.9 279.1
318.3 325 331.2 335.7 341.7 345.5 349 351.4 353.1 351.9 350.9 350.1 347.9 347.1 347.2 347.6 348.6 345.2 340.6 336.3 335.6 335.8 336.6 336.4 334.9 331.9 328.4 324.5 319.3 314.6 310 304.1 295.2 289.3 284.9 285.6 284 285.8 285.8 284 286.7 285.5 287.1 271.1 274.1 277.1 275.8 276.4 276.8 281.5 284.7 291.8 306.7 306.9 305.3 303.1 300.2 289.3 279.9 266.8 251.5 246.9 238.4 238.4 238.4 238.4 242.3 266.4 283.4 291.9 303.2 315 326.3 326.1 320.9 315.7 309.7 303.7 301.1 300.2 300.5 299 298.9 296.4 298.5 300.6 304.2 308.9 309.1 307.5 306.1 299.2 292.6 290 289.2 286.9 286.9 286.7 284.6 283 281.4 278.8 275.2 274.9 263 266.6 283.3 284.9 285.8 284.8 284.6 294.4 303 310.1 316.8 326.5 335.2 345.3 359.7 372.7 386.3 399.3 412.3 423.2 430.4 435.6 440.3 443.6 446.7 448.4 446.4 442.7 435.7 428.8 422.2 415.6 408.3 399.1 387 372.4 357.1 347.1 340.1 331.8 327.2 322.4 316.7 309.7 301.9 294.7 289.7 281.8 272.7 258.7 269.4 270.4 274.6 281.9 287.9 291.4 295.9 307.8 316.4 322 333.7 341 346.4 349.2 345.3 342.5 338.7 335 331.8 329.1 326.9 324.5 322.7 319.7 316 313.2 310.5 308.1 306.2 305.2 303.6 300.7 297.8 294.8 290.2 275.3 272.7 271.9 271.3 276.4 276.6 279 280 281.9 277.2 278.9
327.4 334.9 340.6 345 347.7 349.4 351.7 353.3 351.9 350.3 349.4 347.1 343.9 344.8 345.7 346 345.1 342.4 337.9 333.7 331.8 331.2 330.2 328.7 327.1 324.4 321.8 316.6 312.1 307.3 300.3 294.4 291.6 285.5 278.2 280.1 279.3 279.5 276.8 278.8 279.8 283.1 285.3 272.6 270.7 275.2 277.1 277.2 280.9 287.5 291.7 302.5 308 306.2 305.5 302.9 297.7 284.7 272.3 255.2 252.3 238.9 238.4 238.4 238.4 238.4 238.4 256.1 272.7 286.7 299.9 312 315.4 313.8 309.7 304.2 299.4 296.3 297.5 298.9 299.2 295.2 293.9 297.8 304.5 310.5 314.8 319.3 317.8 316.3 311 303.8 299 295.9 296.4 293 291.6 288.3 286.8 284.6 280.9 277.5 275.7 266.5 258.7 260.9 272.6 276.9 275.7 279 289 295.7 301.2 307.7 316.2 327.7 335 348.2 362.8 373.7 385.5 397.6 411.5 422 429.6 435.9 441.8 446.9 451.2 453.8 452.2 447.1 439.5 431.6 427.5 422 413.8 405.7 391.5 371.8 356.9 347.9 343.4 339.2 336.2 331.1 324.6 317.2 308 302.2 295.1 287.8 279.2 266.1 256.6 259.1 262.3 262.5 271.6 280.2 287.2 297.3 303 317.9 330.8 341.2 348.4 351.9 351.1 347 341.7 336.8 332.4 329.7 328.5 326.1 323.7 320.3 317.1 314.6 311.4 309.6 307.9 306.4 303.1 300.5 298 295 291.2 286.4 282.7 272.3 269.2 272.7 270.9 273.3 275.7 275.9 276.4 278.2
333.6 341.5 346.3 348.9 351 352.1 354.3 355.2 350.1 348.1 343.9 338.1 337.8 340 340.8 341 340.4 339.7 336.1 331.5 328.5 327.3 326.4 324.7 323.1 319.3 315.6 307.6 304 298.4 290.2 286.7 286.7 281.3 273.8 273.8 275.6 274.7 273.4 275 277.6 282.1 287.5 276.4 273.8 275.8 278.5 279.3 285.9 296.5 297.9 307.6 305.3 301.7 301.6 299.8 289.9 274.9 258.6 248.5 252.3 246.5 238.4 238.4 238.4 238.4 238.4 242.2 264.6 278.2 290.6 302 303.8 304.2 301.2 298.4 295.7 294.6 293 290.2 289.8 291.1 293.3 297.1 305.5 310.8 319.7 322.7 321.1 317.2 313.3 307.2 304 303.8 303.1 302.1 299.8 290.6 288.5 286.5 280.6 277.4 274.8 270.3 268 254.9 265.9 268 278.8 283.9 288.4 294.6 301.2 306.7 316.1 325.8 337.9 353.5 366.8 376 387.1 399.7 408.2 416.6 425.4 432.9 439.8 445.8 450.1 453 452.3 448.8 443.4 438.1 432.2 425.1 418.4 409.6 396.5 373.7 360.8 349.7 351.4 349.3 345.9 340.4 333.5 326.1 316.9 309.4 301.5 295.8 288.9 281.9 272.6 262.5 256.4 252.1 254.1 259.6 270.5 286.2 294.8 305.9 325.6 342.7 352.1 357 355.1 351.3 344.1 338.7 334.7 331.8 330.3 327 323.3 320.6 317.7 315 312.2 310.3 308.5 305.8 303.2 301.8 299 296.2 292.7 287.7 282.3 276.2 266.9 270 274.2 277.1 276.4 275.9 280 285.5
333.5 340.5 345.2 348.6 349.9 352.5 354.3 350.5 347.5 343.9 337.5 333.5 331.7 331.9 333.7 333.8 332.2 332.1 331 327.8 323.3 323.1 322.4 320.4 317 314.7 311.1 301.1 297.8 293.1 285 279.8 279.5 274.4 269.3 268.5 271 270.2 271 273.3 276.5 283.3 290.7 278.1 276.6 277.4 279.2 281.2 286.5 299.7 299.6 303 298.7 294.3 295.6 292.1 282 266 250.3 252.8 257.1 253.4 238.4 238.4 238.4 238.4 238.4 238.4 254.5 273.1 283.8 290.1 291.9 292.9 293.6 293.5 293.5 287 287 287.3 288.3 290.8 293.1 295.1 301.6 306.5 312.6 323.8 324 319.6 315.2 307.4 304.7 304.4 304.3 302.4 295.7 290.2 284.1 280.6 279.8 275.9 273.8 272.3 270.2 255.1 255.7 268 278 281.3 286.6 293 299.4 305 314.3 324.9 337.1 352.5 364.4 374 386.6 398.6 406.8 413.3 420.6 428.6 435.8 443.1 448.6 449.8 451.7 450.7 448 444.6 438.4 431.5 423.6 413 397.4 375.3 365.9 362.2 360.2 357.8 353.3 347.8 340.4 332.6 322.9 314.6 307.6 301.4 294.9 289.2 283 277.7 273.7 270 257.7 254 260.1 272.6 288.9 308.5 329.5 346 358 360.4 358.7 350.9 344.4 340.2 336.3 333 331 329.3 326 323 319.3 315.1 312.9 311 309.1 306.4 304.7 303.4 301.1 297.6 292.5 284.7 273.5 270.8 270.2 265.7 274 277.1 278.3 278.4 286.1 290.9
323.2 336.7 342.9 344 346.4 348.6 347.6 345.8 341.7 336.2 330.4 325.7 321.2 322.2 324.2 322.7 318.5 320.3 320.4 319.4 318.7 317 317.3 315.5 311.1 309.5 305.3 296.6 294.6 289.3 278.9 273.3 273.2 267.8 263.3 264 266.2 268.5 270.2 272.8 278.1 284.9 291.2 280.6 279.9 281 281.3 283.9 290.4 297 297.9 296.1 286.3 284.4 285.7 285.6 275.2 260.4 246.6 259.7 269.3 255.2 238.4 238.4 238.4 238.4 238.4 238.4 255.4 268.9 277.6 279.9 281.8 283.8 285.6 284.5 282.6 285.3 285.5 284.4 286.4 291.2 294.3 295.2 295.9 298.9 302.5 307.3 315.7 319.1 313.8 308.4 302 298.2 297.2 295.1 291.3 288.2 283.7 279.9 276.6 274.5 272.7 271.1 269.7 259.2 255.6 261 271.8 279.2 285 290.3 295.4 303.3 312.4 320.9 334.3 348.9 361.7 369.5 378.2 388.6 397.8 405 412 420.5 426.9 434.8 440.3 443.5 447.8 451.3 451 447.9 440.9 432.7 423.6 411.6 391.3 376.2 372.5 370.6 367.6 364.4 359.8 353.8 347 338.4 327.3 317.7 311.8 305.7 300.1 291.3 290.3 286.7 283.6 276.3 270.2 261.3 251.8 253.7 276.3 297.6 317.8 338.1 351.7 355.3 352.3 348.3 343.9 339.7 334.8 332.3 331.5 330.1 327.5 324.9 321.1 316.7 313 311.8 309.8 309.1 306.7 303.8 300.3 296 290.2 281 270.9 270.7 270.8 262.4 275 277.2 282.6 287.3 292.8 295.2
304.5 322.1 334.8 338.2 339.6 340.7 339.5 338.8 335.8 330 323.2 316.8 313.5 312.1 309.2 307.8 310.9 313.3 313.9 313.5 313.3 312.7 311.7 309.7 306.2 303.9 300.8 294.8 289.4 284.5 273.1 269.5 268.1 262.9 258.4 258 262.4 265.5 265.8 272.1 278.7 286 292.6 284.4 284.4 287.2 284.5 284.6 289 292.6 292.8 287.5 278.7 272.6 277.1 276.6 268.1 253.9 250.7 262.8 265.4 256.2 238.4 238.4 238.4 238.4 238.4 242.4 258 269.1 272.1 273.5 276.7 274 276.1 279.1 283 282.1 281.7 285.9 284.8 286.6 288.8 290.2 292 293.5 295.9 297.7 300.5 303 304.4 303.3 296.2 294.3 292.6 290.8 288.1 284.5 280.5 277.3 275.3 273.5 271.6 269.9 269.2 261.6 254.7 263.9 271.1 275.2 279.5 284.7 289 296 304.6 313.6 324.1 336.1 347 355.6 363.5 372.8 382.1 391.9 401.3 410.7 417.9 425.3 430.5 434.4 439.5 444.1 445.4 442.9 437 429.9 420.9 408.7 392.1 382.5 380.5 377.6 373.6 369.2 364.2 357.1 349.1 339.7 329.6 320.1 312.7 305.4 301.4 298.1 295.2 292.4 288 283 277.9 271.8 264 250.6 251.4 273.2 297.3 320.2 332.1 339.9 343.8 344.3 340.2 335.7 331.2 328.4 328.2 328 326.5 324.1 318.8 314 311 310.9 310.1 308.1 305.7 299.7 297.7 294.2 286.7 276.1 269.3 270.8 261.6 271.7 276.5 282 288.2 293 298.3 300.5
297.8 310 324.5 327.7 329 329.8 329.7 328.5 324.3 318 307.7 305.9 301.1 298.1 297.2 301.3 306.3 307.5 307.6 307.3 306.1 307.3 303.3 303.6 301.9 297.2 296 289.7 285.7 276.9 269.1 264.6 261.9 257.9 255.1 258.1 260.3 261 267 274.1 279.9 285.9 291.3 289.9 288.6 286.9 284.6 284.8 287.5 287.5 287.4 281.2 268.2 260.2 266.2 261.9 250.9 244.6 258.4 264.4 262.9 258.8 238.4 238.4 238.4 238.4 238.4 250 261.8 267.1 267.1 268 272.6 271.3 273 279.5 279.4 282 281 279.1 277.4 276.2 279.4 283 286.2 288 289.9 290 289 288.7 290.3 291.3 291.9 289 288 286.6 284 280.9 277.8 275.1 273.3 271.2 270.1 267.6 266.3 263.1 253.8 255.7 263.7 267.7 271.3 276 280.6 286.8 293.3 301 310.6 323.3 332.8 342.2 351.3 359.6 368.9 379.5 388.9 398.7 407.1 413.7 418.6 422.6 426.2 429.1 432.4 433.4 433.8 429.5 422.6 410.1 397 386.7 386.3 382.2 375.7 370.2 362.3 353.9 346.1 338.6 329.6 321.2 314.3 310.4 306.7 303.3 299.8 297.4 293.8 289.5 284.9 279.7 275.5 268 250.4 248.5 277.4 298.6 310.5 318.8 325 327.1 326 322.5 320.7 317.2 321.1 323.3 322.3 319.4 314 308.9 307.9 308.5 307 304.1 301.3 298 295.4 288.6 278.6 271.4 269.6 259.5 266.3 276.9 283.4 288 292.9 298.5 303.4 304.8
291.7 295.3 311.2 315.9 317.1 317.4 315.5 309.8 304.7 296.7 289.2 289.8 288.6 287.9 292.5 296.2 299.4 300.9 301.6 302.1 301.1 301 299.2 298.9 296.5 294.6 290.7 286.2 280.6 273.4 266.2 260.1 257 255.5 256.3 257.6 257.8 262 268.7 274.3 280 285.7 290.6 294.8 292.1 287.3 283.7 283.9 284.6 284.2 281.1 270.6 257.9 246.6 249.1 243 246.6 255.3 261.3 262.4 260.9 259.9 242.8 238.4 238.4 238.4 243.2 254.1 260.7 263.1 263.3 266 270.6 272.9 273.6 274.8 274.5 274.2 272.4 271.3 270.6 270.4 272.4 275.6 279.5 282.1 283.7 283.9 282.5 282.3 283.5 286.8 285.6 283.7 282.8 281.8 279.6 276.8 274.7 272.6 270 267.1 266.2 267.4 266.2 262.3 255 253 254.6 260.6 261.2 264.3 265.7 271.3 276.6 285.1 296.1 307.8 318 328.8 339.1 348.7 356.6 366.1 375.1 385.1 397 404.8 410.5 415 418.1 419.1 418.4 417.2 418.3 416.3 414 408 395.7 387.6 386.4 379.5 372.7 365.7 357.9 349.9 343 336.1 327.5 320.1 319.7 316.6 313.4 309.1 307 302.5 299.3 296.9 291.3 285.1 281.2 276.6 266.8 251.7 251.4 274.5 287.2 292.6 298.1 303.2 307.2 304.6 301.9 304 311.9 315.1 314 308.7 304.8 304.1 303.6 303.7 301.9 298.6 296.7 294.4 287.6 282.7 276.6 269.7 265.2 262.7 274.1 279 286 291.6 298.1 304.6 309.1 310.4
285.6 288.2 291.5 303.7 304.3 301.4 295.8 288.6 280.8 279.4 280.3 280.6 279.8 281 285.9 288.4 292.3 295.5 296 297 296.8 295.1 294.2 293.3 292.2 289.4 285.1 281.8 276.2 270.6 264.1 259.4 255.2 254.1 254.4 255.5 257.6 258.5 265.5 272 278 283.5 289.2 292.7 290.6 286.9 282.4 281.1 281.4 279.1 273.4 260.4 245 245.9 250.3 254.2 257.7 260.6 260.1 260.1 258.4 257.6 255.4 244.6 238.4 238.4 242.3 251.6 256.3 258.3 260.4 264.6 267.3 268.5 268.7 268.5 267.4 266.5 265 264.1 263.8 264.5 266 268.6 271.6 274.6 275.8 275.6 274.6 275.3 275.1 274.6 276 277 276.8 276.1 274.5 272.4 269.8 266.6 264.2 262 261.7 261.9 261.2 260.2 257.3 254 253.3 253.3 253.3 253.3 253.3 253.3 256.3 261 269.7 282.4 299.4 315.1 327.4 337 344.7 352.1 357.9 368 381.5 391.4 398 404.5 407.8 408.7 405.9 402.4 402.3 402 402.2 400.5 390 385.9 378.9 373.9 367.5 361.6 355.1 348.4 341.5 334.8 330.4 326.2 324.5 322.7 319.9 316.3 312.8 308.5 305.6 302.4 296.1 289.5 284.9 281.4 276.4 265.2 249.8 247 253.7 261.9 265.6 273.3 282 284.8 287.3 296.1 301.7 307 303.9 299 297.6 297.6 297.7 297 296.1 294.8 291.1 287.9 283.5 280.1 272.3 263.9 257.4 270.5 278.5 285.1 292.4 297.8 304 310.9 314.8 316.6
279.6 281.3 282 281.7 283.5 280.6 272.2 268.7 270.8 271.9 272.3 272 269.4 277.6 280.1 282.7 285.4 288.3 290.4 290.7 292 291.7 290.1 289 287.7 281.9 283.1 278.4 274 269.2 262.7 255.2 252.3 251.7 251.8 256.4 258.2 261.1 264.5 270.4 276.6 281.9 287.4 289.8 288.3 284.5 280.4 278.1 275.1 272.4 266.1 250.5 246 258.2 257 258.6 259.4 258.5 258.3 257.7 256.7 256.2 257.2 254.8 254.3 242.3 245.8 250.1 253.9 255.5 258.6 261.5 262.8 263.7 263.6 262.5 261.7 260.3 258.7 258.3 257.2 259.6 260.3 262.8 264.3 264.9 263.1 265.4 266.8 266.2 266 266 266.1 266.4 268 267.8 266.6 266.7 264.5 262.1 259.1 256.1 255 255.2 255.1 254.3 252 252.9 253.3 253.3 253.3 253.3 253.3 253.3 253.3 253.3 253.3 253.3 266.7 285.1 308.1 320.9 330.5 340.6 350.7 360.5 371.5 381.2 388.2 391.4 398 395.5 391.5 387.4 384 385 382.3 382.5 380.3 375.6 368 366.5 362.8 358.4 353.4 347.7 342.8 339.4 335 331.5 329.5 327.6 325.7 322.5 319.6 315.6 311.2 306.7 300.1 293.2 288.1 283.7 278.7 271.9 265.5 256.1 244.6 244.8 243.4 246.4 268.1 272.2 284 290 293.6 296.8 294.8 292.7 290.8 290 290.5 289.8 288 288 285.6 282 278.8 275 265.8 261 263.2 276.3 285.3 292.8 298.3 304.6 310.9 318.4 321.4 322.7
276.3 274.2 275.6 273.6 270.5 264.1 265.1 263.1 263.9 264.9 265.7 264.3 265.4 270.7 275 276.8 279.9 282.9 285.6 285.9 285.9 285.5 284.7 283.4 282.2 274.8 277.3 274.3 271.5 266.2 258 252.1 250.4 250.9 252.1 256.3 259.2 262.5 264.7 269.9 276.3 281.2 286.1 286.7 284.8 281.3 277 274 272.1 268.3 259.6 245.2 250.3 254.6 255.4 257.5 254.3 254.6 255.5 254.7 255.9 255.4 255.1 252.2 247.9 247.9 249.6 250.4 251.4 252.8 255.6 257.7 258.5 258 257.7 256.4 256.4 256.9 254.2 253.8 254.1 254 257.5 258.6 259.7 258.1 254 255.1 256.6 257.1 259.7 259.4 258.4 257.6 257.9 258.6 259.2 260 260.3 258 253.6 251.6 250 248.9 247.6 248.1 248.4 250.9 253.3 253.3 253.3 253.3 253.3 253.3 253.3 253.3 253.3 253.3 253.3 260 279.1 295.7 313.4 326.3 337.6 347 357.8 367.5 375.5 380.2 383 379.4 371.4 367.8 363.1 362 365.3 370 369 362.1 361.3 361.3 358.8 357.2 354.5 350.3 347.1 343.3 339 336.6 334.6 333 330.3 328 326.6 322.3 317.2 309.8 303 295.8 290 285.2 280.4 275.5 270.1 267.4 259.4 253.4 240.5 241 256.8 271.4 279 282.5 284.9 285.5 285.4 283.6 281.5 280.5 280.2 283.1 283.8 280.5 279.1 278 270.8 266.4 262.7 253.9 272.2 283.7 291.5 297.9 305 313.8 321.5 326.6 329.2 329.3
279.6 271.5 269.2 268.7 266.4 266.1 267.4 266.3 263.4 261.1 259 258.8 258.2 264.6 269 271.4 274.1 277.9 281.4 279.4 279.8 279.6 279.6 278.3 276 275.5 272 268.3 266.6 261 253.2 250 248.9 249.1 251.1 256.5 260.1 263.5 266.5 269.9 274.7 278.9 282.1 279.5 278.8 276.9 273 267.7 264.6 258.3 256.7 244.3 242.4 248.2 248.6 247.4 249 250.5 253 255.2 254.7 254 252.6 249.4 249 249 249.3 249.9 248.6 249.7 251.6 253.4 253.5 250.3 248.5 249.7 251.6 252.4 252.4 253.9 253 253.5 253.4 255.2 256 255.9 253.4 249.4 249.7 249.7 249.5 251.4 252.1 251.7 250.8 250.7 251.6 251.4 250 251.6 249.1 247.9 246.8 247.6 247.9 248 248.5 249 253.3 253.3 253.3 253.3 253.3 253.3 253.3 253.3 253.3 253.3 253.3 253.3 259.2 277 287.5 309.3 320.9 331.4 340.9 348.1 357.1 362 363.5 360.8 355.3 350.8 346.7 345.8 349.5 354.8 353.9 352.4 356.8 358.3 357.7 356.8 354.1 350.2 346.6 341.9 340.3 339.8 339.6 338.2 336 334.5 332.2 328.1 320 311.3 304.2 296.8 290.8 285.5 280.9 277.1 273.9 270.6 267.4 265.2 253.7 238.3 240.5 262.1 272 274.5 276.2 276.4 276.5 275.5 272.2 273.3 273.4 272.7 273.2 273.4 274 269.5 262.6 255.7 254.1 268.8 280.6 291.1 301.1 309.6 316.1 323.9 329.8 333.1 334.1 332.7
278 271 266.5 264.5 265.5 269 270.6 269.1 268.4 268.1 267.5 263.6 259 256.3 262.5 266.7 269.6 273.1 275.6 275 273.5 272.6 272.5 272.1 269.8 268.2 265.4 263.8 260.9 254.9 250.8 248.6 247.8 248.8 251.1 256.3 260.3 264.6 268.8 270.8 274.5 276.1 274.8 274.2 272.4 266.4 263.2 262.8 259 256.5 252.6 249.6 243.5 244.5 246 246.4 246.2 246.6 250 250.1 250.2 248.3 247.8 248.5 247 247.9 245.7 245.1 245.1 243.6 246.4 246.9 247.5 247.9 247.9 248.9 249.6 249.8 250 249.4 250.5 250.8 251 251.7 252.3 251.4 249.8 248.4 248.8 248.1 247.6 247.8 247.8 247.8 247.5 247.1 247.1 246.9 247.1 247.2 247 247 247.4 247.9 248.1 248.9 250.9 252.4 253.5 254.6 255 254.1 252.3 253.3 253.3 253.3 253.3 253.3 253.3 253.3 253.3 256.9 275 293.9 304.1 319.9 328 334.7 341.5 346.9 349.8 346.3 341.3 337.1 333.6 334.1 336.4 339.1 342.8 349.7 355 355.6 353.6 351.8 349 345.3 342.7 341.7 341.5 341.3 341.4 341.3 339.4 340 337.2 331.7 320.5 312.4 305.1 297.6 291.7 287.4 282.5 278 274.8 271.7 268.5 266.1 262.8 241.6 239.4 252.6 262.8 268.2 269.4 269.7 268.8 267.7 265.7 267.1 269.1 268.2 267.5 266.2 265.9 260.5 250.5 253.3 269.3 280.8 291.8 301.8 311.7 319.2 324.1 329.5 334.2 336.3 335.2 332.4
273.8 268.4 265.4 265.2 268.1 271.7 273.1 274.9 280.4 283.2 277.2 270 261.4 255.8 256.9 264.5 267.1 268.2 269.4 269.8 268.7 266.6 266.4 266.1 264.4 262.1 259.6 256.5 253.9 250 248.7 247.3 246.7 249.1 251.9 256.8 262.2 266.2 269.1 270.3 270 270.3 269.3 264.6 263.9 261.8 258.3 252.4 251 251.2 247 247.2 243.9 241.4 241.2 244.6 245.1 245.5 245.4 243.5 242.2 239.6 244.3 247.3 244.5 245.4 243.7 242.3 243.3 242.9 242.4 242.5 243 245.4 246.4 246.3 247.2 247.7 247.3 249.1 248.2 247.9 248 248.4 248.6 247.9 247 247.1 246.7 246.4 246.4 246.8 246.8 246.3 246.2 245.9 246 246.2 246.3 246.5 246.5 247.1 247.6 248.2 248.6 250.6 255 257.2 260.9 257.9 261 259.7 255.4 253.3 253.3 253.3 253.3 253.3 253.3 253.3 253.3 253.3 254.2 268.4 288.2 309.7 318.3 324.4 330.9 336 338 333.5 327.3 326 320.7 319.3 324.1 328.4 338.9 347.6 350.8 350.1 347.6 344.6 341.9 341 340.8 340.7 340.7 341 341.9 343 343.3 345.1 340.1 330.2 320.8 312.6 305.1 297.4 292.4 287.1 283.4 279.5 276.2 272.5 269.4 265.1 262.9 258.9 235.1 253 243.8 246.4 253.8 259.5 260.6 260 258.7 259.7 261.1 258.2 255.8 256.4 251.5 241 253.2 267.4 279.1 291.4 302.6 311.4 318.9 325.3 329 334.2 336.8 335 332.7 328.5
267.6 266.1 265.7 267.2 270.7 273.8 279.3 285.7 287.6 283.6 276 269.1 261.3 254.2 256.5 262.1 263.7 263.8 264.5 265.4 260.8 260.2 260.2 259.6 257.9 255.8 254.8 252 249.4 248.2 246.6 245.3 247.1 250.9 253.5 258.2 262.9 266 267.3 267.4 266.5 262.9 263.1 260 256.4 254.5 251.7 247.8 243.9 241.6 244.5 238.4 238.2 236.2 241.7 244.3 239.5 242.1 245 246.7 246.2 246.4 246 241.4 240.7 239.4 239 240.9 243.8 243.1 243 243.6 241.1 242.2 243.1 246.5 247.5 246 245.7 245.8 245.7 245.5 245.8 246.4 246.6 246 245 245.2 245.5 245.2 245.2 245.7 245.7 245.5 245.3 245.6 245.7 246 246.5 246.8 247.3 248.1 249 252.9 257.2 261.7 264.7 265.8 265.8 266.5 259.2 264.2 257.3 253.3 253.3 253.3 253.3 253.3 253.3 253.3 253.3 253.3 253.3 266.9 291.6 303.1 310.9 318.1 323.2 326.6 325.6 319.9 315 311.6 304.1 309.3 318.3 328.7 337.4 342.3 344.7 346.2 345.3 342 338.1 337.5 337.8 338.7 337.5 338.6 340.2 340.1 339.4 338.3 334.1 326.7 318.9 311 303.6 296.5 290.1 284.6 282 278.3 275 271.6 267.1 264.1 262 259.4 241.7 237.5 236.6 236.5 238.9 248.6 252.2 251.8 249.4 247.6 247.3 247.1 244.5 237.7 255.2 263.8 270.2 281.1 291.5 300.4 309.4 318.3 324.7 329 332.5 333.5 333.5 331.2 325.8 319.5
264.2 265.1 267.2 269.3 272.2 278.5 281.9 281.9 279.9 275.5 269.9 265 258.6 252 254.5 259 260.4 260.7 261 261.5 259.1 254.8 253 252.5 252.3 250.6 249.5 248.1 247.6 247.4 243.3 244 248.7 251.7 255.2 259.8 261.8 262.6 263.2 260.4 262.8 261.1 258.6 254.8 252.3 250 247 242.7 238.6 238.8 236.9 238.1 236 242.5 244.2 243.9 245 244.3 244.4 240.9 240.4 237.5 239.8 243 245.1 243.6 245.2 245.5 246.1 245.9 246.3 246.1 245.5 244.1 243.2 242.5 244.6 243.6 244.8 245.1 243.9 243.9 243.9 243.9 244 244.4 244.6 244.7 244.7 244.7 245.1 245.1 245.4 245.9 246.1 246.4 246.5 246.7 247.2 247.5 250.9 252.5 256.4 265 268.3 270.7 277 278 274.3 274.5 271.8 260.5 258.8 253 253.3 253.3 253.3 253.3 253.3 253.3 253.3 253.3 253.3 272 290.2 297.6 303.3 308 312.1 315.4 315 310.9 303.9 293 297 307.2 315.6 330.4 336.9 341 344.2 346.3 343.3 338.5 334.8 332.9 333.6 333.7 332.1 333.2 334.5 334.1 332.5 330.4 327.8 322.6 315.4 307.1 295.4 288.9 287.8 283.9 280 277.1 272.9 269.6 265.2 261.4 260 254.7 249.3 238.1 235.6 235.4 235 234.2 233.8 233.5 234.4 237.2 240.1 234.9 246.9 260.3 271.6 278.9 283 291 298.8 306 314.5 323.7 329.2 332.4 331.4 331.1 328.3 322.7 317.3 311.6
262.9 265.4 267.3 269 272.2 274.3 275.4 274.7 272.3 269.5 267.1 261.5 255.5 250.9 251.9 255.3 256.4 257.9 260 258.4 255.1 251 247.1 246.8 246.6 246 246.3 247.1 247.4 239.7 243.8 247.4 248.7 249.6 253.9 257.2 258.9 258.5 258.5 257.7 256 254.8 252.7 250.8 248.4 245.8 242.7 238.8 238.7 236.4 236.2 235.4 234.3 241.1 242.4 238.4 238.1 235.2 236.7 237.1 237.4 239.8 242.8 245.5 247.3 248.7 249.3 249 249.3 248.7 248.3 247.9 247.4 246.2 242.6 246.4 243.4 243.4 243.4 243.6 243.9 243.5 243.5 243.6 243.7 244.7 245.5 245.5 245.6 246 245.8 246 246.4 247.1 248.1 248 248 248.8 251.1 254.8 259.8 262.5 269.2 274.1 276.8 280.3 287.1 289.9 291 286.8 281.1 275.5 266.5 260.5 258.7 256.9 252.9 253.3 253.3 253.3 253.3 253.3 253.3 279.6 287.6 292.4 297.5 301.4 303.9 304.5 303.1 297.4 289.1 286 297 308.5 321.8 330.7 336.3 341.4 344.2 345.1 343.6 338.2 334 326.7 327.7 328.9 328.8 326.2 325 325.1 322 321.8 318.7 314.1 308 299.2 290.7 289.2 285.1 281.4 277.4 274.3 270.4 266.4 260.7 256.9 253.5 249.5 243 236.3 235.2 234.4 234.9 234.2 233.7 232.2 231.4 233.7 233 236 257.1 267.4 278.8 285.3 290.1 296.8 302.5 309.9 318.9 326.7 330.8 331.5 328.8 325.4 321 317.1 312.7 308.4
262.2 264.1 264.8 264.5 266.3 268.2 268.4 267.2 266.3 265.1 261.5 256.6 253.5 251 247.7 251.4 254.3 257.1 257.6 255.3 252.4 248.5 243.8 242.7 242.8 243.8 244.9 245.5 243.2 244.3 247.3 247.6 248.8 250.3 250.4 253.8 252.8 253.1 252.8 251.3 251.7 249.4 248.1 245.8 243.4 240.9 240 238.2 237.2 235.4 234.9 234.5 233.3 235.1 235.2 234.1 235.7 237.6 238.6 240.8 243.7 246.2 248.5 249.6 250.8 252 252.4 252.2 251.4 250.4 250.1 249.7 249.2 247 245.9 244.8 244.3 243.9 243.9 243.9 243.9 244.2 244 244 245.5 247.3 247.8 248.3 248.6 249.3 249.3 250.7 251 252.9 253.9 256.7 256.4 258.6 263.9 266.8 269.9 273.8 277.5 282.4 287 292.3 298.1 302.3 305 304.5 301.5 292.8 282.9 269.1 265.9 262.2 258.5 255.3 253.3 253.3 253.3 253.3 253.3 272.4 278.9 283.5 284.4 286.6 288 289.6 290 283 279.4 285.3 298 307.7 319 326.9 332.7 336.3 339.6 341.8 340.7 337.4 332 326.2 319.6 320.4 319.7 317.6 315.3 314.8 312.6 313.2 305.8 301.3 296.8 292.5 288.9 285.1 281.2 277.7 274.3 270.5 265.4 260.3 255.8 250.4 246 241.6 235.2 233.9 231.1 233.3 233.9 235.4 235.4 231.3 230.7 230.1 233.4 232.9 265 276.2 283.3 288.7 294.1 299.6 305.4 312.9 320.4 324.7 328 327.4 323.6 319.6 316.6 313.8 310.3 306.8
258.3 259.6 260 259.8 259.7 260.2 259.8 259.1 259.7 261.8 257.6 254.7 252.9 250.4 245.3 248.9 252.1 253.2 253.6 251.9 249.6 246.3 242 240.8 243.1 244.6 245.2 245.4 242.6 247.9 246.6 246.7 247 248 247.7 247.3 247.5 247.6 248.1 247.6 246.1 244.3 242.5 241 241.1 241 240.6 238.5 234.7 232.9 233.6 233.4 232.6 233.5 233.5 237.3 239.3 241.3 241.3 246.7 249.5 245.6 246.9 252.3 253 254.1 254 253.5 252.9 252.2 251.9 251.1 248.6 248.4 248.4 248.8 245.5 244.6 244.6 245.5 246.1 246.1 246.6 249.1 250.4 251.3 251.3 251.4 253.2 255.9 257.4 259.7 259.8 262 260.9 264.7 266.8 269.4 272.8 277.3 278.3 283.1 288 293.1 297.7 302.4 307.3 310.9 313.3 315.4 311.2 302.9 294.5 289.2 276.5 274.4 268.3 261.5 256.5 253.3 253.3 253.3 253.3 263.5 268.8 272.5 273.9 271.7 271.1 270.5 273.2 273.3 263.5 284.3 292.4 302.9 311.7 317.8 323.5 326.9 332.2 334.7 337 335.5 331 324.7 317.5 308.4 309.7 307.7 309 309.6 309.5 306.9 302.5 297.5 292.5 289 283.7 279.3 275.4 272.8 270.7 266.8 260.2 254.8 250.7 244 236.1 234.1 233.6 239.8 244.9 239 230 228.9 232.5 228.7 230.8 229.7 230.3 243 269.3 282.2 288.8 292.9 296.3 301.4 306.9 311.9 315.7 318.3 320.3 320.2 315.6 314.1 312.8 311.3 308.7 305.4
255.4 255.1 255.6 255.9 256.3 256.1 255.8 255.4 255.4 257.8 255.1 253.4 251.4 245.5 243.6 248 249.5 251.3 250.7 250.1 247.9 244.6 238.4 241 243.3 242.6 242.1 242.8 242.4 243.7 238.8 241.7 243.4 244.5 243.7 241.9 240.9 239.8 241.1 240.8 237.9 237.3 237 238.1 239.6 240.4 239.5 236.6 233.3 231.6 232 232 235.2 238.4 240.2 242.1 244.2 248.5 242.8 245.2 249.7 250.9 253.3 245.7 254.6 255.2 255.1 254.7 254.4 253.8 253.2 251.7 249.2 250.6 250.2 249 247.4 246.9 248.2 249 250 253.1 253.2 253.8 255 255.3 256.4 254.9 259.4 262.1 264.1 265.1 266.7 269.5 269.6 269.6 276.8 277.4 280.6 284.2 288.8 294.3 299.3 305.8 311.4 315.3 318.3 320.2 321.5 322.4 321.5 318 311.6 301.1 290.4 284.6 279.4 272.7 265.4 253.3 253.3 253.3 253.3 253.3 256.9 262.2 261.2 259 258.1 259.2 260.3 254.1 253.8 271 281.4 291.8 295.8 303.6 309.3 315.9 322.1 326.9 329.2 327.3 322.6 318.9 311.8 305.5 302.1 299.7 301.3 302 301 298.9 296.2 292.2 286.6 282.9 279.1 276.1 273.8 269.1 267.1 260.4 255.5 250.5 245.1 236.9 233.8 233.5 241.3 247 252.1 257.5 254.7 254.8 254.7 242.8 226.6 233.4 229 251.2 276.1 285.6 290.7 293.6 296.2 300.2 303.6 306.3 308.3 309.3 311.4 311.7 309.9 309.1 309.5 308.6 305.4 300.9
254.4 254.2 254.1 255 255.5 255.2 254.9 254.8 255.1 255.5 254.2 253.1 252 246.4 244.2 246.9 249.6 250.7 246.1 243.5 242.4 239.8 240 241.2 240.6 239.4 238.2 239.2 238.8 236.1 235.7 238.2 240 242.6 239 239.1 236.6 236.4 236.4 233.9 230.1 231.4 234 236.5 238 236.8 234.4 231.2 230.3 231.4 235.1 238.8 241.9 244.4 245.6 247.4 248.5 250.1 241.6 250.9 251.9 253.9 255.2 254.7 255.4 256.1 255.9 255.4 254.7 254 253 249.3 251.8 252.6 251.5 249.6 249.9 251.2 252.8 254.2 256.8 256.1 257.7 258.3 258.8 260.8 261.6 260.3 264.6 266.5 268.2 271 274.5 276.6 278.2 280.4 283.4 287.4 291.1 295.1 300.2 307.9 313.6 319.5 325.6 329.7 331.8 332.7 331.6 330.3 328.7 325.2 319.4 310.4 301.2 293.7 288.3 281.2 273 255.2 253.3 253.3 253.9 251.4 250.5 251.4 251 250.5 249.4 248.6 248.5 249.5 251.3 258.4 271.1 279.1 283.4 287.7 293.7 297.7 301.2 304.8 308.5 310.3 308.9 306.9 303.5 299.3 295.3 294.1 293.6 293.9 292.7 290.9 287.8 284.1 279.7 277.9 274.9 273.2 270.1 265.5 258.9 255.9 252.2 245.5 236.5 234.6 235.1 240.3 246.4 253.9 259.9 266.4 266.7 265.2 261.2 252 233.5 228.3 230.5 254.8 274.3 283 285.8 290 293.4 297 300.2 301.5 301 302.2 305 305 304.6 305.5 306.6 303.9 298.3 295.1
253.8 254.2 253.6 253.5 254.6 254.1 254.6 254.7 254.7 254.3 253.8 253.5 251.7 248.2 244.1 246 247.9 248.8 246.9 244.1 239.7 236.3 236.6 237.5 236.1 235.3 234.6 234.2 234 228.3 231.7 235.4 237.6 238.4 237.7 236 232.7 228.6 230 227 229 229.2 230.3 231.5 231.7 231 230.4 231.2 236.9 238.8 242.5 241.7 247.8 249.1 249.9 250.7 252 252.1 250.3 252.4 254.4 255.9 256.2 256.5 256.7 256.8 256.3 255.6 254.2 253.1 252.3 250.1 254.3 253.9 252.7 251.4 253.7 255.8 260.1 261.3 260.3 262.1 261.4 263 263 264.7 263.2 262.8 267.9 269.6 272.1 275.5 280.2 284.8 287.6 289.5 292.6 297.8 302.3 305.8 313.6 321.3 327 332.9 339.5 342.5 344 344 341.9 340.5 337.6 334.6 328.4 320.8 312.5 305.3 298.7 291.8 280.9 268.1 253.3 253.3 253.3 250.2 249.8 251.4 248.4 250.4 249.5 248.7 248.1 247.4 248 247.9 255.2 266.4 272.4 275.7 279.6 284.7 289.3 293.6 296.2 298.1 298.5 296.7 294.9 293 288.3 288.6 287 286.5 285.4 283.5 279.1 276.2 272.8 271.9 269.8 266.9 263.1 258.4 254.2 250.1 245.5 235.5 234.9 234.7 235.1 245.2 255.7 262.3 268.6 273.2 272.5 270.3 265.5 253.6 238.6 227 228.2 236.3 258.6 263.3 273.7 282.8 288 292.7 295.2 295 295.1 297.5 298.5 298.7 297.5 299.5 298.5 294.9 292.2 287.9
253.8 253.8 252.9 253.1 253.2 252.9 254 254.7 254.4 253.6 253.4 251.7 249.8 246.5 242.5 246.5 245.1 245.1 243 240.2 238.6 237.5 228.7 233.9 231.8 231.7 230.7 230.8 231.3 230.6 231 231.3 231 228.5 227 225.9 226.5 229 233.8 228.4 227.1 228.6 228.7 228.6 228.7 231.3 235.3 236.8 239.2 243.5 247 242.8 249.8 252.6 253.5 254.2 254.9 255.1 250.7 255.8 256.8 257.3 257.4 257.3 257 256.5 255.4 253.9 252.8 251.9 251.2 252.7 255.5 254.9 254.2 256.8 259 264.8 264.9 265.3 268 267.4 267 267.6 267 267.3 267.8 267.2 269.8 272.7 278.1 282.4 286.5 291.1 294.8 297.9 301.8 304 312.1 317.8 324.4 331.8 337.1 345.3 351.2 354.6 354.6 351.2 347.4 345.4 343.7 339.6 333.9 327.5 321.8 314.7 308.3 301.1 292.2 281.5 264.3 253.3 253 251.3 251.1 252.1 250.4 250.2 250.1 249.1 247.9 247.4 246.9 246.5 245.7 245.9 253.8 263.1 271.1 276.1 281 283.6 285.6 286.8 286.7 287.6 286.5 283.9 281.7 280.3 280.4 278.3 276.9 274.2 270.7 268.4 265.2 264 260.6 256.9 244.7 243.2 238.7 235.9 235.6 233.9 235.3 236.2 243.8 255.5 266.1 273.1 278.2 278.3 277 274.1 267.8 255.7 240.4 227.4 227.4 227.3 236.1 247.3 257.1 268.3 276.3 283.8 287.7 287 290.5 293.7 294 293.1 288.6 288 287.5 286.7 284.2 280.1
253.7 252.1 254.1 254.1 253.2 253 253.7 254.7 254.2 254.7 250.4 248 247.7 245.7 233.5 242.8 241.7 239.6 238.3 235.9 234.7 232.4 231.8 228.4 225.1 223.9 223.6 222.3 222.6 223.8 224.8 225.9 225 222.8 227.2 228.5 230 226.6 229.8 230.7 230.7 232.1 233.5 237.1 234.7 235.5 237.5 238.9 244.3 248.2 250.1 243 253.6 255.6 256.3 256.8 257.6 256.9 251.6 257.5 257.8 258.3 257.5 256.5 255.4 254.9 253.9 253.3 252.7 252.2 253 254.8 256.3 256.2 260.5 262.1 266.5 267.8 270.5 273.1 273.2 271.3 273.2 272.2 272 270.8 271.8 271.6 272.5 276.5 282.6 288.3 293 297.9 301.9 305.8 310.3 315.4 319 324.9 331.9 338 344 351.9 356.7 359.9 356.1 352.8 349.5 347.9 344 340 336.4 333.3 329.3 324.5 317.2 309.8 301 290.3 278.5 270.7 265.2 263.5 256 252.7 252.3 250.5 249.7 248.3 248.2 248 249.2 246.6 246.1 245.7 245.3 247.6 258.2 264.4 267.3 269.9 271.6 273.9 275.1 277 275.2 273.5 270.7 270.5 270 269.5 266.4 264.2 261.4 260.4 259.1 259.3 255.2 243.7 239.2 236.8 235.4 235.3 236.8 240.3 244.1 247.1 256.6 269.3 276.3 279.5 282.7 282.7 280.9 277.5 268.7 258.4 246.4 224.5 226.9 226.7 226.6 234.8 243.2 252.2 263.1 271.5 275 279.6 286.6 288.7 286.7 284.9 280 276.4 274.3 272.7 271.4 268.1
253.6 253.4 253.6 253.1 252.5 252.2 252.6 252.7 251.4 249.8 247.3 245.4 241.9 238.3 233.5 237.4 236 233 232 232.1 229.9 228.7 228.7 221 221.4 220.7 221.1 222 221.5 222.1 221.4 222.1 223.4 226.2 228.6 231.7 232.3 232.7 231.5 236.3 236.8 234.4 234.8 236.1 236.4 239.1 242.6 245.1 246.5 249.9 252 249.8 255.3 257.3 258.1 258.8 259.2 258.3 253.5 259.2 259.3 258.5 257.4 256.5 255.8 255.2 254.1 253.5 253.4 253.5 254.2 256.9 258.3 260.9 263.4 269.5 271.8 275.3 277.6 278.4 277.1 278.4 278.8 279.2 277.3 277.3 278.5 279 282.4 285.7 289.9 295.3 300.6 306.2 311 316.2 319.9 323.3 325.7 328.4 332.7 339 346.8 353.7 356.5 356.4 353.3 350.5 348.2 346.7 344.6 340.4 337.6 335.2 333 326.4 322.6 313.9 306.5 298.4 289.6 279.7 272.6 265.3 252.4 256.2 256.9 259.6 259.8 261.4 259.6 256.7 249.1 248.9 245.9 246.4 246.7 245.4 245.2 243.8 249.1 257.1 260.6 259.8 263 264.2 265.7 265.6 264 263.3 261.6 259.8 259.5 259.2 255.8 255.5 250.9 251 244.2 237.8 242.6 237 236.5 239.1 245.9 249.3 252.1 258.3 270.6 279.9 284.2 286.1 287.1 286.4 283.9 278.6 269.6 260.5 251.2 229.5 225.8 225.8 225.8 225.9 231.6 247.4 256.2 250.2 268.2 279.5 276.5 277.1 274.7 272.5 264.1 254.7 255.4 253.4 257.9 252.4
247.7 250.6 252.3 251.8 250.7 249.7 249.7 250.8 247 245.9 244.5 241.8 239.9 237.2 227.1 230.7 230.7 230.6 230.5 226.5 223.4 224.5 221.3 221.1 221.6 222.1 223.3 224.7 226.5 227.2 229.5 230.2 231.3 234.1 232.8 232.9 235.3 235.9 231.1 234.8 236.4 237.1 237.6 239.1 241.1 244.8 247.9 250 251.3 251.1 254.2 250.2 256.9 259 259.7 260.3 260.4 259.1 255.4 260.2 259.6 259 258.4 258 257.9 257.5 256 255.2 256.1 257.9 259.6 260.5 264.1 266.6 267 273.2 278 281.4 282.6 282.7 282.3 282.4 284.5 284.3 284.5 286.1 285 289.7 291.3 296.4 302.9 309 315.3 322 327.5 331.6 335.5 338.3 340.3 337.6 336.3 339.9 347.3 353.3 355.6 352.6 348.7 346.1 343.9 342.9 342.1 340.8 338.5 335 329.4 321.2 318.7 312.9 308.9 300.1 288.8 279.5 274.1 268.7 268.2 270.4 271.9 272.4 271 272.3 271.6 269 266.4 263.4 252.7 247.5 244.7 245.1 244.5 245.4 244.1 243.3 242.7 242.4 243.2 246.4 253 255.9 255 254.3 253.5 249.2 248 248.7 247.4 243.6 240.3 239 237.4 236.5 237.6 239.7 242 246.9 252.5 258.1 264.3 272.7 281.5 286.7 289.6 290.3 290.4 288.6 285.4 278.6 270.5 262.2 254.5 242 224 225.5 225.1 225.2 225.6 228.1 244.8 249.9 262.3 269.4 267.2 263.8 264.1 259.3 252 250.3 246.4 245.1 245 232
242.9 249.8 250.7 249.5 247.3 243.9 240 245.1 244.3 243.8 238.3 235.9 233.8 231.3 226.4 231.7 234.4 237.9 236.2 221.2 221 220.6 219.4 221.8 226.8 229.3 229.4 231.4 231 233 233.9 234.9 235.3 236.2 237.1 236 239 239.8 239.7 233.6 239.6 241.3 242.7 244.9 245.5 248.9 251.1 252.8 253.1 253 255.2 254.9 257.6 259.6 260.6 261.1 261.1 260.3 257.2 260.6 260.2 260.5 260.1 260.4 260.2 259.8 258.9 259.2 261.4 264.4 266.5 267.3 269.2 273 272.1 276.6 280.2 283.4 285.3 283.6 287.9 289.3 290.9 291 291.6 292 294.6 300 303.1 309.2 317.6 325.3 330.3 337.4 341.9 345.3 348 349.2 349.1 346.5 341.5 340.3 343.9 350.6 352.1 350.4 345.5 341.5 337.2 334.7 334.5 334.1 330.4 325.3 316.6 312.5 310 306.8 299.6 290.4 284.5 272 264.7 260.4 276.2 284.6 284.3 283 279.7 280.3 280.2 278.3 276.7 273.5 260.8 258.9 255.8 245.9 243.9 243.6 243.5 242.8 242.5 241.5 241.6 241 240.9 242.5 245.7 245.8 242.3 241.7 238.3 238 238.1 238.2 237.5 238.2 237.5 238.5 242.6 246.9 251.4 255.6 260.6 267.3 274.9 284.2 288.8 292.1 294.2 294.1 292.1 289.2 284.9 278.3 271 264.2 259 247.2 239.9 223.6 224.9 224.6 224.8 225.6 228.9 229.1 236.5 241.7 240.9 243.1 245.9 241.8 242.9 245.5 237.6 239 228.4 224.6
232.3 244.6 244.6 244.7 243.3 235.2 234.2 238.9 238.5 237.3 235.6 231.7 230.8 228.2 221.8 229.2 237.3 234.2 223 219.8 219.8 220 219.6 229 230.1 232.1 234.9 234.9 234.3 235.1 235 238 239.6 240.5 241.1 239.2 242.1 242.6 243.6 237 244.2 247.3 248.6 250.1 249.6 252.5 254.3 254.7 254.1 255.1 256.8 257.2 254.3 259.6 261.1 261.4 261.6 260.5 258 260.8 261.5 261.7 261.9 262 262.2 261.9 264.9 265.2 266.4 270.2 272.4 274.5 276 278.4 277.9 276.8 279.3 282.1 284.9 286.3 290.2 292.3 295.2 296.1 296.2 301.6 305.9 311 318.4 326.1 335.1 342.5 351.1 356.4 358.3 358.8 359.3 358 355.6 352.3 347 342.7 341.3 343.5 345.8 344 339.2 333.8 328.1 324.6 319.4 315.3 310.7 306.9 300 295.7 292.3 286.2 280.6 272.7 265.9 266.9 271.1 275.6 289.5 293 294.4 294.8 294.6 293.2 290.9 288.1 285.8 280.7 263.7 276.6 272 263.1 254.6 245.8 244.1 243.7 243 242.9 242.3 241.9 241.1 240.6 240.5 239.8 238.4 238.3 239.3 238.3 238 238.2 237.6 236.9 242.1 244.2 248.7 254.6 259.2 265.3 272.8 278.8 285 292 295.1 297 298.3 297.2 294.5 289.7 284 278 271.8 266.4 261.5 260.9 247.7 240.7 232.5 222.9 224 223.8 223.9 223.4 223.4 222.4 221 220.8 221.6 221.3 221.3 236.7 225.1 221.2 219.9 219.3
231.4 238.4 237.6 236 232.1 230.9 231 232.1 230.2 230 229 228.5 230.2 223.9 219.4 218.8 218.6 219.2 219.2 219.2 219.3 217.3 229.9 231.7 232.7 234 236.9 237.1 237.7 238.5 238.9 239.5 240.9 242.9 243.1 242.2 244.2 245.5 246.3 234.8 247.6 250.2 251.3 252.4 252.2 255.6 256.5 256.1 256.8 257.8 258.2 258.6 255.6 258.3 260.6 261.1 262.1 261.2 259.9 259.2 260.1 261.9 263.8 263.8 266.2 268 271.2 273.1 274.1 276.8 279.3 282 284.3 285 284.4 282.1 281 281.3 284.2 287.1 290.9 294.4 297.9 301 303 309.1 314 321.5 330.4 341.1 349.7 357.6 365.5 369.5 371.8 371.3 368.5 365.7 362 356.4 351 345 339.4 336.8 335.2 331.4 327.1 321.1 313.7 308.4 303.1 297.4 291.4 289.2 281.8 280.5 274.2 269.4 271.4 266.3 275.1 269.2 288.4 285.6 296.5 301.5 304.9 305.8 304.9 302.9 301.7 299.1 294.8 286.3 283.7 285.5 281.8 279.1 273.1 265.2 261.8 260.8 257.4 252.4 246.3 244.2 240.9 241.1 240 239.7 239.2 238.8 238.7 238.7 237.8 240.9 242.7 249.1 250.8 256.5 261.4 266.7 273 279.9 284.1 287.3 291.7 296.6 299.3 300.6 299.5 297.7 293.9 288.8 283.5 278.8 273.4 266.9 261.5 260.3 254.1 250 244 236.4 224.3 223 222.8 222.8 222.6 221.5 219.9 219.6 218.1 218.6 216.6 214.8 220.3 219 218 217.1
231.4 230.3 230.6 231.2 226.3 227 229.6 226 225.2 222.6 222.1 224.2 218.2 218.8 218 218.2 218 217.5 217.5 220.1 225.7 229.9 232.8 236.3 237.5 235.2 238.3 240.2 240.9 241.7 243 243.5 243.4 245.1 245.1 242.9 248.4 246.6 248 240 251.1 251.3 252.9 253.8 254.4 257.3 258 257.8 258.3 259.7 260.3 259.7 257.7 256.8 259.2 261.3 262.2 262.6 262.8 263.6 266.3 264.4 264.8 270.9 274.5 274.1 277.3 279.5 283.1 286.3 288 290.4 292.7 293.4 292.3 289.8 286 284.3 284.1 288 292.9 297 302 305.5 311.2 318.7 325.5 334.6 344.3 354.1 362.4 370.1 375.6 377.8 379 377.1 373.9 371 365.5 358.7 352 343.9 336.7 330.5 325.3 320.8 313.7 306.2 298.8 293.4 285.1 277.4 276.7 282.1 280.8 285.2 285.4 284.4 282.8 286.4 290.7 283.9 286.6 299.7 304.3 310.1 312.6 313.9 314.3 316.5 313.4 306.6 298.5 297 295.8 295 293.3 290 285.8 280 276.5 272.5 267.1 263.4 257.6 252.7 250.2 247.4 246.8 246.4 246.7 246 246.2 248.8 253.8 256.5 261.7 261.9 267.1 271.1 275.2 281.6 288.7 290.9 292.8 294.4 297 299.1 300.6 301 300.7 297.1 293.1 288.1 283.9 279.5 271.4 265.6 263.9 260.3 256.4 249.7 246.5 237.6 233.3 229.4 224 221.3 221.9 221.2 222.4 221.1 220.6 221.8 220.9 216.6 217 218.1 217.4 217.6
230.8 226.9 224.2 223.2 225.4 224.9 222.3 221 220.3 219 217.4 217.2 218 216.7 215.9 215.9 217.9 218.9 223 229 230.4 234.8 237 237.9 240.1 240.4 239.6 243.1 244 245.6 246.3 246.7 248.7 247.7 247.1 244.7 251.7 244.3 250.9 243.2 251.2 252.3 254.3 255.1 256 258.1 259 259.7 260.3 260.8 261.3 260.1 258.5 257.5 259.5 262.1 263 263.6 264 266.1 269.3 269.8 268 276.8 280 283.4 284.6 288.2 292.7 296.2 298.2 300.8 302.4 301.5 299.3 295.1 290.8 287.5 285.3 288.7 295.7 300.7 306.5 312.5 318.8 325.2 337.3 348.4 358.2 367.5 372.7 378.8 383.2 383.5 382.3 381.3 376.6 370.4 363.8 356.4 347.7 340.2 330.7 324.1 318.1 312.9 306.1 288.4 286.1 282.4 294.4 298.2 299 295.6 297.3 296.9 292.4 296.3 295.3 297.6 297.6 299.5 279.8 305.2 310.5 315.9 318.7 320.7 321.6 319.7 315.3 307.1 304.4 306.6 307.8 307.1 306 303 297.8 294.5 290.9 284.4 277.1 271.8 266.6 261.9 261.3 259.3 260.3 260.8 261.5 262.1 264.3 266.3 270.5 270.2 271.9 275.9 281.2 285 289.2 293.6 296.4 297.2 298.3 298.5 299.7 301.1 301.1 299.6 298.1 295.4 291.3 287.8 284.4 278.6 273.1 269.3 264.4 260.7 256.8 249.4 246.2 238.5 234.2 233.2 227.4 226.1 222.8 227 231.6 227.8 226.6 229.6 226.7 222.4 217.6 214.5 215.9 214.2
227.7 226.9 226.1 225.4 219 220 219.9 218.6 218.3 218.1 217 216.8 217.5 215.5 217.8 219.5 223.4 228.5 230.3 232.8 233.9 238.5 240.9 242.4 242.7 243 244.2 246.4 248.1 249.7 249.1 249.3 249.6 249.6 250.1 252 247 250.3 251.2 242.5 249.2 254.8 257.9 255.8 256.8 258.1 259.6 260.4 261.1 261.7 261.7 260.2 259.3 259.5 260.8 262.7 264.6 265.5 267.3 269.7 273.3 275.4 267.5 280.6 283.5 287.8 293 297.8 302.4 306.4 308.1 309.5 310.1 308.4 305.2 301.4 296.7 291.8 288.8 290.8 296.5 303.2 309.5 317.4 327 334.8 348.7 360.7 370.9 378.9 382.4 386 388.6 387.5 384.2 381.7 376 368.5 361.4 353.1 344.2 333.8 325.9 318.7 312.7 308.6 296 294.2 286.5 297.7 306.6 307.3 306.5 305.2 303.7 304.8 300.3 304.4 302.4 304.8 305.7 305.7 288.2 304.8 316.3 319.7 322.4 324.2 322 318.7 313.1 311.2 313.2 315.2 316.8 316.8 316.4 315.4 313.3 309.7 304.4 296 287.1 280.5 276.4 273.5 273.4 271.3 273.6 274.9 274.3 276.6 278.7 280.7 281.3 282.1 283.7 287.6 291.6 295.7 297.2 300 302.8 303.3 302 300.2 299.7 299.3 298.5 297.6 296.2 293.2 288.9 286.5 282.1 277.2 273.7 269.5 264.3 260.1 256.3 252.5 243.7 238 232.9 227.8 226 228.2 234.5 237.3 237.5 235 236.4 233.6 229.4 224.8 217.3 216 219 219.9
227.7 229.5 229.1 226.8 218.8 217.8 215.8 215.9 216.5 217.4 215.1 215.2 216 215.4 217.7 226.4 232 231.6 233.6 235.2 238.5 240.5 244.2 244.1 244.9 247.1 247.5 249 249.5 251 251.2 251.7 252.8 257.6 250.4 242.5 251.6 253.6 249.2 251.4 256 254.4 256 256 253.5 258 259.9 261 261.8 262.4 262 261.2 261.5 262.1 263.1 265.8 267 269.8 272.4 274.7 278.7 280.7 278.1 281.6 285.3 292.6 296.6 300.5 305.4 309.3 312.5 314.5 315.1 312.3 310 306.3 301.3 296.7 292.9 295.9 299.6 304.8 314.4 322.6 331.8 343.1 358 368.1 377.3 384.6 389.2 392.2 392.5 389.1 384.2 379.4 373.4 366 358.2 349 337.2 328.1 321.4 316.6 311.3 305.8 291.1 301.2 306.8 309.4 311.3 311.6 310.8 310.7 311.2 309.9 310.5 312.1 310.5 310.1 311.9 311 302 314.2 319.4 322.1 323.9 322.6 319.9 315 309.5 317.5 320.2 323.1 325.4 326.8 327.5 327.3 326.8 324.4 317.5 309.6 299.8 290.8 285.3 290 289.4 289.7 290.6 291.1 291.5 291.7 291.4 295.1 292.8 293 295.5 297.6 299.2 301.2 303.9 305.5 306.5 306.4 303.6 301 299.4 298.7 297.2 295.2 293.7 290.6 286.3 282.9 277.8 274.5 271.3 266.2 264.2 260 255.4 250.6 246.5 237.3 228.7 235.3 239 240.5 241.5 241.5 239.4 238.9 239.1 235.2 230.6 225.8 225.4 223.7 222.1 221.9
229.9 229.7 225.8 224.8 217 216.8 215 215 215.2 214.4 214.9 215.5 216.1 217.7 225.7 228.2 233.4 234.1 235.2 238 241.8 243.7 245.1 246.9 248.5 248.9 250 251.3 252.3 254.2 254.4 255.3 256 242.4 254.7 256 255 251 255.4 256.2 258.7 262 256.9 256.8 256.4 258.2 260.2 261.7 262.5 263.1 263.2 262.6 264 266.4 268.8 269.1 272.4 273.3 278.8 277.6 282.7 284.2 283.7 276.5 283.8 292 296.6 300.7 305.2 307.5 308.2 310 311.2 311 310.4 305.8 302 299 300 300.9 302.4 307 318.8 328.1 338.1 349.6 361.1 371.6 380.1 387.9 393.3 395.9 394.3 389.7 384 377.6 370 361.8 352 342.4 331.5 324.8 321 315.8 310.6 295.8 291 298.1 312.1 314.6 315.7 315.9 315.7 315.7 317 317 318.6 319.5 319.5 318.7 319.2 318.2 311.5 316.8 321.2 324 324 322 320.8 320.5 320.9 322.9 327.7 330.8 334.8 336.7 338.4 340.3 342.5 342.4 336.5 327.3 316.2 305.7 301.2 307.3 308.6 308.8 308.1 307.7 308 307.4 306.2 306 303 305.1 304.5 305.4 305.6 308.4 308.5 308.3 308 307.4 304.1 300.9 298 296.1 294.6 292.7 290.8 287.1 282.6 278.2 273.5 271.8 269 268.6 266.7 260.4 253.4 247.1 240 236.8 238.4 242.3 243.8 244.5 244.8 244.2 241.3 240.6 240.7 236.6 231.8 229.9 228.9 224.5 223.3 224.3
231.6 228.6 216.9 215.4 215 215 214.8 214.7 214.8 214.8 216.5 216.7 218.5 228.8 231.9 233.2 231.8 235 236.6 240 243.5 245.5 247.7 249.2 249.6 251 253 254.1 255 257 258.8 261.9 261.8 257.6 259.2 257.1 255.4 259.6 256.7 260.6 260.7 260.2 258 257.6 258.3 259.8 261 262.9 263.5 264.6 264.4 265.9 268.5 269.9 271.8 271.7 275.7 279.8 281.6 281.1 281.4 281.5 272.7 284.5 287 290.4 293.6 296.2 297.8 299.4 300.8 302.4 303.7 304.8 305.2 305.2 305.2 304.8 303.6 304.5 306.2 313.7 322.3 331.5 341.8 352.7 365.1 375.5 384.4 391.2 396.8 398.2 396.4 390.3 383.4 376 366.4 356.4 344.3 336.4 330.7 324.9 319.9 316.1 310 296 290.6 309.8 316.4 318.1 320.5 320.2 321.5 321.1 322 323.7 325.6 326 326.7 326.5 326.8 325.4 318.8 316.1 322.9 326.2 326.3 325.2 326.8 327.2 327.5 321.7 333.1 336.9 342.6 346.6 352 359.4 361.7 361.5 354.2 344.1 335 320.5 318.5 323.5 323.7 323.7 324 323.2 323.3 321.1 318.2 317.6 318.2 314.1 313.4 314.9 314.3 313.4 314 311.5 310.6 307.9 304.3 300 296 293.2 290.5 289.5 286.3 281.4 277.1 272.9 267.9 268.5 269.9 269.5 263 254.2 246.4 240.2 234.4 236.6 243.8 245.5 246.1 247 247 244.8 241.7 239.2 237.5 235.6 232.6 231.6 229 226.6 225 224.3
230.5 217.3 213.9 213.6 214.2 214.4 214.2 214 214 215.6 217.5 225.7 229.8 233 236.3 237.2 232.4 236.9 240.3 242.7 245.5 248.1 249.5 250 252.8 254.7 256.1 257.2 258.3 260.4 259.1 258.2 262.9 261.3 261.4 254.8 261.9 261.2 261.3 262.5 262.7 262.7 258.9 259.5 260.2 261.7 263.1 263.9 265.4 266.3 265.9 271 271.4 274.4 275.5 277.4 279.5 282 282.6 281.2 280.7 278.5 283.2 285.5 287.4 290.5 292.5 294 295.3 296.8 298.2 299.5 301.2 302.3 304.3 305.8 305.9 305.9 305.5 305.6 308.7 317 325.5 333.9 344.1 354.9 366.2 375.8 383.8 391.4 396.8 397.7 393.7 387.5 380.9 373.2 363.7 352.8 341.4 334.1 329.9 325.1 318.7 313.2 296.9 296.4 299.3 318.2 320.4 323.7 325.4 326.5 326.3 326.9 328.7 332.2 332.7 333.3 334.5 334.2 334.2 332.6 325.3 313.6 326 328.6 330.6 331.7 333.8 333.5 334.5 327.9 337.1 342.7 348.6 355.8 361.8 370.4 376.6 374.5 369.6 362.3 351.4 345.8 343.3 343 342.3 343.1 341.2 339.6 337.7 335 329.1 329.2 326.9 326 326.8 324.9 322.6 318.9 317.4 314 310.2 307.4 303.8 299.4 294.1 290.1 286.8 284 280.2 274.5 269.1 264.9 258.2 256.2 260.5 258.3 251.6 244 238.9 234.2 234.1 243.1 247.2 247.5 247.3 246.5 244.3 242.7 239.7 237.3 236.1 235.7 236.9 234.5 229.9 227.1 225 223.5
213.6 212.4 212.8 213.1 214 213.6 214.2 214.6 216 221.1 222.3 226.4 229.1 233.5 239 240.4 239.8 239.3 242.4 246.9 248.2 249.3 250.2 253.2 255.7 257.6 259.1 260.4 263 265.3 266.6 265.4 264.1 262.2 262.4 256.7 263.1 259.4 263.2 263.9 264.2 263.8 263.2 261.7 262.2 263.5 265.6 266.2 267.2 267.5 269.1 272.1 272.8 275.4 277.7 278.7 277 280.8 282.3 282.4 282.1 278.6 280.1 284.2 287.3 290 291.2 292.7 294 294.7 295.2 296.3 297.7 298.2 298.6 297.9 297.6 298.6 301.7 306.2 312.2 320 327.9 336.6 346.9 355.4 366.8 375 384 390.3 394.4 393.8 389.7 384.4 377.6 372.1 360.9 350.2 339.6 333.8 329.1 323.4 317.6 309.9 312.3 296.1 317.3 323 327.4 329.4 331.5 332.5 332.5 335.4 338.3 340.4 341.1 342.7 343.3 342.7 342.1 338.6 331.8 321.6 328.7 333 335.4 337.6 339.2 339.7 339.9 339.8 336.1 346.7 352 358.9 367.6 377.2 382.7 383.7 383.4 380.3 370.5 367.9 367.6 365.4 364.9 364.6 362.4 358.4 354 349.7 345.4 341 338.7 336.3 335.8 333.6 329.5 325 320.4 316.8 310.6 304.1 299.8 296 290.1 284.8 280.1 276.4 272.5 265.8 259.4 251.6 243.9 240.9 241.5 245.3 242.6 237.7 236 241.4 244.1 247.8 250.6 251.2 250.8 248.2 246 244.1 241.9 239.8 238.8 238.7 237.2 234.5 228.1 226.9 226.3 222.2
212.3 213.6 213.7 213.8 214.5 215.5 221.4 227.2 225.8 225.3 226.1 229.9 230.1 231.4 234.8 239 240.1 240.8 243.9 245.6 249.6 250 251.1 256.1 258.6 260.5 262.5 265 267.4 268.9 269.3 268.4 265.2 263.2 260.1 260.5 262.1 261.9 264.2 265 265.6 264.1 264.7 263.8 263 265 266.7 268 269.2 269.8 271 273 274.1 276.6 278.2 279.7 280.2 280.3 282 282.8 283.4 281.9 284 285.6 283 286.4 288.2 289 290.7 291.8 292.2 293.1 294 294.8 295.1 296.1 297.4 299.1 301.8 306.7 313 321.7 330.5 340.6 349.8 360.1 371.8 380.6 388.2 394.7 397.1 395.6 390.9 384.6 375.3 364.7 355.1 346.7 338.6 332.5 326.5 324.8 319.3 317.9 316.4 297.5 317.2 326.9 332.5 335 337.8 338.9 341.2 343 346.9 348.2 349.3 351.8 351.4 349.7 347.2 342.4 333.4 320.6 334 337.8 342 343.5 344.8 345.9 346.7 347.2 345.2 349.7 355 360.8 368.4 381.6 392.2 395.9 399.5 401.4 398.8 388.3 386.6 385.4 386.7 386.4 383.1 376.6 370.8 363.5 356.8 353 349.6 344.6 344.2 340 336.3 330.5 323.2 318.6 312.4 305.8 298 293.3 286.9 280.3 274.3 269.2 263.9 256.9 248.9 251.5 252.4 250.7 246.8 244.1 238.3 237.2 243 246.1 249.2 252.6 254.6 255.6 255.5 255.4 253.5 249 246.2 244.2 243.6 242.7 235.4 233.9 229.3 227.2 223.5 217.2
213.2 213.7 218.1 217.6 224 227.7 230.9 230.5 229.7 229.7 230.9 233.1 230.2 231 235.9 238.9 241.3 242.2 244.3 248.1 250.1 251.4 254.5 259.6 257.1 263.2 266.3 268.6 270.3 270.7 270.2 268.7 264.7 263.1 258.9 262.3 262.7 262.9 264.4 266 267.1 266.7 267.2 266.2 266.1 267.2 268.4 269.7 271.2 272 273.5 275.9 275.6 278 279.8 281.3 282.1 282.3 282.1 284.2 284.6 284.1 286.1 287.9 289.3 290.3 291 292.1 293.4 293.7 293.6 293.3 294.1 295 295.7 297.2 299 301.3 305.2 311.3 317.6 325.8 335 344.9 355 365.6 375.7 385 391.7 399.1 401.9 397.7 392.9 384.7 371.3 360.6 352.3 344.5 338.9 334 331.4 327.8 325.7 323.8 317.3 303.9 319.7 331.2 338.7 342 344.4 345.7 347.5 350.7 353.4 355.6 356.8 357.6 356.5 353.9 350.5 345.4 336.6 325 340.5 343.6 348.2 350.2 351.5 352.6 354 353.9 348 353.9 359.1 364.3 370.2 385.5 399.5 411 417.9 419.2 414 403.3 401.1 403.5 406.4 407.4 401.6 391.4 384.1 377.1 371.3 368.1 363.9 357.1 348.7 345.6 340.3 333.7 325.8 319.6 312.5 305.1 297.6 290.4 282 273.5 265.9 260.5 255.9 249.8 246.9 259.3 256.3 252 248.5 245.3 243.2 244 247.8 251.1 254 255.8 257.4 259.5 258.4 257.5 255.3 251.1 250.5 248.1 242.4 238.6 237.3 233.4 229.5 227.4 221.8 227.6
218.4 219.4 220.4 224.5 225.5 226.4 229.5 225.5 226.8 228.6 230.4 232.4 231.1 232.4 237.3 240.3 243.4 246.2 246.3 248.8 250.9 252.3 258.3 261.5 263.8 264.9 268 269.9 271.2 271.7 270.3 267.8 265.2 262.1 261.2 262.7 263.3 263.7 264.8 266.2 268.1 267.9 268.5 268 268.7 269.3 270.3 271.9 273.9 274.5 275.4 277.2 277.5 278.7 281.4 282.8 283.8 284.7 284 285.8 286.7 287.8 287.8 291 292.5 293.5 294.7 295.9 295.8 295.6 295.7 295.8 296.5 297.2 298.4 300.1 302.1 305 308.5 314.4 322.5 330.1 337.6 346.2 357.9 367.4 377 386.4 391.7 397.6 401.5 397.2 389.6 379.6 372 363.4 351.5 344.5 340.7 336.7 333.8 331.6 330 327.6 310.5 315.1 326.6 337.4 346.5 350.9 352.8 353.8 355.1 357.2 360.5 362.6 363.3 363.5 361.9 359.6 355.6 348.9 342.1 328.2 345.5 349.6 353.8 357.2 360.4 361.2 359.8 355.9 350.5 358.5 363.1 368.5 376.8 390.4 405.2 417.5 424.7 425.9 420.4 410.7 407.8 413 415.8 417.1 414.1 403.8 396.4 388.9 385 381.4 375.8 368.1 357.7 349.7 342.9 335 326.4 318.3 309 300.3 293.7 284.9 275.7 266.6 259.2 254.3 251.7 257.4 264.2 265.5 261.2 256 250.6 248.4 248.1 252.7 255.6 258.1 258 259.8 258.8 259.6 258.3 252.8 246.8 246.8 246.5 241.1 241 240.3 239.1 235 230.9 227.3 221.8 225.7
214.2 220.8 220.8 225.3 225.5 223.9 226.5 228.7 230.3 230.8 230.5 231.1 233 236.3 240.3 243.7 247 248.7 250.2 251.3 251.5 258.5 261.2 264 266 267.9 269.5 271.3 271.9 271.2 268.9 266.8 264 261.2 263.2 264.2 264.3 264.5 266.1 267.7 268.6 269 269.9 270.8 271.5 272.1 272.7 274.8 276.2 276.7 278.5 279 281.1 280.2 283 284.8 287.1 287.6 287.3 287.6 289 289.8 290.2 294.1 296 297.4 298.8 299.8 299.5 299.2 300.4 301.9 302 303.5 304.5 307.4 309.1 310.9 314.4 318.6 319.9 331.8 336.9 344.5 354.8 362.2 372.7 380.6 387.6 393.6 395.7 394.1 390.3 385.6 376.1 363 353.5 347.9 345 341.5 338.3 335.5 333.2 330.5 321 315.4 331.8 343.1 353.1 358.2 360.7 362 363.1 365 367.5 369 369.8 371.4 371 368.8 362.1 353.9 345.3 337.4 349.2 354.3 360 363 365.1 366.4 366.4 362.1 354.6 360.5 365.7 371.7 381.5 393 405 414.6 420.8 423.5 420.4 413.2 408.7 408.8 409.2 412.7 418.3 411.8 406.6 401.9 397.6 392.5 386 377 364.8 351.2 344.6 335.4 326 316.4 304.8 294.6 285.8 276 270.3 261.5 254.4 258.1 265 267.1 269.7 269.7 267.2 263.5 257.9 254.8 251.8 259.6 263.3 264.1 262.9 262.6 260.8 260.3 258.1 252.9 239.8 239.8 240.6 245.5 245 243.7 239.7 236.2 231.2 227.1 221.1 224.9
216.3 215.8 217.6 220.4 221.7 225.6 229 237.8 233.4 239.3 232.7 232.6 236.2 239.3 243.5 247.4 248.7 250.2 252.3 252.1 255.8 260.2 264.3 266.7 267.2 270.9 272.1 272.1 270.4 269.9 268.7 265.2 263.5 263.9 264.6 265.1 265.4 266 267.2 268.6 269.2 270 271 272.1 273.4 274.6 275.5 277.1 277.9 281.3 279.9 281.7 284 282.3 286.1 288 289 289.9 289.7 291 292.2 291.9 294.8 293.1 298.4 300.6 302.7 303.6 304.5 304.7 306.1 308.7 310.8 312.2 314.1 315.4 318 318.4 321.7 325.4 330.8 335.1 339.4 343.7 350.9 359 370.2 379.8 388 394.2 398.2 398.3 396.7 391.3 378.1 366.6 358.5 353.6 349.3 345 341.3 337.7 336 332.8 321.5 313.7 333.9 343.9 357.3 363.7 366 368.2 370.9 372.7 373.6 374.6 376 380.5 380.5 374.2 366.2 357.7 351.2 340.6 353.8 359.9 364.6 366.8 369.1 370.6 370.8 367.4 360.3 361.8 369.2 375.7 384.9 394.2 403.3 411.7 418.5 421.8 418.1 412.6 406 402 402 403.4 411.3 417.6 417.7 413.6 408.2 401.6 392.7 381.3 368.6 352.8 344.2 334.9 325 314.6 302.1 291.6 283.6 272.1 264.9 256.8 264.3 270.6 273.2 274.4 275 274.4 272 268.7 264.1 259.6 256.8 263.1 266.4 266 264.9 264.2 259.5 255.7 254.7 251.2 245.5 241.6 245 248.1 247.1 243.4 238 233.6 227.7 227.6 229.4 228.8
218.8 219 218.9 221.8 224.2 227.2 236.7 231.3 232.5 242 240.3 234.2 239.3 243.3 246.3 248.6 250 251.8 252.9 255 258.9 262.5 266.5 268.9 270.5 270.5 270.5 270.5 271.7 269.5 267.3 264 265.5 265.2 265.9 266.4 266.8 267.8 268.8 269.7 271.6 272.3 274.1 274.9 276.4 277.9 279.4 280.3 281.9 283.1 284.9 286.8 284.6 286.2 288.9 290.3 292 292.9 293.2 294.1 295.9 296.6 297.8 294.9 299 303.1 306.6 308.8 310.4 311.9 313.7 316.7 319.4 321.2 322.5 325.5 325.7 327.8 330.7 336.1 339 340.7 337.7 343 349.4 357.7 368.8 378.6 387.5 394.8 399.2 400.7 399.3 394 385.5 374.5 362.7 357.2 350.9 347.5 343.3 337.6 335.5 331.8 310.5 321.8 338.8 347.3 357.5 365.4 368.8 372.2 374.3 376.1 377.8 380 382.6 384.3 382.4 376.9 369.4 361.1 352.6 350.7 357.6 364.3 369.4 371.2 372.9 374.4 373.7 370.4 366.9 363.9 371.7 377.6 385.1 393.3 401.2 409.6 415.3 418 415.7 409.1 397.6 393.5 393.2 394.7 400.5 404.4 407 409.7 408.8 404 394.8 382.2 368.8 353.7 343.7 333.4 324 313.2 301.3 293.2 285.6 275.8 262.5 269.2 275.1 277.7 279.6 280.6 280.4 278.9 276.6 272.6 267.9 265 260.7 262 264.8 265.1 264.9 257.4 255.3 255.9 253.6 249.7 244.6 244.4 248.2 248.9 244.6 239.2 235.1 232 228.1 228.7 230 234.2
221 222.3 222 220.3 223.6 228.3 230.7 232.2 231 245.5 240.6 237.5 239.1 245.3 248.4 249.9 251.2 253.3 254 255.2 262.2 265.7 268.5 271.5 272.6 273.7 274.4 272.3 269.6 268.4 266.2 264.9 266.4 266.2 266.8 267.6 268.2 269.6 270.9 273.6 274.1 275.9 276.6 278.3 280.1 281.7 282.9 284.9 285.5 284.6 288.1 287.5 289.2 291.3 292.8 294.5 295.7 295.8 297.4 298 299.4 300.7 300.2 299.6 299.7 305.6 309.4 313.1 317.2 320.5 325.1 329 332.2 334.5 337.1 337.5 338.3 340.8 342 343.5 343.2 343.3 343.1 344.5 348.4 356.4 365.4 376.2 384.5 393.5 399.1 401.9 402.2 398.5 388.2 378.7 368.5 361.9 350.8 347.8 344.6 338.3 331.3 315.1 320.4 324.8 339.5 350.9 356.7 364.8 368.8 372.6 375.2 377.7 380.4 383.1 384.6 385.1 383.5 377.6 370.6 364 362.8 358.6 361.6 369.5 374 375.4 377 378.4 379.3 377 372.5 369 372.7 377.8 384.2 391.2 399.6 407.4 411.7 412.9 409.9 402.6 390.5 384.9 385.1 387.1 389.2 391.7 394.5 395.5 395.1 390.5 384.2 376.4 369 355.1 342.2 331.4 322.7 311.7 300.6 293.2 284.6 275.4 267.3 275.4 280.5 282.4 284 284.4 284.2 283.2 279.5 276.9 272.8 269 265.4 262.4 263.6 264.1 262.7 258.5 258.3 255.6 252.4 246.9 242.4 246.6 248 246.5 242.1 238.1 233 229.4 225.8 227 232 236.9
222 222.5 224.3 224.9 223.2 225.8 229.4 234.3 241.6 240.5 237.9 239.9 240.1 242.2 248.6 250.6 253 254.3 256.9 260.5 265.4 269 271.8 273.6 273.7 273 271.6 269.7 272.1 267.2 266.6 266.4 267.4 267.3 267.9 269.2 270.8 272.7 274.7 276.7 278.1 279.3 280.5 281.9 283.4 284.9 285.7 286.9 287 287.6 290.7 290.2 293.5 295.5 296.8 297.3 298.7 300.3 300.7 302.4 303.7 304.9 304.5 301.5 301.7 305.8 311.9 317.4 323.3 327.6 333.2 337.7 341.6 345.9 348 349.5 350 350.4 350.4 350.1 349.5 349.7 350.7 351 352.7 357 365.5 375.4 384.5 392.1 397.8 400 400.9 398.9 388.7 381.5 373.1 362.8 350.8 345.7 341.1 334.9 311.6 321.6 321.6 338.6 346.5 352.1 358.1 362.3 366.1 370.1 373.8 376.9 380.1 383 384.1 384.7 383.3 378.6 374.6 372.3 370.7 368.1 358.9 372.7 377.1 379.6 381.5 384.2 384.6 381.5 375.6 370.3 372.3 376.8 381.7 388.1 395.4 401.8 405.3 405.2 400.8 393.5 385.3 379.6 378.7 378.3 378.9 378.8 381 382 379.2 374.3 369.4 362 355.7 348 336.5 326.5 318.9 308.4 299.3 290.9 281 268.7 278.4 283.9 286.1 287.1 287.3 287.7 286.9 284.9 281.7 278.4 274 271.3 265.9 264.3 263.7 263.4 263.2 261.4 259.3 255.4 250.8 244.5 245.8 246.9 244.6 241.8 240.6 238 230 226.2 225.1 228.6 233 237.6
222.3 222.5 225.2 226.3 228.3 229 226.3 229.2 231.4 234.8 238.5 241.4 245.8 248.9 249.8 249.3 254.1 256.9 260 264.9 268.3 270.6 274.7 275.2 274.4 272.4 270.2 269.1 267.8 268.2 268.2 268.4 269.2 268.7 270.2 272.6 274.1 276 277.6 278.3 280.2 282 284 285.7 286.6 287.4 287.4 288.1 289.2 289.8 292.1 294.5 294 298 299.9 301.2 302.2 304.1 304.9 306.8 307.9 308.9 308.1 307.2 305 306 312 320.4 326.9 331.6 336.9 342.4 347.2 351.1 354.7 357.1 358.2 359.7 359.6 358.6 360.1 361.9 361.6 362 361.7 362.5 368.4 376.7 383.6 390.1 395 397.8 397.8 394.5 390.6 384.5 370.7 358.5 349.2 342.1 337.1 329.4 312.5 334 337.1 335.4 343.8 352.9 355.4 359.7 362.2 366.7 371.3 374.5 378.1 381.9 383.5 384.7 384.1 383 380.3 380.7 379.5 376.7 370.8 370.3 378.2 381.9 384.8 386.8 387.4 384.3 379 373.9 373.6 377.6 382.1 386.6 391.8 395 398 397.8 395.1 389.5 381.4 377.1 373.7 370.7 370.8 370 369.1 366.4 363.7 358.4 351.7 347.8 341 335.6 330 322.1 311.8 304.9 296.4 282 269.6 280.7 287.6 290.2 291.6 291.8 290.5 289.3 288.6 286.3 283.5 280.2 275.9 272.6 268.9 266.6 265.8 264.7 263.6 262 259.2 254.2 249 246.8 248.9 245.5 240.7 239.3 240.9 238.7 227.9 227.2 231 234.2 234.4 239.4
223.6 225.1 227.2 229.2 230.1 231.7 231.6 230.5 230.1 232.1 236.1 243.1 247.7 250.4 252 253.6 255.4 260.9 262.3 267.8 271.6 275.1 277.1 276.4 274.7 271.6 271.1 270.1 269.2 270.7 271.1 272 273.2 271.1 272.9 275.7 276.7 278.8 279.3 280.7 282.7 284.3 286.1 287.4 288 288.8 289.1 290 291.4 293.4 294.6 297.2 298.5 300 302.8 304.8 305.8 307.9 309.9 310.8 312.9 312.8 313.9 313.6 312.9 311.2 312.2 319.1 325.2 332.7 337.8 343.6 349.9 354.9 359.4 362.1 364.2 366.8 368.8 370.4 371.9 373.1 372.3 372.7 372.8 373.1 374.3 379.3 385.7 392.2 396 398.4 396.7 391 382.6 373.3 363.8 354.1 345.2 339.4 331.1 318 329.3 342 345.6 347.7 349.4 348.8 356.1 360 365 369.7 372.5 376.3 377 382.4 385.2 386.6 387.4 387.2 388.5 391.3 390.2 386.2 379.2 376.2 376.8 382.2 385.4 387.9 389 387.2 382.6 377.9 377.8 378.9 383.8 387.1 390.9 393.8 395.9 396.3 392.5 386.5 380.1 372.4 367.4 362.8 361.6 361.2 356.5 355.6 352.4 347.1 341.8 336.4 330.2 324.3 318.2 314.1 307.1 297.7 291.3 280.6 283.5 290.8 294.7 296 296.2 295.2 293.7 291.8 290 288.1 285.1 281.9 277.4 273.2 270.4 268.9 267.9 266.6 264.8 262.6 259.8 258.5 253.3 249 247.4 243.4 238.9 238.9 240.5 236.6 227.3 230.1 234.8 235.7 237.1 242.9
224.2 226.7 230.1 230.5 232.6 233.9 234.6 233.2 233.5 240.2 237.9 240.9 248.2 251.1 253.3 254 255.8 263.5 264.7 271.5 274.8 277.4 278.2 277.7 274.2 273.9 273.2 271.6 271.5 273.3 274.9 275.4 275.4 277.7 275.3 278.3 279.7 280.8 281.5 282.1 284.6 286.4 288 289.1 289.4 290 291.3 293.1 295.5 297.3 298.6 300.2 301.7 299.9 304.9 307.8 310.7 312.8 314.6 315.7 318.7 320.4 323.1 323.8 321.7 321.4 321.4 326.6 328.6 332 335 341.7 349 356 361.3 365 368.1 371.5 374.6 377.9 380.3 381.3 382.2 382.8 382.7 383.2 382.5 383.8 387.7 390.9 392.4 390.9 385.4 377.8 369 362.2 354.5 349 343.1 335.1 326.4 326.5 340.5 345.2 348.3 351.5 354.3 357.1 356.4 362.2 366.6 370.9 375.1 379.1 382.4 385.8 388.9 390.7 392.3 394.5 397.3 397.5 396.5 393.8 386.3 382 383.2 385 386.9 389.9 390.4 390.1 388.4 384.4 383.6 382.1 385 387.5 389.5 391.9 393 392.2 388.4 384.4 378.3 370.1 361.3 354.5 353.9 351.9 350.8 346.8 342.8 337.5 332.2 327.2 322.5 315 307.6 302.5 294.1 293.2 286.4 282.2 289.9 296.5 301.6 301 300.2 299.2 297.3 295.5 293.7 291.2 289 285.5 281.6 276.8 272.7 271.2 269.5 267.8 265.3 262.5 260.8 259.9 255.6 251.2 248.7 242.5 238.8 237.2 236.6 234.7 228.9 229.6 236 237.1 239.2 239.4
228.1 229.6 231.9 233.4 235 235.8 236.6 238 237 241.5 245.3 247.9 247.6 251.8 255.4 256.5 257.5 262.6 267.3 273.4 277.1 279.2 279.3 277.3 276 276.1 274.4 273.1 274.3 276.7 278.1 278.1 279.4 280.8 278.5 281.5 282.5 282.8 284.1 284 287.1 288 289.9 291.2 291.5 293.7 296.2 298.6 299.9 301.3 302.9 303.4 304.2 304.7 304.9 309.1 312.7 316.5 319.4 322.2 323.6 327.2 330.2 332.9 333.9 332.2 334.3 335.4 335.3 336.4 339.1 338.8 346.7 354.8 359.8 365 369.9 374.7 379.4 383.4 386.4 388 388.7 388.9 388.6 388.4 389.4 389.1 387.3 386.2 380.2 375.9 372 367.2 359.6 355.2 350.7 345.7 339.6 326.5 322 333.5 340.8 347.4 350.7 354.1 357.9 361.3 362.9 363.1 368.6 373.4 378.3 382.5 386.2 390.2 393.9 396.6 399.8 401.3 403.5 404.4 403 399.5 394.2 390.8 389.3 389.5 390.8 392.7 393.8 393.7 392.8 391.2 390.7 388.6 387.4 388 387.3 387.1 385.3 386.4 382.7 378.6 372.8 365.8 357.1 350.4 347.7 344.8 343.1 336.5 333.6 328.8 323.4 318.2 312.6 305.3 302 296.5 283.2 281.1 282.7 291.1 297.3 303.9 307 306 304.8 303.2 300.9 299.4 297.7 295.6 293 289.8 285.5 281.1 276.8 273.1 271 268.3 265.5 263.6 262.1 260.4 256.6 252.2 247.7 240.6 238.5 236.7 235.5 233.1 229.7 230.4 232.6 238.9 243.7 253.4
230.8 229.6 228.6 233.4 236.2 238.4 240.2 240.8 243.7 243.6 245.4 250.9 251.3 253.3 250.6 256.8 258.7 259.7 268.5 273.3 277.7 279.8 279.5 277.8 279.6 277.3 274.5 277.7 277.8 279.8 280.5 280.5 281.4 282.1 278.8 282.7 283.9 284.9 286.1 287.4 291.4 293.6 293.9 296.4 298.2 300.9 302.4 303.7 305 306.1 307.2 307.5 307.8 308.3 307.5 309.3 315.1 319.4 324.2 327.5 329.9 334.2 337.8 340.9 344.4 345.4 346 345.6 345 343.4 343.1 337.1 346.7 353.1 358.3 364.7 371.9 378 383.1 387.6 390.9 393.3 394.2 394.2 393.7 394.2 395.4 393.4 391.3 387.9 380.5 373.2 368.3 362.7 356.8 352.8 347.1 340.8 325 335.4 323.7 340 344.9 347 352.4 357 361.1 364.1 367.2 369.3 371.8 377 381.9 386 390 394.8 399.8 403.2 405.8 408.2 410.2 411.4 410.1 407 402.2 401.2 398.4 397.3 396.4 397.3 397.6 397.7 397.2 396.1 394.9 393 390.9 390 388.2 384 375.9 374.5 371.9 368.2 368.3 361.2 355.2 349.6 339.9 340.3 334.7 331.6 322.6 318.5 314.7 309.5 302.4 296.6 295.9 288.2 286 287.3 291.1 297.3 304.1 305.1 309.2 311.2 310 307 304.6 303.2 301.7 299.5 296.9 293.5 289.5 285.3 280.8 276.4 273 270.4 267.4 264.8 262.9 260.6 254.4 249.9 243.5 240.1 238.1 236.1 235.2 231.2 229.2 231.2 232.1 236.2 245.1 251
234.3 233.5 233.6 232.7 239.4 242.1 243.8 245.2 247.1 246.1 247.7 250.1 252.4 254.6 256.7 255.5 259.2 261.3 266.4 272.9 277.7 279 277.9 280.4 281.4 276.9 279.5 280.6 282.1 282.6 282.6 282.6 282.7 282.7 279.7 280.6 283.5 285 287.5 290.9 293.5 297.6 298.5 301.5 304.5 306.4 307.4 308.7 309.6 310.4 312 312.8 312.9 313.2 311.6 315 320.1 324.1 328.9 333.2 337 340.9 343.5 349.3 353.3 356.2 356.2 355.3 353 350.4 348.3 345.3 347.4 353.3 358.3 365.6 373.5 379.4 384.1 388.1 392.8 396 397.2 397.6 398 398.2 398.8 396.4 392.1 386.4 380.7 373.6 366.2 357.6 350.5 346.9 340.8 326 335.7 338.6 332.4 343.7 348 351.5 354 359.5 363.4 366.8 370 372.9 375.9 379.2 384.3 388.5 392.7 398.6 404.4 410.3 414.4 418.7 420.4 419.5 417.1 413.9 411 410.5 409.3 406.9 404.5 404.8 404.9 405.2 404.8 403.9 401.7 398 394.2 392.3 390.8 386.3 379 369 363.7 361.1 359.8 355 349.4 345.4 340.6 333.3 327.7 323 315.7 310 305.2 301.3 294.7 288.3 287.5 291.6 292.3 292.7 296.5 302.2 306.7 307.4 309.2 314.5 315.1 313.2 310.8 306.9 306.4 304.6 300.9 297.2 292.9 289.2 284.3 279.9 275.7 273.1 271.2 268.2 262.7 257.6 255.9 248.8 244.7 241.1 238.7 237.2 234.9 232.6 231.2 230.8 233.8 240.9 248.4 263.1
236.5 239.1 235.9 235.7 236.5 243.7 246.5 246.4 248.9 247.8 250.2 250.3 251.4 255.7 257.2 258.9 256.7 260.9 263.2 266.9 275 277 281 282.6 279.6 281.9 283.4 284.7 285.5 285.6 285.1 285.1 284.7 284 280.1 282.2 283.4 285.9 288.7 292.1 297.7 301.7 303.8 307.7 310.2 311.9 312.9 314.2 315.5 316.4 317.2 317.9 319 319.3 314 319.2 323.3 328 334.7 339.2 343.8 347.6 353.5 358.1 362 363.6 363.7 362.8 360.3 356.8 353 350.1 350.8 356.5 360.9 366 372.6 380 384.9 389.8 394.1 396.5 396.7 397.5 398.2 399.4 401.1 401 395.9 387.1 378.7 372.2 361.5 353.2 347.5 341.8 328.3 337 340.1 342.1 332.5 343.2 350 353.3 357.8 361.5 364.6 368.3 371.8 375.2 378.9 382.4 386.2 390.1 394.9 401.3 408 415.7 421.4 425.5 428.1 427.7 425.5 423.3 422.1 421.9 421.3 417.1 414.9 414.2 413.3 412.1 411.4 410.7 408.4 405.4 401.6 397 394.9 389 380.3 371.8 364.5 358.9 353 348.2 343.9 340.6 336.5 331.7 323.2 309.1 306 302.3 299.3 293.6 290.4 291.2 293.8 296.9 297.1 298 301.5 306.2 308.8 311.5 314.1 317 319.7 320.7 315.2 312.3 313.8 310.6 305.6 299.9 296 292.3 287.8 282.8 278.7 275.3 271.5 270.8 268.2 262.7 260.4 255.3 249.2 245.9 242.5 239 236.9 234 232.1 231.9 242 252.6 263.2 270.4
239.8 240.9 242.2 241 241.3 241.6 247.6 250.4 249.3 249.8 251.1 252.9 254.8 256.2 260 259.7 261.1 263.6 265.7 267 273.7 272.9 279.9 282.5 283 283.7 286.5 287.6 288.3 287.9 287.4 287.7 286.6 284.7 280.5 284 285.1 286.6 289.8 296.7 301.9 305.1 309.2 313 315.7 317.1 319 320.8 322.5 322.4 321.5 321.6 321.8 319 316.6 323.2 327.9 333.5 340.6 346.7 352 358.6 364 367.4 369.8 371.2 369.7 367.7 365.7 361.8 357.2 351.1 355.4 360.4 363.6 365.7 371.4 378.5 384.5 389.3 394 395.8 397.3 398.5 399.5 400.4 401.4 400.4 395.5 387 378.1 367.5 356.8 349.6 343.8 334.7 344.4 343.4 343.9 345.4 346.6 337 349.6 354.1 358.5 363.5 367 369.4 372.6 376 380.4 384.3 387.6 391.3 396.9 402.8 410.1 418.1 424.1 428.8 432.9 434.3 434.2 433.3 432.7 431.7 429.7 426.3 421.7 422.4 421.4 419.4 417.1 415.3 412.6 410.7 407.2 403.4 398.7 392.2 381.6 370.8 362.3 357.4 352.6 345.6 341.7 336.1 332.7 326.8 317.8 308 301.5 297.8 299.4 297.4 294.5 292.5 297.9 299.6 301.3 303 305.6 308.5 311.3 314.1 316.8 318.8 326.9 328.2 327.6 321.3 318.1 313.7 308 302.7 299.2 295.7 290.8 285.5 282.8 281.4 275.7 275.1 275.1 271.6 267.4 260.7 254.3 249.6 246.1 242.1 238.6 232 231.5 236.4 249.6 265.7 270.6 274.7
245.6 245.7 247 246 247.1 240.9 249.4 250.4 250.6 251.8 252.4 254.9 256.1 259 259.3 261.1 261 260.6 265.1 267.9 271.5 278 279.9 282 285.2 287 289.2 290.2 290 289.4 289 288.5 286.8 284.5 282.2 284.2 287 287.8 290.3 297 303.6 309.6 314.2 318.1 320.3 321.7 323.1 324.5 325.3 325.3 324.4 322.9 320.4 318.3 317.9 326.9 332.3 338.8 346.6 354.4 361.4 368.8 373.1 376.3 378.6 378.2 374.9 372.9 369.7 364.7 358.5 351.5 358.1 362.8 366.3 368.6 369.5 375.9 381.1 387.2 392.7 395.2 397.9 400 400.5 400.8 401.2 398.5 390.7 384.5 375.3 362.9 353.4 346 335.8 346.4 347.8 347.9 347.2 349.5 350.6 349 346.6 355.1 359.9 363.8 367.8 371.3 374.7 378.1 380.6 385.4 389.4 392.3 397.3 403.7 410.8 418.3 425.1 431.1 435.7 439.7 441.9 441.6 441.1 439.1 435.9 431.9 428.4 428 426.6 423.8 421.9 419.7 417.8 415.4 412.2 407.7 402.2 393.2 384 372.1 362.3 356.1 350.1 344.2 340.2 334.9 327.1 321.6 311.7 307.2 301.9 303.9 304.2 302.5 299.3 295.9 300.6 303.4 305.6 307.4 309.3 311.5 314.2 316.7 318.9 325.8 327.5 327.9 326.2 325.5 319.4 314.9 310.4 305.6 301.8 297.7 292.7 288.1 284.9 286.5 286.8 283.5 278.7 274.7 271.6 267.1 262 253.9 248.5 243.7 235.4 233.6 238.9 241.9 257.9 269.7 274.8 278.4
249.1 248.8 249.5 248.6 248.5 248.4 249.5 249.6 251.9 254.5 251.4 251.1 256.7 258.8 261.5 262.3 264.5 263.4 268.7 273.2 278 278.8 281.2 283.6 285 288.2 290.6 291 291.8 290.9 289.6 287.9 286.4 285.7 286.6 285.6 288.6 290.7 294.5 301.6 307.6 313.6 318.5 321.4 324 325.1 325.8 327 327.3 327.1 326.2 323.5 320.4 320.9 325.2 331.3 337.6 346.4 356 363.7 372.1 378 382.8 385.8 386.3 383.5 379.4 375.5 371.5 364.7 359 355.6 360.5 365.1 368.1 371.6 373.9 375 380.7 386.5 391.4 394.8 397.7 399 399.9 399.9 398.4 391.7 386.6 379.9 369 359.2 350.7 342.5 339.3 349.2 351.1 351.6 352.9 354.2 354.2 354.1 348.5 355.2 359.5 364 368.6 373 376.7 380.4 383.7 386.5 390.7 393.5 397.5 403.6 410.2 417.4 424.8 430.7 436.2 441.6 446.9 448.8 446.7 442.6 438.9 436 433.2 432.2 430.9 428.9 426.7 424.2 422.7 419 414.9 409.7 402.3 392.8 383.4 372.7 362.8 356 349.3 342.6 336.4 330.6 326 317.6 311.9 305.3 306.2 307.2 307.9 306.1 302.6 299.4 303.7 306.8 308.8 310.5 312.5 315.1 317.7 319.5 322.6 328.3 327.8 329.4 326.1 324.8 319.1 314.2 312.1 308.4 302.5 298.3 294.3 292.4 288.4 288.1 287.1 285.7 286.7 282.4 273 268.4 261.8 253.2 249.9 245 235.4 236.6 242.6 244.8 258.8 270 277 282.5
251.4 252.5 252.4 251.2 250.9 251.1 251.9 248.3 253.1 254.7 255.3 257.5 258.9 261 261.6 264.4 267.1 265.3 271.2 275 280.9 283.1 284 284.9 286.4 288.7 291.5 293.9 293.7 292.4 289.7 289.1 287.3 288.2 288.9 287.9 291.2 294.4 300 305.5 311.8 317 321.5 324.4 326.7 327.8 328 328.4 328.7 328.6 327.2 323.9 322.9 326.1 332.2 337.4 345.9 355 363.9 371.5 378.3 383 387.8 391.1 391.1 387.7 382.3 376.5 369.4 363.5 358.1 359.4 363.7 367.6 371.6 375.4 378.2 380.8 382 385.2 389.3 393.7 397.3 399.5 400.9 399.9 392 386.9 382.1 373.6 363.7 356.8 349.9 347.4 338.8 348.6 353.5 355.5 358.9 360.1 359.4 358.5 356.8 353.2 359.1 365 369.6 373.7 378 381.7 385.3 388.5 391.8 395.1 398.4 403.2 409 416.1 422.6 428.6 434.2 439.8 446.1 447.4 446.6 444.5 441.3 439 436.9 435.9 435.6 434.2 431.6 428.5 425.3 421.2 415.6 408.8 399.8 390.1 379.8 369.4 359.5 353.4 347.1 341.2 336.2 328.9 324.3 319.4 309.5 313.4 310.6 312.4 311.4 309.5 306.1 300.6 306.7 310 312.6 313.7 316.3 318.8 321.4 323.4 329.3 329.4 331.7 327.4 323.7 322.7 319.9 317.4 315.1 313 306.6 301.3 300.1 299.6 293.4 290.9 288.7 286.4 285.3 281.3 274.6 268.4 260.5 252.7 249.2 241.9 235.3 245.1 244.1 249.1 252 266 273.4 280.9
256.1 255.3 255.1 253.3 253.3 254.1 254.2 256.3 253.6 257 257.8 261.3 261.3 263.2 265.2 269.1 267.8 270.7 269.4 279.5 283.3 285.8 285.3 286 289 290.9 294.9 297.3 295.9 294.3 292.4 289.7 289.9 290.6 290.7 291.8 293.4 299 305.4 310.2 315.6 320 323.2 326.2 327.6 328.9 329.5 330.8 330.3 329.9 328.3 327.7 329.4 334 337.9 342.4 349.8 358.4 366.5 373.7 379.3 383.1 386.8 389.6 390.1 387.6 381.7 374.4 366.9 362.1 359.8 363.4 368 372.8 377.3 380.9 383.9 384.3 385.4 390.7 394.7 396.8 398.4 399.9 401 397.3 387.7 381.7 376.3 368.9 364.2 355.9 350.9 350 341 351.1 356.4 360.4 364.2 365.1 364.5 362.2 361.2 359.1 356.6 364.6 369.3 374.1 378.1 382.1 385.9 390.9 395.1 397.6 400.4 403.3 407.6 412.5 417.1 424.1 430.3 435.7 437.7 438.9 440.6 443.5 443.7 442.4 441.3 439.9 439.6 438.9 435.9 432.3 429 423 416.2 405.8 396.5 385.8 375.8 365 357.3 350.1 344.1 338.5 332.9 328.2 317.5 321.2 316.8 315.6 314.6 314.8 314.6 311.9 307.3 301.4 309 312.6 314.7 317.3 319.8 322.5 326 330.2 328.2 329.4 332.5 332.2 331.7 328.5 325.7 324.1 321 318.4 314.7 312.5 309.5 304.3 301.3 296.1 290.7 287.3 286.9 279.2 273.4 266.4 256.6 254.1 250.2 238 237 250.9 245.5 252.3 254.1 257.5 260.7 268.3
258.4 258.4 258.2 254.8 256 254.9 255.8 256.3 253.4 258.8 258.5 263.8 264.8 265.2 269.6 272.1 269.8 271.8 278.8 282.2 283.3 288 286.8 288.2 290.2 292.4 295.3 296 296.3 295.3 294.3 291 292.5 293.4 294.3 295.7 293.6 303.4 308.6 313.2 317.2 320 322.9 324.9 327 328.6 330.1 331.1 331.5 330.9 330.7 331.3 333.1 339.2 344.7 350.2 357.4 365.6 372.6 377.3 380.9 383.9 385.9 387 386.2 383.4 378.2 371.2 365.4 361 364.1 368.9 373.5 379 384 388.5 392 392.8 392.3 395.8 398.4 399.6 400.5 401.5 399.9 393.9 385.9 378.1 371.9 367.5 363 355.7 352.7 342.1 342 355 359.7 365.3 369 369.6 369.5 367.9 366.7 364.2 357.6 361 368.1 373.1 377.6 381.4 385.6 390.6 394.3 396.7 399.9 402.5 405.7 409.5 411.9 417 423.1 427.7 429.2 431.9 434.4 437.7 440.1 442.6 444.6 443.9 442.9 441.8 438.1 435 432.3 424.3 414.1 402.7 390.6 381.8 372.4 364.9 357.3 349.5 342.5 335.3 331.4 322.3 325.8 321.2 320.9 318.2 317.5 317.3 316.4 313.2 308.4 305.7 310.7 314.1 316.6 319.3 322 324.7 326.3 330.9 328.2 330 335.5 334.5 337.1 339.2 339.8 339.9 338.1 334.6 328.7 323.9 316.5 311 306.7 302.1 296.6 288.3 284.2 276.8 269 262.5 258 254.6 247.2 236.7 250.3 252.2 245.9 252.3 256.8 259.7 262.9 270.7
259.8 259.8 258 258.5 256.9 256.8 257.4 260 260.9 259.5 264.1 266.1 267 268.4 272.7 274 270.6 275.7 280.5 287.8 283.3 287.4 288.4 288.7 289.8 291.4 293.4 294.7 295.7 296.1 294.9 291.8 296.2 297.5 298.2 300.4 302.8 299.7 310.8 313.9 317.2 320 322 324 325.7 327.4 329.4 331.2 332.7 332.7 333.4 336.9 341 346.3 353.1 361.2 369.5 377.5 383.4 387.3 387.4 386.4 385.7 385.1 383 379.6 375.8 369.7 364.9 364.6 367 371.8 378.6 385.9 391.5 396.6 400.6 402.7 400.9 402.8 405.2 405.1 404.4 407 405.2 395.7 383.6 376.9 370.2 364.3 358.6 356.2 352 343.4 351.1 358.6 364.4 369.4 372.6 373.7 373.7 372.6 371.2 367.9 365.1 358.1 364.2 370.9 375.1 378 380.7 384.6 388 391.2 394.5 396.9 399.3 400.9 402.9 405 407.5 411.4 417.9 424.4 430 434.6 438.6 441.8 444.1 445.4 444.5 442.1 438.4 434.3 429.6 420.7 409 396.4 385.9 379.5 372.6 364.7 356.5 347.5 337.3 332 331.5 327.5 327.2 325.5 323.3 321.2 320.1 319.9 318.6 313.4 307.2 309.6 312.8 315.5 318.6 321.3 323.8 325.3 328.1 328 329.5 329 336.4 341 345 347.1 351.1 349 347.1 344.1 338.3 331.8 325.2 320.5 313.3 306 299.1 289.3 279.3 271.3 264.3 259.9 255 242.7 238 248.2 254.8 253.4 252.2 256.2 258.9 263.3 269 277.2
259 260.6 258.4 259.7 260.9 263.1 263.7 262.9 264.7 263.7 267.4 269 268.9 271.9 274.6 273.1 273.9 272.4 281.8 285.7 287.9 285.7 288 288.7 289.6 290.7 292.9 295.5 296.7 296.3 295.6 294.6 297.2 299.1 300.7 303.5 306.9 308.8 302.1 305.2 315.7 318.9 321.2 323.4 325.3 327.8 330.1 332.5 334.4 335.3 337 341.4 347.5 354.7 363.2 371.3 377.7 384.7 388.8 390.6 390 387.3 385.4 384.1 381.9 379.3 374 372.4 370.8 367 370.4 374.7 383.2 390.5 397.1 402.9 408.1 411.8 413.6 413 413.6 412.5 411.6 410.9 408.3 398.8 385.3 374.3 368.3 363.1 360.1 357.6 350.9 344.3 355.8 362.1 367.3 372.1 375.2 376.7 376.3 375.8 373.9 371.1 369.5 367.5 363.2 362.4 368.8 374.1 377.1 380.3 383.5 386.7 389.3 391.6 391.6 391.8 393 395.2 398 406.3 414 421.8 428.3 434.4 438.8 441.7 443.9 443.9 441.1 438.1 435.4 429.7 421.3 410.5 398.9 390.1 385.3 379.7 372.2 364 355.4 346.7 340 335.6 326.6 333 332.3 330.8 327.8 324.9 324.9 324 320.6 313.1 310.8 314.6 315.9 317.7 320.7 323.3 324.7 327.5 330.6 329.6 328.7 332.1 338.9 348 351 355.5 354.6 349.5 346.8 343.2 336.5 331.3 327.2 319.6 311.4 302.2 290 280.7 275.6 268.1 261.1 247.5 248.8 254.2 259.4 259.3 256.5 258.8 257.4 259.1 263.6 267.4 275 282.5
260.5 263.1 262.9 263.9 264.9 266 265.6 265.6 261.6 268.6 268.6 268.9 273.3 275.2 274.9 278.3 276.9 277.1 276 279.1 283.6 287 288.4 289.3 290.3 291.2 292.6 295.8 297.8 297.9 296.8 296.6 297.2 300.1 303.2 306.5 309.2 311.5 313.2 315.4 308.5 313.9 319.2 321.9 324.6 327.8 330.6 333.4 336.1 338.7 342.7 348.2 355.8 363.4 370.1 378.1 384.7 390.1 392.9 393.2 391.8 388.5 385.2 382.3 380.6 378.6 379.1 377.9 375.8 372.8 373.5 378 384.9 393.3 402.3 409.7 414.7 418.4 421 421 419.4 418.4 415.4 413.9 410 399.1 386.4 374.4 367.8 364.2 361.4 357.7 349 349.1 356.1 364.1 369.1 374 377.4 378.7 378.8 378.1 376.9 375.7 374.4 373.1 369 371.4 369.2 368.2 375 378.1 381.3 384 385.9 386.7 386.9 387.6 389 392.2 397.1 405.3 412.3 418.8 426.9 433.6 439.3 443.4 443.8 439.7 436.3 432.4 428.7 423.4 414.1 401.9 394.5 388.1 383 377.9 370.7 363.1 354 346.2 341.7 338 329.8 333.9 335 334.1 331 329.6 329.6 326.1 324.3 317.4 313.5 318.3 319.2 320.4 322.9 325 326.6 330.8 332.1 331.5 331 337.5 341.2 350.8 356.9 357 352.1 344.7 339.6 333.9 328.7 324.9 320.9 314.3 304.3 293.6 285.5 277 269.9 262.7 258.2 252.3 262.2 263.6 262.2 261.3 261 263.3 263.4 262.6 266.3 272.5 280.3 286.3
262.3 263.9 267.9 266.2 266.2 270.6 265.8 270.8 267.3 269.9 270.9 273.4 276.3 277.6 277 279.5 279.6 280.6 283.1 285.9 285.8 286.3 290.2 291.2 292.8 294.3 296 298.5 299.3 299.6 299.2 299.8 298.7 301.3 304.2 307.7 310.9 313.3 315.8 317.8 318 317.1 314.7 322.7 325.9 328.6 331.5 334.7 339.1 343.4 348.2 354.2 361.6 369.9 376.6 383.5 389.6 393.4 395.5 395.3 393.5 390.4 385.8 382.4 381.2 381.9 384.5 385.3 384.6 384 383.8 384 386.3 395.4 404.5 413.1 419.5 424.2 427.4 427.8 424.7 422.3 418.6 415.3 408.8 397.5 386.2 373.6 368.9 365.2 362.5 359 347.4 354.8 360 357.3 371.9 376 378.9 380.5 381.1 381.2 380.6 379.3 378.8 377.1 375.3 375.5 374.4 370.8 370 374.8 377 378.6 381.2 382.4 382.9 384 385.7 393.2 398.3 403.8 409.6 416.6 423.6 431.2 437.1 441.4 439.6 435.6 430.8 426 421.9 416.2 406.8 396.6 390.3 384.6 379.9 375.2 369.4 358.9 353.9 348 342.1 337.4 333.7 337.2 337.7 336 333.4 331.9 331.6 328.9 326.6 319.7 317.6 321.3 322.6 324 326.1 327.1 332.5 335.3 335.7 333.7 331.7 337.6 345.6 353.4 357.9 353.7 347 341.3 333.8 327.2 319.5 316.1 311 302.6 293.4 288 282.5 275.5 264.2 259.8 251.7 260.9 266 266.1 266 267.7 264.6 267 268.3 266.4 273 278.6 285.4 290.8
259 266.5 261.8 268.9 265.9 271.9 271.3 265.8 265.8 271.5 275.2 277.3 278.9 278.9 277.9 279.3 280.9 276.4 278.7 288.1 290.5 291 291.3 294.3 296 297.9 300.2 302.2 302.5 301.7 301.1 301.3 301.5 302.6 304.3 308.5 312.2 315.4 318 319.8 320.4 321.5 321.8 322.7 326.6 330.4 333.7 337 341.1 346.3 351.3 356.7 364.7 372.6 379.6 385.2 390.3 394.4 396.1 396.6 395.3 393.5 390.2 388.8 388.6 390.1 392.4 395.6 397.1 397.9 395.7 394.5 393.5 395.7 405.6 413.9 422.2 426.9 430.2 431.7 428.9 426 421.9 414.3 406.5 397.2 386.5 376.1 370.3 366.7 363.7 355.5 348.2 357.8 365.2 370.2 364.5 376.9 380.3 382.1 383.6 383.7 383.2 382.7 381.9 379.2 379.2 378.6 377.1 371.6 374.8 377.4 380.9 382.8 383.8 384.6 385.3 385.6 387.5 392.4 397.3 403.8 409.4 414.7 421.6 427.2 432.8 437.1 435.2 432.1 426.3 419.2 413.5 407.1 398.2 389.6 384 380.3 375.7 370.9 363.5 359.2 354.5 346.6 340.2 338.3 337.4 338.4 338.1 336 335.2 335.6 333.7 331.4 328.5 323.9 317.5 323.5 326.8 328 330.3 335.2 338.2 337.8 335.1 334.5 334.3 338.5 347.2 356 354.8 348.4 343.1 338 328.7 319.1 312.6 306.5 300.3 291.4 286.4 283.8 281.4 268.9 262.2 258.3 259.6 265.6 268.4 271.7 271.5 270.2 269.1 271.5 273.8 276.4 278.4 284.5 290.5 295.6
265.8 267.8 268.8 270.9 271.2 266.5 263.8 268 273.5 275.5 278.5 279.9 279.7 276.3 276.7 279.2 282.8 285.8 289.1 290.9 293.2 294.7 293.1 296.4 299 301 303.1 305.6 305.9 304.6 303 303.6 304 304.8 308.1 311.2 314.7 319.4 322.2 324.4 325.8 326.3 325.9 326.7 328.1 326.7 334.4 338.6 343.2 348 352.5 357.9 360.7 367.4 375.8 383.6 388.1 392.5 395.7 397.6 397.9 397.7 397.3 400.7 403.1 403.8 404.8 407 409.8 409.3 408.8 407.6 403.5 402.9 408 417.6 424 430.1 433 434.3 432.6 428.6 425.1 416.5 407.3 398.5 389.9 377.5 372.3 368 364.5 348.9 357.9 364.5 369.4 374.1 377.2 378.4 381.9 383.9 385.7 386.1 386.3 385.6 383.8 382.2 383 382 380.3 376.5 379.6 381.2 385.4 386.8 387.6 387.5 387.5 388.5 389 390.9 397 403.3 408.4 413.5 419 423.9 428.6 430.9 429.9 427.7 422.2 415.4 407.2 400.5 393.7 386.8 380.4 375.7 368.9 361.9 354.8 350.1 345.3 342.7 341.3 340.9 340.1 338.1 337.2 337.5 338.3 337.2 335.6 333.3 330.3 326.4 322 327.6 329.7 330.6 338.2 340.8 341 339.6 338 336.5 334.9 340 349.4 354.7 350.4 344.8 339.8 334.2 323.6 316.3 309.9 301.9 294.5 289.6 283.6 275.1 269.5 262.6 259.2 253 268.3 269.1 269.7 274.1 272.8 273.2 275.5 277.9 281.8 284.2 282.3 290.3 296.3 300.6
266.1 268.2 270.9 272.4 271.4 270 272 274.8 278.3 277.4 281.4 282.1 281.1 281.9 282.2 283.4 286.1 288.1 291.1 293.4 295.7 297.8 297.9 294.8 301.7 304 307.6 310.2 309.9 308.4 306.2 304.6 306.7 307.9 310.3 314.2 318.5 323.5 326.9 330.2 332.1 332.5 331.4 331.2 332.9 334.1 336.9 336.9 341.2 344.1 347.7 354.1 360.9 368.4 378.7 384.9 390.8 395.6 398.8 402.3 405.1 408.7 411.9 414.6 417.9 421.1 422.8 423.9 425 424.6 423.3 420.7 416 411.8 412.2 421.9 428.1 432.6 434.9 433.2 431.4 430 424 416.1 408.9 401.3 392 379.5 373.3 368.1 359.5 350.3 363.2 368.5 373 377.4 380.2 382.4 382.4 386.4 388.1 389.4 389.6 389.3 387.7 386.5 387.1 385.8 383.7 382 384.3 387.3 389.3 390.7 391.8 392.3 392.1 392.1 392.7 393.7 396.6 402.7 408.8 413.3 417.8 421.8 424.6 424.8 423.6 421.5 417.2 412 405.2 397.3 389.2 379.6 373.2 367.3 365.3 363.6 359 349.8 346.5 345.6 344.3 344.3 343.3 341.7 340.6 341 340 338.8 337 333.8 330.6 324.7 327.3 332 332.9 338.7 342.6 341.8 341.5 342.2 340.7 341 340.5 342.4 350.2 352.5 346.4 342.1 334.4 326.5 317.2 308 302.4 297.1 291.4 286.7 281.7 277.9 264.9 260.5 256.2 261.4 269.7 271 274.9 276 278.2 281.3 283 286.4 288.7 290.7 291.8 293.7 298.7 303.8
269 269.2 273.5 273.7 273.1 272.2 274.8 277.8 279.2 280.5 282.9 283.9 283.9 283.9 284.5 286.6 288 291 293.7 295.7 297.9 300.1 301.3 296.1 303.8 307.3 312.7 314.8 314.2 312.6 310.9 309.6 308.7 310.5 313.3 318 323.4 328 331.8 335.1 337.1 337.6 337.9 337.6 338.4 341.1 343.5 344.5 347.2 349.3 351.6 355.4 362.1 369.2 378.5 385.7 393.7 400.5 407.4 415.1 420.3 424.7 426.1 428.8 433.5 436.5 438.7 439.1 439.9 437.5 435.9 435.2 430.7 424.2 421.9 425.7 431.2 434 434.4 430.5 427.5 424.4 419.5 414.4 408.6 401.4 393.9 382.6 373.4 369.3 356.4 359.5 367.8 372.8 376.9 380.5 383.1 385.4 386.9 387.6 390.4 391.7 392.9 393.6 391.5 391 391.4 390.1 388.6 386.9 388.2 391.5 394.3 396.1 397.7 398 398.8 400.1 398.2 398.2 399.9 403.3 407.8 411.3 416.4 420.2 418.9 418.6 417.3 415 411.7 405.8 400.4 392.6 390.5 386.3 379.9 374.4 367.8 363.3 362.2 355.5 352.3 350.9 350.1 348.7 346.4 344.7 343.4 342.3 341.5 340.8 337.9 334.1 330.3 328.2 334 335.8 336.5 344.1 342.8 342 341.1 341.8 342.2 342.9 344.4 345.4 350.9 348.5 342.7 336.5 327.9 320.1 307.6 299.1 296.2 292.5 289.9 280.6 276 270.4 262.9 257.6 258.9 265.9 270.5 275 279.2 281.5 284.9 287.2 290.6 293.3 295.1 296.5 297.8 297.3 302.1 306.9
265.1 273.3 274.1 273.9 274.5 275.2 275.1 279.1 280.1 282.2 283.8 284.6 285.3 285.5 287.7 289.7 291.1 293.7 296.6 298.1 300 302.4 304 304.6 300.3 308.5 314.5 316.6 315.4 314.3 313.3 313.5 313 314.7 314.6 323.7 327.7 332.5 336 338.8 341.1 342.6 344.2 346.9 349.2 351.3 353.2 354.4 355.5 355.1 357.2 361.1 364.2 374.2 383.8 392.3 398.9 406.4 414 422.4 429.7 433.9 436.3 439.6 446.4 452.1 453.8 454.6 451.6 448.8 445.7 445 441.8 436.2 432.9 433.1 435 436 432.9 428.5 426.2 423.4 416.5 412 404.6 402.3 396.2 382.8 373.7 369.9 364.1 354 371.5 375.9 380.4 384 387 389 389.8 390.2 392.2 394.2 396.2 397.5 396.3 396.8 396.9 395.9 393.4 391.1 391.3 395.8 398.7 401.8 404.4 406.8 406.3 408 407.3 405.4 406 405.4 407.1 409.3 411.2 414.3 414.5 412.7 411.1 408.8 406.6 403.9 399.8 395.8 392.1 388.6 382.7 376.5 371.4 370.9 366.5 363.3 360.4 358 355.4 354.2 353.2 350 347.1 344.5 344.4 343.4 338.6 333.9 330.1 334.4 337.6 338.8 343.1 344.3 342.6 341.3 341 342.3 343.6 345.3 346 347.7 348.8 344.4 339 331.2 321.2 311.4 301 295 289.7 286.1 280.9 272.7 269.4 262.5 256.8 260.5 263.9 271.7 273.6 279.1 281.2 289 293.1 293.8 296.9 299.4 300.8 302.1 303.3 303.3 304.6 310
270.6 272.6 273.8 275 275.8 277.3 276.9 278.7 280.8 282.3 283.9 285.4 286.6 288.9 291.6 293.3 294.9 297.2 299.7 301.1 302.6 304.7 307.3 308.1 306.6 303.8 311.6 313.9 315.2 315.7 315.9 317.1 318.5 318.3 323.8 317.2 330.8 334.5 338 341.6 344.4 347 349.3 351.7 354.4 357.4 359.7 362.2 364.4 366 368 370.9 375.4 378.2 388.2 396.2 404.3 409.4 416.7 424.9 433 439.6 441.9 447.4 455.9 462.3 466 466.6 462.4 459.2 454.5 452.1 447.9 444.6 441.7 440.5 439.2 438.6 435.6 428.7 424.8 421.6 412.2 405.7 399.6 392.8 388.4 382.5 375.4 370.6 362.9 365.8 373.8 378.9 384.2 387.9 390.8 393.3 394.3 394.6 394.2 397.2 399.6 401.5 401.4 402.5 403.3 402.5 399.3 396.8 393.6 400.7 404.3 407.3 409.6 411.8 413.4 413.5 413.9 413 410 408.5 408 408.7 410.1 410.4 411 407.8 405.3 403.4 401.7 400 397.2 394.4 391.6 388.9 384.9 380.1 379.3 377.5 372 369.6 366.2 363.3 361.7 360.2 357.2 353.5 348.2 348 345.4 342 337.1 334.2 333.8 333.2 337.1 342.8 346.1 344.4 341.5 339.6 339.9 341.9 344.5 346 347 347.7 345.6 340 334.5 327.1 316.1 305.7 297.9 291.1 284 275.4 274.8 270.8 260.3 260.3 265.1 267.6 268.6 273.2 277.9 282 285.5 295.8 298 299 302.4 304.8 305.4 306.5 307.6 307.9 308.5 311.2
270.6 272.4 274.5 275.7 277.3 278.5 279.1 277.9 280.3 281.8 283.9 285.8 288.1 291.3 294.2 296.8 298.7 301.1 303.5 305.4 306.8 309 310.4 311.4 311.3 308 311.7 314.3 316 317.4 319.5 321 322.5 324.5 328.6 331.7 333 337.1 330.7 332 345.8 349.2 352.2 355.7 359.3 362.8 365.7 368.7 373.8 378.6 381.2 384 386.7 389.1 394.1 401 408.8 417 423.7 428.7 434.6 441.7 446 452.2 461.6 469.9 476.3 479.8 474 468 461.3 458.4 457.9 454.3 449.8 447 442 439.7 434.8 429.7 423.9 415.1 407 399.7 393.9 388.2 385.1 379.9 372.1 368.3 362.2 369.7 376.2 381.7 387.5 391.7 395.4 398 398.8 399.9 400 401.3 403.6 405.2 405.6 407.8 408.6 408.3 405.8 402.2 399.3 405.5 409.5 412.3 414.3 416.2 418 418.9 419.6 418.9 415.7 412.2 410.1 409.9 409.1 407.6 405.6 403.5 401.7 400.4 398.2 396.6 394.9 393.4 391 388.5 387.5 385.8 385 383.1 379 376.5 373.1 369.6 366.6 362.8 359.5 356.5 352.6 350.6 347.5 344.1 338.1 336.8 335.9 334.8 334.9 337.5 341.9 342.9 340.6 339.1 341.9 343.1 344.8 346.1 346.6 345.6 340.3 334 328.3 321 312.1 298.8 292.8 289.3 284.8 278.9 270.4 260.3 263 268 270 274.1 269.7 278.3 281.7 285.9 292.7 298 301.1 303.7 306.7 309 310.2 310.4 311.3 312 312.2 312.8
271 273.4 275.2 277 278.5 279.9 280.2 279.9 279.9 282.1 284.3 286.7 289.9 293.5 296.4 299.3 302.7 305.1 307.4 309.4 310.6 311.7 313.1 314.4 314.6 313.8 312.5 317.2 319.4 321.3 323.4 325.9 329.3 332.1 336.1 337.9 341 343 344.6 346.2 346.3 351.1 355.5 359.2 362.9 366.9 370.8 374.3 379.1 385.4 389.2 392.2 395.7 399.2 403.8 409.5 417 423.8 430.7 436.8 441.4 448.7 455.8 464.7 474.3 482.3 483.9 488 484.5 477.5 469.8 464.2 464.1 460.4 455.6 451 446.5 441.3 436.9 431.8 426.6 416.8 404.6 397.1 392.7 385.9 382.7 381 376.8 373.8 368.3 364.5 377.4 384.4 391 395.9 399.5 402.6 404.4 405.4 405.4 405 407.7 409.1 411.1 412.5 414.6 414.4 410.2 408.1 406.5 411.4 414.9 417.7 419.6 421.5 424.2 424.9 425.1 424.8 422.6 419.2 414.2 409.9 407.8 405.8 401.8 399.5 398.6 397.3 395.5 394.6 393.6 392.3 391 389.6 389.4 389.1 389.3 388.4 385.9 384.5 378.5 374.9 370.9 366.3 362.2 358.6 355.2 352.2 350.9 345.2 342.6 341 338.5 336.1 333.9 332.3 335.3 337.4 338.2 338.5 346.4 348.5 346.6 346.5 346.5 342.5 335.7 329.5 322.2 315 310.1 296.4 293.9 288 279.9 271 263.2 261.8 269.7 274.3 276.7 282.9 281.2 279.8 290.7 295.1 299.5 301.9 305.1 308.1 310.2 312.3 314.4 313.9 314.5 315 315.8 315.6
271.8 274 276 277.6 279.6 280.7 281 281.2 281.2 282.5 285.2 287.5 291.2 296.4 299.6 302.8 306.1 308.9 311.1 313 313.9 314.5 315.8 317.1 318.5 319.6 317.6 321.6 324.9 327.1 330.2 333.3 336.3 341 343.5 345.6 348 349.6 349.7 351.5 353.5 343 358.6 362.7 365.6 369.8 374.5 379 383.1 390.6 395.5 399.6 404 408.3 412.8 416.3 426.1 434.2 441 447.9 452.4 460.6 469.9 478.9 487.4 494.4 497.6 495.7 493.1 487.2 479.9 474.5 469.4 465.8 459.9 453.6 447.1 441.5 438.4 430.7 424 415.6 401.4 399.4 395.4 390.7 386.9 382.6 376.7 375.9 372.5 364.7 378.4 387.4 394 399.3 403.2 406.3 409.8 412.1 412.9 412.5 411.5 413.5 415.4 417.3 419.2 420 416 413.8 414.8 417.4 420.5 423.2 425.4 427.4 429.6 430.9 430.3 428.9 424.9 420.2 414.4 410.3 407.4 404.4 400.6 396.8 395.1 394 393 392.8 392.4 390.9 390.9 391.7 391.8 392 393 392.2 391.4 387.2 383.3 378.9 373.9 369.6 365.5 359.6 356.7 354.7 350.7 348.9 346.8 344.2 340.5 335.5 332.3 329 329.7 332.9 334.5 333.4 340.6 346 348 347 344.4 338.5 331.6 325.9 318.7 308.8 302.8 290.2 292.3 282.5 275.4 262.9 264.2 273.2 276.8 279.8 282.9 285.5 286.7 290.8 294.9 300.4 304.1 307.1 309.7 312.2 314.2 316 317.5 317.3 318.3 318.5 317.9 317.7
272.1 274.1 276.2 278.2 280.2 281.4 281.7 282.2 282.4 283 285.9 288.3 293.4 298 302.1 305.9 309.3 312.5 314.9 316.6 317.3 318.7 319.8 321.1 323.1 324.1 324.7 324.2 330.6 333.4 337.8 342.4 344.1 348.9 351.8 354.2 356.8 359.2 361.2 359.8 358.1 358.2 356 364.4 368.9 373.3 378.9 384.2 389.6 395.1 401.2 407.8 413.9 419.8 424.4 428.8 433.9 440.9 449.7 457.7 457.9 470.5 481 490.9 497.5 501.4 503.1 502.2 498 495.4 490.4 484.6 477.9 470.9 463.7 457.3 451.2 443.5 436.3 427.8 418.3 413.2 408.5 402.9 397.5 391.2 386.9 384.6 381.5 378.1 376.6 369.7 375.9 386.4 394.1 399.6 404.7 408.8 412.6 416.2 417.9 418.3 418 419.9 420.5 421.7 422.9 423.3 421.6 420.6 421.5 423.7 426 427.8 429.7 432.2 433.4 433.4 432.1 428.5 424.3 418.6 414.6 410.7 407.5 404.3 400.9 397.3 393.7 391.2 390.6 390.6 391 390.8 391.5 392.6 393.9 395.1 398.4 399.2 394.9 389.1 386.7 382.1 376 371.1 367.2 362.5 358.1 357.1 353 351.8 349.5 346.1 340.2 334.4 328.6 324 323.3 326.7 330.8 330 329.9 330.8 334.6 337.3 336.5 335.1 328.1 321.2 314.3 307.8 303.1 289.9 283.5 276.4 266 263.1 276.5 278.1 281.6 283.5 286.5 291 294.2 297.4 293.2 306.3 308.3 311.1 314.1 316.1 317.9 319.7 320.7 321.5 321.6 321.4 320.8 320
273 274.1 275.9 278 280.2 282 283 283.7 284.2 285 286.8 289.9 294.7 298.8 302.9 308 311.5 315.7 318.4 320.5 321.5 323.1 324.4 324.6 327.8 329.2 330 321.4 334.7 338.9 343.5 348.1 352 355.6 358.9 361.8 365 368 369.6 370.2 368.3 364.6 351.9 367.1 371.6 375.3 380.7 386.6 392.4 399.2 406.4 413.5 420.3 428.5 434.6 441.1 446.4 450.8 457.2 465.5 471.6 475.3 484.7 494.7 503.1 506.6 507.5 506.7 505 501.2 497.2 490.7 482.8 475.2 467.7 458.8 452.9 445.8 435.9 431.5 430.2 423.9 414.3 406.4 399.8 395.4 391.6 387.8 384.4 382.9 381.1 378.5 373.5 383.6 391.3 398.8 404.2 409.4 414 418.5 421.6 422.2 423.8 426.9 428.1 428.2 427.9 427.3 427 427.5 428.8 430.4 431.4 432.5 433.4 435 435.4 433 429.6 425.1 420.9 416.1 413.2 410.1 407.4 404.2 400.9 397.4 394.3 391.6 389.3 388.4 389.2 390.1 391 392.8 394.6 395.3 397.4 396.6 391.3 390.3 387.7 383.1 375 371.1 368.5 363.2 361.3 357.6 356.2 354.6 350.6 344.6 336.9 330.5 325 320.7 317.7 322.1 326.8 326.3 323 321.2 322.8 327.3 328.8 325.9 319.9 312.8 309.4 300.6 292.4 287.2 278 265.8 265.8 279.4 284.4 285.3 286.2 287.5 293.6 296.1 300.2 304.6 307.3 310.5 313.1 315.8 317.7 320.1 321.5 322.4 323.1 324.2 324.9 324.9 324.1 323.1
274 275.1 276.3 278.5 280.3 282 283.4 284.6 285.6 286.2 288.3 291.9 296.1 299.5 303.5 308.3 314 318.8 321.7 324.3 325.7 327.3 329.1 330.3 333 333.7 334 333 332 341 346.5 351.5 356.7 362.2 365.8 368.6 371.9 375 376.8 377.8 376.7 370.3 368.2 353.6 371.9 377.2 383 389.3 396.6 404 411.9 420 427.8 435.2 442.6 449.6 458.4 462.9 466.8 473.4 478 479.1 486.7 496.7 504.8 509.8 510.7 509.2 506.4 503 501.1 494 484.3 475 467.1 458.6 452.7 449.6 444.7 441.1 435.3 428.3 418.8 410.2 406.8 404.4 400 392.7 389.2 387.2 385.2 381.6 371 381 388.5 395.8 402.6 410.4 416.4 420.7 424 426.2 429.2 431.9 432.7 434 433.7 431.8 431.6 433.9 435.5 436.9 438.6 438.7 437.6 436.3 433.5 429.8 425.6 420.8 416 413.5 411.1 407.9 405.7 403.5 400.8 397.5 394.5 391.9 389.3 387.8 386 387.1 388.4 390.3 390.9 390.9 389.2 387.8 388.7 388 385.8 383.1 379 372.6 368.2 365.6 363 359.7 358.9 356.2 351.2 345.4 336.5 328.5 321.9 316.3 310.1 313.9 321.2 323.6 321 319 316.8 313.5 312.7 308.9 304.5 305.7 302.4 297.6 287.5 279.7 267.6 268.2 281.8 287 288.4 289.6 290.9 295.3 299.4 302.6 306.8 311 313.6 309.9 317.3 320.2 321.6 323.8 325.3 325.5 325.4 326.8 327.4 327.7 327.2 326
