ncols 200
nrows 82
xllcorner 410000
yllcorner 360750
cellsize 50
251.4 248.3 245.6 243.4 238.9 241.7 244.1 247 250.7 254.7 259.8 266.4 272.1 279.4 292.7 302.2 315.2 325.2 334.2 343.6 354.4 360.4 365.1 363.4 356.8 354.5 354.1 356.1 359.1 363.3 370.5 376.8 374.8 372.7 368.7 363.8 359 355.3 352.5 348 342.7 342.5 347 349.3 350.5 350.2 349.7 348 344.5 340.4 336.2 330.2 325 320 316.2 316.9 319.1 323.2 326 331.2 337.8 343.3 349.1 354.6 358.5 361.5 363.2 364.8 366 367.2 367.9 369.1 372.5 375.5 377.5 377.6 377.7 377.8 375.9 375.5 372.4 368 365.1 362.7 360.9 358.9 359.5 359.9 359.6 359.3 358.6 357.6 356.6 355.4 353.7 353.4 351.9 349.3 347.5 347.1 345.9 345 342.2 336.7 336.8 337.1 335.2 332.3 330.1 329.2 328.2 327.2 328.3 329.8 331.2 330.1 328.9 328.6 328.7 327.8 327.2 325.1 321.7 319.5 317.8 316.1 313.6 309.8 311.3 311.9 312.6 311.8 310.2 309.2 307 305.1 303.9 301.9 299.6 296.9 293.6 284.1 262 272.6 269 254 284.8 298.2 303.5 306.7 309 309.3 311.2 312.7 313.1 313.6 313.2 312.8 312.4 312.2 311.5 309.9 308.3 308.9 310.1 310.5 310.8 310.9 310.9 311.9 312.6 312.9 313.1 313.3 313.3 313.1 314.3 314.8 315.7 316.9 315.1 313.2 311.4 309.9 306.9 303.8 299.7 295.5 290.8 285.8 281 277.3 274 272.3 270.7 269.4 268.7 266.4 264.2 261.5
256.5 252.3 248.9 244 242.7 238.8 240.5 242 245.7 248.8 253.1 257.2 262.5 266.9 275.4 284.7 296 309 319 336.1 350 361 368.2 367.6 361.9 357.1 355.2 356.8 359.6 363.7 371.2 376.9 378.6 376.7 373.7 370.4 366.8 363.7 360.1 354.7 349.1 342.6 340.6 345.1 347 347 346.6 345 342.1 337.9 334.1 330.6 325.4 322.1 318.3 316 316.6 321.1 324.8 330 337.1 342.8 349 355.2 359.4 361 362.7 364.2 365.7 366.2 366.4 367.2 370.6 373.6 375.8 378.7 379.6 379 378.2 378 376.6 372.8 368.9 365.4 363.7 361.6 361.6 361.2 360.9 360.5 360 358.3 356.8 355.5 354.2 353 351.8 350.4 348.1 348.3 346.4 343.4 339.8 341 342.5 340.6 338.1 335.1 333.9 331.3 330.3 330.3 331 332.4 333.1 331.9 332.3 332.5 332.6 332.2 331.4 328.1 324.9 322.2 320.1 318 316.2 313.3 314.3 314.4 314.6 313.7 313.9 312.7 310.9 309.2 307.5 305.3 303 299 290.4 267.9 278.6 285.4 282.4 253.5 277.5 295.3 302.8 306.3 309.1 310 312.1 313.7 314.2 313.8 313.4 313 312.6 312 311.5 311 309.2 310.8 310.2 310.4 310.7 310.9 310.9 311.8 312.3 312.6 312.8 312.9 312.8 312.7 313.1 314.1 315.7 317.5 316.6 315.7 314.1 312.1 309.8 306.8 302.6 298.4 293.5 288.5 283.3 279 274.9 272.6 271.1 268.1 265.5 263.2 261.3 257.1
260.7 257.3 252.8 247.5 244.2 239.2 240.4 239.3 242.6 244.4 247.7 251.4 254.8 259.9 268 273.2 282.4 293 306.5 327.5 344.4 358 365.5 366.1 362.6 358.5 357.1 357.9 360.1 363.7 368.5 375.7 377.4 379.9 377.5 373.8 370.3 367.5 364.2 359.9 353.7 346.5 339.4 338.2 342.3 343.3 343.2 342.2 338.7 335.6 331.9 329.5 326 323.6 321.1 316.6 315.5 317.7 323.6 328.6 334.9 341.6 348.4 355.1 358.4 360 360.9 362 362.5 363.3 364.3 365.2 368.7 371.6 374.7 377.9 380.1 380.8 379.6 379 378.9 376.9 373.5 369.8 366.2 364 363 362.5 362 361.5 361 359.2 357.4 355.7 354.2 353.1 351.9 349.5 348.9 347.9 345.2 344.2 345 345.9 344.8 342.4 340.1 338.6 337.4 335.4 332.7 333.9 334 335 334.9 335.2 335.8 336.6 336.8 336.5 335 332.1 329.1 325.9 323.7 321.2 318.7 316.8 316.8 316.9 316.5 316.6 316.8 315.4 313.6 312 310.1 307.4 304 296.1 273.5 283.4 290.2 291.3 287.5 262.7 267.1 292.8 302.2 305.6 308.3 310.8 312.9 314.9 315 314.6 314.2 313.6 312.9 312.3 311.8 311 310.2 310.3 310.4 310.4 310.7 310.8 311.2 311.3 311.8 312.2 312.4 312.5 312.3 312.2 311.9 313.5 315.1 315.8 316 315.1 314.1 312.6 311.6 308.3 304.9 300.2 295.7 290.9 285.7 280.1 275.9 273 269.2 266.2 263.1 259.6 256.7 253.3
264.4 260.6 256.6 254.7 251.1 245.4 240.9 238.5 240.4 241.5 243.6 246.7 250.1 253.7 258.9 264.7 272 281.6 297 316.9 334.8 347.7 357 359.8 359.7 359.2 359 360.2 361.7 364.9 369.8 373.4 376.4 378.4 377.9 374.5 372.7 370 365.6 360.6 355.5 349.2 342.9 337.3 335.7 337.2 338.7 336.2 333.4 330.5 327.9 326.3 324.9 323.5 322.2 319.3 314.9 315.7 321.6 327.4 333 338.1 347.1 352.9 356.3 357.7 357.5 358.4 358.7 359.4 360.6 362.1 365.4 370.2 373.7 376.8 378.8 380.2 380.4 381 379.2 378.6 376.3 373.4 369 367 364.5 363.9 363.2 362.5 361.9 360.2 358.4 356.7 354.6 352.9 351.8 350 347.6 346 346.2 346.7 348.9 348.2 346.4 344.4 343 341.8 341 337.5 336.8 337.4 337.8 337.7 338.2 338.7 339.4 340.1 340.8 340.3 338.8 336.5 333.2 329.9 327 324.2 321.4 319 319.2 319.3 319.1 318.9 318.7 317.7 315.9 313.4 310.6 307.4 296.7 280.6 293.6 295.3 294.1 289.7 273.4 275.9 262.7 288.9 300.6 304.7 307.5 310.8 313.4 315.5 315.8 315.2 314.5 313.9 313.2 312.6 311.8 311 310.5 310.5 310.5 310.6 310.6 312 311.1 311.2 311.5 311.8 312.1 311.6 311.1 310.5 310.4 311.1 312 313 313.6 313.5 312.9 312.4 311.1 308.9 305.1 300.5 296.6 292 286.8 281.6 278.4 275.2 272 268.5 263.6 260 257.2 256.3
269.2 265.7 259.7 255.9 252.4 248.2 243 238.5 238.1 240.1 239.5 243.3 244.8 248.6 252.3 256.9 265.1 274 289.7 306.5 322.8 336.4 347.8 352.9 357.7 359 361.3 362.3 363.8 366.1 370 372 373.8 374.5 375.2 373.7 372 369.1 364.9 359.9 355.2 350.5 344.4 338.9 334.9 332.7 333.3 331.4 330.7 325.9 325.1 324.1 322.7 321.3 320 318.6 315 315.2 320.9 327.1 332.8 338.5 345.1 350.2 353.4 353.7 352.8 353.6 354.7 355.5 355.9 357.1 361.3 367.1 371.5 374.3 376.3 378.4 379.3 379.7 380.2 378.6 378.2 376.2 372.3 370.3 367.7 365.8 364.9 363.7 362.4 360.9 359.5 357.7 355.6 353.1 351.2 350.1 348.6 348 349.1 350.3 350.7 349.6 348.7 347.7 346.3 345 342.2 340.1 340.2 340.8 341.4 341.7 341.7 342.3 342.8 343.2 343.4 343 341.4 339.1 336.8 334.2 330.9 327.6 324.6 322.5 321.2 319.6 318.6 318.4 318.2 317 315.1 311.6 307.6 296.3 288.7 298.3 299.6 297.8 290.5 290.8 293.9 290.7 269.2 281.8 297.5 304 307.2 310.6 312.9 314.8 315 315 314.7 314 313.4 312.2 311.9 311.7 311.5 311.4 311.5 311.5 311.8 311.5 311.5 310.8 310.9 311.2 311.5 312 311.5 310.9 308.5 309.2 308.6 309.5 310 310.5 310.4 309.8 308.5 307.4 305.4 301.3 297.4 293 289.3 286 283 279.6 276 271.1 265.9 262.7 260.9 261.6
278.2 269.8 263 256.9 253.3 252 248.4 245.9 239.3 236.9 238.3 238 241.3 243.7 247 250.6 256.8 264.6 278.1 292.7 307 323.2 336.3 348.9 354.8 359.3 362.4 364.3 366.4 369 371 370.8 370.8 369.4 369.2 368.7 368 365.8 361.7 358.3 353.4 349.5 345.3 340 334.8 331.9 330.1 329.4 331.3 332.2 330.3 328.6 325.4 322.2 318.1 315.9 314 315.5 320.8 328.7 333.9 338.8 342.9 346.8 349.5 348.6 348.6 348.6 349.3 350.1 350.1 352.2 355.3 360.9 367.3 371.6 373.5 375.4 376.7 378.1 378.9 379.5 378.7 377.9 375.4 372.6 370 367 365.5 364.1 362.8 361.1 359.8 358.5 356.2 353.9 352.2 351.1 349.6 350.4 351.2 352.4 352.5 351.8 351.1 351 349.4 346.4 344 343.1 343.4 344 344.3 344.5 344.6 344.4 345.3 345.2 344.5 343.5 341.6 339.7 338.2 336 333 329.7 326.7 325.1 323.2 321.2 319 317.9 315.7 313.4 307.7 303.6 297.5 300.9 303.4 303.5 300.6 296 298.2 301.2 300.8 296.7 279.8 277 295.9 304.9 307.9 310.7 312.3 313.9 314.3 314.2 314.1 314 313.9 313.7 313 312.8 312.6 312.5 312.5 312.7 313.1 312.8 314 313 312.7 312.1 312.4 312.4 312.1 310.6 308.9 307.4 305.4 305.9 306.4 306.8 307.3 307.2 306.2 305.2 304.6 300.8 298.9 296 293.7 290.1 285.1 281.9 277 273.2 268.3 264.3 263 265.1
287.2 277.6 268 261.7 255.8 252.7 251.6 249.4 246.8 242.1 236.9 237.4 237.2 240 242.5 244.2 247.6 253.7 261.5 274.5 290.6 308.3 325.3 342.4 353.2 359.5 362.9 363.7 367.2 370.9 373.6 370.4 368.4 366.3 364.8 364 363.5 361.1 358.1 355.5 351.7 347.8 344.1 339.3 334.9 332.7 333.1 336 337.9 337.4 335.4 332.4 329 324.9 319.9 315.6 313 314 320.9 327.8 335.5 338 341.3 343.7 345 342.8 341.9 342 342.7 343 344.3 346.8 349.4 354.7 362.5 367.9 370.4 372.1 373.7 375.1 376.9 377.8 378.4 378 376.2 374.1 371.1 368.1 366 364.6 363.2 361.4 360 358.4 357.2 355.5 353.8 352.1 351 353.3 354 353.8 354.1 354.1 352.8 352.8 351.1 348.8 346.5 346.2 346.2 346.1 346.3 346.4 346.4 345.8 344.2 345.1 343.8 342.4 340.6 338.9 337.8 336.3 334.2 330.9 327.9 325.9 323.9 321.4 319.3 315.7 310.6 302.7 305.3 307.7 307.8 309.2 305.7 303.8 301.1 302 304.5 305.5 305 302.2 291.3 274.7 284.3 297.7 308.3 311.9 312.5 312.3 313.7 314.8 315.2 315.6 316.4 316.3 315.5 314.4 313.7 313.6 313.6 314.1 314.5 316.1 317.9 317.4 315.5 313.8 312.9 313.6 312.6 311.3 309.5 307 304.6 302.4 302.4 302.9 303.6 304.3 304 303.8 304.5 302.7 300.6 299 296 292.1 287 281.6 276.7 271.9 267.9 264 263.1 264.8
298.3 288.2 280.5 268 261.9 257.5 253.1 251.9 251.2 249.6 246 239.1 237.2 235.6 237.7 239.6 240 245.6 252.9 260.3 273.5 292.5 315.3 335.4 349.9 359.1 360.7 361.3 363.9 366.8 368.7 368 365.9 363.9 362 360.7 359.4 357.6 355.6 352.4 349 345.6 342.1 338.6 335.7 336.3 336.9 338.3 339.3 339.4 337.6 334.9 330.6 326.4 322.3 318.7 313.7 312 318.8 325.5 333.1 335.5 337.3 339.1 337.7 338.9 336.7 337.1 336.8 337.2 338.4 341.2 345.3 348.6 357.3 363.7 366.4 368.6 370.1 371.6 373.7 375.6 376.3 376.8 376.5 374.5 371.6 369.1 367.3 365.6 363.8 362.5 361.2 360 358.9 357.2 355.5 353.8 352 353.2 353.6 354.3 354.7 354.6 354.5 353.6 352.2 351.3 349.1 348.8 348.4 347.9 347 346.4 345.8 345.1 344.4 342.9 341.8 340.9 339.2 337.2 336.5 335.5 333.4 331.4 329 326.7 323.9 319.9 315 308.1 307.9 314.2 314.4 313.6 312.3 309.9 305.7 305.4 305.6 306 307.6 308.7 307.8 306.1 303.3 295.1 281.3 285.5 301 310.4 312.8 311.9 313.7 315.7 316.8 317.3 318.6 318.3 318.1 317 315.9 314.9 315.3 315.8 317.9 319.9 321.7 320.6 319 317.3 315.3 314 313.1 311.5 309.5 307.4 305.1 302.4 299.8 300.1 300.7 301.1 303.1 303.9 304.7 303.8 302.2 299.7 296.2 292 286.3 280.5 275.6 270.4 265.8 261.5 261.3 263.5
297.3 296.1 290.8 275.9 267.8 261 257.2 257 255 251.6 250 242.3 241.4 237.8 237.4 236.1 236.1 239.2 243.9 251.6 260.1 276.3 298 323.4 342.4 350.8 354.9 357.1 358.4 359.3 362.1 364.9 363.6 363.2 363.7 359.9 357.6 355.4 352.7 349.8 346.9 344.2 341.5 339.4 339.8 340.4 341 341.2 340.5 340.1 339.3 337.1 334.2 331.3 327.4 324.5 320.7 314.3 310.9 314.5 322.9 331.9 334 335.7 335.6 332.7 330.8 331.4 335.1 335.7 334.5 336.8 340 344.1 351.1 358.4 362.2 364.9 366.6 368.1 370.4 372.9 374.1 374.9 375.8 375 372.5 370.1 368.5 366.9 365.6 364.4 363.1 361.8 360.5 358.4 356.1 353.9 351.7 352.6 354.4 354.8 355.2 354.8 355.7 354.8 353.3 352.4 351.6 349.6 347.6 347.5 345.8 345 344.2 343.4 342.2 340.8 339.8 338.9 337.9 335.8 334.7 333.6 332.6 330.6 328.6 326.1 322.6 317.2 309.9 312.1 317.1 316.8 315.8 314.7 311.5 309 308.4 309.4 308 308.3 309.9 311.2 310.3 308.6 306.9 305 298.5 283.6 291 302.9 309.3 311.5 313.6 315.6 317.6 319.1 320.1 319.5 320 319.8 318.7 318.4 318.2 318.3 320.1 322.8 324.7 323.5 322.3 320.8 318.9 317.2 315.3 312 308.8 306.9 304.8 301.8 298.9 298 298.4 299.9 301.7 302.5 303.3 302.9 301.9 299.8 295.7 291.4 285.6 279.8 274.5 269 263.7 259.4 258.7 260.7
295.7 294.6 289.7 282 277.6 270 263.6 260 256.1 252.6 249.3 250.4 248.5 241.1 242.8 242.8 235.3 234.2 238.5 243.4 250.8 259.7 282.8 310.5 328.8 338.5 344 347 351 351.8 355.7 359.5 362.7 364.9 367 364.8 359.8 356.2 353.5 350.4 347.9 346 344.9 343.8 344.4 344.8 345.4 344.2 343.5 341.9 340.8 339.5 339.6 340.1 336.5 334.5 331.6 327 315.5 311 309.9 319.7 329.6 331.3 332 328.8 326.2 326.3 327.7 329.3 331.9 335.2 336.9 341.1 346.1 353.2 358.9 361.6 363.4 364.8 366.7 369.3 371.2 372.6 373.4 373 372.7 371.3 369.6 368.8 368.5 367.7 366.5 365 362.1 359.9 357.9 355.7 353.5 354.6 354.2 355.2 355 355.8 356.6 355.8 355 353.8 352.5 350.7 348.4 345.8 344.5 343.7 342.4 341.1 339.8 338.7 337.7 336.6 335.8 334.7 333 331.7 330.7 329.7 327.7 325.3 320.1 311 317.3 319.1 319.2 318 316.7 314.6 311 311 311.5 310.5 309.5 309.9 311.5 311.9 311.7 311.1 309.2 307.1 296 295.9 300.4 296.8 300.9 308.4 312.8 314.8 317 318.9 319.9 319.8 320.9 321.9 321.5 321.8 322.1 321.4 322.3 324.2 326.2 325.8 324.2 322.4 320.6 318.7 316.3 313 310.4 306.3 304.2 301.4 298.4 296.7 297 298.9 300.7 301.3 301.9 302.1 301.8 300.3 296.1 291.4 285.4 279.4 273.4 267.9 262.5 257.9 255 257.2
298.9 296.4 291.6 290.5 287.1 279.7 271.1 263.5 259.9 256.5 253.1 251.1 247.4 243.9 249.6 253.2 248.9 241.3 234.9 236.5 242.4 250.7 266.6 293.7 309.3 319.5 327 334.3 340 344.5 350.5 356 361.3 365.6 370.9 373.5 370.8 363.1 356.8 353 350.9 349.8 348.6 348 348.5 349.1 349.6 348.1 346 344.6 342.8 342.6 344.4 344.9 344.4 343.3 344.1 342.2 331.2 322.3 312.2 308.9 317.8 326.3 326.9 326.2 322.4 321.4 323.3 328.9 331.2 333 334.7 338.2 342.8 350.6 355.7 358.6 360.3 361.4 363.1 365.5 367.6 369 369.6 369.3 369.7 371 371.2 370.7 370.2 370.2 369.8 368.2 363.9 360.9 359.2 357.4 355.6 355.2 354.3 355.4 356 357.1 357.6 356.8 355.9 354.3 352.7 350.3 347.3 344.5 342.8 341.5 340.3 339.1 337.9 336.7 335 334.2 333.7 333.2 332.8 331.8 329.8 328.1 326.6 321.8 315.4 319.5 321.4 321.4 320.4 319.4 317.7 313.9 313.1 314.1 314.2 313.2 311.6 311.2 312.1 312.7 312.8 312.3 310.1 304 292.3 305.9 308.3 307.7 302.8 302.5 307.4 311.7 315.3 317.1 318.8 320.2 321.6 323 324.1 324.6 323.8 323.7 324.2 324.2 325.7 326.1 324.7 322.8 321.1 318.8 316.3 313.6 310.2 305.9 303.7 301.7 297.8 296.1 295.5 297.5 298.4 299.2 299.8 300.8 301.4 301 297 291.4 285.5 279.5 273.1 265.5 259.6 255.1 252.4 254.5
305.6 302.4 299.3 296.7 290.5 285.1 279 271.6 265.6 262 257.1 253.8 249.4 246.1 253.4 256.8 257.1 250.9 241.2 234.1 236.3 241.1 248.9 266.3 283 296.5 306.6 317 323.9 330.7 342 353.2 362 368.2 372.3 376.3 375.6 371 365.7 359.1 355.2 354.2 354.2 352.2 353.3 354.5 354.6 354.5 352 348.7 345.8 345.6 347.6 351.1 353 354.6 356.8 353.9 343.2 333.5 324.4 312.6 308.6 317.2 323 322.7 319.1 316.2 319.6 324.8 328.7 330.7 332.4 335.2 340 346.5 352 355.6 356.5 357.6 359.6 361.9 364 364.5 365 365.9 367 368.4 370.4 371.3 371.6 372.5 372.6 370 365.7 362.7 360 358.5 356.7 355.5 355.9 357.3 357.8 358.9 358.9 358 356.5 354.9 353.1 350.8 347.4 344.2 341.1 339.6 338.3 337.1 336 335 334.7 332.7 332.1 332.1 333.1 331.5 329.7 327.5 324.6 319.7 317.8 323.1 323.6 323 322 320.2 316.8 314.8 316.2 317.2 316.1 314.5 312.8 313 314.1 314.2 313.7 312.3 308.2 299.7 299.6 309.5 311.5 311.4 310.4 307.8 306.5 307.5 311 313.7 316 320.3 322.8 324.4 325.5 325.2 325 325.8 326.2 326.1 326.3 326.1 324.8 322.9 320.7 317.9 315.3 313.3 309.9 310.1 306.9 304.8 298.2 293.9 292.7 294 294.9 295.7 296.6 299.3 300.8 301.5 297.3 291.5 285.5 279 271.8 261.3 255 250.3 248.4 253.1
316.2 319.9 312.3 305.3 299.5 289.5 287.3 279.9 275.4 268.8 263.5 255.9 254.6 250.7 250 255.3 260.1 259.5 252.4 241 234.2 236.8 240.9 247.2 258.9 272 283.1 293.5 303.1 316.8 335.9 350.7 360.1 369.9 373.7 377.3 376.8 373.9 370.7 363.6 359.9 358.4 358.3 356.6 357.8 359.5 360.9 360.6 357.9 354 350.1 347.8 351.2 355 358.5 362.5 368.2 359.7 350.3 340.8 331.3 320.7 311.2 307.4 315.1 318.5 314.8 313.1 316.2 320.2 323.7 326.6 328.6 331.6 335.6 341.7 346.5 351.2 351.8 354.2 356.6 358.9 360.2 360.7 360.6 359.6 361.3 364.2 367 369.6 371.9 373.5 373.1 371 367.4 363.5 359.9 358.2 356.4 356 357.3 358.6 359.9 360 359.6 358.4 357 355.3 352.9 348.9 345.7 343.2 341.4 338.8 336.7 335.4 334.5 333.7 333.3 331.6 330.3 330.2 331.1 330.1 328.3 325.1 320.5 317.6 320.1 324.8 325.1 324.2 323.1 320.2 317.3 318.1 318.3 318.8 317.9 316 314.2 315.2 315.8 315.1 314 310.3 303.6 295.8 298.3 310.7 312.9 313.6 313.8 313.2 312.1 308.5 307.9 311.2 315.2 319.9 323 324.8 325.6 326.1 325.9 327.2 328.4 328 327 326.2 325.1 322.7 320 317.1 315.4 312.3 310.8 311.3 309.7 300.4 296.5 293.2 288.9 289.4 291 291.6 292.9 297.1 298.8 299.3 296.1 291.4 284.2 277.7 268.4 256.1 247.8 242.9 245 250.5
330 330.6 325.9 318.2 309.4 303.8 297.1 289.1 284.2 278.6 268.9 261.7 258.3 255.9 254.1 255.3 260.3 260.7 258.8 251.6 239.8 232.9 236.7 239.9 245.5 252.6 261.6 270.1 284.8 304.6 325 345.2 360.1 371.5 374.8 377.7 377.3 375.4 373.7 372.3 370.6 368.4 367.2 363.6 363 364.4 366.2 365.4 362.8 357.8 353.4 350.4 352.4 356.7 361 365.1 369.1 362.6 354.7 345.4 335.1 325.7 318 307.7 306.9 309.7 309.8 308.6 310.6 315.1 318.6 321.2 324.6 328.5 333.2 337.3 342.9 346 347.8 351.1 353.6 355.4 356.5 357.1 356.7 355.6 356.4 357 359.8 366.1 369.7 372.4 372.6 369.8 366.2 361.5 358.6 356.8 356.3 356.8 358.3 359.7 360.7 360.4 359.5 358.5 357 354.8 351 348.5 346.8 345.1 342.2 339.5 337.3 335.3 333.5 332.4 331.9 328.5 328.9 329.1 326.9 325.5 323.2 322.2 323.7 322.8 323.1 325.7 326.6 325.4 322.9 320.1 320.7 321.2 319.9 319.7 318.6 317.1 316.5 316.9 316.6 315.6 313.5 305.9 302.6 306.2 300.8 307.6 312.1 314.2 316.4 315.8 315.3 313.2 311 310.3 314.5 319.4 323.1 324.9 325.6 326.6 326.8 328.4 329.4 329.2 326.1 324.4 323.6 321.7 318.3 314.6 311.9 310.7 305.5 302.8 302.6 298.9 295.3 292 286.4 284.3 286.7 287.3 288.2 291.1 293.5 293.9 292.4 288.7 282.1 271.3 259.8 250.1 240.7 235.8 241.8 245.2
337.7 339.2 334.8 328.4 320.8 320.1 316.6 306.8 297.7 288.7 277.6 270.5 264.8 261.1 258.2 258.2 259.6 258.7 258.8 257.1 253.2 239.4 233.8 235 238.5 243.4 251.2 259.3 273.2 293.8 315.6 337.8 359.3 369.2 374.5 376.3 376 377.4 375.8 376.5 376 377.9 377.7 375.9 374 370.2 369.7 367.9 364.3 360.2 354.8 352.4 354.3 357.2 360.3 362.9 365.5 362.8 356.4 348.5 337.3 328.6 321.7 315.3 309.7 305.9 305.7 304 304.1 308.1 311.8 315.3 319 324.4 329.1 333.2 337.8 340.8 343.4 346.9 350.2 351.9 352.8 353.6 352.7 351.8 352.7 355.2 358.5 362.5 366.7 369.9 370.2 367.7 364 359.5 356.8 354.8 356 357.1 358.8 360.5 361.3 360.9 359.8 358.6 355.7 353 352.4 352 349.3 345.8 342.9 340.1 338 335.9 334 334.4 333.2 332.3 329.7 327.9 326.9 327.2 327.6 328.6 327.1 324.4 325.6 328.2 328.1 325.5 322.5 322.7 323.8 322.7 321.3 320.3 319.4 318.2 318.9 318.3 317.1 315.2 310.9 303.3 309.6 310.3 304.2 309.5 312.6 313.9 316.3 317.5 317.1 315.5 313.4 311.4 313.9 318.5 322.6 324.8 325.7 326.6 327.6 329.1 329 327.4 325 323.2 320 318.1 316.7 313.9 310.1 306.1 301.3 298.6 296.9 296 293.2 291.5 287 281 281.9 282.6 283 285.2 287.5 287.7 287.8 285.6 276.1 263 253.2 244.2 235.7 229.8 229.6 233.8
342.7 342.6 340.5 337 333.1 331.7 327.4 323.8 316.7 305 291.5 281.5 274.4 265.9 262.3 260.2 258.7 256.9 254.6 254 254.1 251.1 242.6 233 234 237.9 243.6 251.8 265.6 290.7 313.3 331.7 352.5 366.5 372.2 374.2 374.9 376.6 379.4 380.3 381.1 384.6 385.6 385.6 379.9 376.4 371.8 368.3 364.4 360.4 355.6 352.7 355.2 357.2 358.7 359.9 362.1 361.2 356.3 349.4 341.2 331.5 325.4 321.2 319.2 316.5 314.6 310.6 304.4 303.3 305.9 309.4 313.1 317.7 322.9 327 330.4 336.9 339 343.2 346.5 348.2 348.9 349.4 347.9 347 350.5 353.8 355.1 358.9 362.6 366.1 367 364.6 361.4 357.4 354.5 352.2 354.4 355.9 357.9 359.8 361.1 361.1 359.9 358.7 355.9 356 356 354.3 350.1 346.6 343.7 340.8 338.6 336.5 335.9 336.8 336.5 334 331.4 330.4 329.6 330.4 330.3 329.9 329.2 326.3 328.1 330.2 328.6 326.1 324.8 325.1 326 324.5 323.1 321.8 320.6 319.3 318.3 317.2 314.6 311.1 307.7 305.8 312.4 312.2 308.3 309.1 313.3 314.5 315.8 317.7 318.3 317 315.4 313.5 313.5 316.7 320.1 322.4 323.3 323.9 325.6 326.8 326 324.4 322.8 319.9 317 316.5 314.8 311.8 307.9 303.7 299 295 293.8 293 291.6 289.1 286.5 282.1 276.8 277.2 277.9 279.8 281.2 282.4 282.4 279.3 268.8 255.7 247.9 239.7 232.3 225.2 221.5 223.7
342.6 343.8 343.2 340.7 339.2 337.8 335 332.4 329 322.7 309.8 294.9 281.5 272.2 265.7 263.7 259.4 256.1 252.9 250.6 250.2 250.4 247.9 241.1 235.1 231.6 237.6 245.3 262.6 290.1 306.2 322.4 344.1 358.3 366.4 372 375.1 378.1 381.8 384.6 387.1 389.4 390.2 389.3 382 376.8 372.5 368.4 364.5 360.5 356.6 353.7 355.8 357 357.8 358.1 358.7 357.7 355.7 350.6 343.6 335.9 330.5 326.2 323.6 321.3 318.9 314.9 309.8 303.4 302 302.7 305.5 311.5 316.3 319.1 322.6 329.2 334.5 338.6 338.2 342.8 344.3 344.4 342.3 344.3 348.7 350.3 350.8 353.5 357.1 361.2 362.4 361.2 358.2 354.9 352.2 351.1 354 355.8 357.4 359.2 360.6 360.9 360.2 358.9 357.2 358 357.7 355.7 351.2 347.3 344.4 341.7 339.5 338.5 338.1 338.1 337.7 334.3 333.6 333.5 332.8 332.8 332.6 332.1 331.2 328.7 330.5 331.1 329 327.1 327.8 328.1 328 326.5 325.2 323.9 322.6 321.3 319.3 315.8 312.4 310.8 310.8 313.3 313.6 313.7 311.4 309.5 313.4 315.7 317 318.4 319.6 318.4 317 315.4 314.5 315.6 317.5 319.8 321.3 322.5 323.7 323.3 322.6 321.2 319.6 316.7 314.5 314.2 312.8 309.5 306.6 303.3 299 294.5 290.7 290.1 289 286.7 284.2 281.4 275.1 271.2 270.6 273.5 274.5 275.3 274.9 269.3 261.3 250.6 244.9 237 230.3 223.1 215 213.4
341 342.9 343.3 342 342.4 342.3 340.8 339 335 330.3 321.8 308.3 292.6 280.2 269.7 266.3 260.6 255.9 252.4 249.1 247 245.6 246.2 242.8 238.4 233.8 232.3 240.4 256.3 270.6 296 316.5 332.9 346 355.9 366.1 371.5 380 384.2 390.7 392.7 394.1 394.6 390.1 384.8 377.1 372.3 368.2 364.3 360.4 356.6 355.4 355.7 355.8 356.6 357.3 357.5 356.3 354.8 352.5 345.6 341 336.8 332.6 328.6 325.6 322.9 319.4 314.5 308.6 302.8 301.8 301.8 305.6 310.6 311.3 316.6 321.4 327.2 332.4 335.8 336.7 336.7 337.4 336.3 339.6 343.5 345.8 346.1 348.4 351.7 355.3 357.6 356.5 355.1 352 348.9 348.7 351.1 354 357 358.5 359.7 360.5 360.7 359.9 359.1 360 359.1 356.9 353 349.7 346.8 344.1 342 341.2 340.7 340.2 337.3 337.5 337.1 336.7 336.1 335.5 334.9 334.1 333 332.1 332.2 332.3 329.2 329.9 331.4 333.1 333.1 332.6 330.2 328 326.1 323.9 320.9 319 317.4 316.9 319.2 319.3 319.7 319.5 318.1 314.2 316.1 318.5 319.9 321.1 321.1 321.3 319.9 318.3 318.1 318.4 318.4 320.4 321 320.2 321.2 320.3 319.7 318.4 317.6 315 312.8 310.3 308.2 307 304.5 301.8 298.9 294.5 290.6 287 285.6 282.9 279.8 276.1 271.6 268.5 264.8 260.6 261.1 263.4 264.7 259.2 253.9 248 241.2 234.9 229 222.2 215.1 199.6
339.8 341.3 341.7 341.5 341.2 340.3 340 338.2 338.4 334 328 319.1 301 284.7 276 267.6 263 257.6 252.2 248.6 246 243 243 240.3 237.2 233.6 232.6 239.2 253.2 262.4 282.3 306.4 320.6 332.7 344.2 356.3 366.4 373.7 380.5 387.3 390.8 393.2 391.5 387.8 381.1 376.7 372.1 367.9 364 360.1 356.1 354.8 355.2 354.8 355.9 357.6 359 357.4 355.7 353.7 350.4 346.3 341.5 337.2 332.6 329.7 326.7 322.9 318.7 313.5 308.3 303.7 300.8 299.9 303 305.7 309.6 314.3 319.6 325.9 330.3 331.2 331 331.2 331.4 332.6 337 338 340.4 342.9 345.1 348.5 352.7 353.3 351.5 349.2 346.4 346.2 348.3 351 354.9 359.1 361.2 362 361.3 361.3 361.3 361.7 360.5 359.3 356.8 354 351 348 345.3 344 343.4 342.9 339.5 340.1 341.8 341.7 340.8 339.3 338.3 337.4 336.6 335.2 335 335.1 332.8 335.2 337.7 338.3 338.9 337.6 335.5 333.7 332.4 330.4 327.9 322.2 318.1 323.1 323.4 322.1 321.9 323.2 320.6 315.8 319.5 321.4 322.5 322.6 322.7 323.8 322.9 322.6 322.4 322.2 321.1 320.7 320.7 320.6 319.1 318.3 317.9 318 316.8 314.7 312.9 311 307.4 303.7 301.7 300 297.1 294.2 289.7 287.9 285.7 283.6 281.5 279.5 279 276 272.5 269 261.1 250.5 248.4 249.1 249.6 244.4 238.9 232.7 227.3 222.2 215.3 203.3
337.5 338.7 339 339.4 338.1 336.6 337.4 337.6 338 337 332.1 323.1 311.2 291.9 280.4 269.6 263.1 259.1 253.4 248.4 245.4 242.9 239.4 237.7 234.7 232.7 233.9 247.8 261.4 264.8 276.4 298.3 309.3 319.9 331.3 342.2 354.1 362.8 371.4 379 383.8 386.1 386.9 383.1 379.9 375.9 371.1 366.9 363.3 359.5 355.5 353.5 354 353.8 355.9 359.3 361.5 359.5 357.1 355.4 351.5 348.5 344 339.4 334.8 331.2 328.4 325.2 321.4 317.4 316.1 313.6 308.3 302 299.2 300 304 308.6 313.4 320.4 325.4 326 326.9 326.9 326.9 327.8 329.1 331.6 335.1 337.8 340.1 341.9 347.3 350 348 346.6 344.3 344.1 347.6 350.2 354 357.9 360.8 361.6 362.4 362.5 363.6 363.5 362.9 362.4 360.3 359.3 356.5 353.4 350.4 348.2 346.8 344.6 341.8 344.8 345.6 346.4 345.1 343.7 343.6 343.1 342.5 339.2 338.2 338.6 336.4 339.4 341.7 343 342.5 341.4 339.6 338.1 336.5 335.9 332.4 324.7 323.2 328.7 329.2 329.1 327.9 326 324.8 319.4 321 324 324.2 324.4 324.7 324.9 325.5 325.5 325.4 324.7 323 321.8 320.5 319.9 318.9 318.5 317.7 317.2 315.6 314.8 313 311.1 308.8 304.9 301.8 299.2 296.2 293.1 291.8 290.5 290 288 285.5 284.4 283 279.9 275.6 272.9 268 262.1 253.8 240.3 238.6 239.4 234.8 230.9 225.5 219.5 213 201.6
334.3 336.3 336.9 337 334.2 333.4 332.8 333.6 338 338.7 334.3 325.7 318.6 300.5 287.3 274.9 264.1 259.2 255.2 249.8 244.3 242.1 239.7 237.3 234.3 230.6 236.6 255 258.1 257.9 268.6 291.9 300.2 309.6 318.2 331 342.1 350.8 359.3 367 373.1 377.8 379.3 379.9 377.7 373.8 369.2 365.2 361.6 358 354.4 351.2 351.3 352.7 356.1 359.6 362.9 361.2 357.3 354.5 351.5 348.1 344.6 340.5 335.9 332.3 329.6 326.4 322.9 320.1 318.7 317.4 314.7 308.8 301.2 298.9 299.6 304.4 310.3 316 320.2 322.1 323.2 323.6 323.3 323.7 324.7 327 329.1 331.2 333.5 338.3 341.7 345.6 345.9 344.7 341 342.7 347.4 350.9 353.5 356.5 359.3 360.9 361.6 363.2 364.8 365.3 365.1 364.7 364.6 363.7 361.8 358.5 355.3 352.9 350.5 345.9 346.3 348.5 349.4 350.1 350 348.6 348.8 348.5 346.7 343.3 341.1 340.9 339.5 341.7 344 345.2 344.8 344 342.3 341 339.6 338.2 334.4 325.9 327.5 333.3 333.3 333.2 331.5 329.7 327.7 324.8 322.1 323.9 326.4 327.5 327.1 326.7 326.8 327 327.3 325.5 323.8 322.2 321.3 319.7 318.9 317.5 316.3 314.5 314.1 313.3 313 311.4 310.4 306.6 303.4 300.4 297.1 295.1 293.5 291.6 289.7 287.9 286.7 285 283 280.7 276.8 271.6 265.6 259.6 254.2 248 234.6 227.2 228.7 225.8 222.5 216.7 211.2 191.1
331.4 334.1 334.8 333.5 331.9 330.5 330.2 331.2 334.4 336.2 335.3 331.4 324.2 316.8 305.2 284.8 270.2 263.2 258 251.8 243.5 239.7 237.3 236.4 234.1 230.9 242.5 249.8 250.4 251.6 266.9 287.3 296.4 302.4 309.5 319.6 330.8 339.9 347.5 355 361.5 367.4 373 374.4 373.7 371.3 367.3 363.4 359.9 356.2 353.4 350.2 347.4 350.8 354.2 357.5 359.1 358.9 356.6 353.5 350.4 346.9 343.4 340.1 336.6 332.8 329.1 326.2 323.2 320.4 318.1 317 314.7 310.8 302.5 298.6 298.9 302.9 308 311.7 314.5 316.8 319.3 320.2 319.6 319.8 321.7 323.5 325.1 327 329 333.5 338.1 341.5 342.4 341.4 339.4 342.4 346.7 350.4 352.9 355.1 357.6 359.5 360.8 363.2 365.2 366.1 367 366.6 366.9 366.6 365 362 359 355.6 351.9 348.3 350.8 352.3 353.3 353.9 354.4 353.6 353.5 352.6 350 346.9 344.7 343.5 342.2 344.1 346.2 346.7 346.4 345.4 344 342.8 341.6 340.2 335.8 327.6 330.9 336.7 337 336.5 334.8 332.1 329.6 327.5 325.8 324.2 325.6 327.2 327.5 327.8 328.1 328.3 328.2 326.8 325 323.1 321 319.2 319.4 318.9 318 315.6 312.9 311.3 311.4 311.7 311 308.3 305.1 302.5 297.9 295.3 292.7 290.7 288.6 286 285.1 283.2 281 278.9 274.1 267.5 261 255 250 245 237.5 228.5 217 214.1 211.5 208.1 199 175.3
326.9 330.8 331.7 330.5 329.4 327.7 328.4 329.2 330.6 332.6 334.4 334.1 329.9 323.3 315.5 296 280.8 267.3 261.6 254 245.8 240.9 239.8 236.8 232 232.6 240.5 244.5 243.3 250 266.4 285.6 295.9 301 304.8 309.9 318.8 327.5 335 341.5 350.2 356.4 362.6 365.4 366.7 366.9 364.8 361.5 358.1 355.4 352.8 349.2 344.3 347.9 351.7 354.4 356.1 356 353.5 351.6 348.8 345.6 342.2 338.7 335.1 331.7 328.6 325.5 321.4 318.8 315 313.3 310.6 305.8 300.5 297.9 298.5 301.8 305.1 307.4 308.8 311.5 313.9 315.3 315.6 316.9 319.3 321.4 323.4 325.5 327.7 331.1 337.3 338.5 339 337.7 337.9 342.7 346.4 350.2 352.5 354.1 355.7 357.8 359.4 363.6 365.6 366.8 367.9 368.5 368.6 368.3 366.8 364.1 361.4 357.5 353.1 351.7 355.4 356.3 357 357.6 358.2 358.4 357.2 355.5 353 350.3 347.8 345.4 344.8 346.5 347.2 347.5 346.3 346.1 345.8 344.2 342.2 340.3 336 327.9 335.2 338.6 338.9 339.1 336.6 333.9 332.2 330.5 328.8 327.1 327.1 328 328.5 329 329.3 329.4 329.1 328.2 326.4 324.6 322.5 319.6 318.5 317.7 317.3 315.5 312.4 308.7 309.7 310.5 310.8 310 306.8 303.3 299.4 295.7 292.3 288.2 285 283.9 282.1 279.5 277.6 274.5 270.3 263.4 256.4 250.4 245.4 240.5 234.3 228.8 220.9 208.8 196.4 182.1 169.7 159.5
326.1 329.3 328 328.1 327 324.4 325 325.2 325.8 327.9 331.1 332.8 332.9 328.3 316.7 300.9 292 274.2 265.2 258.3 251.4 245 240.2 236.5 232.4 230.3 235.3 239.5 241.1 247.5 264.1 284.5 298.3 301.9 303.1 305.1 309.3 317.7 324.3 330.4 336 344.1 350.3 354.2 355.9 357.4 356.1 357.9 356.3 354.3 351.8 348 343 343.3 348.4 351.1 353 353.2 351.3 349.7 346.9 344.2 341.3 335.3 331.4 326.1 322.3 321.1 319.8 318 314.3 309 306.9 298 298.6 298.4 299.6 300.5 301.1 303.3 305.2 306.6 309.4 313.2 316.8 319.9 322.3 323 324.4 326.2 328.1 330.2 333.5 336.3 335.6 335.9 339.2 342.5 346 348.7 350.8 352.6 354.2 355.6 357.4 362.1 365.1 366.6 368.2 368.9 370.1 369.8 368.6 365.8 362.9 359.4 354.4 355.4 359.2 362 362.5 363 362.9 362.1 360.4 358.3 355.4 352.7 350.1 347.7 347.6 347.5 348 347.5 346.3 345.3 345.3 344.2 342.3 340.5 335.2 330.7 338.6 340.8 341.4 341.2 339.7 337 335.2 333.5 331.8 330 329.3 328.9 329.3 329.8 330.7 330.6 329.9 329.5 327.9 326.3 323.1 320.4 318.3 316.6 315.7 315 310.9 309.3 308.3 309.2 309.5 308.7 307.3 304.6 301.6 297.9 294.6 289.8 284.1 280.7 278.3 275.6 272.8 268.4 265.2 258.6 252 245.8 240.9 235.1 230.4 226.4 221.4 216.6 212.2 204.5 175 158.4
321.1 323.1 324.6 321.7 321.6 319.8 320.6 321.3 321.1 323.9 327.8 329.5 331.6 330.5 326.1 320.4 307.3 289.5 277 262.5 256.5 249.2 241.7 237.4 232.4 231 230.1 233.7 240.5 246.3 255.8 277.1 293.2 298.6 298 300.5 304.3 309.2 315.3 320.1 325.6 331.4 334.3 337.9 342.1 345.6 347.5 348.9 351.2 350.5 349.2 346.9 341.5 337.9 343.9 347.3 350.1 350.5 349 347.6 346.3 343.9 341 336.5 329 320.7 316.7 315.3 317.1 316.8 313.7 308.5 300.7 297.4 313.9 311.1 307.9 304.5 301.4 302.4 303.6 307.9 313.6 317.8 321 324 325.3 325.8 327.2 328.3 329 330.6 331 337.5 333.2 334.8 337.5 341.1 344 346.8 349 350.4 351.3 352.9 355.1 358.5 362.6 365.3 367.7 369.3 370.6 371.3 370.3 367.5 364.5 361 357.1 359.2 362.6 365.5 368.3 368.2 367.2 366.3 364.4 362.1 359 356.2 353.4 351.2 350.6 349.2 348.6 347.7 346.4 345 343.7 341.4 341.2 339.1 333.5 333.6 339.9 342.1 343.5 343.2 342.9 340.3 338.2 336.5 335 333.6 332.1 330.9 331.1 331.4 332.3 332.2 331.8 331 331.5 329.8 326.5 323.1 319.7 316.9 314.3 312.5 311.4 310.3 308.5 307.7 308 307.2 305.9 304.5 302.4 300.8 298.2 290.2 283.3 277 272.9 269.5 265.8 263.2 260 254.4 247.4 241.6 236.1 231 226.7 222.8 219.6 215.6 213.1 198.4 166.5 158.6
313.6 315.3 317.2 317.2 314.9 313.1 313.7 316.3 318 320.6 324.5 326.8 328.7 330.2 328 324 316.4 297.9 288.3 268.4 258.3 249.9 244.6 239 234.6 232.4 230.2 232.8 238.2 245.5 252.1 264.5 276.3 285.4 288.8 293.9 299.7 305.2 308.9 311.5 314.6 318.4 322.4 326.4 329.2 332.7 334.6 339.8 342.3 342.9 342.5 341.9 337.1 332.4 339.5 343.1 346.1 347.7 346.6 346 344.9 343.6 341.8 338.6 331.5 320.2 313.4 311.6 311.8 312.7 310.8 304.4 296.9 306.6 321.5 319.1 316.4 314.5 311 306.7 304.4 305.5 310 318 321.7 324.6 325.9 327.2 327.8 328.5 329.2 328.9 329.1 333.3 332.5 334.3 336.9 338.8 341.6 344.7 346.5 347.2 348.8 350.7 353.1 356 359.8 365.1 367.4 369.8 371.1 371.4 371.7 369.7 366.5 364.5 361.7 361.8 365.8 369.1 371.4 371.3 371.3 370.2 368.6 366 363.3 360.2 357.2 354.9 353 351.6 350.1 348.4 347 345.7 344.4 342.8 341 337.9 334.4 335.5 339.9 342.9 344.2 344.9 344.9 343.6 341.2 340.2 339.5 337.9 336.4 334.9 334.1 333.1 334 333.8 333.5 332.9 332.8 331.7 329.5 325.6 321.2 318 315.4 312.1 309.4 308.9 306.8 305.6 306.6 305.8 304.5 303.2 301.6 300.2 299.5 291.5 284.2 277.4 271 265.1 260.2 258.6 254.7 248.8 243.1 237.6 232.2 227.4 223 219.3 216.2 213.4 209.1 185.6 159.1 174.3
305.8 307.9 310.1 310.1 307 305.2 308.1 310.7 313.2 316.7 320.2 323.3 325.9 327.8 329.5 325.7 320 312 296 282.8 266.5 256.2 248.3 242 237.2 234.2 232.3 231.3 235.2 241.9 248 253.6 258.1 263.1 269.1 279.6 293.1 302.2 304.4 306.6 308.9 311.1 312.8 313.9 316.3 318.6 322.6 327.6 329.4 331 331.3 331.3 329 326.7 331.9 335.5 340.7 342.9 343.4 343.4 344 344.1 343.9 341.2 336.8 327.9 316.1 311.7 307.7 304.3 303.2 299.1 302.7 315.8 319.5 319.5 318 317.6 316.9 315.9 315.3 309.4 307.3 310.4 316.1 320.6 324.2 325.5 326.1 326.8 327.5 326.8 328.4 331.7 334.4 335.8 337.8 339.1 340.4 342.2 344 345.9 348 350.3 352.8 355.4 358.5 363.6 367.3 369.6 371.2 371.6 371.8 371.7 369.3 366.9 365.9 365.2 368.1 371.4 373.2 374.9 374.4 373.4 372.7 369.8 367 364.6 361 358.5 356.1 353.6 352.1 350.4 348.6 346.9 345.1 343.9 341.6 338.6 335.2 335.8 338.8 341.5 344.1 346 346.6 346.7 344.8 344.2 343.6 342.1 340.5 338.8 337.1 335.9 335.6 335.4 335.1 334.8 333.6 332.1 330.2 328.1 324 320.5 316.9 313 309.3 307.5 305.6 303.7 304.6 304.2 302.9 301.5 297.5 296.3 296.8 292.1 285.1 277.3 270.2 263.1 257.1 251.8 246.7 242.3 238.1 233.6 228.4 224.8 220.5 216.1 212.5 207.6 198.3 173.5 161.2 193.5
297.8 299.8 301.7 301.2 299.1 298.8 301.6 304.3 309 313.3 318 320.9 323.1 325.1 327.5 328.1 322.2 314.6 306.3 298.2 275.1 263.1 254.6 244.3 239.5 236.1 233.6 231.2 230.3 235.7 241.5 246.5 250.2 253.5 256.5 266.2 282.5 295.5 302.1 303.8 305.3 306.9 307.5 308.6 309.5 310.9 312.7 314.6 320.3 319.1 319.5 319.7 319.7 321.4 323.1 325.5 328.9 333.1 338.4 340.4 341.6 344.4 345.7 343.8 340.4 335.5 327.2 313.5 310 308.6 302.6 294.5 302.9 312 316.2 317.8 319.1 319.9 320 320 320.2 318.4 313.7 311.5 310.6 314.9 319.6 322.2 322.3 323 323.1 327.9 330.8 333.3 337.3 337 338.6 340.5 341.4 343.2 345.3 347.5 349.6 351.7 354.1 356.6 358.9 362.9 367.2 369.2 370.9 371.4 372.5 372.7 372.1 368.4 368 368.8 369.3 371.7 372.9 374.2 375.1 375.3 374.6 373.2 370.8 368.3 365.4 361.8 359.1 356.4 354.4 352.4 350.7 348.7 346.7 344.6 342.3 340 337.7 337.2 339.8 342.4 345 347.8 349.1 349.5 348 346.6 346.4 345.1 343.5 341.2 339 338.1 336.8 335.8 334.9 334.8 334.1 332.5 330.5 329 325.9 321.8 318.2 313.9 309.9 307.4 305.7 302.7 302.1 302 300.2 297 293.7 290.1 295.8 293.1 283.4 275.3 268.2 261 255.1 248.7 242.7 236.7 232.5 229.7 225 221.5 218.4 214.4 210.3 206.2 196.8 167 168.8 204.4
288.4 291.9 292.9 294.2 294.1 293 295.1 301.6 307.3 312.2 315.9 318.8 320.4 322.6 325.5 327.6 325.4 318.9 309.6 295.6 278.6 269.2 255.6 247.3 242.5 240.6 237 231.7 229.1 231.5 235 239.8 243.4 244.8 249.8 258.8 264.6 285.1 296.2 300.9 302.7 304.1 304.7 304.9 305 305.9 307 308.8 312.1 312.7 313.9 315.1 316.6 318.3 321.2 322.3 323.9 326.6 328.4 331 337.5 341.1 343.2 343.5 341.3 339.1 335.4 329.4 322.6 317.7 307.5 294.1 293.5 307.7 312.9 317.3 320.4 321.6 321.3 321.1 321 321.4 321.2 319 316.2 314.1 314.1 315.5 317.5 319.9 325.9 328.6 331.1 333.6 336.9 338 339.6 341.8 342.7 344.9 347.1 349.3 351.3 353.3 355.5 357.9 360 363.3 365.7 366.9 368.2 369.7 371.2 372.3 372.5 370.7 369.9 369.3 369.3 370.9 371.6 373.9 374.8 375.4 375.4 375.1 373.3 371.1 368.5 365.3 362.7 360.4 358.2 356 353.4 350.5 348.4 346.9 343.4 341.1 339.8 339.9 340.8 343.3 346.2 349.3 351.1 351.8 350.3 348.9 348 346.6 344.2 341.7 339.2 338.2 337 335.8 334.6 334.6 334.6 333 330.6 329.7 326.5 323.3 319.5 314.8 310.8 307.5 305.9 303.3 300.3 299.4 298.1 298.8 297.9 291.8 285.9 289.7 281.1 273.3 265.3 259 252.1 245.6 240.5 234.6 228.5 223.9 220.8 218 215 213.5 210.8 206.6 198.6 167.6 175.5 210.6
282.4 284.1 285.9 287.1 287.5 284.7 293.4 301.4 306.7 311.5 314.3 316.7 318.2 320.4 322.3 324.7 326.4 320.1 314.1 307.6 300 286.8 267.8 253.3 247.3 242.3 239.3 236.5 231.3 229.2 228.5 233.9 237.6 239.5 245.7 250.4 259 274.6 291.4 296.6 300.1 300.9 303 303 302.3 304.8 308.3 310.2 311.3 312.8 315.2 316.3 318.1 319.7 320.6 321.6 322.3 323.6 324.4 324.9 325.8 329.7 335.4 338 339 338.5 336.7 333.2 329.6 322.5 310.2 299.9 292.7 304.1 312.3 317.3 320.4 321 321.3 321.3 323 323.6 323.9 325.5 326 326.3 323.1 319.8 319.4 319.7 322.9 326 330.4 333 336.6 339.4 341.2 343 345.6 346.6 348.6 350.3 352.3 354.4 356.5 358.9 359.6 361.8 363.1 365.1 366.6 368 369.9 371 371.2 370.8 370.2 370 369.7 369.6 370.4 373.2 374.5 375.2 375.3 375 374.3 372.3 370.4 368.9 366.9 364.6 362.2 359.6 357.3 354.4 351.2 349.3 345.8 343.8 343.5 343.2 343.6 344.8 347.8 350.9 353.4 354.2 352.7 350.5 348.5 346.1 343.6 341.1 338.5 337.5 336.4 335.4 334.2 334.3 333.6 333.4 331.7 329.6 326.4 323.6 320.2 314.6 312.2 308.7 305.6 303.9 303.3 302 301.5 300.7 297.9 292.8 283.8 274.5 272.9 269.5 262.5 256.1 250.3 243.2 237.2 231.9 226.8 221.5 216.4 213.4 210.8 209.8 209.3 205.1 200.4 173.6 165 193.4
277 278.3 280 279.9 278.3 289.1 295.9 302.7 308.7 313.4 315.1 314.6 315.9 318.6 320.5 322.8 325.1 322.6 318.1 313.1 307.3 298.2 282.6 262.8 252 244.9 241.1 237.9 239.8 235.7 229 230.3 232 236.8 240.2 245.8 253.6 263.3 284.8 294.8 295.5 296 297.8 298.6 298.8 305.4 311.1 316.2 319.8 322.9 325.5 329.2 331.4 331.6 326 323.8 323.5 323.3 323 321.1 320.7 321.1 323.1 328.3 331.4 332.1 332.6 331.4 328.9 324.4 313.4 302.1 291.8 299.3 309.7 315.5 317.7 317.9 319.2 321 323.1 325.5 327.1 328.6 331.7 334.5 338.1 338.1 331.8 324.4 322.7 324 327.7 332.1 336.2 339.6 342.4 345.4 348.2 349.6 349.1 351.2 352.7 354.4 357 358.2 358.7 359 359.4 361.4 363.5 365.6 367.3 368 368.2 370.3 371.7 369.6 369 366.4 368.5 372.1 374 373.9 373.7 374 373.6 373 371.7 371.2 369.6 367.7 365.8 363.3 360.9 357.9 354.4 351.4 348.4 347.7 347.3 347 346.8 348 349.4 352.2 354.9 354.7 352.6 350.4 347.9 345.4 342.9 340.4 337.8 336.6 335.2 334.8 333.7 333.3 332.1 332 331.3 329.3 326.6 323.8 320.7 316.8 312.5 308.5 305.9 305.5 305.1 303.7 301.6 300 296.5 292.3 287.3 280 270.9 260.9 253.7 248.3 245.1 240.7 234.4 230.1 224.2 218.4 212.2 208.6 205.3 204.3 205.2 203 198.4 175.7 167.1 170.1
273 272.9 270.5 278.1 286.2 292.3 299.6 306.9 312.5 314.8 313.4 313.5 315.6 318 319.5 320.2 321.7 325.3 321.8 316.3 311.4 301.9 282.3 273.3 258.9 250.6 244.8 243.1 243.9 239.8 234.2 228.4 227.8 231.7 237.2 242.6 249.8 256.8 271.7 284.1 283.8 282.1 285.3 291 298.4 304 310.5 317.4 323.3 328.2 333.1 337 340.6 340.9 337.5 330.9 327 324.3 322.2 320 318.1 316.1 316 316.9 320.8 324.4 325.9 326.8 326.3 323.3 317.3 306.2 292.2 292.1 305.5 310.8 312.1 312.9 316 321 324.5 327.4 329.7 332.6 335.7 346.2 348.7 348.2 346.9 342.1 334 325.6 326.7 329.8 335.2 339.2 343.1 347.1 350.1 350.7 350.6 350.4 352.6 354 355.7 357.5 357.3 356.4 356.6 357.8 359.9 361.9 363.5 363.9 365.5 367.2 368.4 368.7 364.6 362.7 365.3 368.5 370.6 370.4 370.1 371.1 372 371.9 371.5 370.3 370.7 370.6 369.1 366.3 363.3 360.3 358.6 356 354 352 351.2 350.9 351.2 351.7 352.7 354.2 354.4 353.2 351.2 348.3 345.9 343.6 341.4 339.3 337.1 335.6 334.2 333.4 333.3 332 330.8 330.1 329.2 327.4 326.1 323.7 320.4 316.2 311 307.8 306.5 306.1 305.2 302.3 299.2 297 294.4 291.4 286.8 281.3 274.4 268.9 262 252.4 245.2 236.7 230.8 224.6 221.1 216.5 211.7 208.8 205 201.6 194.5 183.8 184.4 187.8 178.6 167.3
266.1 262.8 275.3 281.4 288.9 295.2 305.5 309.3 313.2 312.3 311.9 313.4 315.4 317.1 317.7 318.1 319.3 323.1 324 318.1 313.4 306.5 295.4 285.9 266.5 254.8 250.4 248.2 247.3 242.9 237.8 234.6 229.6 228.3 233 238.3 244.3 250.1 256.3 265.4 263.9 258 277 294.1 297.6 302.7 308.3 317.3 323.4 330 335.4 339.4 342.8 345.3 343.2 341.5 336.6 329.5 325.3 322 318.7 314.5 311.2 310.9 312 314.9 317 320.1 321.9 321.2 317.7 309 300.9 290.9 294.9 301.9 303 308.1 315.3 320.4 325.2 330 333.6 336.8 343 348.7 352 353.3 353.9 351.6 346.1 339 329.2 329.7 332.6 338.4 344.2 348.1 350 350.5 350.7 350.5 350.9 352.6 354.4 355.7 354.6 353.7 353.8 354.4 355.4 357.1 358.5 360 361.6 364.2 365.3 364.3 361 359 361.2 363.8 365.9 365.5 364.9 367.5 369 370.1 370 370.3 370.3 370.8 370.7 368.9 367.3 364.7 363.2 361.4 359.4 357.3 355.3 355.2 355.6 355.2 354.2 354.7 353.1 351.9 349.1 346.2 343.8 341.5 339.3 337.3 335.6 334.1 332.6 331.9 331.8 331.1 329.9 328.3 326.7 325.5 323.4 321.1 318.1 314 309.7 308.4 306.6 306 303.5 300.7 297.7 293.7 291.3 288.7 284.7 280.7 275 269.9 262.7 255.1 247.8 240.8 234.3 229.7 224.8 219 216.6 212.2 209.9 205.4 201.6 204.7 201 197.6 193 184.8
262.3 270.6 276.9 284.7 291.8 302 307.1 310.6 309.6 309.7 309.9 310.7 312.7 314.4 314.9 315.5 317.9 319.6 322.1 321.1 315.7 307.9 299.6 284.2 270.8 262.2 256.2 254.3 249.1 244.3 241.6 238 232.3 228.7 228.2 233.5 237.9 242.7 247.2 249 247.5 249.9 269.5 286.7 293.4 300.1 304.9 315.9 322.6 330.4 335.7 339.2 341.5 343.3 344 344.7 343.9 339 334.2 327.3 322.5 316.8 312.3 308.3 306.9 307.2 307.7 311.5 315.3 316.7 316.4 309.9 302.8 291.3 291.8 304.2 301.2 304.7 311.4 319.6 325.1 331.9 336.2 340.5 345 349.4 353.1 355.5 356.1 356.5 354.6 348.8 341.3 333.4 334.7 336.6 340.6 346.6 348.6 348.8 350 350.6 351 351.4 352.5 353.2 352.2 351.4 351.3 351.6 351.9 352.8 353.8 354.9 356.8 359.3 360.3 359.1 356.4 355.1 356.8 358.9 361 361.7 359.8 361.8 365.9 367.5 368.1 368.4 369.6 370.3 370.8 370.4 368.8 367.8 366.7 364.8 363.1 361.1 360.3 359 358 357.2 355.3 354.3 352.5 350 347 344.1 341.8 339.4 337.3 335.5 333.9 332.4 331 330.6 330.4 330.2 328.9 327.4 325.9 324.6 323.1 321.5 318.8 313.8 308.5 304.4 302.1 302.6 301.4 298.8 295.4 291.4 286.3 285 282.7 278.9 274.2 268.7 261.8 254 246.9 240.2 234.1 229.1 224 219 213.8 211.2 207.4 201.4 206.3 207.9 204.1 199.1 192.2 186.1
267.2 273.5 280.5 288.2 295.2 303.1 308.2 308.6 307 306.5 305 305.8 308.4 311 314.2 317.2 319.8 321.1 322.4 322.3 318.4 308.9 301.9 292.7 283 272.3 265.4 259.4 251.2 248.3 245 238.6 237.6 233.1 228.4 228.8 232.6 237.1 239.8 240.6 243 248.1 256.6 271.4 288.1 297.6 302.5 309.7 321.1 327.8 333.4 336.6 338.6 340.3 342.1 343.9 344.8 343.5 340.4 337.3 333.7 327.1 321.8 312.4 308 305.1 302.9 302.5 304.9 310.8 309.7 305.7 298.8 290.2 299.8 320.2 319.9 314.2 310.7 317.8 325.4 333 337.4 341.1 344.7 347.5 349.4 351.9 354.5 355.7 356.2 353.7 351.7 346.2 338.2 340.1 339.6 341 345.8 347.3 348.4 349.3 349.5 350.1 350.5 350.5 350.2 349.6 349 349.6 349.7 350.2 351.2 352 353.4 353.6 355.4 354.6 350.8 351.5 351.8 353 355.7 356.2 354.9 356.6 361.8 364.7 365.2 366.3 367.8 369.4 370.2 370.6 370.1 369.2 368.9 367.8 366.6 364.6 363 361.6 360.5 358.2 355.3 352.9 350.7 348.2 345.2 341.8 339.5 337.2 335.5 333.8 332.2 330.8 329.3 329.2 329 328.8 328 326.5 325 324.5 323.9 322.6 319.3 315.2 309.3 303.4 299.4 298.2 298.7 296.4 293.1 288.7 282.9 279 275.2 274.1 270.3 264.9 257.2 248.1 242.7 235.1 229.9 226.4 222.2 214.7 212.1 209.5 207.1 206.8 210.7 209.5 205.9 199.8 192.9 186
271.2 278.3 284.6 290.6 297.5 302.5 305.2 305.8 303.8 303.5 303.8 310.7 316 316.4 316.9 321 324.4 325.4 324.2 323.1 320.4 315.7 307.3 298.3 289.1 280 271 262.3 255.7 252 245.6 242.4 241.2 238.2 229.5 228 228.1 232.3 234.1 237.6 241.3 247.4 253.9 264.8 284.7 294.8 300.6 305 315.3 322.9 328.9 332.4 334.9 337.3 339.8 342.1 345.5 344.8 343.8 340.8 337.4 334 331.1 326.2 318 312.5 307.7 303.5 298.9 300.2 303 300.8 293.1 293.3 317.2 327.6 327.6 322.6 316.7 317.8 322.8 329.7 337 339.9 342.1 344.3 345.7 347.2 350.4 352.1 352.8 353.3 353.6 353.7 346.3 349.7 346.6 345.5 341.3 348.7 347.9 348 347.9 348.2 348.2 348 347.8 347.5 347.3 347.1 346.7 348.7 349.2 349.7 350.1 351.7 352.1 351.4 338 341.3 348 348.6 349.2 351.1 349.9 352.5 356.5 360.4 361.4 362.9 365 366.8 368.1 369.2 369.7 368.9 369.3 369.8 369.5 367.9 365.4 364.2 361.5 358.8 355.4 351.5 347.9 345 343.3 339.6 336.8 335.3 333.7 332.2 330.5 329.1 327.6 327.8 327.7 327.5 327 325.1 324.2 324.2 322.7 321.1 318.5 314.2 309 303.4 299.1 294.8 295.1 293.6 290.2 284.2 280.4 278.8 275.8 271.9 265.5 257.3 251.3 248.1 242.4 239.3 234.8 228.9 223.7 219.3 215.1 211.6 209.1 211.4 212.1 210.8 207 202 193.7 186.7
276.5 284.4 289.4 294.6 299.1 300.1 301.6 301.7 298.7 297.9 306.6 313.3 318.5 319.2 319 323.2 326.1 327 328.6 328.4 324.7 321.1 312.4 303.5 293.8 283.6 276.4 269.5 262.6 254.9 250.8 246.1 243.5 237.2 235.1 228.6 228.2 228.1 233.8 237.3 241.4 246.4 252.5 259.9 275.8 287.3 297.4 302.1 308 314.1 323 327.6 331 335.1 337.7 340.9 344.3 346 345.8 344.1 340.9 337.3 335 332.2 328.4 319.4 314.2 310.1 303.7 297.8 294.7 293.3 289.4 298 320 329 328.2 322.9 319.5 321.1 324.6 329 335.7 338 339.2 341.2 342.1 342.6 345.4 347.1 348.9 349.8 352.8 354.2 356.1 356.6 355.6 351.3 349.2 349.5 341.1 349.1 347.5 347.6 346.8 346.5 346.4 346.6 346.6 346.6 346.7 347.2 347.7 348.2 349 349.4 352.7 350.4 348.5 347.3 345.2 345.7 345.8 345.3 345.8 347.8 352.1 355.5 357.3 358.4 360.1 363 365 367.4 368.6 369.6 370.5 371.2 371.2 370.1 367.8 364.9 362.1 359.1 354.7 350.4 346.2 342.4 340.7 338.2 335.1 333.5 332 330.4 328.8 327.4 326.2 326.5 326.2 326 324.8 324.6 323.2 323 321.6 319.8 316.5 312.3 307.1 303 299 295.2 291.9 289.5 286.1 286 287.6 287.6 283.9 278.9 274.5 267.1 260.7 254 247.8 241.1 235.3 230 225.1 220 216.8 214.5 213.2 213.9 213.7 212 208.4 203 195.2 187.4
280.1 289.2 291.9 296.5 297.1 297.6 298.2 297.7 294.6 304.1 309.6 314.3 316 317.4 320.2 322.4 325.3 328.8 331.4 330.2 328 324.2 318.8 308.6 296.2 292.3 285.9 279.1 267.7 262.6 254.2 249.7 244.2 241.8 237.9 231.9 228 226.5 231.3 234.9 239.7 243.5 248.7 255 265.4 279.2 291.9 299.3 304.2 309.3 314.6 320.7 326.3 331.4 336 339.7 343.1 346.6 347.8 346.1 343.9 340.4 336.5 332.7 328.6 323.4 318.2 313.9 309.2 302.6 297.3 292.6 288.2 305.8 320.2 326.7 327 326 325.1 327.1 328.9 331.7 334.3 336.7 337.5 337.3 336.9 337.4 339.4 342 344.2 346.6 349 352.6 355.6 358.6 358.1 356.8 353.2 349.9 349.9 347.1 348.6 348.3 345.7 345.1 345.6 345.6 345.6 345.6 346 346.4 346.8 347.3 347.8 347.7 354.1 350 349.3 346.5 344.2 342.4 342.3 342.3 341.5 342.2 345.3 349 350.7 352 353.7 357.3 361.3 364.7 367.1 368.5 369.4 370.7 371.2 369.7 367.2 364.1 361.8 358.8 354.6 350.4 346 341.8 340.2 337.6 333.9 331.8 330.2 328.6 327.2 325.7 325.1 324.9 324.7 324.3 322.5 321.6 321.1 320.7 320.1 318.5 314.7 310.3 306 301.9 298 294.7 291.7 290 289.6 290.3 290.7 291 286.3 280.9 275.7 269 261.1 254.3 248 242.1 237.1 231.7 226.7 223 219.9 218.6 218 217 216.1 213.3 209.8 204.8 196.3 188.3
280.2 287.7 291 294.1 294.9 294.9 294 293 294.7 302.9 307.3 310 312.1 315.1 319.4 321 324.4 329.8 332.8 332.7 328.7 325.7 321.6 315.1 306 298.6 292.9 284 278.3 266.5 258.8 251.7 247.9 244 239.6 235.3 233.3 225.1 227.4 230.9 234.7 238.5 243.6 250.1 258.2 270.5 284.7 294.3 300.4 304.8 309.5 316.5 321.8 328.1 334.8 338.8 342.2 347 349.9 349.1 347.8 342.3 336.9 332.7 327.5 323.7 319.7 315.7 312.2 305.5 300.4 293.7 288.3 305.5 317.8 323.4 325.6 327.5 328.3 329.9 331.1 332 332.7 333.4 333.9 333.2 332.5 331.3 330.6 330.8 332.9 338.7 344.5 340.5 353.9 357.9 359.9 358.7 356.6 352.9 350.5 348 347.5 338.1 348.2 344.3 344.8 344.6 344.5 344.8 345.3 345.7 346.1 346.5 348.4 348.1 349.6 350 348.6 345.7 344.5 342.2 340.9 339.3 338.5 338.1 340.4 341.9 343.3 344.2 348.7 351.5 357.1 360.7 364.4 366.8 368.5 369.6 370.1 368.2 366 363.3 361.8 358.6 354.6 350.3 345.8 341.3 339.1 336.4 334.2 331.3 329.3 327.4 325.7 324.4 323.4 323.1 323.1 322.2 320.5 319.6 319.2 318.8 318.6 316.9 314 309.7 305.5 301.3 298.5 295.7 292.7 291.3 292.1 293.9 292.7 291.8 287.5 282.2 276.1 268.6 261.2 254.7 249.1 243.5 238.9 234.2 229.6 226.5 223.4 222.4 221.2 220.1 217.4 214.4 210.9 205.7 197.1 189
279.8 284.8 288.6 291.4 291.9 291.6 290.3 288.5 297.5 300.3 304.7 307.6 310.2 313.5 316.9 319.6 323.3 328.1 331.1 333.1 330.4 327.6 324.8 320.9 316 307 299.7 291.8 282.7 273.4 263 257.2 253.3 247.4 241.9 240 235.2 229.8 225.6 227.7 229.7 233.5 238.6 245.1 252.9 263 278.9 292.6 298.3 302.3 306.5 313 317.6 324.1 333 339 345.3 350.4 352.8 351.8 350.5 347.2 340.1 331 326.3 321.6 318.9 316.1 313.2 306.7 301.4 295.5 286.6 304.3 314.7 320.4 323 324.6 326.1 327.9 329.1 331.3 331.8 330.9 330.3 329 327.9 326.6 325.6 325.1 327.9 333 340.2 339.3 351.5 356.2 360.7 360.4 358.2 355.9 353.9 349 347.3 348.5 343.8 343.6 343.8 343.7 343.6 344 344.5 345 345.4 345.7 346.4 347 348 352 350.2 346.4 344.9 342.8 341.8 339.8 337.9 337 335.9 338 338.8 339.7 342.5 346.7 350.4 355.1 359.4 363.8 365.7 366.9 367.3 366.2 363.7 361.6 360.2 357.7 354.5 350 345.6 340.7 337.8 335 332.7 331.3 329.2 327.2 325.2 323.8 322.5 321.8 322.4 320.7 318.9 317.9 317.5 317.1 316.7 315.3 313.3 309.6 305.6 301.6 298.7 296.7 294.6 294.8 294.9 294.8 294 291.9 288.2 282.4 276.4 269.5 262.7 256.4 250.5 244.9 240.2 236.2 232.5 229.4 226.5 224.7 222.7 220.6 218.1 215.3 211.6 205.8 197.4 189.5
276.5 281.9 284.6 286.9 288.3 288.6 286.8 290.5 295 298.6 301.9 305.6 306 310.7 315.3 319.4 324 327.8 331.6 334.1 332.7 330.3 328.5 326.9 323.1 316.8 306 298.1 288.3 280.2 273.3 264.3 257.6 251.6 247.1 240.8 237.6 235.4 230.7 225.8 226.8 228.3 234.9 239.8 247.8 256.5 273.1 286.3 295 299.9 303.6 309.3 313.9 318.4 323.2 334.1 347 353.7 356.5 356.9 355.9 350.6 344 334.7 325.9 319.7 317.2 315 311.1 306.1 301.2 295 286.5 302.3 311.2 316.3 320.2 321.6 323 325 327.1 329.3 331 330.9 327.8 324.8 323.4 322.8 322.9 324.1 325.6 328.6 334.6 340.2 349.5 354.9 359.1 360.2 358.9 358.8 357.1 351.5 347.4 345.6 345.3 347.1 337.6 345.2 343.1 343.2 343.5 343.9 343.4 342.8 345.5 346.2 347.5 346.7 346.2 346.5 345.2 343.3 342.5 341.3 338.6 336.9 335.3 334.4 334.5 336.2 337.2 339.9 343.7 349.4 355.6 360 362.1 362.9 363.1 363.2 361.4 359.9 358.6 356.8 354.1 349.6 345.1 340.5 336.5 333.7 331.5 329.6 328.4 327 325 323.6 322.4 321.2 320.8 319.3 318 316.8 316.1 315.8 314.8 314.4 312.7 309.8 306.2 302.6 298.8 296.8 294.4 294.7 295.3 295.5 295.1 292.6 288.6 283.8 278.1 271.8 265.2 258.9 252.6 246.4 241.4 236.9 232.6 229.3 226.6 224.1 221.8 220.1 216.9 214.4 211 204.4 196.6 189.1
273.2 276 278.6 280.8 282 284.8 282.4 288.6 291.3 294.6 299 301 305.7 311.5 316.6 321.9 326.5 333 335.4 336.5 335.4 334.4 333.1 331.2 327.3 322 314.8 305.1 295.2 287.4 283 274.9 266.3 256.8 249.9 246.9 241.8 239.4 235.9 228.6 224.9 225.7 231.2 235.6 242.3 250.8 262.5 275.4 289.1 295.6 300.6 306.5 311.8 317.9 321.4 326.7 344.3 357.2 362.9 362.3 359.2 354.2 346.2 338.3 330 320.8 316.9 313.9 310.6 306.5 301.3 294.3 286.6 299.3 307.4 312.9 316.3 318.4 319.9 321.8 322.7 328.1 331.2 332.1 328.1 323.1 320.9 320.5 320.4 321.9 323.5 326.6 331.7 340.2 349 354.5 358.9 361.1 361.1 361 359.7 355.3 351.3 346.5 345.4 345.3 343.8 343.4 342.6 342.6 342.8 343.3 343.6 343.2 344.6 345.3 345.8 346.1 346 345.8 345.2 344 342.1 340.7 339.7 337.9 336.2 334 332.9 332.6 333.6 335.4 337.9 344.5 351.9 356.7 359.1 359 358.3 358.3 358.7 357.9 357 356.6 353.7 349.2 344.6 340.2 336.6 333.1 330.7 328.4 326.7 326 324.8 323.5 322.3 321.1 319.9 318.8 317.6 317.3 316 313.5 313.3 312.4 310.2 308.7 306.4 303.5 299.8 296.8 294.3 294.1 294.6 294.8 295 293 289 284.5 278.5 272.7 266.4 259.6 253 247.4 241 236.2 231.7 227.6 225.2 223 220.9 218 214.8 211.9 208.9 201.7 195.6 188.8
268 270.2 272.9 275.7 276.5 278.6 279.9 285.2 290.7 295.4 301.3 303.4 309.5 313.9 319 327 333.9 339.4 341.2 340.8 339.2 337.7 335.2 333 330.3 326 318.9 310.9 304.6 297.6 292.1 284.4 277.1 268 258.5 251.3 246.3 241 235.9 232.3 228 224.6 227.9 231.7 237.7 244.6 252.1 264.6 279.1 289.4 297.9 305.7 311.8 318.1 323 329.2 346.2 359.4 365.1 365.9 363.9 358.5 349.7 339.2 331.1 322.7 317.5 314 310.2 306.8 301.9 292.1 285.2 294.1 303.5 309.3 312 314.2 316 321.1 325.1 328.8 331.4 332.9 327.9 322.6 318.1 318 317.8 318.8 320 322.9 331.5 338.6 349.4 355.6 361 363.3 363.3 361.8 359.1 356.2 351.2 346.5 345.6 343.6 342.6 338 342.1 342 342 341.9 342 342.9 343.8 344.6 345.2 345.4 345.7 345.4 344.7 344.2 343.1 341.8 340.5 338.9 336.9 334.2 333.6 332.1 330.5 330.9 333.6 340.7 346.9 352.5 355.1 355.5 354.8 354.2 355.2 356.1 356 355.8 353.3 348.9 344.6 340.2 336.6 332.6 330.2 328 325.7 323.9 323.9 323 321.7 320.5 319.7 319.2 318.9 318.5 317.8 315.4 313.1 309.6 306.6 305.2 303.1 300.7 298.2 296 293.8 293.7 293.7 293.9 293.9 292.4 288.9 283.7 278.7 273.4 266.2 259.4 252.7 246.6 241.2 235.8 231.7 227 222.3 220.1 218.9 215.9 212.4 209.3 205.8 199.6 193.5 189.1
263.2 266.2 268 270.5 271.7 275.7 282.7 286.3 291.4 296.7 300.5 304.7 310.8 316.4 321.6 330.2 338.3 350.3 354.7 348 343.8 341.5 337.5 335.2 330.6 325.8 321.7 316.8 312.4 304.6 298.2 292.7 285.4 280.6 272.3 259.5 250.8 243.9 238.6 234.4 235.5 228.3 224.9 228.4 233.6 238.8 245.8 258.6 271.9 284.2 295.7 304.6 314.9 324.1 333.2 343.9 354.3 363.6 369.3 374.2 371.8 365.9 355.5 345.9 335.3 326.7 317.9 314.2 311.1 307.7 303.3 296.6 285.5 287.8 298.5 303.9 306.6 310.3 316.2 320.3 324.8 327.8 330 330.4 328 322.8 317.2 314.9 314.4 315.5 316.5 319 328.7 339.5 351 360.4 364.7 366.5 364.9 361.5 358.8 355.5 351.2 346.7 344 342.8 341.5 343.7 341.4 341.6 341.3 341.5 343 343.3 343.2 344 344.6 344.8 345 345 344.3 343.9 343.6 342.3 341 339.7 337.3 334.6 333 329.9 327.6 329.5 329.3 333.7 340 346.3 349.1 350.6 351.4 350.6 351.2 352.1 353 354.3 353.9 350.4 345.7 341 336 332.3 329.9 327.6 325.4 321.9 322.1 322 321.1 320 318.1 317.9 319.1 319.2 318.1 316.6 315.1 312.9 309.5 304.6 301.3 298.5 295.8 294.4 292.8 291.8 291.8 292.3 292.3 290.9 288.1 282.7 278.4 272.4 265.8 258.9 253.6 246.9 241.6 236.7 231.8 226.3 221.3 217 214.2 210.3 208.1 205.7 202.8 197.8 191.5 188.3
258.5 262.4 261.6 262.1 267.6 274.8 280.9 286.6 290.3 293.9 299.6 307.7 311.8 318.1 323.9 332.4 341.3 359.1 368.7 369.2 357.2 347.8 341.6 336.5 330.2 326.4 323 320.5 316.6 311.1 303.7 298.5 294.1 288.7 282.5 271.5 256.8 249.1 243.3 238.8 239.2 232 226.8 224.5 228.9 233.9 240.7 253.1 265.6 278.1 291.2 301.4 312.4 321.6 331.4 341.7 352.4 362.5 370.2 375.8 377.1 369.3 361.9 353.1 343.5 333.7 324 317.4 315.1 312.3 308.3 301.3 292.3 284.4 292.6 298.7 303.7 310.8 316.6 320.5 324.2 325.7 326.4 326.6 325.9 321.6 316.7 311.1 311.3 312.1 312.8 317 326.2 341 356.3 364.7 368.6 371.4 369.2 364.1 359.2 354.8 350.6 346.8 344.5 343.1 341.8 340.5 337.7 341.9 340.6 341.5 342.5 342.9 342.8 343.4 344 344.3 344.3 344.4 343.9 343.6 343.3 342.8 341.5 339.8 337.5 335.2 334.6 332.6 323.5 325.4 328.1 328.9 331.3 334.5 340.7 346.6 348 346.2 348.8 350 351.4 354.8 353.5 351 347.9 343.1 338 332.6 330.1 327.6 325.2 321.9 319.2 320.1 320.5 318.5 316.5 317.4 319.4 319 318.1 316.7 315.4 313.3 310.5 307 303.6 300.6 297.6 294.9 292.4 290.3 289.6 289.8 290.7 289.5 286.9 282.5 278.2 273.5 267.8 262 255.5 248.6 241.8 236.5 230.8 225.4 220.2 215.1 211 205.8 202 198.4 195.8 194.2 191 186.8
255.5 256.8 265 267.8 273.1 277.1 281.8 286.4 290.7 294.5 300.2 307 312.2 319.5 326.1 336.4 348.9 366.2 368.5 371.7 373 362.7 349.8 338.8 326.5 321.6 321 319.7 318.5 315.5 310.6 303.7 299.5 295.1 290.1 279.2 273.1 256.1 249.4 244.1 240.5 236.6 234.7 224.9 225.4 228.8 233.8 244 258.5 270.6 283.1 296.5 307.4 316.1 325.2 335.2 346.5 357.9 367.3 372 373.6 369 363.6 357.4 349.1 340.8 333.3 327.1 319.9 316.6 312.1 306.5 300 288.9 284.1 290.2 300.3 308.2 315.6 319.9 322 308.4 322.8 314.1 316.6 318.9 314.9 309.2 307.5 308 309.4 314.8 324.2 342.8 359.2 369.4 374.7 377 373.9 365.1 359.5 355.3 351.5 347.6 344.7 343.2 341.8 340.5 342.4 340.3 340.5 341.3 341.6 342 342.7 342.8 343.4 343.6 343.6 343.7 343.6 343.2 343 342.8 342 339.9 338.6 338.3 338.1 333.2 319.5 334.9 330.8 328.2 327.5 327.8 331.6 339.1 342.6 342.1 345.8 348.2 350.5 352.4 351.9 350.7 348.4 345 340 334.5 330.2 327 324.5 322.6 319.7 318.2 318.8 317.4 314.9 316.3 318.2 317.5 316.7 315.8 315 312.8 310.1 307.2 304.1 301.7 299.3 296.8 294.1 291.4 287.8 288.6 288.9 288 285.6 282.9 278.4 273.8 268.3 262.1 256.3 249.8 242.9 236.1 229.7 223.9 218.4 213.7 209.9 207.3 207.7 206.8 203 198.8 194.6 190.7
254.8 258.8 263.7 268.4 274.2 277.7 281.9 285.9 289 294.1 300 307.4 315.9 324.3 334.4 346.7 356.1 362.3 367.5 372.7 374 370.9 349.6 335.3 324.7 319.8 317.8 316.8 317.3 317.5 316.1 310.6 305.2 301.4 297.4 292.1 284.3 275.6 262 251.2 243.5 241.1 236.8 230.6 224.8 224.8 227.7 236.1 250.8 262.1 274.4 289.5 302.3 311.4 319.5 327.9 336.5 350 359.3 364.9 368.4 365.8 362.5 358.3 352 346 339.3 334.5 327.2 322.1 317.9 312.6 306.4 296.6 287.8 282.9 284.5 294.3 306.4 315.6 317.4 300.2 315.5 320.5 316.5 316.1 306.8 304.2 307 305.7 308.9 313.1 326.5 343.6 361.3 372.2 377.8 379.7 375.8 366.1 359.6 355.2 350.9 347.5 344.7 342.7 341.2 340.3 339.9 339.8 340.4 340.8 340.7 341.1 341.8 342.5 342.8 342.9 342.9 343 343 343 342.8 342.6 342.3 341.4 340.6 340.5 340.2 333.8 338.6 336.8 335 331.3 328.4 325.1 325.4 328.5 333.1 337.6 342.5 345.1 348.2 350.1 349.9 349.1 348 345.8 341.6 336.4 332.2 327.8 324.8 323.2 321.1 318.2 315 314.1 312.8 314.6 315.6 316.5 315.7 314.6 313.3 311.9 309.4 306.4 303.7 301 298.6 297.2 294.9 292.6 289 285.5 285.8 285.3 284.3 281.6 277.9 273.3 267.3 258.7 253.4 247 239.9 232.3 225.8 221 217.2 214 211.2 209.4 208.7 207.6 204.9 200 195.2 189.5
254.2 257.5 263.2 267.6 273.2 277.5 280.5 282.1 288.4 294 299.4 308.4 317.1 330.2 345.9 349.7 357.9 363.5 369.9 369.9 367.1 357.4 341.8 329.9 324 319.2 315.3 313.5 314.2 316 316.4 315.4 311.9 307.4 304.1 301 295.1 291.7 278.9 261.1 250.8 245.1 240.3 234.8 231.8 225.5 224.2 229.2 243.5 255.9 266.1 281.2 295.6 303.9 311.7 320.7 328.2 338.6 348.5 353.9 359.3 360.3 359.7 357.1 351.9 348 342.4 338 333 328 323.1 317.5 310.1 306.4 303.3 294.7 285.8 282.4 286.5 299.8 314.1 319.9 320.3 319.3 316.3 304.3 308.4 312.6 310.7 308.3 307.6 312.8 326.5 344.2 360.9 370.9 377.3 380.7 378.9 368.5 361.2 354.6 350.3 347 344.6 343.1 341 340.3 339.4 339.4 340.2 340 339.8 340.1 341.2 341.8 341.9 341.9 341.9 342 342.2 342.3 342.3 342.2 341.7 341.1 340.9 341 339.7 340 340.2 339.7 336.9 335.1 330.6 326.4 324.2 324 327.1 331.5 338.2 340.6 344.5 347.4 347.6 347.2 346.4 343.9 340.3 337.2 333.3 328.7 325 323.5 321.8 319.9 317.4 314.7 311 312.3 315.4 315.4 314.1 312.8 311.4 310.1 308.1 305.1 302.6 299.9 298.1 296.6 295.1 292.6 290.5 287.1 282.4 280.3 280.9 279.1 276.7 271.7 263.2 254.3 247.3 243.1 239.4 234.2 228.5 223.6 219.4 215.2 211.5 209.4 208.6 207.9 205.5 201.5 190.5 181.2
255.2 260.5 264.6 266 268.6 272.3 278.4 281.7 286.5 291.7 298.4 306.6 317 330.9 342.8 350.2 358.5 364.5 367.8 364.1 355.7 340.7 332.7 326.2 320.4 317.3 314.3 311.2 311.3 313.7 314.9 314.6 315.8 312.8 309.9 307.4 304.6 300.7 291.3 271.3 259.2 251 244.3 240.7 237.3 231.3 225.7 225.1 234.8 249 259.6 269.8 285.8 293.5 299 309.6 315.9 323.5 334.3 343.2 349.3 352.1 355.2 355.2 352.5 349.3 345 340.2 334.2 328.7 325.1 320 312.6 314.4 314.6 309.3 302.3 293.8 282.7 282.4 301.7 315.8 318.3 316.6 305.3 305.8 319.4 321.3 316.6 313.1 310.6 313.2 331.3 341.7 358.8 368 376.7 381.1 380.8 376.4 366.4 358.1 350.8 346.6 344.3 342.6 340.8 339.9 339 338.8 339.3 339.3 340 340.3 340.4 340.7 340.8 339.7 339.7 340.7 340.8 340.9 341.3 341.2 340.8 340.5 340.6 340.5 339.3 340.1 340.5 340.1 338.2 337.1 332.6 330 329.3 329.2 322.3 323.5 328.2 334.4 341.2 343.4 344.2 344.9 344.5 342 338.9 336.3 333.4 329.6 325.7 323.7 321.8 319.8 318 316.4 312.5 309.5 312 313.6 312.3 310.9 309.7 308.5 306.1 303.9 301.4 299.4 297.5 296 294.9 292.7 291 287.9 284.3 280.8 276 274.5 272.3 265.3 261.2 261 258.7 252.7 246.1 238.5 231.7 224.7 218.9 215.2 211.5 208.9 207.9 206.8 201.6 190.2 194.8 187.4
256.4 259.7 264.4 269 273.6 276.8 276.6 281.5 286.7 291.4 297.2 304.3 316.3 330.9 336.9 342.5 352.2 359.1 361.7 357.1 340.8 332.1 326 321.3 317 313.9 311.6 309.4 308.5 310.6 312.8 314 315.7 316.7 314.7 311.7 309 305.3 297.7 288.4 276.8 258 251.1 244.2 236.4 231.9 227.3 224 229.4 244.6 256.3 265.4 277.7 285.3 292.6 296.8 306.1 314.6 322.8 331.8 337 343.9 349 352.8 353.4 351.3 347.4 339.9 334.7 329.6 325.7 322.1 317.8 318.7 319.7 316.8 312.9 305.8 297.1 285.3 282.8 307 314.6 311.7 296.9 313.8 322.7 326.7 325.1 317.2 313.5 315.5 331.2 339.4 355.7 366.5 375.5 381.2 383.6 382.2 376.1 365.7 357.1 349 344.2 342.7 341.7 340.1 339.2 338.5 338.4 339.1 339.6 339.8 339.6 339.6 338.3 336.9 338.1 339 339 339 339.5 340.2 340.2 340.1 340 340 339.2 339.2 339.5 339.2 336.3 320.9 336.7 333 331 333.9 333.6 325.1 321.7 328.3 336 339.4 341.3 341.6 342.3 340.6 338 335.3 332.5 329.6 326.2 323.4 321.3 319.2 316.9 315.3 310.7 307.7 309.6 310.8 310.5 309.3 308.1 306.4 304.1 301.9 299.4 297.1 295.4 294.9 294.7 293 291.3 288.9 286.2 283.6 279.1 274.8 270.5 269.6 269 265.1 260 254.5 247.4 238.5 229.7 223.4 217 212.6 209.1 205.8 202.9 197.1 193.7 202.9 199.1 189.5
262.3 264.2 264 270 275 278.6 280.8 284 287.4 290.7 296.3 300.7 309.1 320.8 332.5 342.3 344.8 353.1 357 348.9 334.7 326.5 322.5 318.6 315 311.8 309.8 308.3 305.6 311.1 313.6 315 315.5 316.7 317.8 316.2 312.3 310.2 306.7 302.7 293.3 276.9 257.5 247.6 241 237.4 232.7 223.6 226.8 239.7 252.4 262.8 273.3 284.3 290.1 294.2 298.7 306.7 315.4 320.9 327.8 332.7 342.2 349.9 353.8 353.9 347.3 339.6 334.1 328.5 325.1 321.9 320 321.5 322.4 320.8 317.8 313.7 304.9 294.3 279.9 293.5 309 305.2 298.1 317 323.5 326.9 327.7 321.9 318.4 328.8 328.1 340.3 351.9 363.4 372.9 381.6 386.6 385.7 381.2 373.3 363.7 354.5 346.3 343.1 342.9 341.1 340 338.9 337.7 338.8 338.8 337.7 337.1 337.4 335.8 334.3 336.9 337.2 337.3 337.3 337.5 338.7 338.9 338.8 338.8 338.6 337.8 338.2 338.5 337.5 337.4 338.2 337.6 336.9 335.5 334.4 333.6 324.1 319.8 323.4 329.1 332.1 336.7 338.3 339.2 339.4 337.1 333.8 330.4 327.9 325.1 322.2 320.6 318.5 316.2 313.4 310.5 306.5 305.9 308.2 308.5 307.8 306.4 304.4 302.1 299.6 296.9 294.5 291.7 292.6 292.5 295.1 294.3 291.5 288.8 285.7 282.3 278.1 275.6 275.2 273.6 265.9 260.2 253.7 245.7 236.5 227.4 221.1 214.9 210.1 206.6 200.3 194.1 200.3 206.3 205.9 201.4 191
269.3 269.5 267.4 271.6 275.7 278.5 280.3 282.1 285.3 289.5 293.9 297.3 302.7 309.7 319.3 329.5 334.2 344.4 349.4 338.1 329.5 322.4 318.7 315.1 311.1 309.5 307.5 306.2 304.3 309.9 312.6 314.8 315.3 316 317.7 318.9 316.8 314.7 312.8 310.4 305 286.5 271.9 255.5 247 243 236.1 233.2 225.4 235.4 248.9 257.6 268.3 280.7 287.8 291.9 296.2 300.9 306.9 313.5 319 325.2 332.1 343.8 349.3 348.8 342.1 336.1 330.7 325.9 322.2 321.3 320.8 322.7 323.9 322.8 320.6 316.8 310 299.5 287.2 280.4 304.6 292.1 305 319.6 323.9 326 326.6 326.5 324.4 325.3 327.6 340.2 350.6 359 371.2 380.5 389.2 389.3 383.9 377.5 368.8 359.3 349.7 345.4 344.2 342.6 341.4 340.6 340 338.8 336.5 335.6 335.7 336.1 334.5 332.3 334.1 334.7 334.7 334.5 334.6 336.5 337.3 337.4 337.4 336.9 336.4 336.6 336.5 335.7 336.1 336.7 337.2 337.1 336.6 335.8 333.1 327.5 321.1 318.6 320.8 324.2 329.2 334.3 335.7 337.1 336.8 333.7 330.2 326.6 323.7 321 318.8 316.1 313.9 311.5 308.7 306.2 303.2 304.2 305.7 305.6 303.7 301.3 299.4 295.9 291.8 289 287.3 285.5 288.8 292.4 294 293.6 289.6 287.8 285.4 281.7 278.6 276.4 271.5 265.7 258.1 251.3 243.5 234.4 225.1 218.5 213 207.3 201.3 196.9 202.2 207 208.9 207.8 203.8 180.8
272.8 271.3 269.8 273.2 275.7 276.4 278.8 281.1 284.9 288.2 291.6 294.9 298.5 302.8 310.5 321.5 326.3 331.3 336 330 322.5 318 313.5 309.3 307.1 306.5 305.2 303 304.7 308 310.7 313.4 314.1 315.6 317.4 319.5 321.4 319.3 317.3 315.2 310.6 301.5 287.4 268 253.8 243 235.4 229.2 224.8 228.4 243.5 254 264.5 275.6 284.6 289.7 294.2 299.8 305.4 310.9 316.4 321.9 328.1 333.5 339.1 339.6 335.1 329.8 325.9 322.4 319.2 319.4 321.1 323.3 324.7 323.3 321.9 318.9 314.6 304 292.3 277.9 285.5 294.7 310.6 319 323.5 326.1 327.9 328.7 330.1 328.2 325.3 337.1 347.7 356.2 368.7 380.7 390 390.7 384.4 378.7 370.3 361.1 353.2 348.5 345.6 344.6 344.6 343.6 342.2 340.8 338.3 336.4 334 333.5 331 330.2 330.4 331.4 331.8 331.7 332 334.4 335.9 336 336.1 335.7 334.4 334.1 333.9 333.8 334.4 334.8 335.3 336.2 336.1 335.7 333.4 329.7 323 319.4 318.1 319.2 323 329.8 332.1 334.7 336.1 334.6 330.7 326.9 323.3 319.4 316.8 313.7 310.7 308.2 305.8 304.6 303.3 302.5 303.1 302.2 300.1 297.7 295.1 292.9 291.3 290.4 290.6 288.7 282.6 286.5 290.4 289.9 290.9 287.7 285.8 281.9 278.2 271.6 267.4 261.6 256.1 248.5 235.2 226 216.7 213 207.7 202.4 201.3 197 207.3 210.7 211.9 210.2 205.1 178.6
273 272.3 271.3 272.1 274.7 279.1 281.4 282.8 285 286.8 288.2 291.1 294.1 297 304.7 310.9 315.1 320.1 322.2 321.6 317.5 311.5 306.1 303 302.7 300.9 299.5 298.1 304.4 307.1 309.8 311.7 312.8 314.1 315.4 317.5 322.3 322.9 321.5 318.3 314.4 307 293.8 278 259.2 247.3 237.6 229.9 224.9 225.6 236 248.7 259 269.9 280.4 286.5 292.5 299 304.7 310.5 316.4 321.9 325.4 329.7 333.2 334.5 331.6 326.2 322.9 319.8 317 316.8 319.7 322.1 322.5 322 321.5 318.8 314.7 307 295 277.8 279.7 304.3 315.2 321.5 324.4 326.3 328.5 330.6 332.1 331.5 328.9 333.4 342.1 352.4 366.5 379.2 386.5 387.2 382.8 376.7 368.9 362 355.5 351.3 347.6 348 347.8 344.9 343.5 343.4 342.2 339 337.3 333.4 333.2 330.9 328.1 326.7 327.1 329.4 329.7 333 334.4 334.8 334.8 334.3 332.9 331.6 331.6 331.7 332.5 333 333.6 334.7 335.1 334.8 333.2 331.6 327.6 321.8 318.1 317 319 324.5 328.6 332.5 334.9 335.7 331.3 328.5 324.9 320.9 317.3 314.6 313.5 311.1 308.6 306 303.5 300.1 299.5 297.8 296.1 294.8 297.2 298.6 297.2 295.1 294.3 293 288.5 283.6 277.2 278.7 279.3 279.5 277.9 276.2 267.9 259.4 252.4 246.2 235.7 229.8 229.7 225.2 223.1 218.6 212.9 210 206.2 201.7 209.2 212.5 214.1 212.6 202.6 178.4
269.3 273.6 272.9 273.1 276.9 280 281.5 282.8 283 284.3 284.4 287 288.7 291.4 294.9 302.7 305.8 307.3 311.5 312.1 310 305.7 302.1 297.1 295.9 297 294.7 295.2 302.7 304 306 307.7 309.7 312 313.4 317.3 319.6 321.9 322.7 316.5 313.5 309.6 297.9 284.2 268 251 239.5 231.5 225.4 224.7 230.2 240.4 251.4 262.1 274.7 284.9 291.7 298.3 304.4 313 319.6 322.1 325.1 327.7 329.4 331 328.6 324.8 320 317 315 314.7 317.5 320 320.7 320.1 319.6 317.1 313.2 304.5 291 276.8 281 305.9 319.7 323.8 326.5 329.3 330.7 332.6 333.8 333.8 332.3 333.1 338.7 349.4 361.5 375.4 382 382.3 376.7 371.8 365.9 360.5 355.9 353 350.1 351.3 350.7 348.5 346.6 346.9 345.6 343.7 340.9 337.9 336.3 334.1 331.1 328 325.5 325.5 326.7 331.3 332.7 333.5 333 332.3 331.7 330.2 329.6 329.6 330.3 331.1 331.8 332.9 334 333.5 332.7 331 329.4 326.1 320.5 316.7 316.3 319.6 324.5 329.2 330.7 331.1 330.4 329.7 326.4 322.9 319 318 316.3 313.7 310.7 306.8 303.8 300.5 299.1 297.2 298.4 300.1 301.9 302.8 301.8 299.8 296.8 295 291.9 289 283.5 280.6 273.9 271.9 267.2 261.5 261.2 257.7 254 252.7 251 246.7 239.8 232.8 225.7 219.9 215.2 211.8 210.3 202.9 210.9 213.5 215.9 215.1 204.1 179.5
269.2 272.8 273.6 272.9 275 277.8 278.9 280.2 279.7 280.4 280.8 282.5 284.6 286.2 289.3 292.7 294 297 302.8 303.7 301 298.4 296.1 295.1 291.4 290.7 290.7 296 300.5 302 302.9 303.7 307.1 310.5 312.9 316.8 317.9 320.3 323.1 316.9 310.5 306.7 297.6 284.8 269.6 251.2 240.5 234.3 226.9 224.1 227 234.1 245.7 256.7 269.9 281.4 289.9 297.6 304.6 314.2 321.1 324.6 325.3 325.5 326.9 327.5 328.1 323.7 318.9 315 313.3 313 315.4 317.8 319.1 318 316.6 314.4 311.3 300.4 285.6 276.8 280.7 306.6 320.1 324.6 328 331.2 332.5 335 338.2 339.4 338.8 337.3 340.8 348.3 358.9 369.6 376 377.3 373.1 368.2 365.3 359.3 355.9 354.2 352.7 352.7 353.4 353.1 350.3 347.4 346.8 345.2 343.3 340.8 339.3 337.3 334 330.9 330.2 326.3 323.4 326.3 330 331.4 330.7 330.1 329.9 328.9 327.6 327.5 328.9 329.8 330.7 331.8 332.6 332.1 331.4 330.8 329.4 327.5 322.5 318.2 314.7 317.1 321.6 323.9 325.9 327.4 327.9 329.1 326.8 324 322.2 320.9 318.6 315.6 312.6 309.5 304.5 302.5 300.2 300.4 302.7 303.9 305.4 305.7 306 303.6 300.2 296.6 293.4 290.8 288.8 287.8 284.7 282.2 279.9 277.6 273 268.5 264.9 261 255.4 248.7 240.4 232.5 226 220.4 215.8 214.2 210.7 203.6 212.9 215.2 217.9 218.8 215.7 184.9
268.9 273.2 273.5 272.3 272.9 275.2 276.5 277.6 277.5 276.9 278 280.1 279.8 283.6 285.6 285.6 286.6 290 293.1 295.4 294.1 290.8 289.6 290.6 285 286.5 290.7 296.4 298.9 299.9 300.4 303.4 307.4 311.6 313.8 316.1 316 318.4 320.5 317.5 309 303.5 295.8 284.9 269.6 251.7 242.1 237.5 226 224 224.3 228.6 237.2 252.3 265 276.7 286.1 293.6 301.2 313.2 320.9 326.5 326.5 324.7 323.8 324.4 324.8 322.4 317.9 313.4 311.7 310.8 313.7 316 317.5 316.7 312.3 310.3 306.4 295.7 283.3 275.4 281.1 304.9 317.1 323.5 327.5 331.1 334.5 339.6 343.8 350.2 353.9 351.4 350.4 351.3 357.7 364.9 369.3 371 369.3 366.2 363.5 358.5 355.1 354 353 353.5 355 355.3 354.1 349.3 348 346.4 344.8 344.2 342.3 340.5 337 333.9 332.9 330.8 326.2 321.9 323 326.3 327.3 328.7 328.5 327.6 326.8 325.5 326.9 328.3 329.7 330.4 331.2 330.8 330.5 329.9 328.9 327.4 325.3 321.8 316 313.8 317.3 320.3 324.2 325.7 326 327.1 325.8 324.3 323.5 322.3 320.7 317.7 314.7 311.5 306.9 303.9 301.4 303.5 305.8 307.3 309.2 309.7 309.9 307.8 304.5 299.8 295.7 292.8 290.2 288.2 285.3 282.5 279.7 276.6 272.8 271.2 268.2 264.8 260.5 253.9 244.9 236.3 229 222.8 217.9 214.7 208.4 209.8 215.4 217.8 220.2 221 218.9 209
266.8 272.1 273.6 272.1 270.2 272.7 273.3 274.3 274.6 274.3 274.4 274.6 276.9 279.3 279.6 281.1 282.1 284.2 286.8 287 287.3 284.3 282.1 283.5 281.8 284.5 291.6 294.5 296.2 297.3 299 301.7 306.5 309.9 311 312 313.3 316.3 318.3 318.1 307.6 300.9 294 285.4 267.5 252.8 244.9 240.1 233.4 223.6 223 223.2 226.5 245.9 258.1 271.6 281.6 289.7 296.5 306.7 320 325.1 325.7 324 322.2 321.3 320.8 319.7 315.4 312.3 309.7 307.5 311.9 315 317 313.5 307.2 300.8 291.1 285.1 279.8 275.2 285.4 300 314.8 321.1 326.4 329.8 333.3 339.4 347 354.7 360.4 360.6 357.5 355.7 357 360.9 363.3 364.7 365.2 362.9 361.1 358.1 355 353.6 353.2 354.2 355.6 355.7 355.8 352.8 349.7 348.2 346.7 346.7 346 343.7 340.1 336 334.5 332.8 330.6 326.2 321.2 320.2 321.7 324.7 325.9 326.5 326.1 323.7 325.2 328 328.7 329.4 330.1 329.8 329.5 329 328 326.9 325.7 323.7 318.5 312.6 314.5 320.3 324.1 325.5 326 326.1 325.1 323.6 323.5 323.1 322.4 320 316.7 313 309.4 306.2 302.8 305.7 308.4 310.7 313.7 314.1 314 312.4 309.3 304.5 299.3 295.5 292.5 288.6 285.4 282.6 279.7 277.2 275.7 275.2 271.5 267.8 262.5 255 245.5 237.7 230.5 224.3 219.1 214.5 208 215.3 218.7 220.8 222.5 223.5 222.7 220.9
263.5 267.5 271 271.5 270.5 270.8 271.3 271.4 270.1 270.9 272.6 271.4 273.3 274.9 274.3 277.9 278.4 279.7 281.1 281.1 279.4 278.8 279.3 276.3 278.2 286 290.1 292.1 293.6 295.3 297.2 299.6 303.8 306.2 306.5 308.9 312.3 317 320.4 318.9 308.3 300.3 293.6 284.9 269.4 252.6 245.8 241.8 237.5 232.4 226.2 224.5 221.7 233.9 249.3 264.9 276.1 284.5 292.5 302.6 316.7 322.1 325.2 323.5 321.9 320 317.7 316.1 312.7 311.1 309.1 306.9 310.7 313.9 314.3 307.6 297.9 290.2 276.5 275 275.3 279.7 292.5 301 315.9 321.2 328.2 329.4 333.3 338.7 347.7 357.5 362.8 364 361.5 358.2 354.3 356.5 355 354.5 357.1 357.1 356.9 356.2 354.9 354.3 354.3 355.3 356.6 357.4 357.8 355.6 351.4 350.1 348.8 348.6 347.4 344.7 342.4 339.7 337 334.5 331.9 329 325.8 320.9 318.6 319.4 321.8 323.9 324.2 322.3 326.1 327 328.2 328.9 329.4 329.2 328.6 328.1 327 325.7 325.1 323.8 320.7 314.7 318.1 322.2 323.4 325.2 325.2 324.9 324 322.7 321.8 321 320.3 319.1 317.2 314.1 310.3 306.1 305.4 309.7 312.1 315.3 317.6 318.2 318.1 317 314.1 309.1 303.7 299.5 295.6 290.3 286.8 283.8 281.4 279.2 277.5 275.9 272 268.2 263 255.8 246.8 239 231.5 223.9 219.7 215.5 213.2 219.1 221.9 223.9 225.2 226.1 226.5 225.5
259.4 262.8 266 269.3 269.9 268.1 269 269.1 266.3 268.1 268.6 269.1 271.4 270 273 274.2 274.8 275.4 275.5 275.5 273.7 271.6 273.2 273.5 280.6 285.8 289.1 290.7 293 293.1 294.9 297.1 300.4 301.9 304.7 308.1 312.8 318.1 321 318 308.7 300.7 293 285.7 269.2 254.8 245.1 240.9 236.3 234.1 232.4 227.8 222.9 227.5 242 258.7 270.7 279.2 287.6 298.3 311 319.1 323.6 323.7 322.1 319.5 315.9 313 310.5 309.3 308.9 307.1 309.8 312.2 308.8 298.2 280.2 273 272.9 276.1 284.5 300.8 310.6 310.5 317.1 322.3 328.7 330.4 334.7 339.7 346.3 355.6 360.8 364.2 364.1 359.9 355.2 349.8 347.9 345.9 348.2 351.1 352.2 352.2 354 355.3 355.9 356.9 357.9 358.9 359.7 358.8 355.9 353.3 350.5 349.7 347.6 345.5 343.1 340.9 337 334.9 331.7 329.3 327.2 324.5 320.5 317.6 318.4 319.8 320 323.2 326.1 326.9 327.6 328.3 328.7 328.9 327.9 327.1 325.7 324.1 322.9 322.2 319.9 312.5 318.9 323 323.7 323.9 323.8 323.6 322.9 321.8 319.3 318.1 316.8 315.9 314.1 312 309.8 306.8 309.6 314 317 319.5 321.5 321.8 323.2 321.3 318.3 313.8 308.4 303.5 298.4 292.8 288.4 284.6 281.2 280 276.5 274.6 271.4 268 262.8 255.9 247.3 238.9 231.1 225.6 222 217.7 216.9 222.2 225.2 227.1 227.9 228.9 230.8 230.3
254.2 258.8 262.1 265.4 270.1 268.7 266.6 266.7 265 266.5 266.9 267.8 267.4 268.5 270.8 269.9 270.2 269.6 270.4 270.2 269.3 268 269 276.1 283 288 289.7 291 291.7 289.4 291.5 293.7 296.1 300.5 304.7 308.7 313.9 318.3 320.7 315.7 308.4 301.2 293.1 284.5 266.5 252.1 244.2 240.9 237.6 234.4 233 231.6 225.2 223.8 236.4 252.5 263.6 272.3 283 294.2 304 315.7 320.7 324 322.6 320.1 316.6 312.6 309 305.7 303.4 306.9 309.7 309 301 284.1 272 284.1 297.5 306 314.4 321.6 323 322.9 321.2 324.7 330.3 332.4 335.7 340.7 345.6 352.7 358 361.5 363.7 366.4 359.8 351.5 343.2 340 341.5 344.5 347.1 349.8 353.4 356.3 357.6 358.6 359.6 360.4 360.3 359.2 357.7 355.4 352.2 349.7 347.6 345.5 342.2 338.7 335.9 333.7 329.6 326.9 325.9 324.5 322.1 318.9 316.6 320.2 322 323.9 325.7 326.3 327 327.6 328 328.4 327.6 326.8 325.6 323.9 321.7 320 316.7 309.8 317.9 321.6 322.8 323.5 323 322.1 321.3 320.5 319.8 317.9 316.4 313.8 312.3 309.8 308.2 309.3 312.9 316.2 319.4 323.1 325.7 327.5 328.3 324.8 322 318 313 306.9 301.1 295.5 290.5 286.3 282.5 279 276.4 273.2 269.4 264.8 260 253 246.4 238.9 233.6 228.9 224.7 219 221 226.9 230.2 231.6 232.3 232.9 234.5 234.1
251 254.7 257.6 260.5 266.3 266.9 264.7 265.6 264.4 264.3 266.8 266.6 265.2 267.5 267.9 267.1 265.7 265.9 266.8 267.4 265.6 266.5 271.2 277.7 283.8 286.3 287.4 285.3 286.7 286.3 289.9 294.1 298.6 302.2 306 310.3 315.2 318.6 320.8 315.4 308.2 302 294.3 288.2 270.6 250.9 240 235.6 235.9 233.1 231.3 231.4 225.2 222.5 234.5 247 254.5 264.1 279.2 290 297.7 308.8 317.9 320.7 322.3 320.9 317.6 313.6 309.7 305.6 300.2 305.5 306.7 304 295.8 274.9 280.8 302.7 316.8 322.1 326.8 329.2 329 328 327.1 328.2 330.5 334.3 337.4 341.3 346 349.9 354.9 358.2 362.3 374.8 366 355.3 340.4 336.1 336.5 338.3 341.5 346.8 351.2 355.1 358.6 360.5 361.5 361 360.8 358.9 357.8 356 352.9 349.8 347.6 344.5 340.3 339.2 334.1 334.3 327.3 325.1 322.8 321.1 320.7 319.3 315.6 320 322.9 324 325.2 325.8 326.4 326.8 327.2 327.7 327.4 326.6 326.2 324.6 323.6 321.7 318.1 309.7 312.1 318.1 321.5 322.3 322 321.9 321.8 321.6 320.8 318.9 316.3 314 312 310.4 310.1 311.2 313.5 316.6 319.6 323.1 327.3 330.3 330.8 327.9 324.1 319.8 314.8 310.1 304.1 298.2 292.7 288.2 284.2 280.6 276.7 272.7 268.4 263.9 259.2 254.5 249.8 243.7 238.3 231.9 225.3 222.5 228.1 232.9 235.8 236.8 237.8 239 240.1 240.9
248.2 251.2 253.4 254.8 258.5 261.8 261.1 263.5 263 261.4 264.7 265.6 261.9 265.6 266.5 265.8 262.6 263 264.6 262.8 264.2 268.7 273 278.6 283.7 284.4 283.6 284.8 280.8 287.1 290.7 295.6 300.8 305.3 308.9 312.7 315.7 318.5 320.6 317.1 310.4 304.1 296.3 289 263.8 246.5 237 231.6 232.1 230.8 228.1 229 224 222.4 230.8 240.4 247.2 255.4 273.8 287.8 294.4 300.4 314.1 318.3 320.3 320.6 318.8 314.8 312.1 308.1 302.3 294.9 303.3 299.1 291.1 270.2 291.8 309.2 320.9 325.6 329.3 332.1 332.5 332.2 331.6 332.8 334.9 337.3 340.2 341.8 345.3 348.6 352.2 356.1 363.3 375.4 369.3 357.8 342.9 333.8 332.4 333.9 337 343.7 348.2 353.7 357.3 360.9 363.3 363.2 361.7 359.8 357.7 355.8 353.3 350.3 347.7 346.1 344.1 342.3 340 336 329.9 326.7 323.9 322.3 319.8 317 315.1 318.8 322.4 324 324.5 325.1 325.7 326.1 326.6 326.6 326.5 326.1 325.2 324 322.8 322.7 320.3 313.6 309.1 314.1 318.9 321.7 321.6 321.5 321.3 321.2 321.1 320 317.9 315.7 314.1 312.6 312.6 313.3 314.3 315.6 317.6 323 324.2 329.9 330.9 327.5 324.5 320.7 316.8 312.8 307.2 300.9 295.4 290.3 285.8 282.2 278 274 269.9 265.4 261.6 257.5 253 247.1 239.2 231.2 226.8 232.3 238.1 241.2 242.8 244.3 245.8 247 247.5 247.2
246.2 248.7 249.9 250.9 253.1 255.9 259.4 261.2 261.6 259.2 262 263.8 261.5 263.7 264.3 264.3 262.5 260.4 259.9 263.9 267.7 270.5 274.7 281.6 284.1 281.4 280.7 280.1 280.6 286 290.7 297.2 302.9 307.5 311.5 314.3 315.3 317.6 316 309.1 304.6 302.1 297.1 272.7 254.8 243.9 236.9 230.7 228.7 225.9 222.9 224.7 221.7 224.3 233.8 246.1 246.1 251.2 266.6 284.9 291.6 296.8 303.2 314.9 318.5 320.3 319.9 316.9 314.4 311.9 305.5 297 286 290.5 286.7 269.7 293.3 306.4 319.4 326.1 330 333.1 335.1 335.3 334.9 336.4 338.1 331.3 342.1 343.1 343.7 345.4 349.4 353 360.5 368.1 364.8 356.1 341.6 332.5 331.1 331.4 334.8 339 345.1 350.5 355.3 358.5 362.2 363.3 361.8 360.4 358.5 356.1 354.3 352.4 350.7 349.4 348.1 346.7 343.7 340 334.7 330.6 327.6 324.7 322.6 319.9 314.7 315.7 320.6 322.2 322.3 322.6 323 324 324.8 325.1 325.3 324.8 323.9 322.8 321.9 322 320.5 317.2 309.2 310.3 317.2 320.1 320.6 320.5 320.4 320.2 320.4 319.4 318.2 317.4 316.1 314.8 313.9 314.6 315 310.6 315.6 320.6 322.3 325.6 327.9 325.5 323.5 320.9 318.1 314.4 310.2 304.1 298.2 293 287.8 283.6 279.4 275.2 270.6 265.8 261.7 258.5 253.9 245.8 237.9 234.1 234.7 242.1 245.4 248.3 251.1 252.5 253.7 254.2 253.5 251.9
243.8 246 247.4 247.5 250.1 253.2 256.7 259.5 259.9 258.1 260.6 261.5 259.4 262.2 262.5 261.5 260 258.7 261.4 266.3 268.3 272.2 276.3 280.3 280.5 280.7 279.8 278.2 277.4 284.9 290.9 297.5 303.7 309.2 312 313.2 313.2 310.4 302.8 297.9 298.6 296.9 276.1 264.1 248.5 241.6 235.5 228.5 224.6 223 221.9 220.4 222.5 228.3 235.9 247.9 250.8 250.8 259.3 281 288.4 293.4 299.3 305.9 315.9 319.7 320.3 318.1 316.1 314.5 311 304.8 293 276.5 277 274.4 293.5 304.6 314.7 324.2 329.2 332.9 335.1 336.4 337.1 338.5 340 342.3 336.6 342.3 340.8 340.5 343.3 347.1 353.9 358.4 356.3 351 339.9 331.6 329.7 330.3 333.1 336.5 338.9 345.5 352.2 356.4 360.4 362.1 362.4 360.9 359.6 358 357.3 356.4 355.4 354.4 353.6 351.6 346.9 342.5 338.4 334.2 331.1 327.1 324.4 320.2 317.1 314 315.8 318.5 318 317.9 318.8 320.7 322 322.6 323.3 323.3 322.7 321.4 319.7 319.9 319 317.4 312 307.9 316.9 318.4 318.4 319.4 319.4 319.4 319.8 318.7 317.8 317.1 316.5 316 315.3 314.3 315.9 305.8 313.3 316.5 316.8 320.1 322.9 323.2 321.9 321.3 319.3 316.1 312 307.5 300.9 295.3 289.8 284.7 281.3 276.2 270.4 265.7 261.1 256.4 251.1 248.5 244.7 239.2 239.1 248.4 253 255.6 258.2 260 259.3 259 258 256.4
241.8 242.8 244.3 244.9 247.6 250.4 253.9 257.5 257.4 257.7 259.3 258.6 257.3 259.8 260 259 255.8 260.4 264.8 267.7 269.8 273.7 276.4 277 278 279.9 280.4 278 273.1 282.6 291.1 297.9 304.1 307.4 309.3 307.8 301.4 295.6 292.9 293.3 294.6 285.3 268.8 259.9 248.2 239.9 234.7 227.5 221.7 220.9 220.9 228 233 233.9 239.5 248.9 254.1 252.3 255.9 274.6 286.5 291.3 296.6 301.3 311.6 317 318.4 317.8 318.2 317.8 313.8 307.6 289.4 272.3 269.5 285.7 300.8 311.7 319.2 321.7 328 332.5 335.4 336.6 337.9 339.5 340.5 341.7 341.1 335.8 336.7 335.8 337.3 340.6 347.2 351.6 350.3 345.2 334.8 330.3 328.2 330 332.8 334.6 336.1 339.9 345.1 353.7 358.5 361.3 362.1 361.3 360.3 359.7 360.1 360.5 362.7 361.1 359.6 355.2 348.6 343.2 339.2 334.7 331.8 327.7 324.3 321.1 320.1 316.7 313 311.4 310.5 310.7 311.9 316.6 318.3 320.4 321.2 321 320.5 319.1 317.1 316.8 316.7 316 308.9 309.5 317 316.8 316.2 317.2 318.2 318.6 319.4 319.2 318.5 317.8 317.2 316.7 314.5 314.4 315.2 305.3 301 303.2 304.5 315 319.6 321.6 321.7 321.2 319.8 317.3 314 309.1 303.4 298.5 293.2 288.1 282.9 276.9 269.9 265.2 260.8 257.9 258.1 255.8 250.2 243.4 244.4 252 258.8 263.2 265.8 266.2 264.3 263.7 262.2 260.2
239.2 239.8 240.4 243.3 245.3 248 250.3 253.4 254.6 255.3 254.8 253.3 253.5 253.5 253.8 254.7 260 263.6 266.2 268.9 272.1 275.7 279 279.2 280.4 281.2 281.6 279.7 268.9 279.2 288.9 297.9 302.3 301.7 298.4 294.2 288.2 287 287.3 288.6 290.7 290.6 274.3 252.4 243.7 236.7 231.2 224.7 220.5 220.4 226.6 239.5 246.4 247.4 244.7 249.2 257.4 253.9 256.4 266.4 282.2 289.2 293.7 298.2 304.7 311.2 313.8 316.6 318.7 319.8 316.8 302.8 280.5 268.2 278.7 295.3 313 326 327.6 328.1 329.8 332.9 335.7 337.3 338.4 338.3 338.9 337.9 337.1 334.5 329.1 330.6 332 334.7 340.5 346.2 344.4 336.9 332.4 328.5 327.1 329.4 331.7 333.3 334.8 337.8 342.6 349.5 356.2 360.2 362.5 361.7 361.5 361.2 361.8 364.2 367 368.5 365.4 357.8 351.1 344.7 339.5 334.9 331.2 328.2 327.2 324.9 324.8 324.5 321.3 318.5 315.9 313.4 308.9 310 314.4 318 318.7 318.5 317.6 316.4 312.6 313 312.8 311.5 304.5 312.9 317.2 316.1 314.6 315.8 317.2 318 319.5 319.4 318.9 318.5 317.8 316.6 314.9 314.2 314.5 312.4 302.4 302.6 293.8 297.6 316.5 318.9 320.9 321 319.2 317.3 314.5 310.1 305.2 299.7 294.3 288.9 283.4 276.9 271.8 266.5 262.7 263.1 263 261.1 254.7 247.7 250.7 256.4 262.1 266.4 270.3 271.3 269.3 267.9 266 263.9
236.9 237.7 239.2 242 241.8 241.3 242.1 244.7 247.3 251.2 249.5 250 257.9 259.2 255.4 261 263.2 265.8 268.3 271.5 274.9 278.5 280.4 280.5 281.4 280.9 281.6 277 266.6 273.9 282.6 292.2 290.6 286.3 283.5 281.4 280.1 281.3 282.6 284.6 287.3 290.9 274.7 248.8 239.4 233.3 227.9 220.3 219.2 225.4 231.8 242.1 251.2 257.1 260.2 257.6 255.1 254.5 257.4 271.5 285.7 288.6 292.7 296.8 301.2 305.9 309.7 314 317.1 318.4 315.9 300.3 272.4 272.1 290.6 312.8 326.6 331.9 332 332.5 333.9 335.1 336.8 337.2 335.6 335.6 334 332.3 331 328.8 326.9 326.1 327.6 329.7 333.4 341.9 341.4 333.8 330 326.2 325.1 329.9 333 334.4 334.8 336.9 340.8 346.6 354.3 358.6 362.1 362.7 362.3 362 362.7 365 368.9 371.7 369.4 362.4 355.3 347 340.8 336.4 333.7 330 329.3 328.3 328.8 328.3 326.8 324.4 321.3 315.2 310.4 308 308.4 312.5 315.5 314.1 311.6 310.5 306.5 304.7 306.1 305.7 304.2 313.5 315.6 314.4 312.8 314.7 316.6 318.1 319.5 319.7 319.2 318.7 318.2 317.1 315.3 314.1 313.2 312.4 311.5 286.3 301.7 313.7 315.3 316.2 318.3 319.4 317.9 316.7 314.9 311.1 306.5 301 295.7 290.8 286.5 282.1 276.5 270.2 266 266.9 267.5 265.5 260.6 250.3 257.7 261.8 266.1 269.4 274 276.4 274.6 271.6 269.7 267.5
233.8 232.5 234.4 238.2 239.9 238.8 242.8 248.9 251.6 249.3 253.5 258.7 262.1 263 260.9 261.2 264.9 267.5 270.5 274.2 277.6 279.4 281.3 281.7 281.2 280.7 279.6 274.3 266.4 266.6 273.4 276.8 276.8 276.2 276.7 276.3 274.7 275.2 280 282.3 284.7 286.7 261.4 247.6 237 230.3 224.9 220.4 224.5 229.8 235.3 243.7 254.1 259.6 267.7 266.8 255.4 256 264.6 281.5 289 291.6 294.9 296.9 299.6 302.9 306.5 309.9 312.1 313.3 312.1 288.9 266.7 276.9 300.8 318.7 328.5 333 335.8 336.8 337.9 338.2 337.5 336 333.8 332 330 328 325 322.5 320.9 321.7 323.2 324.6 327 336.9 337.3 332 328.3 321.8 326.4 331.4 333.8 336.1 337.4 338.1 340.3 345.2 352.8 357.1 360.5 361.4 362.1 362.1 363.3 365.2 368.2 369.8 370.6 364.8 358 353 346.5 339.9 335.8 333.2 331.7 330.6 330.3 329.7 328.3 325.3 319.2 316.4 317.5 313.3 309.1 307.1 305.9 306.9 304.5 303.4 303.9 303.7 302.5 301.6 307.8 312.7 313.3 312 310.8 314.7 316.5 318.1 319.6 319.9 319.5 319 318.4 317.3 315.8 314.3 313.7 313.3 311.9 300.6 309.6 312.1 314.3 315.3 316.2 316.5 316.7 315.4 314.3 311.3 308.3 303.4 298.2 294.7 290.9 286.6 281.1 274.9 270.1 270.4 270.7 269.5 260.8 258.3 266.5 271.9 273.9 275.7 278.7 279.5 277.9 275.7 275.2 273.6
232.3 232.9 233.9 239 246.1 251.2 253.5 256.1 257.4 259.5 260.8 263.6 265.1 264.8 263.9 263.5 266.2 268.5 271.3 274.5 277.5 279.4 281 280.4 280.2 280.2 277.3 270.4 263.7 259.2 264.4 269.3 270 271.2 271.8 270.7 269.2 273.2 277.4 279.9 283.2 282.8 260.3 244.2 235.9 229.6 220.5 219.6 225.1 230.1 236.4 245.5 257.1 261.2 266.8 264.8 255.5 257.5 270.2 283 289.8 294.4 298.4 300.6 302.1 303.3 305.3 306.2 307.6 307.3 305.2 286 265.5 279.2 301.4 315.8 326.6 333.3 337.1 338.3 340.1 340.6 338.5 335.3 331.3 328.4 326.3 323.9 320.6 317.9 316.2 317.4 318.8 320.2 323.7 333.1 330.4 328.9 324 318.8 328.2 333.1 335.5 337.8 340.2 341.4 343.4 346.1 351.1 355.4 358.1 359.5 360.2 360.7 361.5 363.8 366.1 368.8 370.2 366 360.3 354.7 349 343.4 338.1 334.3 333.3 332.7 331.1 329.5 327.7 322.2 321.2 325.3 324.6 320.6 317.9 313.7 310.5 309 309.7 311.2 312.1 311.3 306.2 305 307.3 310.4 311.6 308.5 309.4 313.9 316 318 319.6 320.2 319.7 319.3 318.5 317.5 316 314.5 313.8 312.9 311.3 308.9 310.9 312 313.1 314.1 315 315.6 315.3 314.1 313 312.4 310.1 307.4 301 297.3 293.6 289.5 283.7 277.9 273.6 273.6 273.1 268.5 257 267.8 277.9 280.7 282.7 282.5 282.2 282.6 281 280.4 280.7 278.7
237.3 240.5 241.5 244.6 258.2 259 258.5 258.6 260.9 264.4 266.3 267.6 266.7 265.6 264.6 263.6 266.9 269.4 272.3 274.4 276.2 279 280.6 279.4 278.7 279 275.6 266.8 261.3 257.5 258.9 264 265.3 267.1 267.5 265.9 267.6 272.1 274.9 278.4 281.7 278.9 260.9 242.3 236.1 228.6 220.7 220.7 224.9 230.1 236.7 246 260.2 261.8 265.1 263.6 256.1 261.5 276.6 287.2 292.9 298 302.7 304.8 308 310 310.8 308.2 306.2 304.2 300.1 287.3 266.9 266.3 282.7 305.9 322.6 331.6 336.5 338.3 340 340.3 337.6 333.8 329.5 325.3 322.4 319.5 316.8 314.1 313.2 313.6 315.1 316.4 319.1 323.2 324.1 323.5 316.8 321.9 330.8 334.6 329.1 343.4 346.3 347.8 347.8 347 349.8 353 356.2 357.3 357.8 358.4 359.5 361.5 364.7 368 369.9 365.9 360.9 354.9 350.6 344.6 339 335.8 334 332.1 330.4 327.6 323.7 324.4 328 329 328.8 327.5 325.1 320.8 319.2 317.8 317.4 315.7 314.3 312.7 309.3 304.3 299.1 304.1 309.5 304.5 308.4 312.1 315.1 317.4 319.5 320.5 320.1 319.6 318.6 317.4 315.8 314.1 312.9 311.6 310.2 307.7 310 311 312 312.9 313.9 314.3 314.8 308.6 304.3 311.6 310.6 308.4 304.5 298.9 296 291.9 286.1 280.6 276.4 272.6 271.6 262.5 266.3 276.9 285.3 288.5 290 289.2 287.9 285.2 284.6 284 283.5 279.8
230.7 240 244.3 248.2 260.4 259.7 258.6 260.1 262.3 267 270.4 267.2 265.7 265.5 265.4 266.3 267.2 270.3 271.2 272.3 274.3 277.6 280.2 278.8 278.5 275.7 271.3 264.3 260.3 257 253.6 258.3 261.7 263.1 263.4 261.6 267.1 269.6 272 275 277.5 275.8 255.7 241.4 234 227.1 220.4 221 224.3 230.1 236.4 246.7 257.6 259.5 259.9 255.3 255.3 271.2 283.2 291 295.3 299.5 305.2 309.6 313.1 316.2 316.9 314 310.2 306.9 304.2 300.7 287.1 264.5 268.5 287.3 313.3 328.4 334.2 336.8 338.3 336.9 335.1 331.8 327.5 323.3 319.4 316.3 313.6 310.9 309.8 311.2 312.5 313.5 315.9 318.9 320.1 321.6 313.7 325.5 325.3 324.9 325.3 326.1 349.6 351.7 351 348 349.1 350.6 353.3 354.7 355.2 356 358 360.9 364.4 368.3 370.3 366 358.9 351.4 347.8 343.1 337.5 334.6 333.3 331.2 328.1 325.5 327.3 329.6 330.7 330.7 330.6 329.4 327.8 326.2 325.3 324 321.6 319.7 317.8 315 310.8 306.2 299.8 298.1 301.8 300.9 306.3 309.8 312.7 315.2 317.2 319.5 320 319.5 318.2 316.8 315.4 313.9 312.5 310.5 308.6 306.3 308.3 309.8 310.7 311.4 312.7 313.7 313.6 308.1 309.6 307 308.5 307.5 304.9 300.3 297.6 294.2 288.7 283.2 278.1 272.8 265.5 264 272.1 281.2 288.7 293.8 295.3 294.7 290 287.1 286.5 285.9 284.6 281.8
236.2 241.2 244.2 248.7 258.2 258.8 257.6 258.5 261.8 266.6 268.3 265.9 264.1 264.6 266.5 267.3 267.3 268.9 268.5 269.8 272.1 275.1 277.1 277.8 278.5 276.1 268.7 262.9 259.6 256 252 254.5 258.9 260.9 258.5 263.3 266 268.3 270.6 272.9 274.9 273.5 251.5 238.7 230.7 225.2 220.6 219.2 223.3 228.7 236.6 245.8 259.2 260 255 252.4 259.6 273.7 283.6 291.5 296.5 301.3 307 311.1 315.2 319.2 320.7 321 317.8 312.7 309.4 307.4 300.9 285.1 264.2 273.6 297.9 323.4 331.2 334.2 335.2 333.5 331.8 329.9 326 322.2 318.2 314.1 310.8 307.7 306.2 308.7 309.4 311.8 313.3 314.8 314.8 309.7 320.3 325.9 325.2 329.3 325.4 326 330 353.8 350.9 345.1 346 347.9 350.1 351.5 352.4 353.5 356.3 359 362.3 367.3 368.6 364.6 356.4 348 343.6 340.3 336.3 333.2 331.6 329.7 331.9 330.9 331.2 332 332.1 331.9 331.2 330.7 329.6 329.2 328.9 327.7 325.5 323.3 321.1 318.8 314.7 310.9 306 300.2 299.2 297.6 300.2 304.5 308.2 311.5 313.7 314.6 316.2 316.9 316.7 316.3 314.9 313.8 312.8 310.7 308.6 305.5 305.6 307.7 308.3 310.4 313.1 313.2 313.3 312.9 312.2 309.9 308.2 305.2 303.8 301.9 298.3 294.5 290.8 285.8 279 272.7 266 271.3 277.9 284.2 291.5 296.5 300.2 299.3 295.1 289.7 287.4 286.3 285.3 283.8
237.8 241.3 243.5 246.9 257.5 259.3 256.9 256.8 261 264.2 265.6 264.4 262.6 264.3 264.8 264.4 265.7 267.1 266.8 269.2 272.2 275.3 276 276.4 277.5 275.8 266.9 260.2 256.1 253.8 250.3 252.2 256.2 255.6 260.5 263.1 265.4 267.7 270 274.3 276.9 270.9 246.5 235.3 227.5 223.8 218.2 218.5 224.5 229.5 236.5 245.5 264.2 261.6 252.8 250.6 263.3 276.7 284.9 291.5 297.2 303.3 309 312.5 316.4 320.3 322.4 323.2 321.4 317.6 314.2 309.4 302.4 289.7 272.6 263.9 287.3 317.9 329 332.2 333 332.7 331 328.5 324.9 321.1 317.1 312.5 307.6 304.2 299.1 301.7 301.7 308 308.1 306.6 306.3 312.4 321.8 322.8 328.4 332 338.4 332.4 326.8 353.7 348.9 343.9 343.8 345.5 346.9 347.9 349 351.2 353.2 356.9 360.9 363.5 365.5 362.3 355.1 346.8 342.2 338.8 335.5 333.1 331.3 332 332.7 333.5 334.2 333.7 333.3 332.9 331.7 331.3 331.3 331.4 331.3 330.2 328.7 326.5 324.3 322.1 318.5 314.7 311.4 307.3 303.5 299.6 296.4 297.5 301.1 306.4 308.2 309.4 310.9 312.8 313.5 314.1 314.7 314.9 314.1 312.3 309.8 305.8 301.8 304.1 308.4 310.9 312.8 313.2 312.9 313.5 312.6 310.2 307.7 305.6 304.9 303.2 299.2 293.7 288.6 283.9 276.6 270.1 270.6 280.6 287.5 291.2 294.4 299.7 303.7 302.9 298.6 292.5 288.7 287.7 288 286.9
236.9 240.3 242.5 245.3 252 258.2 255 254.1 257.3 260.3 262.8 262.6 261 260 262.2 265.3 266.5 265.6 265.8 268.8 272.1 275 274.6 275.7 277.2 273.1 263.5 257.1 253.4 250.9 247.9 249.4 252.3 257 260.7 262.6 264.8 267.1 271.4 274.6 274.8 262.5 239.1 231.1 225.5 222.8 218.2 221.1 225.1 230.1 236 244.7 256.3 261.2 248.9 249.1 263.7 276.8 285 290.7 296.1 302.9 309.3 312.8 316.6 320.8 322.1 322.4 321.3 318.2 314.5 309 299.7 288.1 276.3 262.5 288.1 317 325.6 328.7 330.3 331.1 329.7 327 323.9 320 315.5 311.2 306.5 297.9 291.8 291.7 294.2 296.1 298.4 300.7 303 311.6 318.2 322.8 325.4 329.9 335.9 343.7 349.1 349.9 346 340.9 341.7 342 342.3 344.8 346.1 348 350 353.4 356.6 360.5 361.7 360.7 353.3 347.7 343.9 339.2 335.8 334.7 333.7 334.5 335.3 336.1 335.7 334.6 334.5 333.4 332.1 331.3 332.2 332.6 333.7 332.6 331.1 329.3 327.5 325.3 322.3 319.3 315.4 311.9 308 307.2 302.9 296.3 294.9 297.1 298.7 300.4 301.8 304.9 309.4 310.3 312.2 313.3 314.5 313.5 310.7 306.7 302.7 300.5 307.3 309.9 311.1 312.1 312.5 313.5 313.2 311.5 309 307.8 307.1 305.3 302 297.5 290.7 282.2 274.5 270.3 279.5 287.4 295.7 298.8 300.9 303.2 305.4 303.9 300.3 294 290.1 290 290.4 290
235.1 239.1 240.8 243 247.2 254.8 254.2 252.4 254.1 256.3 259 260.2 257.2 262.9 264.6 264.5 264.3 263.7 265.1 268.4 271 271.9 273.4 275.3 276.4 268 259.8 254.7 250.8 247.6 245.9 252.7 255.4 257.2 260.5 262.5 264.7 267.1 269.6 272.2 266 247.9 234 227.5 224.2 221.2 218.2 221.5 225.4 228.6 235 242.1 250.3 258.3 246.5 246.9 263.1 274.5 283.6 289 294.8 300.9 306.4 311.5 315.9 320.3 321.8 320.9 319.6 317.4 313.5 307.8 296 283.9 268.8 264.4 297.7 315.8 321.7 325 327.5 328.7 327.9 325.5 322.8 318.9 314.9 310.8 303.5 290.5 296.1 307.8 308.3 308.3 309.8 304.5 308 312 316.1 323.9 326.3 330.9 333 336.6 343.8 345.8 340.5 334.6 331.8 338.7 340.7 343.1 343.6 345.4 347.3 349.1 352.2 355.7 358.2 358.1 354.7 349.3 346 342.1 338.8 336.6 336.1 336.9 337.7 337.9 337.6 336.6 335.5 334 333.4 332.2 332.4 334 335.4 334.7 332.9 331.1 329.3 327.6 326 323.4 319.3 315.9 312.6 310 304.5 297.6 295.3 293.4 293.1 292.6 292.1 291.4 297.1 304.2 306.6 308.8 311.9 312.4 311 308 305.1 298.1 300.9 306.5 308.6 310 311.2 312.9 313.5 313.4 311.1 310.3 308.4 306.3 303.7 299 293.6 287.1 278.2 274.4 283.7 292.1 299.3 305.6 306.3 306.7 306.3 304.3 299.8 294.5 291.1 292.4 293 293.2
235.3 237.1 238.8 241.2 245.1 250.4 253.1 250.8 251.5 252.8 255.2 254.2 258.7 262.8 263.1 262.6 261.9 261.1 264 267.2 269 270.7 273.1 276 271.2 262.7 256.2 252.3 248.3 246.1 245.8 251.4 254.3 258 259.9 262.8 265.7 268.2 270.7 268.8 254.9 240.9 232.4 226.9 223.2 220 218 222.4 225.3 228.2 233.1 238.4 244.2 253.8 246.7 244 258.2 272.7 280.6 286.3 291.7 297.3 303 308.3 313.2 317.4 320.6 320.8 319.5 315.8 311.2 306.2 292.5 281.4 262.4 279.9 300.6 312.1 317.5 320.8 323.6 325.5 324.9 322.9 320.4 317.4 313.8 308.1 295.9 289.4 305.4 310.3 312.9 314.1 315.5 312.6 324.7 325.8 322.3 323.9 323.9 325.1 326.8 330.6 335.2 338.1 332.8 319.5 319 338.8 343.2 345.3 345.1 344.2 345.8 347.5 349.2 351.4 353.9 355.5 353.4 350.9 347.3 344.2 341.2 339 338.3 339.1 339.1 339.2 338.4 337.5 336.6 334.9 333.7 333.6 332.9 334.3 335.1 334.7 333.4 332.1 330.8 329.2 326.8 326.2 322.5 319.9 315.4 308.2 301.2 300 300.3 302.8 306.8 307.8 301.7 298.5 291.3 290.2 296.1 300.8 305.3 309 309.4 309.1 308.1 301.3 293.4 299.9 304 306.7 310.2 312 313.6 313.6 313.3 311.1 309 306.9 304.2 300.3 293.5 287.9 281.2 275.3 286.4 293.7 300.8 307.7 310.6 310.9 309.9 307.4 301.5 295.2 294.1 294.9 296.2 296.3
232.4 235.3 237.7 240 242.3 246.5 250.8 249.6 249 249.8 251.2 255.4 259.9 261.4 261.1 260.6 260.1 260.6 262.9 265.3 268 271 273.9 274.1 267.2 258.5 253.7 251.3 248.8 244.1 245.4 250.8 253.8 256.6 259.5 262.2 265 267.8 270.4 262.7 250.4 237.6 230.3 226.6 222.1 218.7 217.9 221.9 225.1 227.8 231 235.8 239.4 246.6 243.5 241.3 255.5 270.4 276.1 282.7 288 293.1 298.6 303.9 309.8 314.1 317.7 319.9 319.6 316.2 312 303.7 291.9 280.2 260.8 279.9 296.7 307.3 312.8 316.7 319.6 321.1 321 319.4 317.5 315.2 312 306.1 289.3 297.9 307.7 311.7 314.8 316.8 318 317.6 320.3 328.4 325.6 327.2 328.5 330.6 331.8 332.3 333.6 337.2 338.7 334.5 336.2 344 347 349 348.2 346 345.2 344.9 347.7 349 351 353 352.7 350.5 347.7 344.8 342.5 341.3 340.5 340.5 340.4 340 339.1 338.3 337 335.9 334.7 334 333.6 334.5 334.2 334 333 331.8 330.5 328.3 325.6 325.9 323.9 319 312.9 309.4 307.3 307.1 307.3 308.2 313.4 314.4 311.6 306.6 301.8 296.5 290.6 288.1 291.6 299.6 301.8 302.9 304 302.3 292.2 294.1 298.7 304.5 309.1 312.5 314.9 314.7 313.4 311 308.1 305.3 302.2 299.4 293.4 287 281.9 277.4 287.5 294.5 301.6 308.5 311.4 312.2 311.5 308.3 306.3 301.4 297.8 298.2 298.4 299.3
229 234.6 237.1 238.8 240.2 242.8 247.5 248.4 246.6 248.6 250.4 254.7 259 259.3 258.8 258.5 258.4 260.6 262.8 265.9 268 271.5 273.7 269 260.3 255.1 250 249.6 247.5 243.6 245.7 250.1 252.9 256.3 260 262.6 264.8 266.7 269 267.2 252.7 236.4 228.1 224.5 220.9 218.1 220 221.2 224.4 227.1 229.9 232.3 234.6 241.7 237.6 240.3 257.5 267.6 272.7 278.1 285 290.1 294.3 299.2 304.8 309.7 313.6 317.1 318.3 317.3 313.4 308.4 296.7 282.9 260.1 272.3 287.8 300.2 307.5 311.9 314.9 316.5 316.5 315.7 314.1 312.1 309.1 302.6 287.9 297.8 307.5 311.9 315.9 318.1 319.1 320.5 321.8 328.7 323.4 330.3 331.9 332.7 335.5 338.9 342.5 344.6 346.4 346.5 347.3 348.7 353.1 351 349.4 347.3 346 346.3 347.3 348.1 350 350.9 351.5 350.1 347.4 346.5 344.8 343.5 342.1 340.7 340.6 340.7 340 338.6 337.3 336.1 335.2 334.6 333.4 333 333.3 333.1 332.7 331.4 330.1 328.7 324.8 323.2 320.4 317.6 320.4 319.9 317 312.5 312.5 313.1 314.5 314.6 313.5 312.4 310.5 307 302 296.5 287.6 286.2 285.1 287 289.7 289 286.4 286.1 296.4 303.6 307 311.1 313 314.8 313.4 309.3 305.8 302.9 300.1 297.2 292.6 286.2 282.3 278.4 286.8 295 301.3 305.6 309.5 309.2 309.5 311.5 312.1 309 304.8 303.4 302.9 302.7
229.8 235 237.1 237.6 238.5 238.8 240.1 241.8 242.1 248.5 251.3 255.6 257.1 255.9 256.1 257.6 258.5 260.7 263.3 267.3 269.7 272.5 268.3 261.3 256.5 253.1 248.8 247.3 245.9 241.3 244.1 250 253 256.4 260.3 262.7 264.2 266.1 268.1 264.6 253.3 234.4 225.7 222.5 220 217.6 219.6 223.8 224.6 226.4 228.8 230.2 231.9 233.3 235.7 243.7 257 263.8 268.8 275.4 281.5 286.4 289.9 294.1 299.3 304.4 308.6 312.3 314.4 316.2 316.1 312.7 305.5 291.1 267.8 261.5 274.3 289.9 299.9 305.6 309.7 311.3 311.4 310.6 309.9 307.5 302.7 294.4 280.5 292.4 303.7 312.3 315.3 317.7 319.9 321.7 323.5 328.5 329.5 336.8 337 334.3 336.7 341 345.2 348 350.2 351.4 353 355.7 359.8 357.7 353.6 349.3 347.1 347.9 348 348.4 350 350.8 350.4 349.1 348.2 347.5 346.6 345.2 343.8 342.3 340.6 340.3 339.9 338.7 337.4 336.2 335 335 333.8 333.2 333.1 332.6 332.2 331.4 330.2 327.5 325.5 326.3 324.2 323.9 323.9 323.1 321.3 318.1 315.7 315.8 315.7 314.5 313.9 313 311.9 309.6 301.7 291.3 299.1 301.4 297.7 294.6 291.2 291.4 287.2 282.5 288.2 302.9 306 308.1 309.9 314.3 313.6 309.9 305.9 301.3 297.6 294.6 291.4 286.1 282.7 280 285.3 293.5 298.2 301.6 304.2 305.8 309.9 315.9 317.1 313.6 311.1 310.7 310.4 310.4
228.6 235.5 237.7 237.7 236.2 235 235.3 235.1 245.8 250.3 250.2 254.4 254.4 253.8 255.4 257 258.6 260.6 265 267.9 268.7 269.9 263.2 257.2 253.8 251.2 248.3 246 244.6 239.9 244.9 249.2 251.6 255.1 258.5 261.4 263.1 265 266.3 262.4 248.5 232.8 224.7 221 218.9 216.9 219.3 223.6 224.8 226 227.6 228.9 230.6 232.6 237.8 245.7 253.9 260.7 266.5 272.9 278.8 283.3 286 288.7 293.1 298.4 303.5 307.3 310.7 313.3 314.4 313.2 310.7 302.7 286.8 262.5 261 274.6 288.2 296.8 302.7 304.8 305.4 305.2 304 301.8 291 277.9 287.6 302.4 308 313.1 316.9 320.3 322.5 324 325.5 330.4 338.5 339.2 333.8 329.9 339.8 343.3 347.9 351.4 354.3 357.5 359.1 365 365.3 364.5 358.7 353.1 350.7 349.4 349.2 349.5 351 351.5 350.7 349.3 348.8 348.4 347.1 345.6 344.8 343.2 340.9 340.3 339.3 338.1 336.9 335.6 334.5 333.3 333.2 333.3 334.6 332.7 331.4 330.4 329.7 326.5 328.5 329.1 328.5 327.5 326.4 325.1 323.4 321.5 319.6 317.8 317 313.9 310.9 311.5 310 302.8 295.5 304.7 308.5 308.5 306.4 303.3 299.8 299.4 297.6 295.2 281.9 300.7 302.9 304.6 309.2 312.6 313 310.4 305.7 300.9 297.2 293.5 289.7 286.3 282.9 281.7 283.8 288.6 293 296.4 299.5 303.9 309.1 315.7 317 317.7 318.7 318.4 317.8 317.2
228.2 233.6 236.7 237.5 235.1 231.8 234.5 239.5 245.6 251.7 251.1 251.5 252.8 254.5 255.5 256.7 258.2 261 265.2 268.1 269.2 265.8 258.6 254.9 252.3 249.3 247.8 246.1 244.6 239.6 244.5 247.1 250.8 253.6 256 258.9 263.5 266.4 263.6 255.2 243.7 232.5 225.1 220.6 217.1 217.4 220.7 221.3 223.6 226.2 227.5 228.6 229.8 232.2 236.8 243.5 250.3 257 263.8 270.4 276 279.5 282.5 284.2 287 291 295.3 301.5 305.4 303.8 305.7 307.4 307.2 305.5 297.9 287.1 264.7 255.6 267.9 281.8 290.4 295 297.7 297.9 295.4 286.8 274.4 287.7 304.5 309.3 310.6 314.5 318.4 322.1 325.1 327.1 329.7 324 338.8 337.2 329.6 324.8 337 346.3 350.5 356.4 361.6 364 369.1 371 370.8 370.1 368.2 363.1 357.5 353.3 352.1 351.3 351.5 352.2 351.7 350.1 348.7 348.8 347.1 345.3 343.6 342.2 341.8 341.2 340.1 338.6 337.3 336.1 334.7 334.6 333.6 332.6 334.4 332.2 331.1 329.4 329.1 332.1 330.8 331.2 330.4 329.3 327.9 326.4 324.9 323.3 321 319.1 317.1 312.6 308.1 305.3 302.9 300.9 306.7 312.5 313.2 311.7 308.8 305.1 301.6 298.8 298.4 295.4 280.6 288.8 293.1 300.6 305.2 309.9 311 309.6 305.3 300.4 296.8 293.1 289.7 286.4 284.6 283.2 284.3 286.4 289.5 293 296.8 302.6 307 311.9 313.9 318.5 322.1 322.5 321.9 320.5
