ncols 200
nrows 82
xllcorner 280000
yllcorner 322050
cellsize 50
487.3 491.5 501.6 499.6 487 481.2 478.7 477.8 478.4 477.5 475.9 476.8 483.9 483.5 482.8 483.5 471.6 469.7 473.3 481.9 480.4 472.3 469.3 462.3 454.9 447.2 442.5 444.7 448.2 453.3 460.7 468.9 477.5 479.8 484.6 491.1 482.4 478.2 460.6 425 409.8 400.5 398 398.9 403.4 390.4 384.2 375.5 372.3 369.9 367.1 365.3 362.9 359.5 373 375 376.4 381.7 386.3 387.9 387 384.3 373.2 355.7 348.6 342.7 340.5 336.4 334.2 331.6 327 325.2 325.1 333 335.1 338.6 343.7 347.5 352.8 359.6 368.6 377.4 377.7 365.7 359.2 351.1 322.8 293.9 264.8 242.6 221.3 219.4 219.2 222.4 227.6 236 246.3 258.1 273.6 283.6 288.4 311.2 326.7 344.5 366.3 382.2 399 415.1 429.2 446.9 458.3 467.5 473.3 472.5 474.9 477.4 479 478.9 478.7 477.7 474.2 470.5 467.6 464 462.6 462.7 459.6 454.3 458.2 462.5 465.4 470.5 472.8 476 478.5 485.5 497.2 507.6 520.2 534 540 547.2 574.6 587.6 597.2 596.5 588.9 572.8 557.7 535.8 521.2 513.5 502.1 490.7 484.2 475.1 465.1 454.8 443.3 435.5 424.5 413 404.6 399.2 394.7 389.7 383.1 379.6 374.1 369.8 365.5 361.1 355.5 348.5 342.5 331.2 320.4 309.7 300.2 291.2 283.5 279.6 284.4 306.4 327.1 346.6 370 392.5 418.6 448.7 470.2 466.8 462.1 457.7 453.5 448.2 443.4 434.9 422.2 411.6
482.8 487.7 495.6 494.7 482.4 477.2 475.7 475.1 474.6 475.4 473.9 474.6 487.9 480.3 481.1 475.8 466.7 457.8 465.8 475.9 473.2 471.2 461.9 445.8 443 439.5 437.8 441.9 444.9 451.1 459.9 471.4 477.3 479.6 484.2 495.1 481.4 478.7 469.1 428.9 411.3 396.5 393.8 394.6 394.9 385.5 381.1 373.1 362.3 359.2 356.2 357.8 361.9 366.8 377.2 379.7 381.5 387.3 387.8 389.2 389.9 387.3 375 365 355.1 341.9 337.2 335 332.3 330 325.9 326.3 328.4 339.2 341.9 343.5 346.2 350.2 354.2 360.8 373 376.4 357.9 354 349.1 333.7 306.2 275.1 245.9 225.2 217.2 217.3 219.2 224.4 234.7 243.1 257.5 270.7 286.2 302.1 309.7 323.1 337.5 353.9 374.4 389.3 405.6 421 439.9 453.2 464.7 474.1 480.2 480.5 483 487.9 488.3 485.2 485.7 483.8 479.7 476.3 472.9 469.2 467.3 464.3 462.4 460.2 462.4 467.8 473 477.6 480.4 486.4 486.6 491.8 499.5 511.9 526.2 534.2 542.3 557.3 580.5 594.3 603 599.6 591.4 577.3 555.2 530.7 516.7 507.8 493.5 482.9 477.9 467.2 456 444.3 436.7 429.3 417.8 409.1 401.7 395.9 392.9 387.6 383.2 378.4 372.1 363.9 358 355 352.2 346.2 338.9 324.5 315.6 303.3 295.2 287.6 282.7 282.5 301.3 319.8 340.7 362.1 384.1 407.9 434.9 469.5 480.3 474.9 470.8 467.2 463.2 458.8 453.7 443.8 431.3 426.9
479.2 481.5 487.4 483.9 476.3 473.7 472.3 471.7 471 472.4 471.1 474.9 484.9 473.3 472.7 473.8 458.5 452 455.8 465.3 463.7 462.9 453.1 438.9 437 435.1 436.2 440 443.5 450 463.3 471.6 476.9 482.4 483.6 494.6 481.7 480.7 472 426.1 409.7 392.5 387.4 386.5 386 377.5 373.2 358.4 353.3 352.7 353.5 356.8 371.6 378.3 380.2 380.3 386.4 387.5 387.5 391.5 390.6 387 380.8 374.5 354.9 346.4 335.8 332.9 330 327.2 326.6 327.4 331.6 339.5 343.5 345 348.1 352.3 357.2 366.7 375.6 369.4 346.3 342.4 335.2 316.2 292.2 256 231.6 215.8 215.9 217.3 219.3 228.3 240 255.1 267.7 280.9 300.2 317.5 329.1 334.8 348 361.8 380.6 397 414.5 431.1 450.6 462.6 472.2 479 482 488.5 493.2 498.2 495.5 492.9 494.9 493.3 487.2 483.4 480 474.9 473.3 472.8 470.5 469.2 470 473.1 479.1 484 488.1 494.4 496.4 496 504 515.2 531.6 538.6 542 562.6 585.1 596.6 601 597.1 591 570.6 550.5 520.3 505.7 495.8 484.3 476.6 470.6 459.2 446.7 439.7 436.8 426.6 419.1 411.5 405.7 401.2 396.4 389.8 384.6 378.7 372.8 365.9 360.4 355.3 346.5 331 330.3 318.8 310.4 299.6 292.1 285.2 280.7 298 314.7 335.1 353.7 375.4 398.4 424.4 453.7 487.4 488.4 483.1 479.8 476 471.8 467.4 460.6 449.7 445.6 438.3
474.9 474.7 476.9 473 470.4 469.2 468.6 467.6 465.8 467.9 468.4 470.6 479.2 470 466.9 477.4 460.7 446.3 445.7 448.6 451.9 444.6 435.7 432.4 433.8 431 435.5 439 444.5 449.6 459.6 473.8 479.4 479.4 477.1 484.2 476 480.1 459.2 421.4 401.6 388.6 380.5 378.5 377.9 367.6 354.5 350.7 348.2 349.9 355.6 369.7 379.8 388.2 393.7 388.5 383.6 387.9 387 389.7 392.7 385.5 386.9 382.7 352.4 340.5 334.6 332.4 329.2 327.6 327.5 329.1 335 340.2 343.7 347.3 351.2 357.6 364 369.3 370.7 353.4 333.5 322.6 320 292.5 265.6 235 218.8 215.5 215 215.6 221.5 236.1 252.3 270.6 283.5 296.6 312.6 328.7 343.3 349 358.3 369.1 388.2 404.7 422.7 440.9 463 473.3 479.2 483.6 490.2 498.4 503.6 506.9 503.2 503.7 504.9 502.2 497.7 491.8 485.3 483.2 485.8 482.4 474.2 474.8 480.1 480.1 485.9 489.3 494.1 501 503.3 505.3 515.6 528.8 541 547.6 551.6 571.5 590.8 596.7 599.3 596.2 586.9 569.6 544.2 518.8 504.5 489.3 477.5 469.9 464.3 460.4 455.3 446.7 440.6 427.9 422.1 414.9 408.3 403.1 397.9 390.9 384.9 379.1 371.4 364.1 358 351.9 342.8 334.8 322.3 313.7 304.5 294.8 288.3 285.5 296.7 308.7 324.2 345.5 366.4 389.4 416.5 441.6 473 496.8 494.6 490.4 486.9 483.7 480.4 473.7 465.1 460.3 456.1 446.8
472.9 469.4 469.6 466.8 466.2 464.9 464.2 462.2 460.6 462.4 463.5 468.5 475.7 469.4 465.4 461.6 450.3 442.2 438.2 437.4 439.9 432.5 429.5 429.6 431.1 429 433.8 439.8 445.2 449.2 455.5 471.5 477.6 475.9 472.3 472.9 470.4 459.8 433.7 408.8 394.9 385.4 374.7 370.1 363.4 354.3 349.8 348.2 347 355.9 368.1 378.1 383.4 390.8 390.7 386.8 382.5 385.9 387.8 390.5 397.7 399.9 394.2 369.5 349.8 337.4 334.5 333.2 331.7 333.4 333.1 332.6 341.1 344.9 348.6 351 355.5 364.1 357.8 366.6 355.1 341.2 322 310.8 294.3 266.2 242.6 218.3 214.3 214 214.8 217.8 229.9 249.3 269.9 284.2 299.8 310.4 325.6 340.6 354.8 363.4 367.8 375.7 394.4 410.4 431.1 450.3 471 480.7 486.2 494 500.8 506.1 512.5 514.6 515.1 515.3 513.5 510.5 505 498.3 493 493 491.1 484.4 479.4 485.4 488.8 487.6 490.2 494.2 497.7 504.1 510 516.7 525.2 541.9 551.8 556.9 562.1 577.4 596.4 601.5 609.7 604.8 581.9 562.8 538.7 517.5 502.1 486.9 477.4 471.3 466.5 463.9 459.8 451.4 442.2 433.1 426.8 418.1 410.9 405.2 397.7 392.1 386 379 370.7 362.7 356.2 348.8 338.6 329.5 319 310.4 300.5 290 284.7 297.6 307.7 320.8 337 355.1 378.5 402.8 431.6 458.9 491.7 500.7 499.7 498 494.2 490.7 485.9 476.8 471.5 468.3 463.3 452.3
469.9 466.3 463.8 461.2 461.4 460.6 459.2 456.4 454.4 457 460.6 466.8 478.9 463.4 459.4 455.3 447.6 442.6 439 434.3 433.3 425.2 427.6 428 429.1 427.3 432.1 439 443.5 448.7 460.6 477.3 479 476.2 465.3 458.5 458.8 437.6 416.5 401.3 392.5 383.2 369.2 359.7 351.4 346.7 351.9 345.8 351.2 365.7 370 379.1 387.9 386.5 385.5 385.9 380.9 381.6 388.8 397.5 399.1 392 374 363.2 346.5 338.3 338.2 336 335.1 335.4 338.4 342.9 346.1 350 353.4 353.4 355 357.2 352.1 354.1 345.8 322.5 303 289.5 267.1 242.8 220.1 213.3 213.4 214.6 216.3 227.7 242.5 262.4 282.2 295.6 307.7 321.3 336.9 352.9 363.6 372.7 373.7 381.9 398.9 414.1 435 456.7 475.1 484.5 493.8 499.7 507.5 513.3 519.7 525 526.7 524.8 522.9 519.3 514.9 507.9 504.9 501.4 497.9 489.4 488.5 494.6 495.8 496 494.2 500.3 504.5 510.9 515.5 524.2 531.1 546.2 557.5 565.1 568.8 586.1 602.5 609.3 614.7 601.8 584.5 560.5 536.9 516.5 503 491 483.6 477.1 471.7 467.5 463.7 456.9 447 438.6 429.2 420.5 411.5 404.1 399.1 393.9 387.3 379.7 371.3 360.9 353.4 344.8 333.2 321.6 314.3 307.1 296.4 290.4 292.9 304.8 316.1 332.2 351.7 371.4 392.2 417.3 445.5 475 502.2 506.1 505.2 501.2 498.1 493.3 485.5 478.8 477.5 472.1 465.6 457.8
467.3 462.9 459.7 456.9 457.1 456.3 454.1 450.9 448.4 450.3 453.9 468.3 466.5 462 453.4 450.1 454 443.6 430.6 429.2 426.3 420.9 424.2 426.6 426.7 426.6 432.7 437.6 440.5 446.9 461.7 480.4 476.3 472.5 458.5 451.8 443.8 425.3 411.4 400.2 392.8 381.4 364.4 348.8 343.2 341.5 343 348.4 359.2 365.3 374 371.4 378 380.1 385.4 377.8 377.1 379.3 386.2 395.4 389.7 381.6 369.1 358.4 341.5 339.5 339.2 338.6 338.3 339.9 343.4 348.9 351.7 353.2 353.8 350.2 348 344.2 340.3 337.8 318 297.1 280 262.1 244 221.2 213.3 213.6 214.5 216.5 227.7 243 257.6 275.9 290.3 301.8 314.6 334.4 353.9 364.9 372.9 381.7 385.6 386.2 400.1 415.6 435.5 454.9 470.8 483.5 492.9 501.6 508.4 516.4 526.1 534.2 536.2 537.2 534.4 528.9 524.3 519 515.7 510.2 504 497.3 498 500.3 501.2 503.4 505.6 510.3 514.4 519.8 525.9 537.8 545.8 558.3 568.5 573.1 577.4 591.8 609.2 614.9 615.3 607.6 591.4 567.6 537.7 524.8 511.6 501.8 495.3 486.9 483 478.2 470.3 463.2 450.5 441.8 431.7 419.6 411.5 404.8 399.2 393.6 387.1 379.6 370.7 359.8 349 341.5 331.4 320.8 311.5 302.2 294.2 288.3 302.9 313.5 327.3 345.4 365.8 385.4 408.7 433.3 460.2 492.1 509.3 511.3 506.7 502.6 495.8 489.1 484.9 481.2 478.1 472.4 466.6 460.5
465.6 461.7 458 454.3 453.2 452.4 450 446.1 443.2 445.2 451.3 457.9 461.5 462.3 453.2 450.2 443.2 439.5 427.5 426.9 420.5 418.3 421.5 424.8 423.3 427.6 432.6 440.9 438.2 446.4 464.5 476.8 475.2 465.6 447.7 445.2 432.7 421.4 410.8 397.4 388.1 377.4 357.6 339.7 337 335.6 338.5 348.9 355.4 366.3 369.1 371.4 371.2 375.4 378.3 372.2 374.5 375.3 380 382.6 381.5 370.9 363.6 354.8 339.2 337.4 341.4 343.3 341.1 342.8 347.9 353.4 356.4 356.6 352.8 349.4 341.2 330.6 325 311.5 292.5 273.4 256.1 240.5 222.7 216 213.9 216.8 217.3 225.5 239.4 254.4 269.1 284.2 298.1 309.4 325.4 346.1 364.7 376.6 380.8 388 393.1 392.6 405 414.8 432.1 448.8 465 477.6 490.1 500.5 508.8 518.4 527.8 539 545.1 548 542.6 537.8 533.4 523.3 519.4 514.1 507.2 505 506.2 507.1 508.2 511.5 516.3 518 523.9 531.6 538.7 547.2 556.8 568.7 576.3 582.4 585.6 601.2 615.5 625.5 622.4 615.8 591 569.9 538.6 530.2 515.9 509.8 504.9 496.1 489.5 482.4 474.5 468 453.3 445.1 433.1 420.2 412.5 405.5 399.5 393.6 385.7 378.7 369.9 359.3 349.1 338.9 329.5 320 309.8 300.5 293.1 298.8 311.5 322.2 339.2 357.7 377.7 399.2 421.9 447.7 475.1 498.5 509.5 510.7 503.9 498.9 493.6 489.3 485.6 480.8 476.2 471.5 466.4 460.2
465.3 462.3 459 452.9 449.9 448.4 446.4 443.2 437.8 445.1 448.1 450.5 456.9 460.9 458 448.4 442.7 436.5 422.1 423.3 417.7 413.9 416.1 418.2 424.2 427 429.8 432.8 436.8 441.2 458.1 471.2 467.8 458.2 441.9 435.6 426.9 415.6 405.6 391.7 382.2 369.5 353.7 333.9 332.5 333.2 337.9 345.3 356.5 365.7 367.2 369.9 369.4 370.2 368.8 367.2 369.1 369.8 375 377.4 372.2 367.2 355.7 341.7 335.7 336.3 345.4 348.8 345.5 347.3 351 355.3 359.4 359.1 355.7 353 335.8 316.3 305 284.7 269.4 252.3 236.7 219.9 210.4 212.6 215.4 219.4 223.3 236 255.4 267.2 280.1 297 309.5 320.9 342.2 360.6 377 381.2 388.8 395.1 398 402.8 410.2 421.8 437 450.1 463.2 475.9 488.7 499.2 508.7 517.2 527.3 540.1 550.5 554.6 552.9 548.4 539.2 532.7 526.9 521.8 517.6 516 512 513.5 515.8 516.7 525.6 526.3 534 540.8 549.5 559.1 568.4 576.9 582.1 589.1 596.1 610.1 620.8 628.6 627.9 616.3 593.9 569 541.5 529.9 518.1 515.7 508.8 501.7 495.4 486.6 479.5 472.2 455.8 445.6 434.4 421 411.8 405.6 400.4 393.3 385.4 377.7 365.4 357.6 347.2 338.3 327.3 316.9 307 299.3 293 308.2 320.5 338 352.8 370.8 390.5 413.3 435.1 461.4 488.3 500.1 507.3 505 501.1 496 492.8 489.7 484.5 478.9 474.1 469.7 464.7 458.8
466.3 463.4 459.5 451.5 446.5 443.6 443.8 441.4 435.7 441.1 438.9 442.1 449.6 459.6 455.8 449 440.4 437.1 416.7 416.1 414.5 408.9 413.8 419.6 424.3 427.2 429.5 430.6 435.5 441.4 454.6 466.6 465.6 453.3 438.4 428.4 418.8 405.8 395 385.4 372.2 358.6 341.3 333.9 331 332.7 338.3 343 349.9 359.7 360.2 364.1 368.4 367.9 363.9 363 361.4 361.6 363.7 366.3 366.8 352.1 336.4 333.3 333.3 339.4 346.3 351.3 349.7 351.7 356.9 356.4 356.8 358.4 361.5 354.9 322.9 301.9 284.9 266.8 247.2 233.9 218.4 208.4 211 213.7 217.2 224.4 232.7 250.1 267 279.8 292.1 304.5 317.4 335.9 360.3 375.8 381.7 390.3 395.5 400.6 402.5 409.4 420.1 429.9 441.9 454.5 466.8 478 488.1 499.4 510.1 518.8 526.9 536.6 547.8 553.5 558.4 554.2 546 539.7 533.4 529.1 524.1 523.1 520.6 521.3 524.4 526.4 533.7 536.3 543.6 547.9 554.8 563.4 573.5 579.1 585 591.7 603 624 630.8 641.4 645.5 633.8 597.2 564.4 535.7 524.8 517.3 513.1 509 503.2 497.3 487.3 479.9 472.6 453.4 438.9 430 421.5 412.2 405.3 400.2 392.4 383.2 373.7 364.6 355.1 343.6 334.9 322.1 312.5 303.8 297 301.9 312.7 331 348.5 366.9 384.5 402.4 425.6 447.6 475.3 496.5 503.2 505.7 503.1 498.4 495.6 492.1 487.2 482.3 475.1 470.9 467 462.2 456.7
467 463.1 458 446.5 443.6 442.8 440.4 437.1 431.9 434.6 432.3 434.1 439.5 450.1 452.7 444.1 433.4 422.9 413.1 412.6 413.2 406.6 411.4 418.1 428.6 430.3 431.5 429.5 427.3 434.7 448 463.3 460.7 449.6 430.3 420.2 409.9 394.2 384.3 377.8 365.1 346.1 339.3 335.9 332.4 333.8 336.9 338.5 342.8 351.3 352.5 357.2 357 360.5 358.2 353.5 353.8 358.1 355.2 355.7 344.3 329.2 329 329.3 333.5 340.9 348.4 351.2 351.9 352.4 355.6 356.1 354.4 356.9 358.2 341.2 307.1 283.5 267.4 249.6 232.7 216.9 205.7 208.1 211.7 214.9 219 223.3 232.6 258.2 274.8 287.9 299.9 312.8 332 353.2 369 380.6 386.8 391.8 397.9 403.6 408.1 414.7 429.3 439.6 448.3 459.4 468.4 478.9 487.9 499.9 511.2 520.8 529.3 537.5 546.2 552.1 557.9 556.8 551.7 547.5 541.1 535.6 531.7 531.4 528 528.3 529.7 533.1 538.1 543.7 552.2 555.7 567 574.8 579.6 588 595.2 605.2 617.4 632.4 644.6 660.9 666.5 651.2 584 529.1 513.1 508.8 508.7 504 500.4 494 486.9 478.7 471.4 461.3 445.2 434.4 428.2 418.9 410.9 405.1 398.1 390 379.4 370.2 361.3 351.5 340.1 331.3 317.8 306.9 299.3 294.7 310.9 322.6 337.9 356.2 375.1 396.6 415.9 438.6 460.8 486.1 502.4 504.9 505.9 501.8 498.3 495.4 490 485.2 479.8 474 469 465 459.5 453.3
464.4 460.4 453.2 443.9 443.1 440.7 437.2 436.1 430.9 426 425.2 424.5 429.1 440.2 441.4 429.6 422.8 413.8 410.2 408.6 409.9 404.2 407.1 413.4 432.5 429.2 436 429.4 419.1 428.8 440.4 454.4 451.7 436.3 422.7 413.9 399.1 384.2 377.1 371.8 351.9 351.5 343.8 338.5 329.3 331.3 332 333.4 334.7 337.8 342.4 345.4 347.4 350.8 341.5 341.6 339.9 345.5 339.1 333.3 325.9 323.7 325.2 329.5 336.9 347.9 355.1 356 353.5 353.2 355.7 355.7 353.7 355 349 328.4 286.1 267.7 250.9 233.8 216.3 207 205.6 209.9 211.9 214.8 225.6 243 236.8 243.9 262.9 287.1 306.2 328.3 349.3 363.5 373.5 380.8 386.9 392 398.8 405.8 412.6 422.5 438.2 448 456.5 464.6 472.8 479.9 489.7 502 512.7 522.3 528.4 537.6 545.8 551.7 555.7 557.9 557.8 557.2 550.2 544.7 542.7 536.7 534.7 534.6 537.4 539.9 544.5 549.9 557.4 566.9 575.7 584.9 590.1 598.6 606.5 620 628.8 642.2 658.5 673.1 670.9 633.7 541.4 490 476.7 467.2 464.4 472.2 470.6 462.8 456.8 457 452.4 446.6 439.8 429.2 422.7 415.2 409.4 400.7 394.7 376.3 374.9 362.6 356.8 346.5 337.6 324 313.3 303.6 296.1 304.2 317.9 330.1 346.7 366.3 385.2 405.2 427.2 451.6 472.7 495.9 505.4 507.1 505.3 500.5 498.1 494.1 488 482.5 477 471.3 465.5 461.5 456.1 449.5
460.3 456.6 446.8 443.1 441.2 438.9 436.9 434.9 426.4 419.7 419.8 419 419.3 425.1 423.4 413.1 408.7 409.5 406.1 405.5 400.8 399.3 401.6 412.1 417 419.6 431.5 423.8 409 421 428.8 440.1 441.5 427.6 413.8 400.9 390.5 382.8 375 377.2 367.5 351.8 348.2 339 332.9 325.2 326.3 327 328.1 331 333.8 335.4 334.6 335 327 323.1 326.3 328.1 320.7 324.7 320.9 322.7 327.6 330.4 338.9 350 356.8 357 357.7 355.2 357 357.8 352.1 346.5 329.4 303.6 267.8 251.1 233.6 217.5 204.8 202 210.8 219.1 224.7 233.2 244.9 259 268.2 274.6 270.1 272.4 311.8 340.8 354.3 364.1 371.5 377.1 385.2 392.7 398.7 405.6 416.4 431.2 446 453.1 463.8 470.9 476.7 484.9 494 501.1 513.7 523.7 528.8 536.5 547.3 552.6 557.3 559.9 560.7 562.2 558.3 553.8 547.5 542.4 539.7 539.6 544.9 546.8 551.8 557.4 565.5 577.9 584 593.8 605.9 619.9 625.1 630.4 646.3 657.2 671.2 681.5 661.6 594.9 512 472.3 448.3 444.9 444.9 444.9 449.5 448.5 444.9 445.4 444.6 437.1 432.1 427 422.2 417.1 411.6 405.5 396.1 386.1 375.3 365.1 354.7 338.6 325.5 317.9 307.6 300.6 298.8 311.2 323.2 336.8 358.2 376.2 396 416.1 439.4 461.4 481.9 502 508.3 507.5 504.3 500.8 497.3 492.2 486 480.2 474.1 468.5 462.7 455.4 450.3 447.4
456.8 451.1 444.2 441.7 439 437 436.7 431.9 425.4 418.4 415.6 415 415 415.1 412.6 409.5 408.3 406.8 404.7 402.5 396.9 395.2 396.9 401 405 412.1 413.9 415 402.1 410.6 419.4 426.8 428.4 415.2 402 394.9 389.6 382.5 382.2 376.5 362.2 350.9 344 343.2 330.2 326.2 322.3 319.3 322.4 324.8 326.1 328.1 326 319.3 310 307 311.4 313 316.7 318.2 317.2 317 325.4 332.1 340.7 347.7 352.6 358.7 363.6 357.9 357.8 360.2 352.7 331.8 315 277.3 248.6 234.5 216.3 203.8 200.7 208.9 215.2 222.4 231.6 242.9 256.5 270.5 283.2 293.8 289.4 274.3 317.4 345.3 354.1 362.6 367.8 376.4 385 391.6 400.9 408.6 422.1 439.6 451.3 459.3 473.1 479.8 485 493.8 500.9 508 517.1 525.9 530.5 537.5 546.4 553.2 558.2 561.9 564.1 564.3 564.2 560.2 559.1 551.2 544 543.3 551.4 553.5 557.7 564.7 573.9 585.7 595.6 611 620.3 632.8 638.2 647 659.9 666.6 678.7 680.2 646.1 562.2 496.9 461 444.9 444.9 444.9 444.9 444.9 444.9 444.9 444.9 446.5 440.8 436.4 431.6 426.6 420.1 412.3 405 396.4 384.7 375.8 362 350.5 336.7 325.6 310.8 305.1 299.1 307.3 318.3 329.1 345.9 365.4 385.5 404.2 426.7 450.8 470.7 492.4 506.4 510.1 507.5 504.2 501.4 496.3 489.8 483.5 477.7 471.8 467.1 464.2 459.1 456.3 452
453.6 446.5 442.1 438.9 437.6 437.1 435.9 429.2 420.9 417.2 414.8 413.6 413.4 411.9 411.2 408.2 405.4 404.7 404.1 401.9 395.5 392.4 393.5 396.3 401.2 403.9 405.1 400.7 396.7 399.4 407.9 416.2 412 400.1 396.7 393.9 389.4 387.4 385.2 377.3 365.8 353.9 350.2 343.5 331.7 331.6 323 321.9 313.7 317.7 320.1 317 314.7 303.4 298.7 296.6 301.7 306.1 306.3 304.6 309.1 318 327.6 334.5 342.8 348.4 352.7 356.5 371.1 361.4 357.4 363.3 345.7 312.3 283.7 254.3 232.8 216.5 205.9 200.5 202.1 211.2 218.1 229 239.5 252.7 267.4 280.7 292.4 303.4 308.6 292.7 300.7 335.3 342.3 358.1 365.4 375 383.8 392.5 402.1 415.4 425.4 441 452.3 462.9 477.7 483.4 495.5 504.9 510.1 515.3 521.9 526 531.6 538.2 546.9 554.5 558.5 563.2 566.8 569 569.8 569.2 564.8 554.5 559.1 557.8 556.7 559.2 565 573.7 585.6 596.9 611.3 624.9 634.5 648 654.5 659.2 668.2 677.9 682.5 677.9 631.2 547.4 491.5 462.8 446.4 445.3 444.9 444.9 444.9 444.9 444.9 451 448.9 444.8 439.9 434.2 429.5 421.5 413 404.7 390.8 379.9 370.4 360.2 346.2 330.4 320.1 310.4 302.9 299.3 310.8 323.3 336.5 356.3 373.9 394 414.2 434.2 459.4 480.3 502.3 511.4 512.5 508.5 506 503.5 498.2 492.8 487.2 481.6 475.8 471.3 468.4 463.2 459.6 456
449.5 444.7 440.8 438.9 438.3 438.6 438.8 431.2 423.5 416.3 412.8 411.2 410.7 409.8 406.3 404 403.4 401 399 398.9 394 391.5 392.5 396.2 399.1 400.7 398.5 399.2 389.7 389.4 396 403.2 395.3 394.5 394.1 394.6 393.5 386.5 387 375.4 369.6 360 349.1 339.1 334.2 333.6 324.7 324.8 310.3 306.9 310.4 308.8 298.9 290.6 287.4 287.7 289.8 299.6 296.3 306.1 309.9 317.4 329.2 337.8 346.5 352.9 350.7 356.9 371.8 355.9 358.4 363.3 328.9 291 262.6 235.8 216 204.4 199.7 198 205 212.1 222.5 231.2 249.9 264.2 278.5 291.8 304.2 316.9 323.9 317.9 298.2 302.8 319.5 335.2 356.7 372.4 381.6 396.4 406.3 418.5 429.3 438.9 448.7 460.5 476.3 485.9 503 511.6 512 518.3 522 526.5 532.3 539.2 547.1 551.9 559.6 564.8 569.8 573.2 573.5 576.6 573 563.1 570.6 570.2 565.8 575.1 575.6 586.4 596 612 622.9 635.2 646.4 662.5 671.1 673.6 679.8 685.2 686.4 684.2 644.8 582.1 491.3 469.9 457.8 455.2 444.9 444.9 444.9 448.1 452.1 457.3 459.1 454.6 447.3 440 430.9 423.1 411.5 402.7 388.5 377.3 366.9 352.9 335.6 325.5 317.7 308.9 302.7 302.7 316.1 329.9 345.9 367.2 384.8 403.1 424.9 445.3 467.7 491.5 511.1 516.1 512.8 510.3 508.9 506.5 501.1 497.1 492.1 485.7 482.8 479 474.7 472.2 469.2 468.6
445.9 441.9 443.4 441.7 439.5 439.7 438.8 435.9 421 415.5 413.7 412.8 412.6 411.7 409.6 404.5 401.9 403.1 404.7 401 393.1 391.4 389.6 390.7 392.1 396.1 388.9 386.3 379.1 381.1 388.8 391.1 391.6 395.9 397.2 396.9 390.4 385.3 380.4 379 371.5 362.8 354.2 339.8 334.7 332.5 327.5 323.9 315.1 310.8 300.5 291.7 289.2 281.4 278.7 279.4 281.8 290.5 299.1 315.7 312.2 317.8 328.3 340 343.2 351.2 348.4 352.1 361.7 346.9 351.4 343.2 298 271.1 242.5 216.1 203.7 196.7 196.7 198.7 205.1 213.4 226.4 244 257.6 276.5 290.7 303 315.8 326.7 331.7 335.7 338.8 336.2 341.2 345.5 352.8 368.5 382.9 397.9 409.2 418.7 428.5 435.3 445.9 456.4 471.6 483.6 497.9 504.5 511.9 519.1 524.8 525.9 531.6 538.4 544.8 550.3 557.2 566.7 572.3 575.7 579.5 581.8 579.4 572.2 574.1 574.6 574.1 586.3 593.8 602.3 608.8 617.3 631.7 643.4 659.7 672.7 677.6 682.8 690.6 692.5 697.8 690.2 653.4 594.6 508.1 483.5 471 464.8 456.6 452.2 452.7 457.7 463.1 472.6 472.6 463.6 454.5 443.6 432.1 423.1 411.5 398.4 385.5 373.8 358.8 340.7 330.1 322.2 316.2 308.7 301.5 307.6 320.7 336.5 355.3 375.4 396.2 416.5 437.4 455.5 477.6 502.9 518.9 517.6 515.1 514.1 512.5 509.7 506 501.2 496.4 493.8 491.1 488 483.4 481.3 478 475.4
445 442.9 444.3 442.7 440.9 441.1 434.4 423.7 420.5 419.7 414.1 413.4 415.6 416.3 412.1 408.6 406.3 406.6 404.3 400.4 395 392.6 388.2 381.1 384.7 382.7 374.9 378.8 372.8 376 380.2 383.8 392.2 396.6 392 390.6 387.4 381.7 380.8 378.5 368.3 359.3 353.1 337 336.9 331.6 327.9 326.3 326 314.6 310.2 297.5 281.9 274 273.7 270.3 275.8 278.7 302.1 308.6 311.1 322.3 330.4 338.3 342.8 347.9 346.6 345.3 340.5 332.5 329.2 305.7 280.2 251.5 223.7 202.6 194.1 194.7 195.5 198.8 204.7 217.6 236.8 255.6 272.1 286.9 304.1 313.5 325.1 333 336.6 345.6 357.1 362.4 361.8 365.2 359.5 371.2 383.3 397.8 408.3 418.2 425.9 434.5 441.5 449.9 460.8 473 485.9 499.7 507.6 513.6 516.7 521.7 528.2 535.5 542.7 549.5 560 567 572.7 576.7 583.2 587.2 585 582.4 583.2 584.6 588.4 599.3 607.2 616.7 622.8 631.6 639.5 653.1 671.2 678.7 682.9 688.1 689.4 698.8 701.9 683.5 630.6 573.8 524.2 493.5 486.4 482.2 471.6 472 474.7 481.8 491.5 487.9 482.4 471.1 457.6 444.8 433.1 421.2 408.2 394 380.2 366.9 350.7 337.7 328.3 320.9 313.9 308.2 302.7 311.6 323.9 341.7 364.2 384.9 407 427.1 448.9 469.4 488.8 511.3 520.6 519.9 518.1 516.6 515 512.6 509.9 506.4 503.3 501.1 497.8 495.6 493.2 491 487.9 484.6
445 446 444.3 443.1 443 441.2 434.5 424.8 426.2 420.5 415.7 420.2 419.9 419.3 415.4 410.6 409.7 408.9 407.2 398.9 396.4 394.1 387.9 379.1 374.7 372.1 367.7 368.2 368.2 372.4 374.4 380.7 390.7 388.7 386.5 385.8 384.6 380.5 379.4 373.4 366.5 360.5 350.8 338.3 336.8 336.1 335 336.9 331.3 317.9 312.9 305.9 283.1 275.6 266.3 264.9 267.7 273.3 287.1 295 307.4 323.5 330.2 335.5 336.7 344.7 343.7 341.3 325.9 323.4 304.4 279.6 255.2 230.6 206.7 194.6 192.8 193.2 195 198 210.6 229.9 248.2 265.7 284.6 298.6 311 320.3 331.5 339.8 347.3 358.1 367.3 371.2 371.7 373.7 367.9 380.7 387.6 399.1 407.2 414.8 424.2 430.4 439.1 448.3 456.2 465.2 474.4 485.6 494.7 503.7 511.7 518.7 527.1 535 542.5 549.9 562.3 568.8 575.6 584 590.4 593.1 593.8 593.2 598.2 597.5 605.8 614 623.5 632.5 635.5 646.2 655.3 666.1 680.4 688.9 690.7 695 696.1 705 709.5 685.3 642.6 573.2 537 510 509.6 503.9 498 504.3 507.4 512.2 511.1 501.2 488.5 474.5 459.7 446.9 432.7 418.4 405.1 390.2 376.5 360.5 345.1 336 326.2 318.4 312.2 307 304.5 314.3 328 345.6 368.4 391.4 420.5 439.1 458.3 480.8 502.1 520.7 525.7 522.8 521.1 519.5 517.7 515.8 513.8 511.6 508.4 505.9 503.1 501.2 498.6 497.5 493.1 488.7
447.8 448.4 449.4 448.2 449.3 453.9 449.4 434.5 431.6 426.1 421.5 425 425.5 423.3 418.8 410.2 409.8 410.7 410.6 408.4 400.7 393.1 386.2 377.3 366.9 365.9 363.2 362.8 364.9 368.5 370.9 380.6 386.6 382.3 381.5 384 381.4 378.8 376.9 371.7 366.7 360.1 354.3 342.7 342.6 344.1 342.8 339.4 338.9 320.6 312.6 297.8 284.8 275.3 268.3 261.3 261.2 266.7 276.8 297.2 302.9 318.2 329 329.5 330.9 336.8 332.1 334.5 312.5 313.5 285.5 262.2 230.6 206.6 196.8 195.2 191.2 192.4 193.3 204.8 221.9 242.5 263.3 278.9 297 309.6 319.7 329 339.9 349.6 360.3 371.2 377.1 377.8 377.1 379.3 378.7 384.4 393.5 401.4 409 417.1 424.5 433.8 441.4 447.6 455.5 462.6 472.2 480.3 490.9 500.2 510.6 518.4 528.4 536.4 544.8 554.1 564.3 571.9 580.5 589.3 595.3 598.6 600.5 605.6 611.8 611.9 618.3 626.4 638.3 646.6 652.7 660.8 672.6 681.8 693 699.1 704.6 706.7 706.7 710.9 711.3 695.3 627.5 582.6 550.5 527.5 526.8 523.6 522.8 528 528.9 524.8 516.8 506 490.7 475.2 463 448 433.9 418 403.1 387.9 375.2 359.3 345.2 330.7 318.2 313.7 309 304.2 307.1 322.9 334.7 352.2 373.9 397.6 423.9 447.6 467.2 487 511.2 525.5 527.5 524 522.4 520.5 519.5 518.1 516.2 514.5 510.8 508.6 505.9 502.4 500.8 498.9 495.2 489.6
450.8 453.9 457 456.9 456 458.3 446.8 441.4 435 428.3 429.2 430.2 429.8 422.6 413.1 411.8 414.2 413.7 415 410.7 407.5 397.1 390.4 380.4 368.2 358.7 357.5 359.5 362.7 366.2 370.2 377.6 380.2 379.5 379.9 379.5 378.7 376.6 374.4 368.8 363.1 364.7 366.2 347.4 352.7 347 346.9 343 341.6 327.6 311.5 302.4 284.3 274.3 267.1 259.4 257.9 263 276.7 291.8 303.1 316.2 326.3 327.1 326 321.9 317 306.2 299.5 302.5 260 237.2 208 201.1 191.9 189.1 190.3 191.6 200 218.6 236.6 256.2 273.1 290.2 308.2 321 330.9 339.6 350.7 362.5 372.1 379.8 384.4 386.7 384.7 385.6 387.7 391.1 394.7 402.1 409.8 417.2 424.6 433 441.1 448.1 454.6 463.6 471.9 481.6 492.7 502.8 511.8 519.7 529.9 541.2 550.4 559.3 566.7 576.7 585.3 594.7 601.1 605.6 612 614 620.3 630.2 641 644.2 653 659.6 663.3 676.3 687.1 701.1 711.5 721.4 717.8 718.7 717.9 719.6 703.4 678.3 642.1 575 548 536.8 538.1 532.7 533.2 534.6 535.8 528.5 517 504.7 490.1 476.5 463.7 449.3 433.4 418 403.8 389.3 374.5 354.7 345.2 332.7 323 316.2 307.2 306.7 315.9 327.8 340.7 357.1 380.7 404.6 428.8 451.8 472.9 492.4 516.8 527.9 529.9 523.6 520.9 520.2 519.1 518.3 515 512.8 510.2 507.3 504.1 499.9 497 495 490.3 484.9
458.9 463.9 469.1 470.5 465 450.6 450.2 444.6 438.8 432.8 436.4 437.4 434.3 426.9 414.8 417.3 418.7 414.7 414.5 413.9 408.6 401.8 394.6 382.2 370.3 360 350.4 357.3 361.1 364.7 369.6 374.6 378.1 378.6 378.2 377.6 377.1 374.4 369.3 372.9 378.4 379.5 375.7 357.5 354 350.8 346.7 346.8 345.7 333.7 320.3 313.4 294.5 277.8 266.6 258.1 255.4 262.3 276.9 293 306.7 320.8 334.3 328.3 329.5 312 299 285.8 275.6 267.6 236.9 213.3 202.4 196 189.2 189.6 190.2 198.9 213.9 234.2 251.9 267.5 286.3 303.6 319 331.4 339.2 349.8 361.7 372.4 379.8 386.1 392.1 392.6 392.9 394.5 396.6 399.3 403.4 405.3 413.6 413.8 423 426.7 439.3 448.7 458 466.3 473.1 482.6 493.6 504.1 513.3 521.1 532.9 547.3 558.2 566.6 575.5 582.3 590.9 600.5 606.6 612.3 616.6 625.7 632.7 643.9 657 659.6 666.7 672.2 677.2 692.3 705.8 720.4 731.9 744.1 740.3 738.8 735.2 727.7 698.4 671.9 622.1 572.1 547 539.1 538.8 537.5 539.6 543 538.3 528.9 516.6 503.7 490.3 476.3 464.2 449.5 433 418.5 404.4 389.7 374.8 356.1 342.7 332.3 323 314.5 307.1 308.9 319.7 330.5 343.5 363.6 386.5 409 433.3 456.7 477.1 500.1 520.7 533.2 528.4 522.5 519.1 518.6 517.6 515.2 512.4 508.8 504.7 500.9 498.1 494 490.4 487.2 483 476.9
468.4 476.6 478.8 476.1 470.5 457.2 455.7 452.2 442.4 444.6 442.5 444.6 440.8 424.8 421.9 423.3 433.8 419.9 417.9 415.5 416.3 402.5 394.3 388.1 373.5 359.4 347 353.8 358.6 363.4 368.2 372.6 376.9 379.1 378.2 376.9 377.1 380.9 386.2 388.4 389.7 389.6 381.2 362.1 355.9 349.6 349.1 354.6 346.7 339 342.6 323.1 306.3 280.9 268 256.4 254.1 261.1 276.5 293.7 311.5 317.7 333.4 334.3 333.3 307.6 286.1 271.8 260.8 241.5 215.3 202.4 199 192.6 188.7 190 199 213.3 231 249.2 264.5 279.9 298.1 314.7 329.9 338.4 349.7 360.3 376.3 382.6 390.2 394 398.4 400 399.3 400.7 402.4 405.3 410.6 411.1 417.2 421.3 427.7 436.2 447.6 457.6 466.3 472.5 480.3 488.2 497.3 506.4 515.3 525.2 540.1 552.5 564.1 574.9 584 592.4 599.6 608.1 616 623.8 630.6 636.2 642.8 655.5 666.7 677.7 680.9 687.5 698.2 712.1 728.4 739.5 749.2 762 761.7 762.4 756.9 741 709.5 677.7 607.4 574.5 545.6 541.8 540.3 542.2 547.2 546.9 540.2 527.5 515.1 502 490.3 476.8 462.5 448.1 434.4 421.2 406.2 391.6 373 355.5 344.4 333.8 323.3 311.9 307 309.3 321.8 331.3 348.7 368.6 389.9 413.9 438.1 459.3 483.2 505.5 521.3 527.3 524.7 518.3 515.8 514.8 512.6 509.3 505.9 501.4 496.8 492.7 488.7 484.3 480.7 476.7 473.1 466.7
479.4 484.6 486.7 483.8 478.4 469.1 466.5 457.7 454.9 454.7 451.7 447 437.2 433 426.6 427.4 430.3 420.1 419.4 414.5 409.4 400.5 398.7 397.3 373 357 345 351.2 358.5 363.9 368 372 376.1 379.3 380.5 380.4 386 395.2 401.4 404.2 398.1 395.4 381 367.5 356.3 349.9 351.4 356.1 348.6 345.5 343.6 328.5 306.8 288.3 271.2 257.2 251.3 260.6 273.5 290.2 306.1 313.7 327.5 337.1 322.5 292.4 271.7 256.4 238.9 215.2 201 197.9 194.7 187.2 186.2 196.5 211.3 225.2 243.4 258.2 275.5 291.9 307.3 326 339.7 350.7 362.9 382 388 393.5 399.4 402.2 405 403.9 405.3 406.7 409.1 412.7 417.3 420.2 418.3 428.1 435.2 444.6 454.3 462.8 472.5 480.5 486.7 494.1 501.1 509.5 518.4 532.1 545.5 557.6 567.6 578.9 590.5 600.1 610.8 617.8 623.5 629.1 637.7 649.6 651 665.1 677.6 689.5 699.4 708.1 719 730.7 741.1 762.7 774.5 777.6 781 782 784.9 743 715.9 683.9 637.1 589.5 550.2 547.9 548.1 550.2 555 549.3 539.3 527.2 513.6 500.7 488.8 475 462.8 448.3 435.5 421.7 407.5 389.2 372.4 359 344.9 336.4 326.2 315 307.8 312.9 325.2 334.9 349.8 369.7 393.5 418.2 442.9 466.1 490.7 508.5 517.3 519.7 518.6 515.7 511.2 508.1 505.7 501 497.6 492.3 486.8 482.3 479.2 474.4 469.5 465.2 461.9 457.1
485.5 491.6 502.1 496.3 485.2 482.8 476.6 466.6 467.2 472.2 473 449.4 438.4 430.7 429.4 428.3 425 419.8 419.2 413.8 407.8 405.1 401.1 393.5 366.5 356.6 344.6 346.7 357.9 363.2 367.4 371.4 375.3 380.4 386.5 388.5 396.6 408.7 416.9 414.8 404.1 395.4 381.6 369.2 362.2 354.4 353.2 355 349.7 355.3 354.8 327.9 309.8 290.7 272.3 260.7 250.6 252.1 266.6 282.4 293.4 306.7 325.1 336.5 304.7 275.8 257.1 235.8 213.9 200.3 196 193.8 191.2 185.7 192.9 208.3 224.3 239.1 254.1 267.7 286.1 303.1 321.9 339.5 352.1 364.3 383.8 399 399.8 409.9 410 411.3 410.8 409.6 413.2 413 415 422 423.9 427.8 431.9 435.1 445.4 452.8 459.8 468.6 478.2 485.6 492.7 500 506 516.1 527 538.5 556 563.9 572.6 583.5 596.6 607.1 616.5 623.6 629.2 634.7 646.1 658.2 667.9 676.2 687.7 702 711.9 725.2 737.6 752.8 766.8 778.4 791.3 791.9 796.8 802.7 776.6 740.2 718 688.2 642.2 605.7 563.7 559.5 559.4 561.4 559.1 550.4 537.1 524.5 511.3 499.4 487 474.2 462.6 448.8 437 421.2 403.5 387.8 372 356.5 343.9 334.6 323.6 315.1 308 316 326.2 338.1 352.3 373.2 397.6 424.1 447.6 471 491.7 505.9 513 515.7 513.8 511.3 506.1 501.9 498 492.6 487.2 482.4 477.5 471.9 467.9 463 459.6 455.7 451.4 447.3
490.7 500.5 509.8 506.7 499.1 490 482.5 477.2 477.6 484.1 473.3 453.9 442.8 434.9 434 433.3 428.2 420.6 422.3 417.3 416.6 413.3 401.8 389.7 362.4 344.1 344.4 351.4 357 360.9 366.7 370.7 377.7 386.8 397.4 404.9 410.9 422.9 427.6 424.5 419.9 403.5 384.7 369.7 373.1 358.5 353.2 355.8 357.2 362.5 361.5 331.5 308.9 293.3 278.8 266.2 255 243.8 254.8 272.2 274 301.1 313.7 323.7 295.4 252.9 234.9 211.8 194.6 193.3 192.5 189.7 186.6 184.1 202.7 221.6 239.5 253.4 266.3 281.5 298.4 317.9 335.6 350.9 369.5 387.4 402.8 410.1 415.8 417.7 417.9 418.5 417.7 416.5 417.5 417.7 424.1 429.7 432.3 437.5 442.7 445.9 451.3 459.6 467.1 474.1 483 490.8 499.2 507 514.4 524.7 535.2 547.5 561.8 572.5 580.7 590.8 600.6 610.3 621.6 628.2 635.2 640 651.4 661.7 677.1 684.8 699.1 712.8 725 740.1 755.1 769.8 792.3 796.4 802 804.9 804.9 810.3 772.7 724.5 707.8 681.2 655.4 613 576.1 571.5 569.9 566.8 559.8 548 533.9 521.2 509.1 497.1 484.7 473.4 461.8 449.2 434.7 418.1 400.4 382.9 368.3 354.9 342.7 333.5 322.9 311.5 311 317.7 327.4 340.8 354.2 375.3 399.7 425.6 449.8 471.7 489.8 499.7 509.5 512.3 509.4 505.6 500.4 495.8 490.4 485.4 478.3 472.1 466.9 462.4 457.1 451.8 448.6 444.8 441.8 436.7
499.8 507.3 514.6 509.9 504.7 496.5 488.9 484.2 484.1 484 478.9 461.5 449 437.6 438.6 436.7 429.3 421.6 423.8 424.7 428.9 417 410.4 392 360.8 341.7 344.6 350.2 355 359 365.7 371.9 390.9 400.7 410.3 418 421.8 432.8 438.4 436.1 433 418.5 387 374.7 381.4 368.7 358.6 360.2 360.8 367.2 363.5 334 315.6 305.8 290.1 275.2 263.2 246 245.1 255.7 258.3 290.6 292.3 286.3 250.4 228.5 210 190.8 186.6 188.7 188.1 187.9 182.9 200.4 217.6 234.1 251.2 265.3 278 292.5 311 329.2 345.8 365.3 387.1 405.7 419.9 426 427.3 425.1 421.7 421.9 421.2 419.5 420.6 425.1 429.3 436.2 440.5 446 450.7 454.2 455.7 466.2 473.9 481.9 490.6 498.3 506.8 515.2 523.8 534.9 544 555.1 569.5 579.1 587.2 597.2 608.9 616.3 625.6 631.5 640.8 648.7 656.2 666.7 679.3 690.2 708.7 722.6 744.2 751.6 765.6 780.5 804.1 811 817.1 825 829.8 820.9 765.1 714 697.9 668.5 647.1 607 592.5 581.9 576.1 567.2 556.8 544.3 530.7 516.8 505.3 492.8 481.3 472.1 461.1 447.5 432.4 413 397.5 381 365.3 350.9 339.4 328.5 320.3 310.4 314 322.1 329 342.8 355.5 374.7 400.6 425.5 447.4 470 484.3 497 506.9 508.2 506.2 501.1 495 489.2 483.7 478.1 471 463.8 458.2 452.1 445.6 445.1 439.8 439.1 436.9 438.7
500.2 517.5 517.8 514.2 507.6 500.2 494.1 492.3 497 494.3 481 467.5 451.3 444.8 439.9 437 431.2 424.6 425.5 428.4 432.5 416.7 406.4 378.9 355.5 340.3 340.4 349.9 353.8 359.9 370.9 380.9 400.8 414.9 421.3 428.2 435 439.4 445.7 446.4 440.1 418.4 391 383.6 381.2 373.2 364.8 362.4 364.8 365.3 358.8 335 318.9 311.3 310.1 289.2 272.2 254.5 232.6 235.7 244.9 268.8 265.1 248.7 222.7 206.6 189.2 178.2 179.4 180.6 180.8 182.9 197.9 216.9 229.6 245.5 260.8 276.3 289.6 305.7 322.9 340.8 362 383.5 397.6 420.6 434.2 437.1 436.3 429.1 425.9 425.8 425.1 423.3 424.8 431.5 438.3 447.5 450.2 454.2 458.4 462 467 475.7 482.6 491.4 500 508.9 518.1 528.6 537.2 545.1 555.6 567.4 580.6 588.7 597.7 606.7 617.6 625.5 631 640 646.9 656 664.3 676 682.8 698.6 714.7 731.8 747.8 761.9 776.5 791.7 807.9 816.4 827.5 829.4 841 817.9 768.4 728 696.3 671.4 640.7 610.6 600.1 586.8 577.3 565.7 551.7 539.6 524.2 511.9 500.1 487 477.8 467.9 455.6 440.8 425.9 410.5 395 378.7 362.9 350.1 336.2 325.6 317.3 310.2 316.4 323.9 332.5 345.9 359 378.9 402.7 427.7 447.7 470 484 496.9 505.3 505.4 503 496.1 489.3 481.2 474.9 466.6 460.5 457.6 455.7 453.8 452 447.1 442.1 444.5 445.5 443
503.9 525.5 517.2 519.3 509.5 504.2 500.2 503.4 500.1 496.6 488 475.5 459.7 448.5 445.7 438.5 432.8 427.8 426.3 426.5 421.8 412.2 395 367 344 339.4 338 347.8 351.4 363.6 386.6 396.7 409.1 420.1 427.9 437.6 443.6 446.4 449.9 450.2 439.3 414.2 391.7 385.2 383.1 374 368.1 369.1 368.4 366.2 361.2 337.6 319.2 316.5 322.9 306.8 282.6 266.1 240.2 228.2 230.8 245.5 245.5 218.3 203.1 186.9 177 178.1 178.7 178.9 182.5 194.9 215.8 231.1 246.7 258.8 273.1 290 304.8 320 338.8 359.3 379.3 396.6 415.5 432.4 446.7 445.8 438.4 431.2 429.4 429.5 428.2 427.3 431 440.6 450.3 454.5 459.1 463.9 466.9 472.1 478.5 485.5 488.6 500.4 510.9 522.3 531 540.9 549.8 557.4 570.4 580.5 592.3 598.5 605.2 616.4 627 635.7 641.3 649.7 657.4 665.8 674 679.1 695.3 710.4 728.8 740 754.8 766.9 786.4 800.8 814.8 826.1 834.7 835.4 839.9 819.7 769.8 738.1 705.5 672.9 638.3 617 599.6 585.8 573.7 559.3 544.4 531 518.9 505 493.2 480.3 470.8 460.9 449.2 434.3 420 405.6 390.2 374.7 359.5 347.4 336.6 327.6 318.4 312.3 318.3 324.9 333.9 345 360.1 382 406.8 430.7 450.5 471.7 487 500.1 506.1 505.7 499.8 491.3 484.3 479 476.1 476.2 472.9 469.1 465.5 460.6 454.6 448.9 448.9 449.7 450.3 448.2
511.1 521.7 520.7 516.1 511 509.7 509.2 512.6 508.3 499.5 489.2 478.7 471.2 458.5 453 438.9 440 429.3 426.4 421.2 415.3 398.1 392.2 361.5 338.8 337.3 339.5 347.6 354.6 371.4 393.6 401.6 414 427.1 431.9 442.4 446.6 453.4 450.5 448.1 437.5 415.3 397.3 393.3 384.7 377.6 372.5 378.1 371.8 367.8 357.9 335 320.5 320.6 333.6 315.3 288.7 273.7 245.1 227.3 214.4 217.7 213.8 196.3 181.7 176.5 176.9 177.4 177.1 178.6 189.2 207.9 230 249.2 259 270.5 283.5 300 316.6 336 357.5 381.5 400.9 413.4 433.6 443.3 450.6 443.2 437.4 432.7 432.2 432.1 433.2 437.3 439 449.3 457.4 464.1 470.5 473.3 480.2 482.4 489.6 494.4 501.4 505.1 520.9 531.9 541.6 553 562.7 572.4 583.4 591.5 600.5 607.1 617.2 628 634.3 640.7 651.4 661.7 668.6 678 684.9 695.9 715.2 724.6 738.9 751.2 761.6 778.9 794.2 803 816.6 829.4 834.8 834 837.7 813.4 758 730.7 696.8 667.1 630.6 613 591.9 579.8 566.4 550.3 534.6 521.2 508.4 495.8 483 472.8 463.2 453.1 440.7 426.5 413.3 399.3 383.3 369.3 355 347 337.5 329.8 322.3 312.8 320.5 327.8 338 346.7 362.5 386 411 432.4 452.4 471.1 489.4 503.5 507.7 504.3 498.8 495.8 490.8 490.1 488.2 486.6 482.1 477.7 472.7 464.1 453.8 455.5 455 455 455.6 455.1
518.2 525.2 522.5 516.5 511.6 511.8 519.9 519.2 509.3 495.3 487.9 481.5 482.6 468.3 461.3 441.6 441.2 429.6 423.7 422.8 418.9 387.8 368.1 349.1 334.9 339.2 347.6 353.8 360.4 377 398.2 408.5 414.8 427.7 435.3 442.1 453.6 461.5 454.4 447.3 438 418.8 400.8 394.2 387.7 387.1 377.5 383.8 379.7 366.8 359.1 335.8 323.8 321.6 320.9 302.7 279.3 261.5 236 222.9 212 196.6 189.4 179.1 177.3 175.9 176.8 176.4 177.8 184.9 202.8 220.8 238.7 257.7 268.2 278.3 290.9 306.5 327.7 354.2 382.2 398.5 414.2 430.6 446.6 453.7 448.8 441.1 437.6 434.5 433.3 435.6 438.5 443.1 447.4 456.9 465.7 474.5 482.1 489.4 490.6 501.9 501.5 502.1 512.9 521.9 527.2 540.3 552.1 561.5 570.6 581.8 590.2 598.4 607.6 616.6 625.3 634.3 645.1 654.1 664.1 672.9 681.8 690 695.8 708.2 722.7 738 750.4 761.2 770.4 789.8 805.2 812.1 822.4 833.9 835 832 811.7 786.1 745.5 715.2 684.2 650.4 621.4 601.8 582 568.3 554.2 538.7 523.7 509.7 497.4 485.9 474.1 465.9 456 443.7 430 417.5 403.9 390 376.3 363.2 353.8 345.1 337.2 329.7 321.9 314.6 319.4 328.8 337.2 348.7 367 391 414.6 437.2 457.7 476.6 496.2 508.2 509.5 506.4 505.7 503.4 501.2 502 499.9 497 491.7 485.7 476.3 462.7 464.9 465.1 466 465.9 466.5 469.1
519.7 526.1 519.7 513.2 509.2 511.9 519 516.1 507.1 489.6 491.7 492.5 490.6 475.6 459.7 447.8 445.5 432.2 424.8 425.3 406.2 370.1 351.5 340.8 335.8 344.3 350.7 356.7 362.9 380.2 400.9 409.5 419 430.1 438.3 440.8 455.9 462.6 457.3 445.5 436.9 416.7 403.2 402.5 392.2 392.4 382.9 386.1 377.6 367 354.8 341.2 323.7 318.9 306.4 285.9 261.1 240.5 223.8 213.6 202 187.2 179.2 176.1 175 175.2 176.1 177.1 180.1 196.4 217.1 231 249 263.4 275.2 288.1 300.8 318.4 342.2 371.4 395.7 414 430.9 443.6 452.7 451.8 444.5 443.4 438.4 435 435.8 438.5 441.2 445.7 453.5 462.3 472.7 485.5 494.7 501.9 502.7 513.8 516.4 518.8 526.2 533.5 540.3 545 557.7 566.6 576.1 587 595.6 605.2 614.9 623.9 631.8 643.9 655.3 662.7 674.9 681.8 693.1 699 709.5 723.6 737.6 755.1 762.6 770.5 782.1 796 809.8 818.9 830.6 835.1 835 825.9 787.3 758.4 729.5 699.1 663.9 628.3 608.8 587.3 570.1 553.2 538.3 525.1 510.8 497.5 485.7 475.4 466.3 458.6 446.8 433.8 421 407.3 393.6 380.9 368.9 358.4 348.9 341.9 335.1 327.9 320.8 314.7 319.3 326.4 338.1 354.9 371.7 394.3 418.3 441.9 463.6 483.8 503.3 513.3 514.7 514.4 514.1 512.5 513.8 513.6 511.3 507 499.7 488.7 467.2 469.3 477.3 480.4 482.8 481.4 487.3 491.2
517.5 519.6 515 505.2 503.5 507.6 511.5 509.9 495.5 494.9 500.8 501.7 495.6 484 465.2 453 447 432.5 424.1 415.3 376.6 351.6 343.5 337.3 335.8 349.3 357 360.3 370.2 383.4 406.4 416.7 426.1 442.9 441.2 441 456 462.6 453.7 447.8 431.4 413.6 408.6 414.1 403.8 394 384.4 383.8 379 367.4 351.6 334 316.5 311.6 297.2 271.7 245.1 223.9 210.9 205.6 197.2 180.1 176.5 175.3 174.1 174.8 175.3 180.4 192.1 210.7 226.8 239.8 254.6 272.3 285.2 298.9 307.4 330.2 357.5 385.2 409.5 420 434.8 443.4 447 443.7 447.5 448.8 443.2 435.8 435.4 439 442.9 453.9 462.6 472.4 484.4 498.2 508.3 514.6 518.4 526.1 528.3 531.7 538.5 544 553.2 558.9 564.1 571.4 581.3 592 600.9 610.5 619.2 626.9 638 650.9 662.1 670.9 680.6 688.1 699.6 716.8 727.7 740.3 752.6 762.2 773.4 782.1 788 799.5 816.5 825.2 841.1 840.6 840.7 801.3 764.8 733.2 706.1 674.6 638 616.2 595.6 574.3 555.7 540.3 524.2 508.9 497.9 485.9 476 466.1 455.5 446 436.1 424.1 411.8 398.3 383.4 371.8 360.7 352.3 343.8 338.1 332.1 324.6 317.3 317.4 329.8 337 343 356.3 377.7 401.2 423.7 448.5 470.1 490.8 511.3 520.5 522.5 523.3 523.1 524.3 526.5 526.2 520.7 513.4 502.8 484.6 473.4 481.2 490.7 497.2 503.2 502.4 507.3 510.3
514.4 511.8 505.7 496.9 496.1 501.1 503.3 497.4 493.7 505.8 515 505.7 497.7 491.3 471.1 461.5 447.8 430.6 396.8 381.5 358 338.4 337.2 331.6 346.7 357.9 361.3 366.9 374.1 390.7 407.4 420.1 431.2 438.1 430.6 438.4 453.8 455.4 463.6 446.3 433.1 419.9 411.2 412 402.8 391.7 383.7 378.8 378.5 368.6 350.7 335.5 313 305.8 295.3 264 233.8 207.9 200.7 197.9 185 174.8 174.8 175.4 173.7 174 178.6 191.2 208.3 218.1 232.9 245.7 260.3 278.2 296.5 308.2 317.3 342.5 366 390 408.3 421 433.3 436.9 440.5 441.5 449.9 443.5 437.5 432.5 434.5 438.5 444.9 462 472.2 482.8 495 507.6 521.5 527.6 534 540.1 543.2 550.3 556.7 559.3 563.6 567.9 570.9 576.5 587.1 595.4 604.9 613.9 622.3 631.4 640.8 656.4 668.7 680.5 689 699.7 718 730.1 744.8 753.8 765.3 772.7 782.7 792.3 800.2 819 826.9 839.5 848 850.3 809.4 772.5 752.2 710.8 673.1 641.1 622.6 599.7 580.2 560.8 543.5 527.2 510.1 497.1 485.8 475 464.1 454.9 443.9 433.2 423.8 412.9 400.5 386.8 374.1 363 353.6 344.9 338.7 335.1 329.9 323 318.6 325.8 335.5 342 350.9 366.3 384.1 399.5 429.8 455.8 478.2 500 520.2 530.7 531.9 531.6 534.3 537.2 538.7 535.7 527.3 516.1 496.3 478.9 487.3 498.7 507.4 515.8 520.4 526.5 534.3 530
502.7 499.7 492.9 485.3 487.7 496.1 495.3 493.4 502.2 516.8 517.3 506.2 496.2 492.4 471.3 451.3 422.9 398.5 370.2 356.7 335.9 324.4 321.9 342.9 359.6 371.4 371.1 372.8 381.1 397.4 410.2 421.1 428.4 426.7 426.1 434 444.6 451.2 459 452.8 437.8 421.3 412.4 411.9 396.9 389.9 378.6 377.1 376.6 371.6 354.7 336.5 315.3 304.8 285.4 249.3 217.9 194.8 189.2 184.3 175 172.9 172.3 172.8 174.2 175.3 188.1 205.8 213.6 224.7 238.8 252.7 268.9 283.1 301.6 311.9 323 348.3 371 387.5 404.2 418.6 426.4 427.7 433.6 439.9 441.9 433.4 425.8 428.6 433.2 438.4 454.2 468.6 479.2 489.4 503.6 520.2 534.8 540.7 548.2 556.6 560.7 567.8 570.7 572 572.6 575.7 581.6 584.7 589.9 598.1 607.8 619.3 629.1 638.1 645.4 662.9 678.8 691 696.8 711.4 721.2 739.8 756.5 767.4 775.3 786.8 798 807 819.3 831 842.4 853.4 854 855.5 818 760 719.9 701.1 647.9 622.9 603.2 585 568.5 549.4 530.4 514 500.1 486.9 476 466.3 453.5 443.1 432.4 421.7 411 399.8 386.7 374.8 365.4 355.9 349 342.9 337.8 329.4 325.9 323 318.4 332.8 341.5 349.3 359.3 376.2 395.2 414 439.2 460.3 485.1 507.4 527.1 536.1 537.8 541.3 545.9 549.6 548.4 541.5 531.2 511.3 488.7 492.5 507.3 519.1 528.3 536.4 545.5 550.1 549.1 542.9
490 488.2 479.7 472 476.4 479.1 482.8 491.2 506.1 513.5 511.5 496.1 489.7 488.1 466.8 429.5 395.7 364.9 343.8 334.2 318.4 319.6 337.3 358.4 371.7 379.4 381.2 385.2 390.6 405.8 415.5 418.6 424.1 430.5 425.7 431 452.1 453.8 458.7 457.4 437 422.9 414.8 411.9 395.9 387.8 377.4 376.9 384.5 368.9 345.4 327.7 311.2 294.4 283.3 233.5 204.5 187.8 183.2 178.1 173.3 171.1 171.9 172.7 174.5 183.8 201.3 209.3 219.1 232.2 244.6 258.6 274.4 288.7 306.2 316.7 328 350.9 371.1 386.6 401 409 413 420.5 428.4 425.2 423.5 420.3 419.9 420.7 425.9 442.3 457.9 469.2 482.6 496.4 514 532.9 545.5 556.6 563.3 567.9 578 582.7 583.1 582.6 581.2 586.2 590.6 590.5 592.4 602.6 614.8 624.4 632 640.4 655.6 673.2 687.4 696.3 708.6 716.7 727.1 747.8 768.6 780.7 791.8 802.3 814.8 827.7 834.4 849.6 860.9 866.4 867.5 852.6 799.3 747.5 722.2 663.6 625.3 604.8 587.7 571.2 554.8 534.6 517.7 503.1 489.7 477.7 468.1 458.2 445.4 431.8 419.8 409.5 398.5 385.7 375.6 364.8 357.5 352.2 345.8 341 335.6 331.7 325.9 321.3 326.2 337.7 347.2 355.1 367.5 385.2 406 425.1 448.2 472.2 492.8 513.8 530.7 541.7 546.5 551.8 559.3 561.8 556.9 545.4 524.1 497.4 500.3 516 529.3 542.3 550 555.4 563.4 564.6 561.7 555.5
481.1 475.4 465.2 459.9 461.6 467.9 478.4 490.1 498.9 502.9 501 484.5 469.8 472.8 438.2 391.7 363.9 341.5 326.1 322.6 314.2 338.8 350.5 363.5 374.6 379.4 388.6 392.4 402.4 411.9 417.4 421.4 427 427.1 421.2 437.1 452.8 457.6 456.3 449.4 438.2 416.6 413.2 411.7 394.9 385.6 377.1 375.7 375.4 362 332.6 312.2 292.2 268.4 241.8 212.6 189.2 183.3 177 174 170.4 170.9 171.5 175.7 181.1 193.2 204.5 213.3 227.3 239.1 249.3 263.1 280.6 297.9 313.1 322 331.5 351.4 368.7 379.9 385.5 392.8 403.9 406.9 406.8 408.8 407.4 404.9 406.9 409.3 422 437.2 454.3 467.6 481.6 501.4 521.7 543 559.5 570.8 580.3 583.2 588 592.1 592.5 590.6 590.6 593.7 596.3 598.3 601.1 614.6 621.9 628.4 633.4 642.3 660.6 674 694.2 702.4 714.6 724.4 732.4 758.2 775.1 792.4 806.6 820 830.7 837.2 854.3 861.5 868.3 873.3 881.2 850.2 778 721.9 692.7 647.5 620.6 594.6 575.6 558.7 540.6 524.6 507.8 494.7 479.7 468.9 458.8 448.7 435.7 420.7 408.9 397.9 387.6 375.5 368.3 362 356.4 351.3 344.3 339.2 334.7 330.7 326.6 321.8 334.1 344.8 353 359.9 374.6 395.3 415.4 436.8 460.9 482.7 505.3 524.3 538.7 549.6 557.4 565 572.3 572 561 545.4 516.5 514.6 523.4 538.4 552.9 565.3 572.3 576.9 577.5 576.8 571.6 563.8
467.2 463.2 451.5 448.8 456.1 458.2 468.6 480.5 480.9 486.7 497 475.7 446.9 433.6 406 371.3 343.3 323.2 316 305.7 353 372.5 365.3 368.4 381.2 384.4 397 403.8 409 423.2 422.7 423.8 430.1 421.2 419.3 432.3 452.1 451.8 454.1 450.7 440.8 421.6 411.4 407.3 395.7 379.6 372.9 376.3 365.5 340.6 316.4 295 275.8 244.1 218.4 194 185.2 180.4 175 170.4 169.6 170.6 177.9 181.8 187 197.5 208.4 219.5 233.4 241.5 253.1 271.4 293 307.1 318.7 325.8 334.3 351.6 362.9 364.8 372.8 388.9 390.6 392.4 392 391.5 392.3 393.2 398.2 406.9 416.8 429 446.4 460 477.2 500.9 522.2 543.6 566 579.1 587.1 593 596.2 599.4 599.2 598.1 599.4 599.1 602.2 614.1 618.6 627.9 632.6 636.2 642.4 648.8 672.5 685.1 696.6 712.5 726.6 736.3 747.2 765.1 782.5 803.6 819.3 829.3 839.2 852.1 868 870.9 868 882.3 878.2 807.1 758.9 702.8 664.5 637.3 611.8 585.5 563.9 545 530.4 512.5 497 484.6 471.2 459.8 448.7 437.4 423.3 408.5 396.1 387.5 377.8 369.8 367.5 363.2 356.2 351.6 345.8 336.4 330.5 328.3 324.8 327.9 339.4 348.9 357.8 368 384.9 406.3 426.6 449.8 472 495.8 516 536.6 549.4 561.2 571.5 581.1 586.6 580.2 560.7 539.8 524.8 530.8 548.2 564.7 580 586.9 591.8 595.7 592.2 588.1 580.6 571.6
459.6 453.4 440.7 440.8 444.5 448.6 452.1 456.9 454.8 467.6 475.6 458.9 436.5 409.5 385.1 350.7 323.9 313.3 303.5 341 367.7 376.9 365.1 369.1 381.1 392.2 398.6 408 411.8 422.2 434.3 428.3 430.3 421.1 418.1 434.4 448.3 449.7 452.8 447.8 436.2 414.1 408.6 397.7 389.1 369.8 366 369 349 315.4 290.3 268.8 249.7 228.4 204 191.1 184.2 179.7 170.6 168.9 170.9 178.1 184 187.2 192.9 203.5 212.6 225.2 234.7 243 259.6 282.3 300.9 313.3 322.2 330.5 338.4 347.1 350.4 354.4 368.7 371.6 374.1 374.3 376 378.4 382.8 387.7 395.7 402.6 412 422.8 438.5 452.4 469.7 494.3 516 542.6 566.7 581.2 592.2 600.8 605.3 606.8 610.3 609.3 609.1 609 611.7 618.7 630.2 638.1 640.7 645 650.4 663.4 680.7 693.2 702.6 721.2 732.3 744.6 759.3 776.2 795.9 811.3 826.3 836.2 842.7 858.4 866.3 873.7 870.9 874.7 857.4 768.1 715.2 683.9 647.7 619.7 596.3 572.6 554.5 536.5 519.8 502.9 485.5 469.9 461.3 448.4 436.8 426.1 411.1 397.7 386.2 375.9 369.6 364.3 361.4 353.8 340.5 342 335.8 336.4 335.7 328 329.5 331.3 345.9 355.5 364.9 377.6 395.5 415.5 438 461.3 486.2 508.7 528.7 549.4 561.7 575.8 590.6 598.4 596.5 587.5 562.4 539.1 549.1 562.7 579.6 594.7 605 607.7 610.5 609.9 603.2 595.8 587.2 576.8
450.1 442.9 430.6 435 444.7 441.5 434.1 438.3 440.1 444.4 448 442.3 417.7 383.8 355.4 329.7 308.1 300 330 359.7 370.3 376.3 364 370.3 376.1 386.2 398.4 404.8 409.6 422.5 441.9 436.5 431.2 420.7 415.3 432.8 444.9 441.8 445.2 438 433.7 407.3 399.8 390.5 378.7 360 356.9 348.4 317.3 293.5 270.8 265.2 245.4 230.2 206 188.6 182 173.8 167.6 170.9 177.5 184.2 188.7 192.5 201.9 209.1 218 227.5 236.5 248.1 263.3 288.2 304.7 313.9 323.8 334.7 336.5 338.8 343.8 348.6 350.5 355 360.7 362.7 366.7 370.5 375.6 384.7 392.2 399.5 409 420 433.4 447.7 462.6 486.8 508.8 537.1 564.1 584.3 597.6 607.4 614 618.5 620.5 620.8 620.4 627.2 635.4 642.8 643.3 645.5 649.9 655.2 662.3 674.9 690.1 703.7 709.3 728.5 736.5 753.6 772.6 789.3 807.5 821.2 833.3 838.3 846.1 859.5 866.1 866.8 864.2 842.2 828.2 739.7 690 661.1 633.1 606.5 583.4 563.4 545.5 527.1 508.3 491.5 475.3 460.7 447.6 437.5 424.4 412.1 400.6 388.2 377.9 371.2 365.7 360.6 348.4 355.3 358.6 356 352.2 343.1 341.7 331.9 339.3 340.4 352.4 362.7 372.1 385.9 404.8 426.7 450 474.1 500.3 521.8 543.6 563 578.3 595.7 607.9 610.8 606.7 596.8 571.9 569.7 583 596.1 609.7 617.8 622.5 623.5 623.8 618.9 611.2 601.7 590.4 582
438 427.2 420.4 428.8 437.8 432 428.5 429.9 431.3 428.4 432.1 423.8 385.8 368.1 329.5 300.7 294.5 318.8 349.8 364.1 365.6 371.7 363.5 367.7 373 380.1 392.3 398.2 404.7 427.8 436.9 438.2 439.5 413.3 410.5 429.5 437 439.9 439.1 428 421.9 408.4 390.4 377.7 364.4 348.5 335.7 316.6 296 282.1 273.3 256.2 239.8 218 197.6 182.7 175 168.4 167 173.7 181.7 185.3 190.9 196.8 205.5 213.3 222 230 240.8 253.2 269.2 290.9 308.3 312 323 323.2 322.3 331.1 337.5 341.7 343.2 344.9 350.5 355.7 360.7 365.5 374.6 380.1 388.7 398.2 407.7 420.2 432.2 445.5 462.5 482.4 506.9 531.9 558.7 582.8 600.7 612.2 620.8 627.5 631.1 633.8 637.2 636.1 644.6 650.4 653 654 658.1 666.4 675.1 683.1 698.3 708.4 717.5 736.4 747.5 760.8 778.6 798.1 813.5 824.1 830 837.5 851.3 867.1 865.8 864.5 851.5 803.9 761.6 715 668.6 642 617.9 593.8 573.2 554.2 533.2 514.6 495.2 478.8 462.8 449.2 435.4 423.8 410.9 404.4 390.7 380.6 372.9 367.9 361.3 353.7 367.8 366.8 363.4 357.6 352.6 348.1 344.5 334.1 346.4 352.6 357 369.7 382.3 395.2 414.8 437.6 461.9 487.3 514.2 537.4 560.3 580.9 597.7 616 620.4 620.8 615.3 611 605.3 603.8 613 623.4 630.8 634.5 634 635.1 632.4 625.1 616.1 604.4 592.8 584.4
423.3 414.6 407.4 418.1 423.1 419.6 421 419.1 415.9 413.5 412.4 393 353.1 324.5 302.4 288.1 301.5 335.7 358.6 361.8 362.4 372 365.6 361.3 367.7 374.1 382.6 391.7 397.4 422.3 430.4 431.4 426.3 398.7 405.8 426.8 429.2 430.8 423.2 420.5 408.2 392.4 379.4 357.1 340.4 327.9 312.9 293.5 282.9 269.1 243.2 231.3 219.6 213.5 192.5 177.5 164.9 165.4 169.7 177.7 182.1 187 193.3 199.5 207.3 218.3 226.8 236.1 246.2 258.4 273.1 289.8 298 302.2 307.5 308.7 314.7 321.1 328.7 333.2 335.3 339.7 344.1 350.1 355.9 364.2 369.7 378.9 387.3 397.5 408.8 420.4 432.8 446.9 463.7 483.8 507.9 530.4 555.6 581.2 601.9 615.2 625.3 634.4 639.3 642.8 646.8 649.4 652.6 655.3 659.1 663.5 671.4 678.3 686.8 694.1 706.6 715 726.5 741.9 753.4 770.1 786.5 800.6 815.8 826.7 830.5 841.5 857.6 867.4 865.1 862.2 837.3 782.9 737.1 691.3 648.2 622.1 600.5 581.9 560.2 539.7 518.6 499.8 480.5 464.8 447.7 435.4 425 411.9 404.5 395.6 385.9 378.1 370.9 362.1 368.6 371.3 373.4 371.4 366.7 361.9 357.2 357.2 346.3 340.9 349.9 359 364.1 377.6 391.1 406.5 426.6 448.5 472.7 500.6 526.5 551 575.4 598.5 619.2 628.5 630.9 627 623.4 622.3 621.4 623.1 631.5 640.9 642.5 643.8 644.8 643.9 636.5 627.3 616.7 604 592.9 582.3
412.5 403 395 401 405 403 406.2 402 394.2 394.8 393 365.8 329.5 301.7 283.4 299.1 314.5 336.9 350.4 357.8 354.4 365.6 368.3 356.7 362.1 364.4 373.2 384.4 392.9 414.1 419.1 420.2 397.5 378.1 400.1 416.3 418.5 420.1 412.3 404.6 385.5 367.6 354.5 342.9 331.5 331.3 329.2 311 291.7 273.2 254.6 241.7 225.1 199.1 182 172.7 164.3 167.6 175.7 180.2 183.5 188.4 195.2 201.5 212.9 224.8 232.5 240.3 250.3 262.6 274.4 282.3 288.2 292.6 296.8 303.1 307.1 313.4 319.8 323.6 329.2 334.2 339.9 344 353.9 361.6 367.8 376.7 386.8 395.8 406.6 419.5 433.4 449.2 465.1 487.7 510.2 532.1 553 580.2 601 615.8 629.3 638.2 644.6 649.3 654.5 657 659.6 663.4 664.2 676.7 683.7 689.8 695.2 701.3 710.6 719.1 732.5 743.3 758.9 773.1 790.9 807.8 818.9 819.7 827.4 837.4 852.1 863.4 872.2 843.9 806.2 762.2 717.2 658.4 627.3 607.6 584.8 567 547 526.8 505 485.4 467.1 451.4 438.1 426.6 413.9 403.9 397.3 391.1 383.9 376.4 363 373.7 375.8 378 380.1 376.5 373.9 366 360.7 358.8 346.8 345 351.9 362.6 370.1 384.6 399.9 418.1 438.8 460.8 484.2 511.9 538.7 562.5 587.9 612.5 635.5 638.1 636.3 632.7 631.2 630.7 631.5 634.6 642.9 649 650.2 653.1 653 651.7 643.6 631 617.4 603.6 594 582.8
400.2 390.2 384.5 383.1 388.8 391.1 389.2 382.1 380 375.2 373.2 344.1 312 292 276 306.4 316.5 325.7 340.2 343.6 346.5 358 362.1 343.2 352.6 354.4 365.2 373.9 387 396.2 403.9 402.4 372.4 369.6 391.7 400.2 403 401 390.9 379.9 369.7 366.5 364.1 342 339.6 329.6 322 306.9 285.8 266.6 245.6 231.5 212.7 186.9 168.8 167.5 163.3 168.9 175.8 179.8 184.2 189.4 197.7 208.3 220.1 230.3 235.3 243.5 255.5 274.2 276.1 277.1 280.4 286 291.8 296.7 301.6 307.5 312.6 318 324.3 330.1 335.2 341.6 349.5 356.8 364.4 372.5 383.4 395.3 407.8 421 437.2 452.1 468 487.8 510.5 531.2 554.2 580.7 602.9 619.2 633.9 644.2 649.2 654.1 657 659.7 663.7 667 668.1 680 686.2 694.8 700.1 704.2 711.9 716.3 730.2 745.4 756.2 777.7 792.3 810.3 819.2 826.1 823.7 836.5 848.8 854.9 862.9 821.1 778.7 727.1 676.8 637.7 609 586.5 570.4 551.7 534.1 514.4 492 473.5 456.3 440.4 427.7 415.2 405.5 396.7 390.7 385.9 377.3 370.3 378.6 380.9 385.6 386.8 388 386.3 379.4 372.5 365.3 358.6 343.5 349.3 356.9 369.1 379.5 393.5 411 432.6 451.9 473.8 498 525.4 551.6 577.3 602.1 626.6 645 645.5 641.6 637.7 638.7 638 637.4 642.5 648 651.9 655.4 656.7 654.7 653.9 646.2 632.8 617.1 604.1 593.9 582.5
385.9 378.6 369.9 368.2 371.3 379.5 374.4 373.7 373.2 364.5 352.8 319.6 295.8 281.2 283 299.4 307.1 312.3 324.1 325.9 335.2 346 344.8 340 335.3 343.2 357.2 363.1 370.8 381.1 384.2 376.3 354.8 363.4 379.1 376.4 375.5 368.3 370 370.7 371.7 365.8 359.1 344.8 332.8 324.8 315.1 299.7 272.9 252.2 240.4 219 195 171.9 163.3 162.2 162.7 167.7 175.3 179.7 184.3 193.6 202.5 214.7 224.6 235.4 239.1 247.6 264.4 268.4 267.8 270.1 274.8 280.2 284.8 289.3 295.8 300.7 304.5 314.3 320.6 326.2 330.7 337.3 344.1 351.5 359.2 368.1 380.5 392.9 406.2 420 436.6 454.6 471.6 492.1 513.6 541.6 561.9 585 606.6 621.9 637.7 645 651.5 656.1 662.6 668 669.4 670.1 670.7 676.1 685.1 692.6 698.1 701.7 709.8 710.1 728.5 742.7 755.1 775.4 793.4 803 813.1 819.2 819.8 829.2 841.5 848 839.4 801.8 740.5 684.8 645.2 616.4 592.1 569.8 553.1 536.7 518.1 501.6 482.1 464.1 444.8 431.8 418.7 407 397.1 390.2 386 376.5 376.6 384 385.2 392.3 396.5 398.4 399 395.8 385.6 375.5 367.5 359.1 347.1 353.4 363.3 374.1 387.6 402.1 423.4 443.9 467.5 489.6 513.4 539.7 565.7 589.3 613.2 639.6 651.5 649.8 645.6 642.9 641.7 640.6 640.8 643 648.4 650.7 654 655.4 655.2 653 645.9 633.2 617.5 603.9 592.9 580.6
372.6 366.2 357 352.6 358 362.8 363.9 366.1 357.5 349.4 323.8 295.8 286.5 280.2 272.4 289.2 294.7 300.8 302.9 311.7 320.3 323.1 328.5 324.6 318.6 331.9 343 349.1 354.5 354.5 353.4 344.8 347.7 359.1 359.4 357.8 357.3 367.1 371.9 372.4 370 368 356.6 338 326.9 320.2 302.2 282.2 257.2 240.5 227.9 201.3 177 160 161.3 161.5 165.5 168.6 171.6 177.3 183.9 194.2 205.2 216 223.2 231 239.1 253 254.9 252.4 259.7 264 263 272.8 279.1 285.3 289.4 298.3 305.5 312.1 317.8 322.6 325.8 331.3 338 345.4 353.9 363.4 377.2 390.2 403.9 420 434 452.8 470.8 493.4 519.6 547.6 568.8 592 610.6 623.8 637 645.3 652 658.5 663.7 667.1 668.3 667.7 668.3 669.8 680 685.2 689.4 694.3 701.9 706 724.8 735.4 753.9 766.3 790.1 796.4 805.3 810.1 815.6 825.7 836.9 844.6 818.9 761.3 719 681.5 631.1 608.8 582.3 559.8 541 526.4 509.4 488.5 471.1 451.3 437.9 424.7 410 399.5 391.7 382.9 376.1 383.1 386.9 394.6 400.9 406.7 410.7 414.1 416.2 408.1 393.3 377.7 367.7 358 348.2 358.6 369.4 380.5 395.5 414.5 435.7 456.7 482.4 506.7 531.8 555.7 580.8 605.4 630.1 654.7 656.2 652.7 649.8 647.5 643.9 642.6 640.1 642.1 646 648.4 651 653.2 653.9 652.3 644.8 632.2 616.5 603 589.9 578.1
361.1 354.5 345.4 340.5 344.4 350.2 352.7 347 340.1 313 292.4 284.5 283 281.3 262.1 276.7 283.3 288.1 296.8 303.1 308.9 308.7 306.1 302.3 306.3 317.6 322.5 329.2 330.6 331 336.7 343.1 349.6 349.7 355.5 364.2 366.9 374 367.2 369.5 364.8 361.2 338.1 327 321.1 306.7 281.8 258.9 243.9 228.6 206.4 182.8 164 158.7 160.9 166.7 165.9 169 172.2 176 183.5 190.7 201.8 208.5 216.4 227.2 226.2 229.3 233.5 240.7 247.3 256.9 263.7 265.2 267.4 277.4 288.6 296.1 302.4 308.3 314 319 322.3 328.2 333.4 341.1 351.9 362 375.2 387 402.3 416 430.6 450.1 467.9 491.8 519 548.2 573.2 596.8 612.4 627.2 639.4 649 657.8 662.5 662 660.5 659.4 661.2 660.6 663.5 670.4 676.9 678 687 693.6 701.6 716.8 733.9 748.1 763.4 784.7 789.8 799.3 803.5 806.5 816.9 835.5 842.9 816 790.6 717 675.7 633.3 599.8 576.4 554.1 535.3 519.4 501.2 481.4 462.4 445.1 431.4 417.4 401.6 391.5 384.3 379.1 385.4 392 397.4 404.9 413 420.4 427.9 436.1 437.3 419 401.4 383.2 368.1 354.6 353.3 363.1 374.2 388.3 405.2 425.4 447.6 471 498.9 525 549.1 575 599.5 623.8 649.8 662.2 659.8 655 652.2 649.2 645.8 640.9 638 637.8 641.4 644.8 647.3 649.5 651.8 649.4 642 629.6 612.9 599.3 586.8 574.7
349.1 342.5 333.7 331.6 335.4 336.3 334.7 327 311.4 289.1 283.3 282.2 278.3 275.8 260.4 267.7 275 281.1 288 292.2 294.7 295.1 294.1 296 301.1 307 312 317.4 329.7 337.6 347.3 356.6 364.2 349.3 357.7 369.7 366.3 362.7 365.3 362.3 358.1 346.6 325.2 314.5 305.3 286.7 260.8 244 229.9 210.8 185.8 165.3 158.5 160.2 164.4 163.5 166.2 169.4 172.1 178.4 189.1 199.3 209.2 217.6 224.2 229.6 238.8 245.3 251.9 260.4 267.1 273.1 279.8 284.7 283.2 271.1 281 287.9 294.1 302.6 310.4 316.2 322.8 327 333.8 341.5 352.1 363.9 374.9 385.8 399.1 412.4 426.8 440.7 462.1 486.3 510.5 545 572.1 592.9 609.1 623.6 636.5 649.1 661.1 656.5 650.1 646.2 644.3 645 647.4 653.1 660.4 665.8 672.9 682.2 690.1 699.7 711.3 727.4 743.4 761.4 776.3 780.3 794.4 804.1 815.8 821.3 834.7 835.4 819.4 786.2 726.7 671.7 634 600 574.9 550.9 530.9 512.7 494.8 474.1 455.4 438.6 427 415.5 405.3 390.1 383.8 384.9 393 399.6 407.5 417 427.7 438.5 448.1 459.9 450 424.6 406.1 387.1 367.3 353.4 356.7 365.6 378.2 395.6 414.5 437.1 460.9 484.7 513.4 540.7 567.9 594.8 620.6 644.3 663.3 666 661.4 656 653.4 649.5 644.8 639.7 633.7 634.3 635.6 638.9 642.4 644.3 646.3 644.2 637 625.2 608.8 596.3 580.8 567.5
340.1 329.2 325.7 321.8 314.3 314 313.2 298.7 286.6 284.6 279 276.9 274.7 263.8 255 253.2 269.3 274.4 279.5 281.3 282 288.3 291.7 295 299.9 304 308.9 321.5 333 341.7 353.3 364.6 361.7 353.3 360.5 368.3 365.1 359.8 358.5 353.4 342.7 329 317.6 293.1 285.3 268.8 244.8 230.5 212.9 188.9 168.6 159.3 159.6 160.1 162.8 163.2 165.7 167.8 176.8 191.3 201.4 210.3 218.8 227.1 235.8 244.1 252.1 259.4 267.1 274.5 280.3 283.9 289.3 293.9 295.4 292.1 289.3 286.7 286.3 296.7 307.9 318.2 324.4 330.3 337 343.8 353.1 363.7 374.5 385.8 396.8 408.6 421.4 433.4 452.6 477.8 502.9 539.2 564.9 582.7 599.4 612.7 621.6 635.3 644.8 640.7 633.4 627.2 629.3 631.9 635.5 642.7 651.4 658.5 667 677 687.4 696.7 708.9 726.3 742 757.1 767.7 778.8 794.5 807 817.9 828.6 833.3 832.6 813 763.2 719.5 677.6 642.1 605.7 572.1 550.1 529.5 510 490.7 471.4 452.7 437.5 423.7 415 406.7 391.3 394.5 388.1 400.7 408.8 418.1 431.3 445 458 469.7 483.6 453 430.2 408.2 388.2 369.5 356.7 357.9 368 383.7 404 426.5 449.3 473.3 500 529.9 560.6 587.6 615.8 638.8 657.4 665.6 665.7 662.4 658.2 652.9 648.3 641.1 634.3 629.8 627.5 629.6 634.2 636.1 639 637.9 636.6 628.7 618.6 602.7 590.1 577.3 565.5
332.7 324.2 318.8 310 299.8 296.3 290.3 280 287 282 276.9 271.1 265.9 258.1 254.2 249.8 263.8 268.3 272.3 275.4 284.1 291 294.4 295.8 298.3 302.2 311 321.1 329.3 340.1 354.8 361.2 358.2 347.4 350.6 360.2 355 353.7 350 338.5 329.6 317.9 298.2 271.7 255 239.2 226.5 211.2 193.5 170.5 158.2 158.1 158.8 159.9 161.6 167.8 171.9 180.6 189.4 200.2 209.9 218.8 229.8 239.7 250.8 261.2 268 276.6 284.3 290.1 294.5 296.8 300.2 304.3 308.1 310.7 312.3 313.7 313.2 301.2 305 317.1 324.3 333.6 340.3 346.6 355.1 365.7 377 386.7 395.5 404.2 415.5 427.8 445.9 467.3 488.5 515.6 542.6 562.5 580.3 593.7 601.8 613.6 622.4 620.4 614 614.3 612.8 617.5 625.2 634.7 644.9 654.1 661.9 673.1 687.6 696.7 709.9 726.7 741.5 756.9 764.5 784.4 798.8 811.2 824.5 833.3 839.5 834.5 818.7 792.2 724.7 683.2 648.5 608.8 582 555.5 531.4 509.6 488.5 470.6 453.6 438.5 425 414.3 401.5 399.1 399.7 395.7 408 418.2 431.7 446.9 464.1 480 494.1 488.1 455.8 431 410 390 372.6 361.6 363.3 375.4 391.4 412.2 436.5 461 487.8 517.5 546.5 575.7 606.6 635.1 652.6 660.8 668.4 666.8 665.3 660.4 653.1 647.9 639.8 632.6 625.4 622.6 624.7 626.6 630.1 631.9 629.4 626.8 619 610.6 596.1 584.7 572.4 560.6
327.1 318.2 309.5 299.8 288.2 280.6 278.2 286.9 281.1 276.1 271.5 260.6 257 255.7 250.6 247.1 259.3 262.5 265.9 272.9 281 289.7 296.2 295.7 299.2 301.3 309.8 318.6 327.2 339.5 355.6 355.3 349.2 340.2 341.3 342.5 345.6 348.7 343.4 330.8 316.8 296 286.8 254.7 232.7 218.2 203 186.8 168.9 156.3 156 157.1 158.4 159.6 164.4 171.8 178 186.2 197.2 209.7 222.6 236.7 248.6 261.4 268.6 275.7 286.1 292.8 298.7 304.1 308.5 310.4 313.6 318.2 322.3 326.1 329.4 330.9 330 321.4 312.9 312.8 316.5 329.1 342.5 349.9 358.4 368.8 377.1 386.2 393.6 401.6 410.3 420.6 432.2 449.2 471.7 492.9 516.3 536.5 554.4 567.4 577.7 587.7 597.1 596.9 594.6 594.5 598.9 607.3 616.7 629.4 640.6 649.9 657.7 669.6 682.6 696.7 712.6 727.8 746.2 757.4 762.5 785 801 810.1 827 831.9 840.6 843.7 811.5 775.8 724 690.3 654.2 615 582.6 558.1 541.7 520.1 493.6 472.9 456.1 441.2 425.2 414.3 411.1 410.7 403.7 404.4 417.6 429.3 445.8 462.3 484 502.1 514.7 486.7 457.6 432.7 410.9 391.9 375.3 362.5 368.5 382.4 398.9 419.9 442.5 470.4 499.1 532.7 560 588.2 619 646.1 657.7 665.5 669.8 668.6 663.9 657.6 650.8 645.4 638.5 631 621.8 618.8 619.3 621.2 624.3 625.4 623.2 618.3 610.4 602.4 589.4 576.1 564.7 552.9
320.4 312.1 302.7 292 279.6 276.9 275.2 273.6 273.1 271.2 266.1 260.8 256.8 262.4 253.6 245.2 256 259.1 263.5 271 279.9 290.8 295.9 296.9 296.5 297.5 310.5 317 319.3 337.3 346.6 347 342.1 324.9 330 331.7 331.4 330.1 322.3 313.8 290.8 278.6 264.6 241.1 217.9 199.7 180.1 163.4 155.5 154.8 155.7 159 157.7 158.7 165.9 173.8 181.5 193.1 209.8 227.3 245.1 257.6 269.7 277.2 281.7 292.3 300.6 305.8 310.4 314.2 317.8 321.5 326 327.3 332 338.7 343.7 345.5 341.7 337.6 334.4 330.7 328.9 327.1 342.9 351.5 360.5 369 375.7 382.5 389.3 396.3 405 412.4 420.7 433 451 470.7 488.7 506.2 524.4 537.5 547.5 558.9 565.2 571.1 571.6 575.5 586.3 597.5 609.1 621.3 631.4 643.6 653.6 664.2 684.4 700.2 711.2 731 754.5 766.8 768.3 796.6 806.4 818.1 832.9 842.5 849.4 852.4 832.8 785.5 742.9 696.8 661.6 617.2 589.8 571 549.9 529.7 504.8 476.4 455.5 439.6 432.7 426 423.4 420.3 407.5 411.8 426.9 441.1 458.1 479.9 505 523.8 518.4 487.6 461.7 435.4 413.9 395.3 379.2 364.6 369.8 383.8 402.1 423.4 443.5 470.6 505.1 535.6 565.9 599.9 626.4 647.8 662.4 668.6 667.2 665 659.2 653.3 647.6 640.9 634.8 629.7 622.4 615 613.4 616.6 618.7 619.1 618.5 612.8 604.4 595.1 582.2 563.8 553.8 544
314.3 302.4 297.6 285.6 278.5 276.6 274.8 273.1 272.2 267.9 267.1 263 258.6 259.5 247.3 249.6 254.5 258.3 266 268.2 277.4 283.6 290.8 292.7 295.3 300.9 308.8 312.2 312.1 328.1 339.8 338.2 324.6 304.9 320.2 320.3 311.1 306.7 296.1 287.8 266.9 257.5 243.4 215.3 199.2 182.4 162.5 152.5 154.2 154.6 156.1 156.8 156.8 157.1 169.1 179.3 197.6 216.5 235.4 250.7 261.3 273.3 281.4 286.5 295.8 305.4 309.6 311.9 317.4 325.9 334.7 338.9 342.1 345.9 351.3 356.7 360.8 362.8 361.9 357 350.6 342.9 339 329.6 332 346.6 357.9 364.3 369.6 377.3 383.6 390.5 397 404.3 412.1 418.9 431.5 447.1 463 478.1 493.3 506.2 517.8 528.5 533.4 538.5 550 563.2 574.4 588.5 601.9 613.5 625.4 637 649.8 666.8 686.6 703.5 713.8 735 759.2 770 782.5 791.7 806.5 826.9 841.6 852.5 859.1 857.9 851.3 800.8 749.9 706.7 658.7 620.7 591.2 573.5 554.1 533.5 507 482.7 464.8 446.9 444.1 437.4 435.1 427.2 411.4 422 434.9 451.1 474.2 494.9 521.4 544.9 522.4 498.3 464.2 438.2 414.2 395.7 381.6 370.8 369.8 386.8 404.4 427 455.2 482.4 514.6 548.7 580.4 607.5 635 655 665.5 662.5 660.1 658.3 652.2 647.8 641.6 636.3 629.2 624.4 620.3 615.1 606.4 611.5 615.2 618.1 617.7 610.4 601.8 591 579.8 564.2 548.8 527
298.5 293.6 291.7 281.9 279 278.3 280.8 274.4 270.4 263.5 264.1 265.1 268.5 255.8 242.3 250.4 250.6 259.2 268.6 268.7 277.2 286.6 288.8 291 294.9 299.3 305.9 308.1 305 322.8 329.7 330.4 311.7 297.7 314.3 306.9 295.3 293.4 276.2 259.3 242.8 232 212.2 194.5 177.2 160.5 153 153.1 154.6 157.1 162.1 162.4 157.8 164.9 180.5 196.9 221 239.8 254.2 263.8 278.6 287.8 293.9 300.8 309.1 315.6 322.7 330.1 336.2 343.1 348.6 352.6 355.6 358.3 364.8 371.2 376.6 380 380.9 376.9 370.2 360.6 351.4 350.2 345.5 340.7 347.2 356.9 364.6 370.7 376.7 382.8 388.7 396.1 404.9 412.6 418.7 428.6 439.3 452.9 464.7 475.7 487.3 500.1 513.3 525.2 537.8 550.6 562.5 581 599.2 613.4 626 638 653.8 669.9 691.3 706.7 721.7 744 765.8 776.4 790 803.4 818.3 826.4 842 854.4 862.6 865.3 864.9 838.9 785.2 719.1 660.8 628.3 600 580.5 570.6 547.5 523.1 496.3 482.4 469.2 448.3 452.2 444.8 434.4 416.8 430.4 443.9 460.5 483.4 506.1 533.7 555.1 521.7 493 463.6 437 414.7 395.3 382.3 374.2 373.5 391.6 408.7 432.4 460.6 488.4 521.8 563.4 598 626.9 650 659 652.2 647.5 648.4 648 642.5 638.3 632.3 628.9 623.5 618.5 614.7 611.4 605.4 608.3 613.9 616.8 617.7 608.3 598.2 587.6 577.3 566.8 553.3 536.6
292 291.5 290.2 282.8 279.8 282.6 278.1 270 262 261.5 266.6 271.6 266.3 255 249.5 241.2 246.1 259.4 266.9 266.2 276.7 286.5 285.2 287.8 290.9 291.3 299.9 301.7 300.6 313.1 319.6 319.8 293.2 299.3 300.2 290.5 285.2 270.3 253.5 237.2 225.5 206.1 190.4 170.3 155 152.5 151 152.9 155.2 164.9 167.9 168 170.1 179.3 200 221.1 237.6 255.6 267.4 281.3 296.2 301.9 304.9 310.8 319.8 326.6 333.4 340.4 347.5 354.2 361.4 366.3 368.7 370.2 373.3 382.5 390.3 396.5 399.6 396.1 389.2 383.8 375.8 364 357.9 351.6 346.6 355.1 360.4 363.7 367.6 373.2 379.8 390 397.8 403.3 409 417.1 427.1 435.3 447.1 461.3 475.4 488.8 504.3 517.7 525.5 545.7 560.6 582.2 600.7 615 629.5 644 659.4 675.3 695 713 732 758.5 774.7 785.8 802.8 816.7 828.3 835.8 844.3 855.7 859.9 868.6 865.1 848.2 806.5 727.3 686.9 638.3 614.6 598 579.4 565.1 540.9 519.2 500.7 475.5 467.1 464.8 453.5 440 421.7 438.3 453.5 471.1 493.3 516.5 546.4 563.7 521.7 490.8 462.3 436.7 413.6 397.8 384.3 376.7 379.1 393.7 412.7 437.7 465.7 497.4 533.7 571.4 607.1 635.1 639.7 641.5 634.8 632.9 634.7 635.9 630.9 626.5 622.7 620.4 614.9 612.5 610.3 607.9 606 601.5 610.1 613.2 613.4 603.8 593 584.2 574.5 564.7 551.5 535.1
292.3 293.8 287.8 282.4 280.7 276.1 269.9 262.7 256.8 261.4 267.6 270 260 252.9 246 233.5 247.8 259 267.1 264.6 268.6 280.5 284.3 282.6 282.7 281.7 291.5 296.5 293.2 301.8 306.2 299.9 278 285.3 288.3 277.5 263.8 248.4 235.7 221.5 202.6 186.5 167.9 155 150.6 151.1 151.8 159.1 164.5 168.1 171.5 174.4 182.3 201.6 222.2 237.9 251.9 268.9 284.3 297.8 304.5 312.3 317.9 323.3 330.7 338 342.5 354.5 363.9 369.8 374.1 380.6 385.2 383.9 393.9 397.8 403.7 413.3 419 418.9 409.1 405.3 396.8 382.8 367.4 363 357.4 355.4 357.6 359.5 361.5 364.5 370 379.8 388.8 394.3 402.1 410.7 421.8 430.7 438.3 454 466.7 477.8 501.7 515.9 537.3 552.1 563.1 582 603 621.6 636.3 651.7 668.4 688.4 705.5 722.1 739.2 763.7 786.3 798.3 813.8 825.5 837 842.5 850.2 855.3 860.4 870.8 859.6 846.1 803.1 761.8 708.5 666.4 642.1 633.3 611 583.1 559.5 537.8 505 499.4 488.7 475.6 460.4 445.2 429.6 448.8 463 482.1 503 528.2 559.8 571.1 525 492.2 462.4 434.8 411.3 394.5 383.6 377.2 380.6 396.9 417.1 442.8 471.1 504.1 542.5 580 610.9 617 624.3 623.7 616.9 616.2 617.9 620.2 618.6 616.1 614.2 613 610 609 606.4 604.4 601.2 600.1 604.6 607.4 604 595.5 587.8 578.1 568.4 557.7 544.7 525.1
294.1 292.9 287.8 282.6 272.3 266.9 262.4 254.2 254.3 261.8 267.2 270.4 258.5 247.6 239.8 230.2 251.4 261.3 262 258 264.7 272.9 277.7 278.2 273.8 270.1 278.8 283 281.2 281.5 284.2 276.5 268.5 280.1 271.4 260.2 250.9 233.6 220.5 203.5 182.7 167.2 160.2 153.8 150.3 150.4 151.7 160.7 166.8 170.7 174.1 182.8 201.4 221.2 236.5 252.5 267.3 280.1 293.6 305 313.4 321.4 327.4 334.6 341.8 345.9 351.7 369.6 375.5 379.4 383.1 396.4 401.6 402.5 411.6 425.8 433.8 434.6 435.4 437.8 427.2 420.3 413.7 399.8 386.4 375.8 367.1 361.7 356 358 359.4 361.1 365.3 371.9 380.6 388 396.7 402.5 410.8 423.8 441 455.7 474.4 491.3 514.4 530.5 546.2 561.6 574.2 590.9 605.6 626.4 641.3 659.8 676.7 695.4 713.6 729.8 751.8 783.3 806 815.6 824.1 832.4 839.2 845 852.3 858.1 863.4 865.7 853.6 840.4 826.8 793.1 744.8 707.5 686.3 681.5 651.3 615.4 580.5 551.5 535.4 518.7 503.4 484.2 465.3 449.5 443.3 462.4 473.7 492.4 513.3 542.7 571.4 568.7 526.3 490.3 462.2 436.7 417 396.3 386.7 380.9 382.2 400.8 422.1 447.6 475.5 513.5 551.8 582.5 592.2 598.7 604.8 606.6 600.7 598.1 603.3 607.4 611.1 609.2 607.6 606.8 604.6 603.9 601.2 600.4 597.2 596.8 599.2 600.1 597.6 589.5 582.3 573.8 561.3 546.1 524.7 503.4
296.4 293.8 288.6 278.1 265.2 257.1 252 249.7 253.2 259.8 261.9 255.9 252.9 241.9 234.6 238.1 249.2 256.7 253.6 253.2 258.6 261.7 269.5 273.5 269.7 261.5 266.9 268 259.2 263.1 263.2 255.3 260.5 263.8 255.2 244.3 233.2 218.8 202.6 181.4 164.3 157.4 154.7 151.2 149.6 149 156.2 164.3 168.6 173.3 182.1 201.8 220.8 236.9 254.2 267.7 278.6 288.5 300.2 315.5 321.8 329.3 337.4 344.8 353.5 360.6 367.9 381.3 389.2 400.2 401.8 412.7 421.4 418.9 431.6 445.7 450 453.5 457.3 458.2 458 438.4 427.2 414.4 405 395.1 383.3 370.9 361.9 358.6 360.4 361.5 364.7 367.6 375.1 383.1 388.6 397.3 416.8 430.7 448.2 468.3 484.8 503.4 521 538.5 559 570.1 585.8 599 613.6 631.3 647.1 666.7 684.1 699.6 720.5 744.3 772 817.3 824.4 825.9 831.2 836.1 840.8 846.4 854.2 858.1 863.7 859.2 843 831.2 817.5 801.2 775.9 742.8 745.4 732.6 701.6 657.1 617.1 586.4 560.9 542.3 514.7 490.7 470.9 446.4 456.7 473.8 485.9 503.4 524.9 557.9 564 555.5 525.2 482.6 448.9 428.6 410.1 406.8 393.1 385.1 389 405.7 427.8 451.8 481 524.5 556 567.2 573.6 579 586 587.7 584.1 581.4 587 592.7 600.3 600.8 599.7 601.1 599.7 598.9 597.1 597.2 588.4 593.2 596.3 596.7 593.4 585.9 578.6 568.3 553.4 529.3 501.9 480.3
300.1 295.5 287.1 271.4 261.2 251.5 246.6 248.9 254.6 254.6 253.2 249.6 242 239.2 234.8 230.4 245.8 249.9 249 247.5 250.2 255.8 263.5 268.6 263.3 257.1 256.1 260.8 253.4 253.1 253.1 232.3 242 242.7 240.9 225.9 215.3 204.2 189.7 161.8 152.5 153.3 150.4 148.5 148 152.6 155.2 166.5 172.5 179.2 197.6 220.5 238 254.8 268.3 278.2 286 299.8 316.9 323.6 329.4 338.2 351.3 361.1 369.1 374.9 382.4 390.9 400.4 415.5 416 427.3 441.1 439.8 457.4 460.8 464.6 478.9 486.3 482.6 482.1 456.5 443.4 431.3 419.8 410.3 397.9 378 370 363 361.1 362.3 366 368.7 372.1 378.9 390.4 403.8 419.9 435.6 455.6 474.2 487.9 508.2 526.7 542.8 563.8 578.6 595.2 607.5 617.2 632.8 651.6 670.4 687.1 711.4 732.2 757 791.4 828.9 831.8 833 834.4 836.2 848.5 850.2 854.1 856.4 858.8 841.5 822.8 811.3 800.1 787.5 770 754.5 742.2 730.3 718.9 694.2 654.4 624.3 586 550.4 518.8 494.8 475.1 456 474.2 484.9 499.5 517 541.4 568.3 561.7 550.6 530.3 478 446.3 426.6 425.7 413.8 399.1 388.9 389.6 411.9 433.6 457.8 486.8 522.9 544 552.3 557.3 562.9 566.6 567.9 565.7 564 569 577.1 588.4 591.4 591.1 595.9 594.1 594.9 592.7 592.3 589 584 593.2 594 590.2 583 574.1 563.7 542.9 515.2 488.6 458
302 297.1 282.6 266.7 260.1 250.8 245 249.9 250.2 249.5 247.9 242.2 239.4 238.1 237 220.6 240.4 247.2 249.2 241.6 244.5 251 258.1 263.1 258 251.6 251.2 260.5 254.7 252.1 232.7 218.7 225.4 227.7 223.8 213.2 197.2 186.6 163.3 148.5 148.4 148.6 146.4 151.2 156.2 157.8 160.1 170.8 180 195.8 212.9 231.2 252.9 270.1 279.2 291.7 301.7 315.9 325.1 334.3 346.3 357.6 365.8 377.5 383.8 388.8 397.8 401.2 411.8 421.8 431 444 453.6 451.6 461.5 476.4 479.6 492.5 499.4 506.2 505.2 477.4 459.1 449 435.9 425.2 411.9 394.8 377.6 372.1 366.4 363.8 366.6 370.6 374.8 383.2 395.5 409.6 423 440.4 460 479.2 495.1 512.3 531.4 550.4 567.8 584.5 599.3 610.2 621.7 636.9 656 674.6 695.4 718.7 738.9 766.1 805.1 828.3 828 830.4 838.3 844.2 847.4 850.2 851.8 852.3 848.7 816.1 792.7 784.8 777.3 766.7 753.6 741.9 733.3 723.7 713.4 700.8 654.9 615 578.3 546.5 520.3 496.7 478.5 471.1 490.1 500.1 514.2 533.4 560.4 575.2 566.1 558.2 540.9 493.6 460.5 437.5 426.3 410.2 406.2 398.2 395.7 410.1 441.7 466.8 498.7 523.1 532.9 539.4 542.6 546.4 549.5 549.9 549.1 546.7 553.8 561.2 572.4 576.9 587.5 590 589.1 588.4 584.3 588.9 586.7 560.7 587.5 588.8 585.8 578.6 566.8 550.9 530.8 506.5 479.1 451.7
299.9 289.5 279.1 266.6 263.7 248 243.1 246.4 245.3 243.8 243.2 246.5 242.2 237.1 229.7 224.4 237.2 242.4 243.4 237.7 239.3 246.2 255.7 258.6 253.5 253.1 250.6 255.4 257.2 236.4 216.2 209 214 214.2 211.9 198.8 179.1 167.5 148.2 147.9 148.3 146.5 150.7 150.4 153.9 160.2 169.9 179.1 192.2 207.9 226.1 245.3 266 278.3 288.8 303.4 313.9 325.7 335.5 345.5 356.5 369 380.1 388 398.3 405.5 410.2 412.1 420.7 431.8 437.7 446.1 454.2 458 478.1 485.1 489.8 497 511.8 518.4 518.1 495.8 477.3 463.3 450.5 438.2 426.3 410.2 393.7 380.2 375.5 372.6 370.6 373.2 379.7 388.3 397.9 410.7 425.4 441.3 461.7 481.2 499.1 516.2 535.3 556 573.7 588.6 605.4 617.5 629.4 644.1 663.2 680.9 706.3 725.5 740.7 774.4 807.1 825.5 824.8 830.1 840.4 848 848.7 850.3 843.9 824.2 813.4 797.4 764.7 753.1 746.8 744 736.6 727.7 722 713.8 704.2 686.3 643.9 602 570.7 544.8 518.9 497.7 478.8 492.6 504.1 518.1 530.6 550.6 577.1 580.8 572.4 560.1 551 516.1 473.7 446.8 431.3 426 416.3 414.7 420.8 425.6 449.6 477 503.4 515.2 521.6 525.2 528.3 532.9 535.8 536 535.4 532.2 538.7 544.1 553.3 564 577.7 580.5 573.3 557.6 580.4 584.3 577.8 551.2 577.8 583.6 580.8 573.4 559.8 541.6 520.3 497.2 470.8 444.4
286.8 284 275.9 269 266.3 244.6 241.2 242.1 240.8 238.6 240.8 242.4 235.5 234 220.8 227.4 233.7 237.4 236.6 234.6 236.7 243.8 248.6 249 244.9 249.1 248.8 250.6 239.6 220.2 202.2 197.8 203 200.4 189.3 180.5 163.2 150.7 147.4 147.7 146.1 151.2 148.6 149.9 156.9 168.2 180.1 192.5 206.8 223.6 235.5 251.9 272.5 284 296.5 311 322.4 334.9 346.4 354 365.7 382.7 392.9 404.3 406.5 416.7 421.3 424.1 425.6 434.1 441 454.3 461 462.9 474.6 481.1 486.1 501.9 522.9 533.7 529.5 511.8 493.1 477.8 463.9 451.7 440.2 426.4 412.7 396.5 383.4 380.9 377.7 378.4 386.1 392.1 401.4 411.4 427.1 442.6 458.7 480.1 499.4 517.5 539.5 561.5 578 593.8 610.5 625.4 637.7 652.6 667.6 681.8 702 721 740.9 770.5 801.2 818 819.8 824.7 836.7 846.6 850.5 844 829.1 791.8 769.1 753.7 732.2 717.2 713.1 720.8 718.2 713.7 710 703.9 694 653.2 619.1 589.1 562.6 538.6 516.1 495.6 497.8 509.1 521.5 535.4 551.1 569 592.7 590.1 582.1 577.4 564 544.3 494 461.9 444.6 440.7 440.1 438.9 443.1 452.9 468 495.4 499.8 507.3 510.8 513.9 518.1 520.6 522.6 523.6 523.1 519.1 524.6 530.2 535.8 550.9 558.8 553.1 540.2 566 580.3 579.1 568.2 546.8 565.4 569.5 571.1 560.7 549.5 535.2 514.3 491.8 470 443
280.3 279.6 269 262.1 256.6 242.9 243.6 240.1 236.1 237.9 238.1 236.4 231.1 229.2 211.1 223.8 230.2 230.4 227.4 234.3 237.6 241.1 247.4 244.7 241.2 246.9 242.8 243.2 225.9 202 185.6 191.8 190.6 182.4 175.8 163.1 148.3 147.5 146.2 149.1 146.5 147.4 149.7 161.9 169.8 179.7 190.6 202.7 217 231.6 244.7 256.8 277.9 291.4 304 318.7 330 342.7 355.9 363.4 373.6 388.6 399.1 409.2 420.7 421.9 426.5 433.1 438.9 437.6 444.3 451.6 459.9 466.3 476.7 485.2 487.9 498.7 523.1 545.6 540.1 525.9 503.4 489.7 477.5 465.4 454 445.3 432.2 418.6 403.4 390.8 386.8 387 395.1 402.8 409.1 417.8 422.9 444 462.7 480.8 501.6 519.6 540.1 565.4 585.2 600.8 617.7 630.2 644.5 655.2 667.4 681.8 697.1 721.5 747.4 771.9 806.3 812 813.5 821.8 834.9 841.3 844.3 841.4 823.6 781.2 752.2 727 710.1 700.2 694.7 692 699.1 698.8 697.8 691.7 678.4 637.6 604.4 579.8 556.8 533.1 511.3 509.7 515.7 526.2 539.8 554.3 570.5 590.1 609.1 604.6 597.1 592.3 582.5 556.4 516.8 491.1 474 464.1 467.6 467.8 469.6 470.8 479.4 497.4 498.9 503.2 503 503.9 507.5 509.8 510.7 511.4 510.7 508 512.1 517.6 526.2 539.2 537.1 529.4 556.9 579 580.9 580 572.1 545.7 550.2 545.2 546.9 541.6 538.2 525.5 510.6 492.2 470 439.7
269.2 266.9 257.1 246.9 241 244 242.9 240.2 237.5 234.5 235 232.5 227.8 224.1 200.8 218.3 226.2 226.7 225.4 231.5 239.9 239.4 237 236.4 230.9 230 231.8 228.9 212.1 184.9 178.2 179.6 176.3 166.3 160.8 147.1 142.7 147.9 145.8 146.4 146.6 150.1 160.9 170.2 179 188.2 198.8 211.6 224.6 237.8 250.9 263.5 280.7 295.4 311.6 326.3 336.6 348.3 360 368.9 378.6 390.7 399.9 409.3 421.7 424.4 435.6 439.1 441.1 439.4 440.9 449.7 458.6 467.9 481.1 485.3 491.2 505.8 530.4 549.2 551.3 539 515.3 501.8 490.8 477.9 467.6 458.2 450.4 440.8 430.5 418.4 409.8 410.9 414.2 418.6 423.5 430.9 434.5 442.1 462.3 479.4 500 521.8 539.9 564.8 587.9 605.2 619.2 632.8 647.1 659.5 669.8 682.1 696.3 724 751.4 774.2 807.2 809.1 810.9 817.5 827.4 840.5 842.5 839.3 817.5 789.2 738.3 709.4 695.4 673.9 673.7 665.4 671.7 678.1 680 677 662.3 624.6 593.5 570.3 547.8 527 521.8 525.6 534.8 545.6 561.2 576.4 594.3 615.9 635.6 626 612.5 612.2 597.4 578.1 547.7 520.6 507.5 497.4 501.4 505.3 490.9 482.7 487.5 499.4 501.9 500.6 499.3 499 499.6 498.8 501.2 501.1 501.6 499.4 502 505.3 516.4 526.4 523 549 575.1 585.4 585 584.5 581.6 556.6 531.2 528 523.6 521.6 525.6 518.2 512.8 494.1 466.4 451.7
254.8 249.1 240.5 240 242.5 245.2 240.1 236.9 229.2 230.3 229.3 226.5 222.3 212.9 201.9 215.9 220.7 223.6 222.6 228 232.3 231.7 231.7 227 216.8 219.5 218.8 212.5 193.4 171 167.1 161.9 147.4 143.3 145.9 145.1 144.9 145.2 146.1 146.6 148 159.3 173.7 181.5 189 199 208 218.9 229.4 240.3 256.1 268.9 287.4 303 319.4 333.5 345.9 355.2 362.5 371.3 382.1 392.4 398.4 412.3 416.6 422 431.7 437.6 438.1 443.3 445.9 452.8 455.4 469 478.7 482 493.5 513.3 535.4 549.1 554 547.4 526.1 517.2 505.4 493.7 481.6 470.3 463.4 456.6 448.7 439.8 435.1 433 435.3 436.3 439.3 446.1 453.3 456.6 459.7 476.9 497.8 518.5 541.1 558 581.2 603.9 619.3 633.8 649.1 660.9 671.3 685.7 699.1 726.4 746.7 771 796.9 799.3 805.4 810.8 823.4 836.8 843.8 843.5 821.8 784.9 732.9 698.9 688.8 665.3 650.9 643 644.4 653.6 661.6 662.1 651.4 616.4 586.2 562.2 543.3 531.3 535.2 542.4 553.5 566.6 584.4 601 621.2 643.7 648.2 635.3 628.2 629.4 616.8 595.6 574.7 555.8 543.9 535.2 528.7 518.3 501.3 493.6 494.6 502.4 501.3 499.8 498.2 496.4 494.2 492.1 490.5 493.2 493.4 487.7 493.1 499.7 508.8 509.5 529.4 558.5 582.2 587.9 591 591.3 587.7 575.9 557.4 545.7 540.6 527.9 521.8 512.5 509.7 493.8 462.7 475.5
241.1 235.3 242 241.8 242.5 239.7 235.7 230.4 222.1 225.4 226.8 221.9 215 196.2 207 215.4 215.8 218.1 222.7 221.4 223.4 222.1 223.3 215.5 209.8 210.6 210.3 199 173.8 153.2 144.4 143.5 147.4 148.7 145.1 143.9 149.6 144 146.1 151.3 160.9 172.6 180.7 189 196.7 206.6 215.6 223.5 233.3 244.6 261.5 283.3 299.2 312.2 322.9 338 351 361.8 368.8 377.4 387 396 405.8 407.5 415.2 421 425.1 428.5 435 440.1 442 446 450.2 464.6 468.7 476.3 486.2 512.2 527.8 545.6 556.8 550.3 535.9 525.1 522 511.2 497.2 488.5 477.2 470.4 464.7 459.3 456 455 455.6 457.2 458.8 467.6 466.5 472.6 476.7 478.4 494.4 516.5 539.8 560.1 579.1 598.3 615.5 633.6 649.5 663.4 675.4 689.3 701.4 724.2 750.6 770.6 788.8 796.4 799.9 807.2 819.2 835.2 839.4 842.1 828.1 775.6 725.2 695 672.1 659.9 640.7 618.4 621.8 626.9 638.5 645.8 642.3 611.4 581.1 559.7 548 547.5 552.2 561.6 575.9 592.5 608.5 627.9 650.1 655.4 650.8 642.5 637.9 641.7 634.1 618.6 602.3 583 573.6 555.9 544.4 529.5 519.2 499.2 505.1 507 504 501.7 498.5 498.4 498.5 495.7 490.5 485.8 486.5 483.8 482.2 490.9 490.1 513.2 534.5 560.7 583.5 592.6 596.2 597.3 594.8 587.7 577.2 567.1 551.5 537.9 524.4 519.3 501.1 493.4 490.6 505.9
230.3 240.6 240.1 237.4 233.4 231.9 228.4 223.9 219.1 219.7 218.1 212.2 204.3 190.1 209.1 215.7 214 215.2 220.2 214.5 213.8 209.6 208.2 204.2 203.2 205.6 205.7 184.6 157.6 140.3 145 161 167.7 163.6 151.9 153.8 155.2 156.5 159.8 163.8 171.5 179.2 190.1 196.1 205.3 213.8 222.3 227.7 237.1 256.2 280.3 295 306.3 315.3 330 344.3 355.4 364.7 376.7 381 386.8 393.1 395.6 400.2 406.8 409.4 419.4 428.3 432.9 438.2 441.6 443.7 448.7 455.7 463.1 470.6 483.2 496.1 517 536.6 549.3 550.9 538 529.7 530 524.4 518 515.1 493.4 484.5 481 476.3 472.9 473.7 474.1 475 477.2 484.2 482.7 485.8 487.9 500.8 508.5 518.7 527.4 552 575.9 591.7 615.6 632.6 649.8 665.5 677.8 691.6 702.2 727.5 749.2 767.4 777 792.9 797.8 813.6 818 829.7 841.4 847.8 821.4 771.6 731.2 693.9 659.4 638.8 625.6 609.4 601.5 604.3 616.4 629.1 633.3 612.8 581.3 564.5 562.4 565.8 576.1 588.6 601.8 620.1 638.1 657.7 658.2 658.1 655.9 650.5 649.8 648.7 643.8 637.9 626 615.8 601.8 577 559.9 542.8 529.1 519.2 514.6 510.9 507.2 504.7 502.9 500.9 499.9 495.1 489.9 485.8 484.4 481.5 475.2 477.2 493.6 509.8 532.8 558.5 582.4 597 600.1 601.5 598.8 592.6 584.9 574.9 559.5 541.8 543.4 534.9 531.3 523.9 516.5 536.4
232.9 235 230.6 229.6 227.1 225.2 225.1 217.4 214.9 215.9 210 208.1 194.4 194.2 204.9 209.9 210.1 212.6 213.7 210.9 206.7 198.9 196.5 194.3 197 200.8 199.8 172.3 146.3 144.6 157.6 165.8 168.7 165.7 157.9 159.3 162.5 163.9 167.1 171.2 179.6 189.7 195.1 204.8 211.1 218.7 227.3 236.1 245.6 263.4 288.9 302.7 313.9 323.4 335.3 348.4 357.8 367 374.5 377.9 381.4 385 387.6 396.9 406.2 408.8 416.9 424.8 428.1 430.9 432.9 442.4 441.4 446.7 458.1 465.5 478.6 483.8 498.4 517.5 537.1 552.5 545.1 535.3 531.2 536.4 539.4 542.9 529.4 508 497.9 493.4 488.8 487.2 488.8 493.5 498.2 498.1 497.2 499.5 504.6 516.8 525.9 537.4 550.3 565.4 582.4 599.3 617.9 633.6 653 666.9 678.3 688.6 707 726.5 746.8 757.7 773 793.2 797.5 815.5 822.7 836.7 841.9 840.6 810.8 762.8 718 686.8 650.5 626 613.4 598.1 590.2 588.3 599.6 613.3 622.7 615.3 588.2 576.5 585.3 587.6 602.5 614 631.3 650.8 656.6 658 659.3 662.9 662.4 662.9 664.3 662.7 666.7 661.2 656.2 645.8 633.5 605.6 579.3 558.6 542 535.4 523.9 519 515.7 513.3 510.4 507 502.3 496.7 492.7 491.3 490.3 487.9 481.5 472.8 484.8 503.4 527.5 554.3 580.8 599.3 604.6 607 603.8 598.8 591.5 581.6 570.9 564.5 563.8 559.6 557.4 544.2 548.5 562.9
229.3 227.5 227.5 227.5 225.3 224.2 221.1 211.3 210.7 214.9 207.3 199.1 183.8 192.1 199.7 203 198.3 202 201 201.8 195 192.8 186.6 187.9 190.9 191.6 183 158.3 144 144.1 153.4 164.4 167.6 167.8 167.2 166.2 168 169.5 175.2 182.5 188.9 194.1 201.2 207.4 215.7 223.7 232.2 241.1 252.5 267.1 283.7 309 328.3 333 339.8 348 355.9 362.7 366.3 371.1 370.6 379.9 384.4 392 400.6 407.9 413.5 417.5 420.9 426.1 427.6 436.2 438.9 441.8 449.9 458.7 468.7 474.8 489.2 507.7 526.3 547.9 544.7 537.4 535 545.9 551.9 557.3 557 548.9 532.5 519.6 511.7 505.6 512.5 530.1 553.1 531.2 518.8 517.2 522.4 532 542.3 550.3 563.9 577.6 596.2 614.5 627 641.1 656.6 672 682.8 692.7 707.3 725.4 749 769.1 776.5 791.5 798.4 822.3 829.6 842.3 844.3 840.5 798.7 757.7 707.9 673.8 642.6 615.9 602.1 587 583.2 581 586 598.9 612 615.1 600.9 595.3 607.1 611.8 618 628 638.2 648.4 653.4 656.2 663.5 674.3 673.6 672.4 685.2 682.8 682.5 676.3 678.2 667 649.9 615.5 593.3 565.4 554.3 550.4 542.9 533.3 529.1 528.7 525.5 518.5 512.6 505.3 505 500.5 497.6 491.9 487.6 479.3 474.6 496.7 522.5 549.8 578 599.6 606.9 608 606.5 603.2 596 590.2 582.6 579.2 574.8 572 569.9 554.3 567.8 576.1
226.7 224.6 224.7 224.5 223.4 218.5 215.6 210.3 207.4 207.7 203.1 193.3 179.9 182 193.9 194.4 190 188.7 186.8 187.2 185.5 185.9 188 186.6 183.9 180 169.2 144 138.8 144 151.4 161.7 166.5 169.7 170.9 172.6 172.8 174.9 182.5 187.5 192.6 198.8 205.2 211.1 218.6 226.7 244.2 249.6 262 267.9 277.8 308.5 329.7 332.1 337.1 341.7 348.7 354.8 359.7 362.2 368.2 378.5 384.7 391.3 398.5 402.4 404 410 421.4 423 424.5 432.2 437.3 441.1 443.9 451.4 457 462.2 474.2 493.3 512.4 535.8 539.7 535.8 536.1 545.3 553.5 561 566.5 565.7 568.8 561.8 555.1 561.6 575 587.4 588.9 569.6 549.9 542.5 544.1 549.9 558.1 569.5 579.8 594.3 609.3 624.4 641.5 655.2 666.4 676.8 687.9 700.9 715.4 737.9 757.6 774.3 784.1 794 800.3 810.5 818.1 838.2 844.7 834.9 794 744.2 697.5 658.3 626.9 604.8 590.1 578.4 576.5 576.5 576.5 588.9 601.6 608.4 601.5 611.1 611.3 614.8 620.4 627.2 634 640.7 645.8 652.2 661 666.5 664.2 667.3 677.5 673.4 676.1 671.8 668.2 659.4 648.5 635.5 606.5 587.1 575.8 569.5 563.4 551.2 550.9 554 542.4 535.9 529.4 523.1 518.8 512.4 506 497.1 489.4 481.5 468.4 492.2 518.2 546.6 574.6 596.5 606.1 608.8 609.7 605.1 600.3 594.4 591.2 585.1 581.9 578.7 572.5 567.4 571.2 579.1
223.9 222.6 221.2 224 222.8 215.1 212.3 207.7 202.8 204.5 200.4 185.9 165.9 183.9 194.2 197.2 197.3 198.2 186.1 182.5 183.7 185.6 183.8 181.5 176.7 167.6 152.1 138.5 138.9 146.2 157.7 163.7 168.5 172.9 175.3 179 181.4 182.9 187.3 192.6 196.3 201.2 207.1 213.8 224.5 239.5 252.3 255.5 262.3 268.7 278.9 303.9 318 322.3 330.4 338 342.9 347.6 353.2 358.7 366.1 372.9 381.1 388.6 394.8 399.1 403.2 405.4 414 417.8 420.1 423.6 432 433.9 438 443.2 450.7 456.8 467.3 487 496.3 513.2 531.7 530.1 534.6 539.5 547.6 558 568.6 575.9 579.9 585.9 589.3 599 599.4 600.2 602 598.8 591.7 580.2 578.6 579.6 588.3 601.4 607.5 614.7 626.7 638.8 657.3 667.3 680.1 690.2 695 704.2 724.4 744.5 757.6 771 784.3 796.8 804.8 810.5 818.4 831.9 839.1 820.4 798.7 756.8 706.4 657.4 626.6 605.2 589.4 576.5 576.5 576.5 576.5 579.7 590.9 597 603.9 607.2 607.7 610.2 615.2 620.1 624.3 629.9 635.1 639.4 643.6 646.4 648.6 652.6 656.1 659.6 665.9 661.1 658.9 654.2 650.1 643.5 637 617.2 600.9 591 584.5 580.9 577.6 571.5 564 556.1 549 541.4 529.5 521.2 511.8 501.7 492.2 483.3 461.7 488.6 515.2 544.3 572.3 595.7 606.1 608.2 609.1 607.4 601.7 598.6 596.8 588.3 585.1 580.8 574.8 574.2 575.5 579.4
217.1 216.4 215.9 219.4 213.1 213 207.9 203.3 194.7 195.9 193.2 176.9 169.3 189.3 199 202.7 198.5 198.3 185.1 182.8 180.4 176 173.8 169.6 165.4 156.2 139 135.8 139.8 152.2 157.8 163.8 169.6 174.5 180.3 184 186.4 188.6 190.9 193.8 197 202.8 209.7 218.1 235.3 243.5 256.9 260.1 264.1 268.9 279.2 304.3 314 319.3 323.9 331.6 337.4 341.4 348.8 357.4 363.5 374.1 377.7 386 389.4 394.3 397.6 401.7 410.3 409.6 415.6 417 418 421.6 426.7 434 441 446.9 457.3 478.4 487.4 501.5 513.5 521.9 528.5 534.5 546.1 556.2 572.7 582.4 583.2 589.4 596.8 603.2 614 607.6 607.8 610.2 605.2 601.5 604.9 609.6 616.8 621.6 629.4 634.1 645 657.2 672.7 684.6 694 699.4 705.4 714.9 733.7 750.1 760.3 772.6 788.2 801.1 809.9 812.9 820.9 829.6 839.8 832.9 782.4 747.5 705.4 667.3 634.6 605.9 586 576.5 576.5 576.5 576.5 576.5 585.7 592.6 597.1 600.1 602.9 606.6 609.7 611.1 613 614.2 617.1 620.9 622.6 626.7 629.5 634.3 638.5 646 647 647.8 647.8 648.7 647.6 645.5 646.9 641.1 633 618.5 611.9 617.3 606.4 595.7 588.7 577.7 567.7 554.5 541.9 525.2 511.2 501.4 491.7 477.6 461.2 487.5 515.2 544.6 572.1 596.9 606 608.4 607.6 606.2 604.5 602.7 598.3 591.3 587.5 581.9 575.4 577.3 577.6 579.5
212.3 212.5 211.3 206.5 203.2 208.6 201.7 194.9 189.1 186.2 187.8 165.4 175.4 194.3 202.2 204.5 195.3 187.4 174.6 172 168.4 162.7 162.7 162 150.9 138.2 136 138.1 140.7 151 156.9 163.8 170.1 176.7 182.9 184.4 185.3 187.3 189.8 192.7 199.7 210.5 223.3 228.6 236 246 262.1 262 261.1 262.6 289.5 309.5 310.6 310.5 315.6 322.4 331.4 338.9 345.1 353.2 360.2 367.2 374.3 379.9 388 392 395.6 402.1 403.3 403.8 410.6 411.2 410.2 414.1 421.6 426.3 432.6 440.5 450.3 466.4 479.7 491.6 499.1 512.3 523.2 529.1 543.4 551.9 570.6 580.5 582.7 585.3 594.4 606.4 609.5 607.5 607.5 609.8 611.9 612.2 617.2 623.9 626.7 634.2 642.5 648.6 658.9 676.1 690.2 699 706 715 721.8 732.7 739.8 748.5 760.1 774.7 796 811.1 813.4 820.6 836.6 849.7 863.9 859.4 835.9 802.6 741.8 693.1 641.4 603 590.3 576.5 576.5 576.5 576.5 576.5 583.3 588.6 594.9 598.9 601.3 601.2 601.5 600.4 601.6 601.5 600.8 602.3 602.4 606.7 611 615.4 621.6 628.6 630.9 632.9 635.9 638.9 638.3 641.7 645.4 646.2 644.8 639.7 632.5 631.4 624.5 616.6 606.9 595.7 583.1 564.9 548.5 530.7 514.5 500.5 488.7 469.9 461.6 489.6 515.7 545 572.8 598.2 606.5 610.4 608.4 607.1 605.9 603.1 597.8 590.3 586.1 581.3 575.6 576.9 576.7 580.4
203.4 201.7 199.5 200.6 198.7 195 189.8 185.8 182.3 177.3 170.4 160.8 185.6 192.4 198.6 197 183.8 174.3 165.7 161.4 157.8 153.7 152.6 143.6 134.2 135.7 138 139 141.4 143.7 155.4 163.6 170.3 175.4 177.4 179.3 182.8 190.3 195.6 203.4 212 223.6 236.2 231.5 237.1 247.6 255.8 255.6 254.2 261.7 288.4 294.9 298 301.2 305 313.4 325.2 333.3 340.7 350.5 357.1 361.9 369.7 375.8 384.1 388.7 390.7 392.6 396.1 398.7 405 405.1 403.9 408.9 414.9 420.9 426.2 434.4 445.9 459.7 473.3 483.2 493.4 509.5 519.6 529 538.2 552.9 566.2 578.9 580.2 581.6 591 602.8 608.4 611.5 617.6 616.3 615.3 618.2 623.1 629.4 640.5 644.5 650.9 659.1 670.2 687 702.6 708.8 718.2 727.7 734.7 738.6 750.1 757.9 772.2 787.2 801 812 822.2 827.1 849.8 868.4 881.2 883.6 870.6 830.1 771.7 700.5 642.9 610.3 591.9 576.5 576.5 576.5 576.5 579.2 583.1 586.8 595.2 597.6 598.9 597.7 594.7 592.9 589.9 587.2 587.5 586.5 585.8 588.4 593 598.1 600.8 605.3 609.5 613.5 619.1 622.5 626.6 629.8 636.2 640.8 642.9 639.3 636.9 633.5 626.6 615 604.3 596 581.9 563.9 548.6 531.5 516.2 500.3 487.6 465.4 463.8 489.2 515.8 543.4 571.6 598.1 607.7 609.5 608.8 607.8 606.3 602.5 595.8 589.8 585.6 580.9 578.7 577.6 576.7 579
200.1 195.3 195.5 194.9 193.7 189.1 180.3 176.8 176.4 175.2 152.7 161.4 181.4 181.2 183.5 182.8 174.7 164.1 156.3 149.8 146.7 145.2 137.5 131.8 135.1 136.9 138 139.6 142 144.3 152.7 161.6 168.2 170.8 172.4 180.3 184.3 192.2 198.2 209.9 219 225.7 229.4 231.9 234.7 238.6 244.2 252.5 259.9 260.3 274.4 282.8 286.1 292.4 298.8 306.7 315.3 325.2 333.7 342.2 349.2 356.8 364.9 371.5 377.8 381.3 382.7 385.9 390.5 390.4 396.5 397.9 396.4 400.2 408.1 414.3 423 431.4 440 452.8 471 480.7 490.5 507.6 521.3 532 536.5 547.7 562 573.9 577.5 579.8 589.9 596.9 606.4 613.6 619.2 617.4 616.4 618.9 627.8 637.2 646.1 651.4 661 667.9 682.7 693.1 710.8 719.5 727.3 743.3 750.2 759.9 763.8 773.2 784.1 794.8 809.3 821.2 830.4 840.3 860.3 880.3 894.4 897.6 865.6 815.8 766.6 701.9 645.1 611 589.8 576.5 576.5 576.5 576.5 579.1 583 586.8 594.2 595 593.4 590.6 587.5 584.8 580.8 577.5 572.2 572.5 573.2 576.4 579.6 582.3 583.1 587.5 590.4 594.4 598.4 602.6 607.6 613.4 616.1 621.9 627.5 630.2 630.8 624.9 615.9 603.3 590.5 582.8 570.5 555.2 541.7 526.6 511 497.2 484.7 454.6 464.6 487.6 512.5 540.5 568.3 591.3 607.5 611.4 609.6 607.2 606.5 603.4 596.5 590.5 587.4 582.4 579.1 577.1 572.8 573.8
196.4 197.5 194.9 193.1 189.1 181.5 174.7 171.8 167.9 159.9 147.6 158.7 175.1 173.3 170.1 169.9 162.6 153 146 143.4 138.1 131.2 131.8 134.3 135.6 137 137.6 140 141.9 145.2 146.7 153.2 159.9 164.1 178 183.3 187.6 195.1 201.8 212.3 220.3 222.2 224.7 225.9 227.6 231.6 240.8 247.6 257 255.5 256.9 273.1 277.3 283.5 291.6 298.8 308.2 318.2 325.1 332.6 341.8 348 354 359.3 368.1 369.6 372.7 376.1 380.3 385.6 385.3 387.8 388.1 394.9 405.3 416.8 425.7 436.3 449.9 468.4 479.9 487.6 497.9 510 527.8 535 541.9 555.9 566.6 575.2 579.8 583.4 591.2 596.7 602.8 608.3 613.2 615.8 616.3 623.7 632.1 641.7 648.2 654.4 666.7 676.7 687.8 705.8 717.6 728.8 741.3 753.1 765.2 773.1 782.2 790.4 801.8 813.2 822.5 828.6 841.1 852.7 862.8 882.5 898.3 898.1 847.4 808.4 758 706.4 646.9 610.8 594.3 578.3 576.5 578.3 581 578.7 582.9 586.5 590.3 588.7 585.7 581.2 578.3 573.8 571.2 567.6 562.6 558.8 557.6 559.4 561.7 563.8 566 569.2 572.8 576.5 580.7 583.8 588 595.8 596.2 599.4 603.5 607.6 606.1 594.8 585.4 577.3 565.4 557.8 548.7 538.5 528.7 516.4 502.8 492.2 480.4 450.9 461.2 483.9 510.2 537 562.9 585.3 602.6 611.8 610.2 606.3 604.6 602.3 596.8 590.9 587.2 581.9 578.8 574.1 570.6 569
195.9 193.8 191.7 186.4 178.3 174.6 174.3 169.4 152.2 141.2 156.8 165.9 174 164.2 157.5 155.6 151.4 145 141 136.3 130.4 132.5 134 134 135 135.6 137.5 138.6 140.2 141.5 142.4 148.7 149.2 155.3 172.7 176.8 181.6 183.1 188.3 209.8 215.2 217.2 215.1 216.4 221.7 230 235.6 240.4 245.2 244.8 250.1 261.1 268.8 276.6 284.2 292.1 299.6 307 315 321.6 329.6 335.5 341 348 354.9 357.2 363.3 367.7 372.2 376.4 378.1 382 387 394.3 404.9 417.1 427.9 442.7 456 471.4 483.5 494 502.4 513.5 531 537.3 548.6 558.4 570.8 576.6 584.7 590.7 594.8 602.1 607.1 609.3 612.3 615.8 618.9 627 634.6 642 649.2 662 672.5 682.5 697.8 712.2 724.5 736.4 747.6 763.5 774.7 784.6 794.1 802.1 812.8 825.9 835.5 844.5 853.9 863.7 872.6 883.3 889.4 873.3 841.4 797.5 743.6 683.1 644.4 605 594.6 581.5 581.9 582.9 584.4 580.5 573.2 580.9 582 581.8 575.6 571 567.3 564.8 561.1 556.7 552.7 550.2 549.5 551.3 553.3 554.2 555.7 556.3 555.5 557.4 562.8 566 568.5 574.2 574.9 578.1 581.4 580 576.6 562.8 553.1 543.5 535.5 529.6 522.2 517.5 507.5 499.3 490.1 484 475.1 447.5 455.4 480.3 504.8 530.9 555.6 576.6 594.1 608 604.5 604.3 603.2 597.6 594.6 590.2 585.2 581.4 578.3 576.3 567.1 562.3
187 186.3 184.5 178.7 175.1 174.4 174.6 169.4 152.6 150.5 155.5 163.1 161.1 154 149.9 144.3 140.7 138.1 134 129.2 131.6 131.8 132.9 136 135 136.2 140.4 141.8 144.9 148.4 151 152.3 154.3 155.1 164.9 169.1 175.8 183.7 189 186.8 203.8 200.9 198.4 206.9 212.6 214 225.6 223.8 227.2 240.1 241.9 243.5 259.2 265.5 267.3 280.9 285.2 292.5 301.8 307.5 312.6 325.1 332.6 337.9 342.2 345.3 351.2 358.4 365.3 365.5 377.2 383.1 385.8 393.8 410 420.7 433 445 455.3 476.3 489.9 495.9 507.9 514.1 531.6 540.3 552.4 564.1 573.9 580 589.3 597.8 603.7 606.6 609.2 611.2 614 618.1 623.1 629.1 635.4 642.4 650.4 661.5 673.9 685.6 703.6 717.1 728.1 737.3 750.5 771.3 784.1 796.6 803.8 817.7 828.3 835.2 846.3 851 858.8 866.8 873.1 885 889.1 869.8 821 770.8 722.7 667.3 628.2 602.7 590.5 583.7 584.7 583.1 580.1 574.4 562.6 571.3 571 567 563 560.9 556.7 553.4 550 547.1 544.3 542.6 542.4 541.6 543.6 544.7 545.5 545.3 544.1 543.2 544.6 547 549.7 552.6 555.3 554.1 553.1 548.3 542.4 530.3 521.4 514 507.3 501.3 494.8 489.6 482.5 475.8 470.9 466.8 461.9 446.6 443.1 472.3 495.2 521 543.6 561.4 581.9 600 598.3 599 599.3 597.1 592.2 589.8 583.6 578.9 578.3 576.7 565.2 558.2
177 175.8 177.4 177.8 177.3 173.8 172.8 167.4 143.4 147.9 148.3 147.6 150.4 151.3 143.8 139.1 133.4 129.3 128.7 130.2 130.8 130.8 134.1 135.5 136.8 139.7 143.4 147.7 150.7 154.9 157.4 165.6 170.3 171.3 179.5 186 192.1 200 207 197.9 194.5 204.3 202 215.3 226.2 228.8 232.1 235.1 240.4 245.3 250.3 255.7 263.5 276.5 286.1 293.1 301.1 309.5 314.3 318.8 322.1 325.7 330.4 335.4 339.1 348 347.1 348.1 358.7 369.1 373.1 377.9 384.1 396.5 411.9 424.6 437.4 446.2 458.3 475.7 488.6 495.8 507.5 513.8 529.2 547.4 556.4 567.4 579.4 587.2 595.1 604 611.1 612.6 615 616.7 619.6 622.6 625.3 631 636 641.8 649.6 663.2 672.8 688.2 707.1 719.5 728.5 740 753.8 774.6 791 807.6 815.9 828.3 836.5 846.4 853.1 857.5 862.1 869.9 874.4 879.7 874.1 830.7 787.7 739.5 700 654.8 613.6 589.7 582.5 579.6 578.1 573.2 569.8 564.4 560.1 556.7 557.5 555 551.8 548.3 546.3 543.5 541.4 539.1 537.1 535.2 534.1 532 533 533.7 533.5 534 533.2 531.6 530.8 530.4 531.1 530.5 531.5 528 525.5 518.8 510.4 502 494.5 487.5 480.6 475.3 470 464.7 458.6 450.2 446.8 445.2 442.8 437.1 434.7 461.8 482.9 505.2 524 543.9 567.4 588 590.6 594.3 593.9 594.2 590 586.7 582.8 579.4 579.8 576.2 569.9 556.8
168.2 171.9 176.1 177.2 175.9 171.3 165.2 156.7 139.8 138.9 145 143.8 144.9 147.1 139.8 142 134.4 127.9 128.1 130 129.4 131.5 134.1 135.6 137.3 144.5 149.2 152.1 157.8 162.6 172.9 173.9 182.9 185.1 187.7 195.6 204.2 209 214.1 219.5 214.1 214.2 211.6 219 228 231.7 237.5 241.8 245.8 249.4 255.8 263 268.7 277.4 286.2 293.2 303.5 316.7 322.5 327.6 334.4 341.3 344.3 350.1 352.9 361 365.4 366.5 364.7 361.2 376.5 382.4 386.2 397.7 411.1 425.4 436.5 445.9 458.7 473.4 484.2 492.4 503.4 512.4 528.8 548.1 557.4 573.6 583.4 593.8 601.9 609.4 614 617.4 618.2 620.3 623.8 626.5 628 630.9 634.7 637.1 650.8 665.2 675.9 690.5 708.9 718.3 722.2 742.7 762.8 778.2 794.6 809.5 821.8 832.6 844.2 854.2 860.3 862.6 869.7 870.1 872.2 862.2 835.5 792.8 756.5 718.6 681.1 636.8 599.2 579 574.2 571 565 560.2 555.4 553.1 549.3 542.8 544.1 542.8 540.8 537.6 535.7 533.4 533.5 530.3 528.1 525.9 525.1 522.5 521.6 522.6 522.5 522.2 521.3 520.3 518.8 514.3 513.4 510.2 510.4 503.9 500.9 493.6 485.6 477.1 467.1 461.4 455.3 451.1 446.2 440.8 435.4 428.1 420.9 421.2 419 399.5 413.4 450.2 466.9 488 503.8 525.4 545 567.7 582.8 586.4 586.6 588.7 586.8 584.7 579.3 576.8 578.9 576 570.3 555.6
165.8 168.9 172.9 174.4 172.1 160.6 151.8 144 136.2 134.3 139.8 140.8 142.2 144.5 153.1 151.1 146 127.5 129.9 128.8 130.6 137.8 135.5 140.4 145.3 148.1 151.7 160.3 166.8 175.6 178.9 184.1 194.1 197.8 206.6 211.6 216.4 221.1 222.2 226.2 229.8 227.7 213.5 213.3 229.3 236 242.5 247.2 249.2 254 260.8 269.7 277.4 284.5 291.3 296.8 304.5 318.2 326.3 335.7 342.3 348.1 352.4 359.5 364.8 370.6 376.1 379.8 380.4 379.6 379.5 382.3 386.2 392.9 413.2 426 435 444.2 456.1 469 482.5 488.5 495.4 505.7 519.1 540.8 554.6 573.2 587.8 598.9 606.8 614.5 616.2 616.7 619.1 621.7 624.5 627.7 631 630.3 634.5 640.5 651.4 662.1 674.9 688.5 709.8 718.2 727 741.1 762.6 782.9 795.6 816.3 827.1 838.9 847.7 858 864.7 867.9 871.3 872.8 862.7 822.2 811.1 770.3 722.6 691.5 648.9 606.4 581.8 568.2 564.9 563 551.7 548.3 542.8 542.3 537.8 529.1 530.8 531.1 530.2 528.4 526.6 524.6 522.6 521.4 519.4 518.1 515.1 513.5 512.6 511.1 511.9 510.5 509.3 508.6 505.9 500.6 496.6 493.1 490.9 485.4 478 471.5 466.4 457.4 442.2 438.2 431.5 426.7 424.7 419.3 411.4 401.3 396.2 398.3 398.9 376.5 405.5 436.4 449.5 465.6 482.5 503.3 519.7 542.6 569.1 574.3 578.6 584 581.8 579.5 576.8 574.7 575.4 572.5 565.7 546.4
165 163 166.1 166.3 159.8 149.2 145.3 135.3 131.3 131.4 137 139.1 149.5 154.5 147.7 146.6 147 142.1 124.1 133.4 139.3 140 146.1 147.1 148.2 155.2 161.9 169.3 179.8 193 196.6 195 200.6 209.1 223.8 226.6 226.1 229.5 232.7 239.3 238 235.9 219.5 223.5 228.3 240.8 248 252.5 254.4 258.4 267 273.7 281.3 287.7 295.1 301 310.8 320.1 329.8 339.5 348 353.8 360 366.6 373.1 379.2 385.1 388.6 391.3 396.5 397.6 397.5 397 395.4 408.6 423.8 434.2 443 453.9 461.9 477.3 483.6 488.6 499.7 508.1 525.7 547 565.6 578.1 594.5 604.8 616.2 616.9 617 619 621 623.2 627.8 631.8 631.6 630.8 639.7 649.9 663.7 670.3 687.5 705.2 713.7 723.9 746.7 764.3 785 797.3 814.8 827.6 840.1 849.4 858.2 866.2 869.6 870 870.6 854.5 817.7 776.7 735.5 704.6 668.9 627.3 599.2 568.6 559 555.8 550.5 540.1 535.1 532 531.8 527.5 522.3 518.2 519.2 516.9 514.7 515.7 515.3 514.4 512.3 510.2 509.2 506.4 504.1 502.3 500.7 499.4 498.6 497.9 494.7 490.3 487.1 481.2 478 474.3 468.7 458.9 454.7 450.7 441.8 428.8 423.1 415.4 409.9 405.6 400.5 392.3 384.7 384.6 385.4 373.1 385.6 396 408.1 425.5 442.1 455.6 474.7 493.4 520.4 547.9 548.5 560.5 575.2 573.7 573.2 572.2 574.6 569.3 564.1 554.6 536.4
