ncols 200
nrows 82
xllcorner 270000
yllcorner 292950
cellsize 50
94.7 100.7 107 125.2 135.9 145.8 152.9 154.1 173.4 184.6 190.6 194.4 203.5 202.7 202.9 209.6 224 225.9 233.9 237.5 234.9 237 229.9 239.3 233.7 216.5 213.7 215.6 215.7 209.2 202.8 203.4 202.3 205 210 214.9 223.7 226.1 227.5 228.7 230.4 232.1 235.5 255.1 274.4 294 302.3 300.3 303.8 307.7 316.1 295.6 282.9 279.2 271.7 255.7 238.8 223.4 215.7 208 203.4 202.7 204.2 207.1 201.8 205 212.5 215 216 220.9 224.9 224.9 219.6 205.7 192.1 175 146.5 114.3 110.7 134.1 157.9 180.5 203 212.9 218 211.3 207.6 211.5 215 202.9 171.3 148.8 129.1 105.7 117.1 133.6 149.8 165.7 173.4 170.9 182.6 189.1 194.2 202 210 215.1 221.8 229.9 240.6 248.7 254.8 257.7 270.5 282.2 296.2 305 310 312.4 308.3 303.5 298.9 293.5 286 278.4 271.5 260.7 270.4 273.3 275.3 269.6 259.7 270 278.6 280.1 286 282.2 257.6 236 216.6 200.3 177.6 158.3 144.5 133.8 125.2 116 115.8 111 110.2 119.3 125.5 135.1 133.9 130.6 131 127.6 133.2 140 154.1 163.6 176.6 190 202.1 212.5 221.3 229.3 238.8 247.1 253.9 259.5 262.9 263.8 265.8 268.6 267.2 263.3 255.3 241.1 225.5 211.8 200.5 192.1 179.8 171.9 155.3 138.1 143.5 148.6 143.8 139.1 133.9 126.6 119.7 113.9 105 93.8 93.7 108.7 115.5 118.6
114.1 120.6 125.3 140.9 153.8 159.1 159 163.5 183.2 193.8 197.6 205.3 212 205.2 208.2 226.1 239.1 243.1 250.4 251.1 259.1 257.9 244.3 252.2 248.1 229 226 230.9 227.1 215.6 212.5 214.2 214.5 219.1 225.3 230.3 236 238.3 238.3 239.2 239.7 241.2 250.2 273.4 287.2 294.5 295.5 303.7 310 316.9 314.9 298.4 291.4 286 276.7 258 243.6 235 231.3 223.4 218 216.7 217.7 216 210.8 213.8 216.6 221 222.6 226.3 229.2 228.1 218.7 200 171.4 141.7 119 111.1 121.1 144.1 165.7 186.6 203 212.1 220.5 216.4 212.2 218.9 226.5 230 198.1 175.9 160.7 129.3 114.7 125.4 144.2 163.7 167.2 173.4 184.5 193.1 201.6 212 219.5 225.6 226.2 226.7 233.2 242.6 250.4 259 265.8 280 291 302.9 311 313.2 307.9 304 299.9 295.1 290.4 286.1 282.8 282 283.9 288.9 288.9 282.6 277.4 285.9 297.5 294.8 295.2 278.7 250.1 227.2 211.9 192 170.5 149.6 140.6 123.4 126.1 126 117 123.7 125.6 117.7 115.2 115.1 115.2 121.7 127.4 135.7 142.3 144 137 151.3 163.6 175.2 183.2 191.7 200.8 211.4 222.8 233 243.4 250.4 255.1 258.1 260.4 262.1 262.3 261.9 253.9 233.3 209 197.3 186.7 179 171.6 156.5 158.4 159 161.6 161.5 155.3 150.4 145.3 138 130.7 124 111 99.6 94.4 109.5 117.6 122.2
132.9 137 143.9 160.9 162.3 161.5 163.5 174.9 192.6 201 206.4 212.8 217.3 213.6 220.6 242.1 251.5 251.9 260.8 266.6 273 274.7 262 259 247.5 230.6 229.6 237.2 225.5 224.4 222.3 223.4 225.4 233.6 235.8 243.4 248.5 247.9 248.3 246.8 247.5 250.9 268.5 281.1 287.2 291.8 294.6 309 314.9 315.7 310.7 300.8 296.8 290.1 278.7 260.6 251.6 249.8 246 238 230.9 227.7 228.4 223.8 221.1 223.4 224.7 226.2 227.5 230.1 231.1 230.3 208.3 178.9 149.9 120.5 122.5 126.7 124.8 156.5 176.9 193.1 204.1 215.7 225.6 220.2 218.3 225 233.7 241.6 222.2 195.7 178.2 163.3 134.5 122.9 139.3 156.1 160.2 169.4 182.8 199 209.9 221.7 237.3 241.4 244.5 245.8 247.7 246 248.3 262 265 276.8 285.7 300.1 310.3 309.9 306.3 302.9 299.2 297.4 294.7 293 291.8 292.8 294.7 301.1 301.2 291.8 299.9 295.7 309.5 305.4 295.2 266.8 239.5 218 204.5 182.5 162.2 144.8 136.2 132.3 131.4 120.2 123.3 136.1 140.8 134.8 135.2 130.4 121.6 138.2 153.7 153.6 155.6 157.1 154.6 149.5 147 158.9 163.4 170.2 182.2 192 206.4 218.9 230.1 239.4 246.9 251.2 254.1 258.5 261.5 263.7 257.3 244.1 227.4 211.8 201.5 192.7 184.1 179.8 178 176.7 180.8 173 164.7 159.8 155.6 149.1 141.4 131.4 114.1 100.8 96.5 110.3 118.8 124.7
148.9 150 157.3 164.5 164.7 164.8 169.5 182.1 195.9 201.7 211 215 210.8 217.7 235.1 249.8 251.5 261.5 271 280 283.1 273 266.3 264.6 242.5 239.1 242.5 235.7 233.1 230.1 232 233.5 237.6 245.4 248 253.4 257.1 255.9 254.2 253.9 256.8 260.3 280 289.5 294.8 293.8 299.2 310.5 315 315.1 310.6 303.6 299.7 292.5 279.7 266 260.5 261.6 258.8 252 243.4 236.8 235.9 231.5 232 233.2 233.5 232.9 232.5 232.8 232.8 217.1 187.5 153.2 124.9 144.4 153.4 135.2 127 159 178.4 193.2 209.5 222.7 228.1 226.5 223.5 226.5 237.1 243.6 234.2 215.1 195.4 176.9 156.7 141.4 128.8 141.6 150.7 162.5 180.2 199 216.8 232.5 244.4 251.4 254.1 252.9 253.2 253.8 258.6 260.5 263.5 274.2 281.7 294.4 305.4 303.4 303.3 301.4 300.5 299.3 299.6 300.3 300.3 302.1 305.3 313.5 313.2 304.5 309.1 307 319.4 309.3 286.1 254 223.6 207.1 191.9 170 148.8 138.5 137.9 136.3 130.9 119.1 130.4 147.1 156.5 150.6 155.9 145.8 135.3 137.7 155.5 159.4 163.7 166.4 169.8 166.5 161.3 158.2 157.7 158.3 159 172.4 191.9 207.5 219.6 230.5 238.9 244.9 250.4 256.9 262.7 266.9 261.4 250.9 239.2 230.5 218.8 210.6 206.7 202.1 196.4 194.4 191.6 182.9 172.7 168.5 164.1 158.9 148.6 135.2 117.7 100.3 96.9 110.5 119.2 126.4
163.9 165.4 174.3 174.4 167 169.6 177.1 190.8 197.1 203.8 209.7 206.8 209.1 222.6 240.7 247.7 251.4 258.6 273 278.5 278 278.2 256.9 249.9 246.6 246.8 241.9 237.8 239.7 238.9 241.5 245.8 253.6 253.3 257.5 261.5 262.7 259.6 259.1 261.9 265.5 275 292.4 300.2 304.9 301.3 304.9 316.8 330.2 324.6 316.3 308 302.9 299.2 280.9 273.5 272.6 269.4 269.7 267 255.2 248.4 243.3 239.7 240.8 242 241.6 240.8 238.9 237.9 234.5 204.5 166.7 136.3 165.4 185.1 181.6 145.4 123.6 155.6 177.3 192.3 211.2 226.2 230.5 232.4 227.6 231.3 242.7 247.5 242.4 232.5 215.8 195.5 176.6 159.8 143.6 129.9 143 157.2 171.9 194 213.8 237 250.4 260.5 259.5 257.7 259.2 258.7 266.3 266.7 269.4 276 281.8 291.1 296.6 297.3 301.6 300.2 301.9 302.9 304.7 306 307.7 311.3 315 322.8 321.1 315.3 314.2 320 323.6 306.9 276.3 241.8 216.7 193.1 172 151.3 144.3 142.3 142 137 130.6 120.5 135.5 155.5 167.1 164.6 165.9 157.5 150.1 138.1 149.6 161.4 168.2 174 182.1 184 181.1 178 176.3 175.3 173.5 167.8 178.9 196.3 208.5 222.1 234.4 242 247.1 257.3 266.7 270.2 265.9 256.9 249.3 240.3 231.6 226.9 221.8 216.6 211.9 207 199.2 189.5 180 174.1 170.5 165.3 151.3 134.7 117.3 99.6 96.4 111 120.1 127.2
169.4 184.5 189.6 179.5 172.2 170.1 180.2 193.2 196.3 199.9 202.7 200 210.5 223.9 238.5 246 253.3 263 263.6 272 268.2 251.2 244.3 243.9 244.1 243.3 242.3 243.1 245.5 246.6 249.9 257.8 263.9 262.2 264.8 265.3 263.8 261.8 264.3 268.5 271.9 289.1 301.4 311.6 307.5 310.5 315.4 328 337.9 332.3 321.9 314.3 307.5 298.9 284.8 282.2 280.3 280.7 280.3 270.2 263.2 254.3 250.9 249.3 249.2 249.2 249.1 248.6 246.2 243.1 218.7 188.2 148.2 174.9 202.1 215.6 186.8 153.9 125.6 153 174.6 193.1 210 224.2 233 238.5 232.9 235.9 247.8 251.4 249.6 242.7 232.4 215 196.6 178.1 157.4 137.8 136.8 150.8 163.3 185.5 200.1 228.1 247.9 262.8 259.4 259.5 263.5 266 267.7 270.8 275.8 280.9 285.8 289.7 292.7 294.9 299.7 299.8 304.4 307.6 309.5 311.6 313.2 316.1 324.6 329.7 329.4 319.9 322.8 334.1 323.4 300.2 266 231.3 204.7 179.3 163.2 159.9 145.4 148.1 145.7 141.4 134.1 122.3 135.3 157.8 171.9 178.4 176.2 169.9 163.5 151.8 144.5 161.8 170.7 175.6 186.9 193.4 194.7 195.3 196 195 190.7 182.4 172.2 187.4 202.9 216.6 227.7 233.5 246.5 257.9 269 272.8 270.4 263.9 259.7 250.6 244.4 242.8 238.4 228.9 222.9 217.6 208.9 197.9 184.8 176.6 172.5 168.2 153 133.2 116 107.1 91.4 110.8 120.8 129.5
174.7 188.8 186 172.9 168.4 166.3 177.6 181.4 190.5 199.8 199.8 202.3 208 227.2 237.9 242.4 244.8 249.9 252.5 247.8 230.8 228 231.7 236.1 239.5 243.8 244.4 246.2 247.9 251.7 256.8 264.2 264.8 266.7 266.9 265.4 263.9 264.8 267.7 274.7 284.1 305 316.6 315.1 314.3 317.4 324.5 345.3 340.7 334.2 324.7 318.9 309.2 297.5 288.3 288.1 287.1 289.4 285.9 276.2 269.8 260.7 258 257.6 258.9 257.1 258.2 256.4 252.6 239.4 200 179.5 190 214.4 223.8 220.7 197.7 166.4 138.1 151.1 171.7 189.1 208.3 225.8 235.9 239.1 237.5 242.3 251.6 256.4 254.7 253 246.5 232.1 214.1 194.9 172.3 149.9 132.3 146.2 157.1 172.2 189.3 219.5 242.7 253.3 251.8 256.1 261.8 267.9 269.9 269.7 278 282.7 287.4 294.6 292 296.3 299.3 300 307.9 312.2 314 317.6 317.7 323.2 332.7 338.4 338.2 325.7 327.3 335.5 317.7 291.8 258.1 227.4 200.5 175.1 165.2 154.7 158.8 155.2 151.9 145.3 137.4 126.1 131.2 154.8 171.1 187.4 187.1 182.9 176.5 164.1 150 156.9 169.8 176.2 187 196.9 202.6 209.1 211.2 211.3 206.2 200.3 186.5 179.8 195.6 207.7 214.3 226.4 240.3 254.2 266.4 273.3 273.5 270.9 266 260.9 257.6 257.4 250 239.4 232.8 226.7 217.3 203.5 189.8 172.9 171.7 165 150.2 131 114 103.2 97 112 122.7 133.1
179.6 188.1 171.9 153.7 150 162.2 171.4 179.9 189.9 199.5 190.5 197.5 210 224.2 223.9 229.7 231.9 229.7 230.7 210.7 209.5 214.4 219.5 225 231.3 238.8 243.3 245.9 247.6 251.6 258.6 264.5 266.9 265.9 265.3 262.5 262.2 266.3 270.4 278.8 298 310.7 317.4 314.4 320.9 323.8 335.4 345.4 339.2 329.1 318.9 316.6 310.5 298.7 293.5 291.5 292.1 293.5 289.8 283.2 276.5 267.2 267.8 265.6 266.4 266.9 267.7 264.9 253.8 215.8 204.1 225.6 228.8 232.2 231 226.5 206 177.6 146.9 150.5 168.9 184.1 205.6 223.7 235.3 237.7 239.4 246.4 254.9 262.9 261.7 261.6 256.8 247.8 231.4 211.3 189.5 164.9 141.4 141.2 153 165.4 181.8 204.1 230.9 233.4 234 242.6 241.4 260.1 266.8 269.5 276.6 284.5 293.6 294.5 292.8 301.7 302 304.1 310.1 316.2 317.1 320.8 323.4 330.1 341.7 348.3 345.8 333.9 326.1 327.1 309 282.2 248.7 222.4 196.2 171.7 168 166.8 164.1 162 158.5 150.8 142.8 131.2 126.1 148.4 166.5 188.8 195.1 194.4 188.6 177.2 164.9 157 164.3 174.8 186 196.8 206.2 213 220.2 222.6 217.9 213.4 207 201.7 189.3 194.8 202.6 218.2 233.1 246.3 259.2 271.2 274.7 276.8 273.3 269.8 268.4 265.6 256.9 247.3 239.6 233 220.6 203.8 188.7 172.1 169 160.1 145.4 130 108.7 101.6 102.4 112.4 125.1 136
176.6 173.4 152.9 137.4 148.5 161.4 175.1 183.5 186.6 184.8 184.4 191.6 203.4 211.8 212.1 218.3 213 211.7 194.1 189.9 196.1 201.8 207.3 214.3 224.6 233 237.1 240 244.4 248.9 256.2 260.2 259.9 258.6 256.4 253.2 259.3 265 272.7 284.9 302 313.7 314.9 315.1 321.1 327.4 336.1 335.7 329.9 321.7 312.2 311.1 303.8 297.4 297.5 294.4 297.2 297.6 295.8 290.4 285.3 280 278.4 274.5 274.9 277.2 275.4 270.4 248.9 210.6 236.5 244.2 252.3 238.6 233.2 225.8 208.7 183.1 155.9 141.1 167 181.7 198.1 216.2 234.8 243.7 241.1 245.8 256.9 267.1 270.3 270.4 266.6 261.3 254.1 235.8 208.5 181 157.1 142.4 143.7 157.1 173.4 193.7 204.9 208.6 213.9 218.4 225.5 241.2 247.5 261.8 273.9 291.6 295.9 291.9 295.7 304.2 301.8 307.4 312.4 317.3 318.4 322.4 330.6 341.1 348.5 356 353.8 336.3 324.7 314.5 288.4 262.4 239.9 214.4 192.2 169.2 172.8 173 169.6 169.2 166 159 147.7 135.8 128.8 141.7 161.7 188.1 199.6 208 201.5 190 177.7 168.1 162.7 171.5 183.4 194.4 205 214.5 224.5 232.1 229.6 225.4 221 218.8 220 210.3 208.4 208.4 227.8 242.4 255.8 266.4 274.5 279.4 279.6 276.4 276.1 270.5 260.1 246.9 235.1 224.8 211.5 195.1 180.1 166.4 161.2 152.2 136.9 122.8 112.3 95 102.7 112.9 125.7 137.9
171.9 157 136 134.1 148.7 161.5 169.8 176.8 178.6 168.9 176 186.6 192.9 196 199.8 194.4 203.1 191.7 175.6 179.3 184.6 190.2 196.7 207.5 219.8 229.1 230.5 232.8 237.5 244.2 251 250.8 251.4 250.1 245.9 247.8 255.8 264.6 275.3 291.3 305.9 311 309.7 314 319.8 328.7 333 320.9 318.2 310 306.2 304.1 301.2 301.7 296.8 296.4 300.3 301.1 299.6 296.3 292 288.9 286.1 284.9 285.3 284.8 281.7 274.3 244.9 232.5 249.3 260.6 252 240.5 233.1 228.9 209 182.6 157.7 155.2 161.1 181.5 197.9 216.3 231.7 243.4 243 245.5 257.5 269.2 273.4 275 272.8 273.7 268.4 254.4 225.8 197.8 173.2 154.6 143.4 148.3 162.9 171.7 177.6 184.9 189.3 197.4 217.1 223.3 229.2 249.3 273.2 294 292.8 285.6 299.8 303.1 300.9 305.9 312.4 317 319 323.1 334.4 341.9 353.7 360.4 354.8 337.7 331.9 314.1 281.8 251.5 226.2 204.2 187 179.5 183.9 182.7 176.6 177.4 174.6 166 151.9 139.7 129.7 138.2 159.5 183.5 200.3 216.6 213.2 200.6 189 179.8 173.5 171 179.3 188.4 203.7 212.8 224.2 236.7 239.2 236.4 234.1 232.4 232 231.3 231.5 229.1 231.6 240.3 257.6 267.6 277.8 284.4 282.3 276.4 277.1 267.7 253 237 223.5 211.8 197.9 179.6 167.2 155 148.6 140.8 126.7 132.8 128.4 103.8 99.8 111.4 126.9 138.8
154.9 134.2 122.3 130.9 146 154.7 160.2 162 154.7 160 169.9 178 178.6 181.1 185.4 189.7 182.5 164.2 165.5 170.2 173.7 179.5 188.9 200.5 213.5 224.2 222.1 223.3 230 235.9 237.8 237.6 236.7 235.2 238.4 245.4 254.5 264 275.5 288.6 293.6 294.4 301.6 310.4 317.9 324.1 321.6 305.6 305.6 301.7 302.4 298.7 297.4 298.8 298.5 297.8 298.9 300.2 301.3 301 298.9 298.2 297.6 296.2 295.8 291.8 288.8 273 231.4 242.9 260.6 261.4 252.6 242.8 236 227.6 208.4 187.7 175.2 167.2 150.4 176.4 193.4 214 229.3 239.7 243.8 248.4 256.1 268.5 273.1 279.4 282.9 278.9 280.5 271.4 246.2 217.5 192.4 172 156.3 145 146.4 151.3 157.3 163.4 170.6 182.7 200.3 201.8 218.1 240.4 264 276.4 274.2 275.1 292.7 292 291 301.6 310.5 313.6 317.7 324.4 336.5 340.5 351.7 363.4 357 342.4 338.9 323.6 293 259 230.9 206.1 190.6 193.4 196.6 191.1 188.2 187.5 182.3 171.3 156.6 144.3 135.5 135.1 157.4 179.3 199.4 222.3 223.1 210.9 201.2 191 183 176.6 174.7 183 196.1 206.2 219.2 232.7 241.1 242.2 241.9 244.9 246.1 247.7 249.9 248.8 247.7 255.7 263.3 272.7 281.7 286.6 280.8 272.6 271.5 260 241.1 225.3 211 198 182.6 171.3 172.8 168.2 162 151.9 146.4 139.4 131.6 113.1 95.3 106.9 124.7 139.4
125.7 113 112.8 127 135 141.4 143.7 140.5 142.8 149.3 164.8 163.1 164.9 168 173.2 167.4 147.4 147.2 156.1 161.3 163.2 169.9 179.6 190.9 202.3 208.6 209 213 218.6 221.6 220.1 219.3 222.1 227.4 234.9 243.5 251.3 260.4 270.6 272.1 272.8 280.9 292 302.3 310.3 317.2 309.5 294.3 292.8 294.7 294 290 293.7 298.1 302.1 298.7 298.3 300 302.3 304.8 307.2 307.8 307.2 306.9 306.3 300.9 291.9 272.3 236.4 250.6 267.2 262.1 255.4 245.6 237.2 228.3 210.1 187.7 186.7 178.8 154.6 167.8 185.6 206.6 222.5 234.8 244.3 246.9 256.8 265.7 275.1 281.1 284 282.9 286.9 286.1 262.8 238.9 219.9 196.3 174.6 160.8 151.9 146 145.7 151.8 159.7 169.8 179.1 188.1 208.2 228.4 248.4 253 251.3 263.1 271.9 272 276.6 290.8 305.1 311.6 315.1 327.2 331.2 342.2 345.7 361.7 358.2 346.7 342.7 329.3 303.1 271.5 244.1 217.7 207.5 212.4 206.7 199.3 198.3 195.6 189.3 175.8 159.5 150.3 146.9 136.7 155.2 174.8 196.7 219.5 229.2 219.2 211.5 201.3 193 183 179.8 178.9 185.6 196.8 214.1 222.7 235.2 239.8 247.8 252.4 255.1 259.7 264.8 263.6 261.7 267.3 271.4 279.1 285.5 286.6 278.8 268 262.3 248.7 228.4 213 197.6 185.2 187.9 184 181.2 175.6 169.8 162.2 152.5 141.4 131.3 122.7 105.3 99 118.1 133.9
107.1 103.4 109.8 117.2 122.2 125.5 125.1 123.5 133.4 141.6 143.1 146.8 151.2 145.2 143.6 136.6 137.5 140.8 146.4 151.4 154.3 160.6 163.8 175.3 184.2 189.6 194.5 199.9 204 206.1 206.7 209.7 215.1 224.4 235.3 242.6 248 253.6 254.3 250.8 260.6 270.5 281.2 292.4 301.7 308 295.8 285.5 288 285.3 283.7 283.9 290.6 292.4 296.6 295 297.3 300.5 305 307.7 311.5 314.7 316.4 315.2 311 304.1 291 276.1 247.7 263.6 264.7 260.3 255.6 244.6 237.3 225 208.6 194.7 197.9 191.8 166.6 162.3 179.5 200 216.2 232.8 243.9 244.5 257.7 266.6 275.8 284.5 284.4 285.8 288.9 289.2 277.6 264.2 247.1 223 200.3 183.8 171 155.8 150 147.3 148.2 158.7 166.4 179.1 196.5 212.9 227.8 227.1 231.7 240.6 245.8 249.6 264.7 282.3 297.4 305.4 307.8 315.6 322.6 336.2 340.1 357 353.9 348.3 349.2 335.8 315.7 286.4 258.9 226 230.9 225.2 216 208.5 206.8 202 191.8 176.8 160.8 154.7 150.4 136.9 154 173.8 194.6 218.3 230.5 224.6 217.5 209.9 201.9 195.8 192.4 188.9 186.1 193.7 203.4 215.6 223.8 235.3 247.9 256.4 262.8 271.6 273.1 269.3 269.7 277.4 280.5 286 290.5 287.5 278.3 265.8 251.5 236 218.8 202.3 197.6 198.8 195.5 190.1 187.1 183 178 169.6 159 145.8 132.6 124.9 114.3 98.8 111.1 129.6
97.5 97.4 102.9 103.8 106.4 107.8 108.6 114.7 123.5 128.8 132.2 132.6 129 130.4 135 134.5 136.7 139.4 148 156 169.7 179.4 182.2 187.6 182.6 182.4 182 185.1 187.9 194.3 199.3 203.1 207.9 221.3 231.3 235.1 239.2 243.5 237.4 241.8 252.7 260.9 269.5 279.3 294.7 291.7 280.9 272.2 269.9 272.7 274 276.2 279.7 282.9 286.8 290.8 294.5 300 306.3 310.8 315.9 320.1 323.7 320 312 303.3 289.6 275.5 250.5 262 260.1 255.8 252.4 244.7 236.3 222.5 206.7 205.3 208.3 202.6 177.4 158.6 177.2 194.5 211.8 230.9 236.8 239.2 249.7 264.4 276.1 284.9 289.5 286.7 289.5 292.5 283.7 280.6 270.4 248.9 226.6 222 199.7 174.7 158.3 147.4 157.7 153.1 158.2 170.9 183.4 196.6 201.6 202.4 209.3 216.5 223.2 232.5 248.9 268 282.6 293.3 294.8 301.1 315.1 324 337 350.5 346.4 345.7 350.2 340.1 323.1 297.3 272.2 259.8 250.5 235.5 224.2 217.9 212.7 204.1 191.2 174 160.3 155.9 150.1 138 155.2 173.7 194.3 215 225 227.3 222.6 216.2 210.1 205.7 202.9 202.4 199.6 202 198.9 208.5 220.3 230.7 245.8 257.6 269.1 278 279.4 275.7 277.5 285 287.2 291.6 294.7 290 275.1 261.1 247.2 231.1 216.8 209.1 207.8 207.6 203.7 196.2 192.8 189.4 184.5 175.4 163.9 151.9 136.5 129.1 116.7 101.1 107.7 126.5
84.2 88.1 87.4 87.1 87.9 91 93.8 100.4 107.5 116.6 121.9 125.6 128.3 132 135.7 137.9 139.9 146.6 158.7 162.9 176.3 189.2 198.3 202.4 203.8 202 201.7 201.2 197.9 193.1 191.7 199.7 210.3 215.4 219.6 223 230.5 230.9 224.5 232.2 242.4 250.9 259 266.4 271.8 270.6 262.6 264.4 258.1 263.2 265.4 267.2 269.5 274 280.2 285.8 292 299.2 306.8 313.5 319 324.2 327 322.5 313.4 302.5 288.4 272.4 251.4 260.6 262.8 260.9 256.9 251.5 240.7 226.9 219.7 220.7 219.9 213 188.9 163.2 174.9 192 208.8 223.4 231.4 238.1 243 255.3 271.7 283.6 287.5 290.8 296.9 294.8 288.9 284.9 279.2 264.7 252.2 238.6 207.3 182.7 163.8 151 163.3 168.2 160.6 161.1 169.2 175.6 178.2 180.5 187.8 194.7 202.3 215.8 231.5 247.1 260.3 269.6 274.6 284 297.9 307.8 324.9 335.2 337.6 342.8 350.8 343.2 327.4 302.2 282.7 272.9 261.2 244.8 231.3 223.2 214.5 202.4 185.4 168.3 157.3 147.6 142.8 142.4 156.8 172.9 191.6 207.2 220 228.3 224.6 221.4 218.8 213.5 210.9 212 212 216.8 223.1 218 218.1 232.7 246.3 260.8 273.9 284 287.1 285.2 286.3 291.3 294.4 298.5 300.1 289.9 274.1 262.9 250.3 237.4 225.4 220.6 219.7 219.6 211.2 199.3 197.5 194.6 189.3 179.2 168.3 157.3 139.7 129.6 116.7 98 108.8 125.9
77.6 71.7 73.8 75.4 79.2 91.6 105.9 119.2 131.2 138.9 143.6 143 142 143.5 142.5 140.9 151.2 162.5 169.7 171.8 183.2 196.5 208.5 217.8 221.3 221.9 225.3 221 217.2 217.2 212.2 210 204.1 206 209.2 212.2 214.6 214.9 219.9 222.6 231.2 241.6 243.9 245.2 253 248.4 247 248.8 250.9 255 258.1 259.2 259.7 264.3 274.3 282.7 291.4 300.2 308.4 315.5 322 326.8 327.9 323.6 314.9 302.3 288.2 272.1 257.2 267.1 267.4 264.8 262.7 255.9 247.6 241 233.5 235.6 232.5 221.2 201.1 178.1 170.4 186.3 202.4 218.6 226.8 227.5 238.8 247.5 262.5 281 289 292.8 298.8 295.3 291.6 290.3 283.8 276.5 263.1 238 207.9 183.5 165.3 153.8 167.1 175.7 175.9 173.6 170.5 167.8 164.8 164.5 168.9 174.6 184.9 199.9 212.8 226.6 235.8 242.9 251 265.9 282 297.7 315.5 322 329.5 340.4 352.2 346.9 329.1 307.8 289.2 281.7 267.5 250.8 235.9 224.9 212.7 195.2 177.5 163 151.5 152.5 155.4 153.5 154.4 169.3 186.4 201.8 214.8 221.5 221.5 224.1 221.8 217.6 218.5 218.4 221.6 230.9 238.6 237.9 236.5 239.6 254.3 268.8 279.4 286.4 289 293.3 295.1 297.5 300.4 304.2 302.2 290.9 279.5 268.1 258.4 248.1 237.8 234.3 232.1 230.7 219.9 201.5 198.6 196.7 191.1 180 171.9 160.1 142.2 126.9 111.5 101.7 114.6 128.4
69.1 80.5 88.1 96.7 107 118 127.2 140.9 153.9 163.4 166.3 162.3 155.7 154.8 148.9 147.7 166.1 172.7 180.1 184.5 197.2 208.2 219.9 229.9 236.9 241.6 238.6 237.6 229.7 233.7 232.3 232.2 231.7 225.7 219 216.8 212.7 212.6 214.9 216.3 222.9 231.9 234.6 238.6 240.3 244.2 250.2 253.3 253.4 253.9 254.5 256.3 264 268.5 270.5 283.2 293 301.7 309.8 318.1 325.2 328.4 327.3 322.4 312.5 300.3 287.7 271.5 268.9 271.6 272.2 271.2 269.3 263.7 258.5 252.9 243.5 247.2 244.7 231.5 212 189.7 168.6 180.3 198.6 211.7 213.8 217.1 226.5 239.4 254.8 276.1 285.8 291 296.3 294.9 294.4 290.3 287.9 279 261.5 236.2 206.5 182.4 167.4 156.4 170.2 177.9 181 184.6 187.8 184 174.8 178.1 173.6 174 172.2 182.1 194.9 204.2 210.4 219.9 232.5 252.2 270.2 288.1 305 309.8 319.9 341.6 353.8 346.3 330.7 309 295.4 287.7 273.4 252.6 237.4 223.5 208 188.8 170.8 156.3 155 160.1 161.4 160 150.7 164 180.2 194.4 208.4 212.1 217.9 225 224.1 219.2 221.3 224 228.3 236.5 245.2 246.7 244.3 255.2 262.3 274.3 284.9 287.5 288.9 298.1 301.8 304.3 306.1 310.1 306.4 292.9 281.5 276 271.8 261.1 254.5 249 242.8 237.5 219.2 204.1 196.9 192.7 185.8 179 172.8 156.8 137.3 119.7 105.6 102.3 120.6 133.2
81.7 93.4 104.5 115.9 126.8 133.5 144.9 162.4 176.7 185.5 189.1 180.3 169.6 161.8 154 155.5 167.6 176.9 191.1 194.5 209.2 217.5 229.8 240.6 244.9 250.1 249.4 243.2 246 249.2 251.2 253.9 250.2 244.2 235.6 231.5 221.9 216.3 222.7 223.9 227.3 228.1 234.8 239.7 248.8 251.5 258.1 258.5 257.7 255.6 257.4 265.5 274.9 276.6 275.2 284.2 295 303 309.4 317 324.8 327.1 324.2 316.9 307.7 298 289.7 272.2 273.3 275.7 276 276.9 276.3 272.5 267.6 265.9 253.7 257.2 252.6 242 220.3 198 179.2 172.7 190.1 203.7 204.6 209.9 216.6 230.6 248.2 266.3 280 289.9 298 295 292.2 291.8 291 279.5 258.4 231.7 204.4 182.7 168.4 151 172.8 180.1 186.8 196 204.4 203.9 195.3 203 203.3 194.2 191.7 187.4 179.9 182.5 195.6 205.3 223.9 242.3 260.5 276.7 293.1 297.2 309.1 331.6 347 343.3 330.8 312.1 299.9 290.3 271.2 250.8 234.1 219.6 200.1 182 164.8 152 160.9 164.9 167.6 167.1 165.1 157.5 169.6 185.8 198 203.1 212.9 219.4 220.3 218.9 223 229.7 233.4 239.4 250 251.9 258.5 268.7 270.4 283.6 291.1 287.5 287.3 296.9 301 307.3 309.4 310.2 302.1 289.2 273.5 272 280.6 282.1 269.1 261.3 253.2 238 210.9 197.1 188.5 183.2 176.5 174.4 165.7 145.5 124 109 99.5 109.6 125.7 139.3
91.1 106.2 119.2 130 139.4 147.2 161.9 179.5 191.8 201.4 200.2 193.5 183.3 171.2 158.6 162.7 169.6 181.3 193.9 204.7 214.4 218.2 235.2 252.4 252.9 256.5 255.9 255.5 260.3 257.2 265.7 265 261.9 257.8 252.8 248.1 236.5 232.7 233.3 234.7 236.5 239.2 242.1 250.6 266.1 264.9 266.5 267.5 264.2 260.8 267 274.3 282.8 283.8 281.3 286.6 295.8 302.3 307.3 312.4 319.2 320.3 316 306.4 300.4 296.4 288.8 275.2 278.4 278.3 278.9 279.8 280.2 279 277.8 273.5 264.5 264.5 256.9 249.7 232.3 212.3 194.2 175.8 181.5 195.4 196.1 195.8 213.1 223.4 241.7 258.5 278.5 293.1 296.7 290.3 290.4 291.3 295.2 278.8 255.2 228.4 202 182.4 169.7 153.2 176.1 185.6 194.4 213 221 221.8 212.3 221.7 224.1 215.5 213.3 207.3 195.6 184.3 185.6 200.6 213.8 232.2 250.3 265.1 278.9 287 299.6 320.1 333.9 338.6 332.6 312.3 300.7 290 267.4 245.2 227.7 212.1 192.4 172.2 157.8 153.6 163.8 168.7 174.1 177 176.3 168.4 162.6 174.1 186 194.1 204.3 210.3 212 215.3 222.5 229.9 232.9 238.5 248.7 256.2 266.8 277.7 278.9 293.4 292.1 282.6 277.6 286.2 289.4 295.7 293.9 286 275.9 268.1 256.2 256.1 273.1 284.2 271.7 259.5 242.3 219.5 195.8 181.5 171 163.2 158.9 158 146.5 127.7 111.5 100.2 109.9 122 132.8 145.4
104.8 121.1 130.4 138 146.2 161.4 178.5 195.7 207.8 214.7 216.4 207.1 193.6 179.8 162 170.1 173.1 184.7 194.7 207.9 216.6 224 242.1 257.4 260.9 262.1 267.5 266 268.7 272 275.8 274.9 269.7 265.3 264.7 255.2 241.7 242.8 245 246.3 247.8 250.8 257.4 267.2 274.5 275.7 278.8 280.1 274.3 269.5 276.3 285.7 291 287.3 287.6 288.7 296.7 300.9 304.1 306.6 310.2 311.1 307.3 301.5 301.1 296.5 289.5 272.6 282.8 281.2 282.9 284.7 286.9 288.2 286.8 278.5 273.3 266.9 260.8 255.7 247.3 231 208.7 192.5 179 181.6 191.5 195.1 206.1 217.2 235.6 252.7 270.8 283.4 281.5 280 286.8 291.5 288.2 278.7 256.7 228 202.5 184.8 172 165.8 179.9 190.6 205 221.3 230.6 234.9 226.7 237.5 241.7 236.7 235.6 227.5 213.3 196.5 182.9 192.6 207.7 222 240.5 252.7 264.5 274.9 290.8 310.7 328.4 335.7 330.5 310.7 297.5 282.9 261.5 240.4 221.8 203.6 184.9 161.1 164.4 163.4 163.2 172.3 178.1 186.7 189.5 185.2 180.6 173.3 174.7 185.8 196.6 199.9 204.7 207.4 215.8 227.5 228.4 235 244.6 254.4 267.2 280.8 291 295.6 287.9 273 264.7 261.9 259.7 267.3 261.5 253.7 247.2 242.3 235.2 242 255.8 265.4 251.1 233.8 214.3 191.7 171.3 158.5 148 138.8 133.9 131.7 123.2 112.4 101.1 111.4 123.3 131 141.9 153.3
116.3 132.4 140.9 147.3 157.4 173.3 195 211.2 222.8 229.5 234.4 224.8 208.4 188 167.2 174.1 180.4 189.1 198.1 209.2 217.3 229.9 246 260.7 266 274.7 277.1 279.6 282.9 284.7 285.2 282.1 278.7 275.1 271.6 259.3 256 259.8 257.4 257.9 260.4 264.5 270.1 276.8 283 288 293.3 292.6 284.9 280.2 287.2 296.1 299.6 298.7 296.1 296.2 295.4 299.5 302 303.3 305 305.9 302.3 299.2 300.7 296.7 291.6 281.2 288.7 286.7 291.2 295.1 294.2 294.2 290.5 282.6 277.1 271.8 265.4 261.3 253.7 237.2 221.8 206.4 193.2 180.2 181.8 189.9 201.4 213.7 231.6 245.9 259.5 268.6 264.8 272.7 281.8 288.4 288.2 280.4 258.9 228.7 202.9 187.3 176 167.6 182.9 195.1 213.3 227.6 237.5 243.3 242.5 250.3 253.3 252.6 255 248.1 231.8 212.2 192.8 187.1 202.6 218.2 229.7 242 254.3 264.8 281.5 301.4 321 328 327.8 309.2 295.9 278.8 255.8 235.6 215.8 196.8 174.9 168.1 171.8 171.8 167.3 175.5 182.3 193.9 199 195.1 195 189.1 177.2 178.9 189.1 192.1 196.8 201.8 207 218.6 222.4 230.3 239.4 250.2 264 278.9 289.9 288 271.1 249.8 239.4 230.7 228 233 228.8 224.2 220.6 214.1 211.1 222.3 229.5 234.6 223.3 204.6 183 161.3 145.2 135 125.9 116.5 105.6 106.8 106 105.5 116.1 126.7 134.3 141.2 151.4 162
129.4 144.3 152.2 157.2 168.2 186.8 208.8 223.3 235.5 245.1 249.5 240.9 222.4 200.2 178.7 176.7 187.4 195.3 203.2 211.4 219.1 238.2 255.2 267.2 275.9 282.2 284.3 288.1 294.8 295.1 294.6 292.6 287.7 286.2 275.1 266.9 270.2 270.5 269.5 269.5 271.3 274.2 278.4 285.4 292.5 299.2 302.8 299.6 294.4 292.3 298.9 305 309.7 307.3 303.2 302.8 300.9 298.5 299.5 300.2 302.2 302.4 298.3 298.5 300.2 299.2 286.4 287 290.5 291.6 296.5 301.6 302.4 300.9 292.7 288 280.2 276.8 270.3 263.5 254.1 238.6 226.3 214.6 200.7 183.7 195.7 194.3 194.2 209.6 222.8 237.2 249.6 250.9 254.6 266.4 275.8 284.8 285.5 283.8 259.8 231 206.2 190.6 178.9 173 185 196.2 217 230.1 246.1 247.3 248.8 258.1 259.9 263.8 268.9 263.2 247.9 228.2 205.4 187.3 198.1 213.9 223.6 232.5 242.8 255.8 275.4 293.7 314.3 324.5 325.1 307.7 292.8 272.6 250.6 230.3 210.1 186.6 170.8 175.1 177.9 179.2 177.8 175.6 185.4 197.7 206.2 204.1 204.9 198.9 188.3 186.6 180.8 188.1 191.1 194.8 201.3 210.8 215.9 223.9 232.8 241.8 259.2 273.7 281 265.1 246.8 225.2 211.6 201.1 197.9 200.7 197.6 196.3 190.2 182.2 183.7 190.8 196.7 199.3 191.2 173.3 154.2 138.2 126.7 116.1 110.1 118.4 129 129.9 127.5 132.9 136.1 141.6 147.4 153.1 163 170.8
137.9 154.9 165.3 172.2 180.6 199.2 220.6 237.1 246.4 253.7 256.8 251.3 234.6 214.3 194.6 176.6 190.5 203.3 210.4 212.5 223.9 246 263.7 277 282.4 292 292.6 294.2 300.4 301.7 304.8 300.3 300.7 297.9 288.1 280.6 282.5 279.7 280.5 281.6 282.6 282.8 285 290.8 299.3 306.9 309.4 305.7 302.8 305 310.4 314.2 320.6 310.1 311.1 310.6 305.7 300.3 299.9 299.8 299.1 298.1 297.4 297.4 298.5 299.5 280.7 288.8 291.1 294.8 302.4 307.7 310.9 307.5 297.8 295.8 288 283.5 275.2 265.5 254.2 239.7 228.1 213.5 200.1 193.4 202 203.7 205.5 202.5 214.3 226.8 236.3 240.2 252.7 263.3 273.6 277.8 285.8 285.8 264.5 236.6 210.6 193.8 181 169.1 181.4 196.7 212.8 231.7 247.4 252.7 252.7 267.3 272.2 276.2 279 280.5 263.6 241.7 219.3 198.6 189.1 208.2 215.7 226.4 234.9 248.3 266.8 288.3 306.9 323.6 319.6 302.9 286.5 266.5 244.7 224.4 205 179.6 177.6 179.9 182.6 184.1 185 175.8 186.6 197.4 207.7 212.3 212.8 207 195.2 193.6 192.2 187.8 187.2 191.5 197.5 203.8 209 217.5 226.6 237.4 255.6 269.7 262.2 242 220.5 200.2 184.7 172.7 168.9 168.3 165.7 163.9 157.9 153.5 155.7 159.5 166.1 164.3 156.8 144.8 132.9 122.5 111.7 120.6 129.8 135.7 143.9 148.6 150.8 152 154.1 157.4 161.6 166.8 175.3 181.8
145.4 159 168.2 175.6 188.7 210.8 227.9 239.4 249 253 260.5 258.9 248.1 230 211 195.2 185 207 210.2 214.7 232.6 253.5 270.7 282.1 289.2 294.7 297.4 298.4 306.2 308.6 310.6 310.7 312.2 306.8 299.4 295.9 291.1 290.9 294.3 295.2 294 293.3 293.2 297.4 305.1 311 312.4 310.4 312.5 318.1 323.3 321.4 318.5 313.5 316.9 315.9 309 301.8 300.6 300.4 299.9 298.4 298.9 296.5 295.3 288.6 288.8 294.7 296.1 300.6 310.1 314.5 315.7 312.3 306.3 306.1 295.6 288.9 280.8 269 255 240.4 227.8 212.6 192.9 205.9 207.8 213.2 219.2 221.7 218.3 217 227.6 232.5 248.4 257.5 267.6 271.7 288.9 288.8 271.3 243.8 217.2 198.5 184.5 170.4 172.8 190.6 208.4 224.7 246.6 252.5 259.4 270.5 276.7 286.7 291.5 290.5 271.5 255 232.6 213.4 199.2 191.5 204.7 217.2 230.1 242.7 260.3 281.6 294.2 312.8 310.9 294.8 279.1 260.9 239.6 219.2 198.6 179 181.7 184.8 187.3 189.1 191.2 187 185.2 195.6 207.6 217.1 220 214.4 204.2 201.2 197.3 191.9 189.8 191.1 194.9 199 205.3 211.6 220.9 233 249.5 255.2 238 217 196.1 174.7 159.5 146.7 138.8 139.2 134.9 131.4 129.9 129.1 129.5 129.6 127.7 136.2 132.4 124.1 113.9 108.2 118 127.1 136.3 143.9 154.4 162.2 166.4 168.7 170.2 173 176.8 181.6 188.1 191.4
144.5 157.4 165.6 175.7 194.9 216.7 234.4 241.6 251.9 255 263 267.4 260.5 241 223.1 209.4 199.7 203.9 213.1 223.1 237.2 256.2 275.8 283.9 281.4 287.6 292.4 301.2 311.4 312.4 315.9 320.4 324.1 321.2 309.5 306.5 302.1 305.3 309.7 307.9 304.9 302.7 303.4 306.7 311.7 313.2 313.6 316.4 321.7 327.6 330.7 327.1 323.7 320.8 320.2 318.7 312.2 303.7 301.1 301 300.4 299.4 302.8 298.6 290.7 292.1 294.9 296.4 302.4 306.7 318.4 323.3 321 317.3 316.9 315.5 302 292.9 284.4 270.2 256.2 242.1 224.8 210 207.6 212.9 216.6 226.1 237.3 240.2 238.1 231.8 226.9 227.1 236.6 248.5 259 267.7 285.2 286.7 276.2 252.1 226.4 205.9 187.4 173.2 170.9 183.5 200.9 221.7 243.4 247.7 263.3 276 282.3 295.1 301.3 297.4 283.7 268.7 246.1 227.7 211.7 201 194.9 209.4 224.3 236.8 253 271.9 286.7 303.4 299 287.6 274.4 255.8 234.1 214.8 193.2 183.4 187.4 190.1 191.5 195.1 197.2 197.8 187.2 195.3 203.3 216 223.7 218.6 210.2 207.6 199.3 195 191.1 191.4 192.5 196 201.9 201.8 216 227.7 244.6 233.8 213.6 193.8 173 153.5 137.5 129.2 136.5 135.6 140.2 141.3 128.5 133.7 133.7 134.1 136.2 118.8 114.7 119.8 122.1 121.4 122.2 128.2 140 151.6 163.6 174.4 181.6 184.1 185.9 187.7 190.7 194.8 198.1 200.5
134.7 153.5 163.2 176.4 196.3 218.7 228.3 241 247 257.4 261.5 267.3 264.3 249.5 239 222.1 210.6 198.3 210.5 221.8 239 253.5 261.4 267.8 283.9 288.1 296.6 306.4 313.1 320.6 326.2 328.8 332.5 327.9 316.6 312.6 313.1 317.7 323 321.5 315.5 311.6 313.1 315.1 316.5 316.9 317.6 323.1 328.9 334.6 335.2 332 329.3 335 332.3 327.2 315.5 308.2 302.6 301.6 300.9 300.1 300.9 294.6 294.6 298.1 300.6 301.4 304.6 310.8 324.8 331.6 327.7 325.8 323.8 319.3 306.5 298 290.6 279.7 264.4 250.1 234.9 216.8 217.2 221.2 227.7 236.2 247.2 249.7 252.3 246.7 236.1 230.5 232.6 243.5 251.9 266.2 282.3 281.2 274.4 259.6 236.2 211.4 188.6 174.1 171.6 180.1 196.8 215.7 232.3 246.3 265.5 277 290 303.3 308.3 303.5 292.4 280 260.3 240.9 223.4 211 200.3 200.9 216.3 231.2 248 261.9 278.3 293.8 289.3 281 270.1 251.3 230.2 210.9 192.1 191.2 193.5 195.9 197.4 203 206.4 207.1 205.6 191.6 201.3 212.8 221.8 221.7 214.8 212.3 203.9 199.8 196.1 193.7 193.2 195 196.9 201.6 214.3 225.3 232.2 212.1 189.3 169.8 151 136.4 131.9 142 149.1 154.7 156.3 150.3 134.7 155.2 152.9 147.5 142.9 131.1 134.8 139 137.9 134.9 132.9 130.2 145.2 159.1 171.9 184 193 196.2 199 201.7 204.4 205.6 207.5 208.4
151.6 148.9 164.4 178.8 194.5 211.1 225 232.9 242.2 256.5 267.7 273.1 263.8 262 254.2 237.6 224.6 213 206.1 219 236 250 252 268 283.7 282.8 293.5 302.6 310.7 324 330.5 336.8 340.1 331.4 325.4 323.5 326.7 331.6 335.9 334.1 327.8 322.1 320.8 322 322.9 322.7 324.8 330.4 336.8 343.6 344.6 338.9 337.5 341.2 337 330.5 318.1 308.7 304.6 303.3 301.7 300.6 297.5 298.1 298.6 301.7 303.8 304.8 309.7 316.7 327.5 330.4 330.4 331.1 325.6 322 314 305.1 293.2 282.5 267.2 253.7 238.8 220.4 221.8 227 233.7 243 254.6 258.7 259.5 259.4 249.5 237.3 233.5 239.9 248.9 263.4 275.5 276.3 274.4 266.8 256.4 222.7 191.5 174.4 172.1 174.9 193.1 206.3 225.7 249.3 267.5 276.8 295.6 309.3 313.6 308.2 300.3 289.6 273.8 255 237.2 219.9 207.2 201.8 208.6 225.4 241.9 257.1 272.1 284.1 285.2 278.2 267.2 247.8 233 216.5 203.2 196.6 201.3 202.4 207.7 213.5 217.2 218.6 215.7 205.5 200.7 210.2 220.9 223.6 218 213.4 209.8 205.7 202.4 199.9 195.1 193.9 194.1 200.7 216.6 227.3 212.5 191.6 168.1 148.5 135.6 133.4 145.5 153.6 161.2 165.9 165.8 154.4 141.7 159.1 156.4 156 152.5 150.8 152.9 154.4 153 147.4 142.5 128 150.9 165.9 180.7 192.7 202.7 208.6 212.6 216 216.3 216 215.9 213.9
172.5 161.8 163.7 178.4 195 209.8 219.8 234.3 248.2 257.6 272.9 271.8 262.8 266.9 266.6 261.3 241.9 226.9 216.8 222.1 238 249.8 253.2 268.7 275.3 279.8 285.2 303.5 316.5 325.7 334.6 341.7 338.7 332.4 331.6 334.7 341.2 346.3 346.9 346.1 339.6 331.3 326.6 329.6 329.7 329.8 333.2 339.3 346.6 354.4 351.8 346.6 344.6 352.4 344.3 332 320.5 313.1 307.3 305.9 304.1 301.5 298.3 301.2 302.5 304.8 305.3 311.9 315.8 320.7 332.5 337.7 341.1 337.6 334 329.4 318.8 306.2 297.7 283.8 271.7 255.5 240 218.7 226.4 231.6 239.1 249.2 260.9 266.6 268.9 268.7 265.5 250 238.4 237.3 249.2 259.1 265.7 273.4 276.7 278.5 261.6 226.2 193.7 174.7 172.9 175 187.2 202 218.5 237.9 257.5 276 295 311.5 315.3 316.9 310.4 300.4 286.8 267.2 247.9 230.5 215.3 205.8 204.2 222.5 236.8 252.3 264.4 278 281.3 277.4 268.5 253.9 239.7 229 219.2 212.3 210.7 210 219 226.1 230.1 231.1 228.9 214.4 200.6 208.3 219 224.2 222.1 218.1 218.1 213 209.1 208.1 202 195.5 192.9 204.4 215.6 208.7 190.7 169.8 145.1 135.3 136.5 148.7 157.5 166.3 172.4 175.6 174.4 162.2 148.9 157.2 163 164.7 164.7 167.2 169.6 170.3 167.3 158.9 148.2 131.1 156.8 174.2 189 202.7 214.4 221.7 224.3 225.4 224.3 224.3 220.7 212.2
191.3 183.4 182.3 193 200 212.9 227.4 236.6 252.5 262.8 263.4 263.1 265.8 278.3 280.3 275 257.1 243.6 232.1 219.4 231.3 238.3 256.2 268.5 274.9 279 288.3 302.7 315.1 324.5 332.6 338.9 334.8 332 336.3 341.9 351.7 356.9 359.5 355.4 349.3 344.6 338.2 339.4 336.1 336.9 340.2 348.2 354.7 356.1 351.8 348.9 349.5 352.6 348.5 340 324.2 320.9 312.5 311.3 308.3 300.7 300.9 303.3 305.5 307.3 309.9 314.8 318.7 332.3 343.9 350.4 349.2 349.5 339.2 332.3 321 310.1 298.7 287.3 272.3 255 239.6 220.8 230.8 237 244.5 254.5 264.4 273.4 279 281.7 279 262.8 248.1 245.5 250.7 256.4 264 274.5 281.3 289.3 264.4 225.1 197.1 174.5 173.8 177.8 184.9 197.1 212.4 228.4 251.9 275 291 307.3 319.8 321.7 315.6 307.3 298.2 280.7 260.3 240.4 223 212.6 204.4 216.9 232.2 244.5 257.4 271.6 278 277.6 271.2 261.7 247.6 240.6 232.3 229.4 223 222.5 232.8 239.2 243.5 244.9 240.9 225.5 209 207.5 218 224.4 226.6 225.1 226.3 221 217.1 219.6 207.9 199.2 190.8 204.2 197.2 181.2 167 144.9 133.4 145.6 158.2 164.7 172.4 178.2 183 186 181.3 167 154.4 165.1 171.2 177.2 181.8 184.4 186.8 185.8 179.3 166.2 145.2 140.2 162.8 180.8 197.1 212.6 225.1 230.7 231 231.1 232.2 231.2 222.1 204.4
211 206 202.7 203.4 209.9 221.3 232.3 238.7 245.2 256.4 261.8 264.1 278.2 284.5 288.8 285.3 276.1 259.9 251.2 238.1 228.9 244.6 259.8 272.3 276.2 274.1 284.7 297.5 308.4 316.2 326 327.3 325.1 330.6 339.9 347.9 360.7 366 365.5 359.7 357.3 354.2 350.8 348.4 345.9 344.6 347 355.9 358.2 353.6 350.9 350 355.1 355.4 351.2 342.6 332.9 323.4 319.7 317.6 306.8 302 303 308.5 308.9 309.3 311.7 315 328.3 340.9 351.4 359 357.1 355 348.5 333.7 324.5 312.4 299.9 287.5 269.4 253.2 237.9 224.3 235.6 243.6 251.2 261.6 273.5 284.4 290.6 294.4 286.9 272.6 258.5 253 258.1 258.6 270.3 277.4 287.2 293.5 258.7 224.1 199.4 175.2 176 180.4 184.5 194.4 209.1 225 246 272 291.5 313.6 323 322.4 318.5 313.8 307.5 293.4 272.7 251.9 234.1 221.4 211.6 209.5 225 237.1 248.8 262.9 272 274.7 272.9 268.7 260.6 253.6 249 245.6 238.3 234.5 246.8 253.1 257.6 257.9 251.2 233.6 217.6 208.7 217.2 225 230 232.8 236.1 230.4 227.1 232.5 213.2 202.6 189.1 189.7 172.8 157.5 143.7 136.1 150.7 167.7 174.2 179 183.8 188.5 193.6 193.3 186.1 170.1 158.8 171.8 182.3 191.8 200.7 203.8 206 201.1 189 172 149.1 141.3 165.9 184 202.5 220 231.3 235.8 238 239.2 239.3 231.5 214.6 193.7
227.8 222.4 218.8 218.8 223.1 231.2 235.2 241 250.7 258.3 261.7 263.8 279.2 290.7 295.7 293.7 288.2 273.7 268.2 256.6 243.1 241.1 259.3 271.3 269.8 272.8 280 293.3 298.8 307.2 315.1 321.4 319.8 329.8 344.4 356.3 366.5 368.7 363.7 360.5 362.2 361.3 358.5 356.9 355.2 355.7 359.6 360.5 356.6 353.2 352.8 352.5 360.2 361.3 357.6 345.9 336.5 325.2 322.1 316.4 305.8 303.4 304.2 309.9 311.1 311.6 313.8 319.5 333 344.1 353.4 361 361.9 359.2 348.3 338.7 326.5 311 299.2 285.7 266.5 251.1 235.5 230.7 240.4 248.5 258.8 272.4 285.1 297.3 304.6 303.4 294.4 279.9 263.3 262.8 266.5 266.1 276.1 281.4 294.7 290.3 258.3 224.5 199.5 175.3 177.7 184.3 186.9 193.5 207.2 223.9 243.6 269.3 288.2 315.3 322.5 322.5 322.3 320.1 316.2 304.8 284.5 262.5 243.6 229.8 217.4 208.8 216.8 231 243.1 253.7 265.6 276.7 279.2 283.6 274 270.1 266.8 263.2 256.4 251.8 262.7 268.1 272 269 262.7 243.4 226.1 212.6 219.6 227.8 234.9 240.6 243.9 238.1 237.2 233.6 215.5 201 186.1 170.4 150.5 138.9 146.6 159.9 165 173.9 185.3 189.4 192.7 197.5 200.5 198.8 186.8 164.3 173.9 183.4 196.3 207 217.7 221.1 221.6 213 196.1 176.4 155.2 141.5 168 188 207.7 224.5 235.6 239.4 242.7 244.7 241.4 225.7 205.6 187.3
243.4 237.8 233.8 234.4 235.7 239.2 243.3 248.3 255.2 261.1 263.4 269.7 283.9 293.7 301.4 304 297.1 283.9 279.8 273.9 260.7 243.3 250.7 265.2 267.2 270.7 279.1 288.9 291.7 302.7 307.5 309.8 316.7 337.3 353.9 358.4 363.2 366.5 360 358.3 370.2 368.6 364.7 363.2 363.4 365.4 362.2 359.2 357.3 356.7 356.4 358.4 362.5 363.7 359.2 348.9 335 326.5 320.9 311.9 306.3 305.6 307.4 310.3 313.1 314.4 317.7 326.8 338.4 349.1 354.8 361.5 363.8 359 349.1 342.2 327.8 311.9 294.3 281 262.9 248.4 235.4 235.6 247.8 259.9 271.4 283.7 297.9 312.3 314.4 311.5 300 286 274.4 276.6 275.9 273.3 280.9 287.1 303 285.6 255.3 224 197 178.5 178.1 186.4 191.7 197.5 207.5 223.5 243.2 264.8 288.7 314.9 320.8 324.7 329.1 328.9 325.4 314.8 296.1 276.4 258.4 240.2 224.7 217.6 212.1 225.6 237.4 251.9 267.9 277.9 284.5 292.9 287.4 285.5 285.9 283.1 276.9 275.3 281 283.7 285.6 281 269.4 251.8 233.9 219.6 221.5 232.8 241.1 248.8 251.4 244.8 241.4 230.7 212 194.1 177.3 156 143.7 150.4 164 167.6 170.1 176.1 188.1 196.6 200.6 206.2 208.6 202.2 182.8 175.2 190 194.8 207 219.2 229.4 232.9 229.4 218.8 200.5 178.8 156 145.3 173.9 193.7 212.7 228.8 237.5 241.6 247.7 247.6 236 217.7 197 184.2
257.6 252.8 247.6 247.3 246.5 254.2 256.6 259.2 265.2 265.9 267.4 277.8 287.8 297.1 307.4 312.4 306 296.3 291.4 292.8 281.3 268.3 258.5 260.3 264.9 270.3 274.3 282.3 284.6 289.4 294.3 295.6 313.4 327.9 339.2 348.7 358.1 362.6 355 363.1 375.9 371.8 369.7 370.9 372.3 373.3 371 361.3 358.8 360 360.7 363.9 364.8 367.9 359 347.5 338.3 327.3 320.9 309.9 308.1 307.4 309.1 314.7 316.9 319.6 323.6 332.7 343.4 354.7 358.3 364.9 365.1 361 353.7 344 330.1 312.5 292.8 278 260.8 245.4 236.2 241.3 255.5 269.6 281.6 296.6 312.6 325.6 319.6 317 302.5 289.4 288 292.9 287 284.7 287.6 296.1 308 281.5 250.4 219.5 196.2 179.3 178.6 190 195.9 201 209.2 223.7 243.2 264.8 288.5 308.8 321.2 329.9 334.8 335.4 334.9 322.8 310.2 291 270.5 250.5 232.6 225.1 223.3 222.7 234.7 249.7 264.3 279.6 290 297.7 300.5 302.4 306.8 304.2 297.5 296.8 300 301.9 299.2 293.4 277 259.4 241.6 230.7 226.5 239.8 247.5 255.8 257.9 250.6 240.6 224.6 205.1 184.8 164.4 145.5 147.7 166.5 176.7 179 177.8 183.4 190.6 203.8 209.1 213.1 213.5 203.1 178.8 189.5 198.6 207.1 217.8 230.1 236.7 239.1 235.9 223 203.7 176.2 151.9 158.1 181 200.5 218 231.1 238.8 243.9 246.5 242 227.4 209.8 190.3 180.5
269.8 263.2 265.5 261.8 258.7 266.8 270.7 271.7 275.8 275.5 275.1 284.1 294.7 303.3 314.5 321.2 320 306.7 306.7 307.4 297.4 289.3 285.3 277.6 275.9 281.4 281.7 283.7 283 284.5 288.6 293.2 303.1 316.8 325.7 341.7 349.1 358.6 354.7 370.3 375 372.2 372.4 379.3 381.2 381.3 376.5 368.6 366.9 365.3 367 370.8 370.1 369.8 359.6 349.7 339.7 324.9 317 310.9 310.4 312.9 318.3 322.2 323.2 327.5 333.1 339.1 347.8 355 359.5 364.2 367.8 365.9 358.7 346.4 329.8 311.8 293.3 276.5 260.4 245.8 241 249.1 262.8 278.8 293.9 311.2 329.6 336.3 331.8 323.4 308.5 295.3 301 303.7 298.2 296 297.7 305.1 306.9 282.8 246.2 217.4 194.2 180.1 178.6 192 198.3 202.8 210.1 225 242.9 262.6 286.2 309.8 324.1 338.4 341.1 344.4 346 333.3 322.6 303.8 281.9 260.3 241.3 232 230.6 219.5 231.1 244.4 259.4 275.5 286.4 300.7 308.4 316.8 326.9 323.7 318.4 317.7 319.9 319.7 313.4 301.5 284.8 267.1 250.5 240 240.1 247.6 254.6 264.4 261.8 249.6 234.7 216.1 194.9 172.2 150 146.3 166.5 179.2 186.2 193.3 188.3 199.4 208.7 213.6 216.8 218.4 215.1 202.6 186.7 203.2 208.8 216.6 227 237.3 240.6 240.4 237 222.6 198.8 169.3 150.9 171.6 190.8 207.8 221.6 232.6 240.7 244.6 242.2 232.9 218.8 202.1 186.3 177.6
280.7 277 279.9 275.5 279.9 283 283.6 282.8 283.1 280.6 282.8 287.7 298.2 311.4 322.1 328.1 325.2 316.6 319.6 318.6 312.6 308 301.9 296.3 293.6 294.3 295.6 292.8 292.1 289 291.1 296.2 300.4 309.5 319.8 331 344.3 352.4 356.8 376.1 371.8 371.7 383.4 389.4 394.1 388.5 383.5 377.2 375.3 373.5 372.9 375.8 375.6 370.5 362 347.5 336.9 326.1 316.5 313.1 318.9 318.5 323.7 327.5 329.1 337.2 341.9 349.9 354.5 357.2 360.7 363.1 368 370.2 361.6 348.5 330.7 313.8 295 277.1 260.5 244.5 251.2 261.3 272.9 286.7 306 325.4 341 339.4 337.7 328.6 310.7 306.6 316.6 315.3 305 306.4 308.5 311.7 307.8 285.3 242.7 214.8 192.7 179.3 180 194.6 198.5 202.7 210.1 225.4 242.8 262 283.7 305.7 321.8 340.6 348.7 350.3 352.6 344.9 334.6 315.2 291.4 269.8 249.2 237.6 235 227.1 226 239.3 256.8 268.4 282 295.7 303.2 321.8 344.4 343.4 337.4 334.8 334.9 334.1 322.8 310.5 292.8 275.8 261.4 250.4 252.7 258.8 264 271 260.6 243.7 226 207.4 185.6 165.2 143.7 151.1 171.9 183.8 192.5 198.4 204.6 213.6 216.1 220.1 222.5 222 214 196.6 199.5 210.9 217 223.5 233.7 239 242.8 242.4 235.8 218 186.8 160.6 172.4 190.1 200 212.4 224.3 232 236.4 237.1 229.9 221.2 208.7 193.2 183.7 175
287 286.1 288.3 289.7 290.6 293.3 289.5 290.7 289.4 285.5 291.8 297.2 310 319.1 326 331.2 327.9 328.3 329.8 332.3 329.3 322.2 313.4 310.6 308.9 310.2 312.3 307.9 306 305.1 300 304.1 306.7 314.6 319.8 325.1 339.2 349 365.2 370 371.9 371.7 387.9 401.6 397.7 392.1 390.1 385.9 380.9 377.5 379.3 382.1 376.4 369.7 358.8 347.1 335.4 325.2 320.8 320.3 321.5 325.6 330.5 332.8 335.7 345.6 351.6 356.3 357.9 359.2 362.7 364.1 370.4 371.4 362.4 350.7 332.9 314 294.6 278.6 261.5 253.7 264.6 273.7 285.4 300.5 318.3 335.8 346.7 343 340.7 333.3 318.6 321.4 331.8 329 318.4 321.2 321.9 327.6 306 272 239.4 210.6 191.2 179.8 179.8 192.6 199.3 203.3 210.8 225.2 243 262.7 284.4 302.7 327.9 342 351.2 354.8 356.2 356.1 344.3 324.9 300.8 279.4 258.8 243.9 240.3 235.1 225.9 239.4 251.8 262.3 275.9 287.3 296.4 315.2 333.5 350.1 353 351.2 350.1 347.3 333.8 319.8 302 286.6 274.6 265 264.7 270.2 273.2 272.6 254.2 236.2 218.2 197.7 175.6 151.6 148.7 166.5 176 184.7 192.6 199.1 210.3 219.3 222.9 226 226.2 223.4 212.4 210.5 213.6 218.7 224.7 229.8 238.1 241.5 242 239.4 231.9 212.6 185.6 166.9 186.4 201 207 215.6 224.2 228.8 229 224.9 217.5 209.6 199 189.6 182.9 182.4
288.3 291.9 300.6 296.7 298.7 296.1 298.8 299.3 297.1 292.7 296.7 305.5 315.3 323.5 329.6 335 332.2 333.5 339.4 341.2 338.5 332.8 327.4 327.4 326.5 329 326 323.9 324.5 324.2 316.8 322.2 317.3 321.3 320.8 326.3 335.4 343.6 362.1 366 371.4 371.3 393.4 405.9 403 398.8 399.4 392.5 386.4 380.4 382.5 383.3 382.1 381.7 366.3 346.1 332.8 323.2 321.1 320.6 323.9 330.3 333.4 339.1 344.9 350.6 354.2 358.5 359.2 360 362.5 365.2 370.3 372.6 361.9 348.1 335.8 317.5 297.9 278.4 259.5 266.1 276.7 286.8 300.2 315.9 331.4 345.5 349.9 348.1 346.4 337.3 332.7 337.4 345.4 340 324.5 335.3 338.2 333.9 303 270.1 237.8 208.9 188.8 183.5 180.8 191 198.9 203.2 210.9 225.1 243.4 262.8 281.8 302.7 326.3 341 349.7 362.2 363.5 364.8 351.8 333 310.6 290 269.7 254.2 245.9 240.3 232.7 236.3 248.1 256.8 267.4 277.2 287.8 300.6 317.2 333.8 344.1 355.4 360.3 354.6 344.4 330 311.9 299.1 289.4 282.1 279.7 283.5 282.5 270.6 249.1 228.6 209.7 187.1 163.8 146.1 154.8 170.7 179.3 185.4 193.1 204.9 219.9 228.3 231.8 232.5 230.9 219.6 224.2 223.6 223.9 227.8 231.6 236.7 242.2 243.5 241 234.3 225.1 206.2 180.4 175.3 191.8 204.5 212.3 220 224.6 223.7 219 212.8 206.4 200.7 193.9 188 181.7 186.3
289.9 295.7 305.5 302.5 301.1 303 305.7 304.5 295.7 297.9 304.1 311.9 321.6 328 333.2 335 341 343.3 347.4 347.7 344.8 339.7 336.2 339.7 341.6 342.8 339.8 336.7 337.8 337.6 336.4 341.4 335.6 337.2 336.2 335.2 336.8 342.9 353.2 361.9 366.1 370.3 381.5 398.3 402.9 401.4 401.4 393.9 388.3 385.6 390.8 388.5 387.8 379.6 362.1 345.5 334.1 320.8 319.2 320.3 327.5 333.5 335.8 341.1 350 355.9 358.4 362.8 363.9 360.9 365.2 366.7 374 371.6 362.2 350.8 338.6 320.6 302.9 283.9 268.7 280.8 290 301.4 317.1 333.3 347.4 361.1 362.6 361.2 354.5 343.4 344 347.5 355.1 346.1 334.2 347.8 353.4 337.9 305.4 268.5 235.3 210.3 189.9 184.7 182.3 188.9 200.2 203.9 211.2 225.9 244.5 264.3 281.8 307.7 327.2 340.8 352.7 367.4 377.3 373.6 360.1 340 319.5 299.5 279.4 263.2 253 246.7 238.9 237.1 239.5 247.2 256.5 264.5 275 286.5 299.1 315.7 328.1 343.1 353.3 361.8 356.9 344.4 326.5 313.1 305.2 300.6 298.4 298.7 288.4 266.2 242.6 221.7 199.3 175.7 158.9 148.5 159.6 172.5 180.4 188.8 197.6 213.8 228.5 238.4 240.9 240.6 232.5 226.5 229.4 229.9 231.7 235.1 238.8 243.8 246.4 246.6 242.6 232.3 220 201.3 175.5 183.8 197.6 207.9 215.9 221 220.5 215.3 210.3 205.4 202.5 200 196.4 191.6 185.6 187.4
287.8 299.1 304.6 305.2 303.7 304.4 305 301.2 297.8 300.3 304.9 312 323.1 328.9 335.6 337.6 343.5 347.8 349.5 348.7 347.1 346.2 347 348.4 350.7 350.8 348 347.8 346.5 344.7 346 353.7 351.5 352 352.7 354.1 354.5 355.1 354.7 361.9 368.5 373.8 379.5 390 398.4 404.9 406.6 401.3 394.3 401.9 401.5 393.7 387.5 374.9 357 345.9 329.2 318 318.3 326.7 330.8 334.6 337.8 343.8 351.3 359.8 362.3 367 366.2 362.1 364.7 367.9 374.2 372.2 362.8 353.6 340.4 325 308.1 280.4 277.7 295.9 308.5 322.7 337.6 351.5 365.5 375.9 378.3 376.8 369 358 356.1 362.3 365.6 354.6 349.7 362.9 367.4 333 301.8 266.1 236.5 212.3 193.8 185.6 183.2 187.7 200 205.2 211.2 225 244.3 264.7 282.1 306.3 329.1 339.6 354.9 372.5 379.8 374.5 365.6 346.2 328.2 308.4 288.3 270.7 259.7 251.6 242.2 247.5 252.6 255.1 255.7 254.8 259.5 271.7 285.1 301.2 314.2 328.5 341.2 358.7 372.2 361.7 344 331.2 326.1 321 317.6 309.7 289.7 261.4 235.7 211.6 187.1 168 150.4 156.6 167.7 174.6 182.3 191.9 204.6 221.9 238.4 247 250.8 248.3 230.8 229.8 234.5 236.2 240.7 243.9 247 249.2 250.3 250 244.3 232.8 217.4 197.3 172.8 189.8 201.6 211.6 218 221.1 220.3 214.9 213.9 211.7 210.4 207.1 197.7 192.8 187.8 186.2
294.1 300.7 304 304.6 304.3 304.3 305 297.1 299.7 300.9 303.3 308.4 316.8 325.1 333.5 337.8 340.5 343.1 346.7 350.9 353.8 350.9 351.8 356 357.6 359.2 359.2 353.1 349.9 349.4 357.2 368.2 368.3 365.5 361.4 364.4 367.2 364.3 372.1 379.1 380.3 384.5 385.2 388.9 399.7 409.9 411.6 405.4 405.9 409.2 403.5 393.1 381.3 369 353.2 336.3 323.3 315.6 318.3 329.5 332.9 337.5 341 349.2 356.1 361.5 365.7 370.9 363.7 364.1 367.4 370 373.4 369.9 362.7 356.3 344.2 327.7 311.1 306.2 305.8 312.8 327.9 343.2 356.8 369.8 384.3 393.9 396.5 391 381.6 374.5 374.1 377.9 378.3 370.2 363.2 375.7 362.1 329.8 298.6 267 237.6 214.6 197.8 187.2 184.3 188.4 201.4 206.2 211.2 224.7 244 263.6 282.6 305.9 326.8 339.7 358.5 374.8 382.5 378.2 371.1 355.6 339.2 319.8 299.1 283 270.1 258.5 247 257.6 267.6 271.7 275.6 277.5 275.2 270.7 273.1 288.5 300 316.5 334.4 353 375.8 382.8 367.3 354.5 350.4 345.2 329 310.8 283.8 252.9 224.8 198.9 172.3 153.1 145.5 154.2 168.7 176.5 185.3 195.7 212.6 230.8 250.1 255.3 260 255.5 233.4 233.3 240 246.5 253.9 257.6 255.9 255 253.7 250.9 243.5 235 215.5 194.1 177.5 193.7 207.1 216 221.9 223.6 223.4 222.4 222.5 222.4 221.2 214.5 203.2 193.7 193 188.1
302.8 307.7 310.6 311.9 313.3 314 303.9 295.9 296 297.6 298.7 304.1 308.4 311 319.3 323.9 328.1 336.4 343.7 351.8 355.7 355.4 356.5 361.3 365.4 368 364.6 356.4 350.5 357.9 370.8 377.8 383.4 380.7 381.3 379.9 379.8 381.4 384.9 391 392.9 391.8 389.8 396.4 406.2 416.5 413.5 408 412 410.8 401.1 389.1 374.4 358.6 343.5 330.8 316.1 314.6 319.8 331.1 335.8 341.8 351.2 355.8 362.8 366.3 373 368.8 362.5 365.1 369.4 370.7 373.6 370.4 366 360.5 351.8 343.9 325 330.2 330.9 330.5 343.6 361.8 373.1 386.2 401.9 408.8 408.1 405.1 394.7 391 396.7 397.7 395.4 386.8 379.9 387.2 358.8 327.5 300.3 268.6 241.2 218.8 202 191.1 185.6 188.2 201.4 206.1 209.3 221.5 242.2 262 281 303 322.5 342.3 368.5 381.5 384.1 384.7 377.5 364.2 349.8 331.9 314.3 297.4 282.5 268.1 255.7 267.6 279.9 288 293.2 295.8 299.3 298.4 297.3 305 314.5 325.8 339.9 359.5 376.2 394.2 393.6 382.5 371.4 349.5 326.5 303 271.4 239.2 212.2 185.8 158.7 149.3 149 162.8 169.1 179.6 189.2 200.1 221.7 247.4 259.3 262.5 267.4 259.1 240.7 238 246.5 253.9 268.5 276 269.4 261.7 256.8 253.1 243.2 229.3 211 187.7 179 199.1 213.6 221.2 225.9 229 229.3 230.6 231.1 230.9 228.9 220.9 208.6 196.9 197.2 189.5
305.2 306.7 314.1 319.8 320.8 314.3 298.1 292.6 291.8 291.5 290.5 293.6 292.6 303.2 312.8 320.1 325.5 331.5 341.5 348.8 352.7 358.4 359.3 362.3 366.8 367 369.3 361.6 353.5 367.4 375.8 382.6 390.4 394.6 392.9 392.5 395.2 402.6 400.8 400.7 404.9 402.3 400.6 409.1 416.2 422.1 421.6 419.1 417.4 408.7 397.4 382.8 365.4 348.6 337.4 320.3 311.3 313.7 321.5 331.6 338 344.8 354.2 361.5 366 370 373.7 364.5 361.5 366.1 369.4 371.7 372.3 371.5 369.5 366.2 361.5 356.5 341.3 350.8 353.9 360.6 364.7 377.5 390.8 404.9 412.7 413.5 416.2 414.3 406.7 406.3 413.4 414.3 409.5 402.3 398 398.4 361.9 330.2 305.6 271.3 244.7 222.9 205.4 196.2 186.6 188.1 200.3 204.1 207.3 217.1 238.3 258.9 278.2 300.8 319.7 344 373.3 384.5 386.8 395.8 385.6 373 360.2 344.5 328.4 312.7 298.4 284.9 271.5 278.5 289.7 300.5 308.3 313.6 318.7 320.1 322.8 330.1 339.3 349.8 361.2 376.5 391.6 406.8 412.4 388.9 365.2 342.3 318 287.9 256 225.4 198.7 173.1 148.4 149.7 153.4 170.1 177 184.3 193.7 207.4 229.5 254.8 267.6 268.9 270.7 263.3 246.9 241 251.4 262.6 282.2 292.9 284.8 272.7 260.3 252.9 240.5 216.1 197.5 202.3 185.8 200.1 218 227.4 233 235.3 236.3 238.2 238.9 238.6 236.5 226.1 214.5 202.3 202.7 194.1
301.6 310.7 318.3 322 316.9 304.1 291.9 280.4 284.8 281.3 276.9 276.4 283.3 297.5 308.3 316.4 323.3 330.1 338.8 347 350.7 355.8 356.9 363.1 367.5 367.8 366.9 361.9 361.1 372.5 381.1 387.5 395.5 401.8 402.2 404.8 418.9 415.2 410.5 412.6 414.6 413.5 415.3 422.1 427.7 430.4 427.2 421.4 416.5 401.4 387.1 373.6 354.7 338.6 325 312.5 308.9 312.5 322.5 331.9 338.5 346.2 360.2 370.1 377.1 377.6 368.2 361.1 361.4 367.4 369.8 371.6 373.3 373.9 373.2 371.8 370.9 363.1 364.7 368.3 374.5 381.8 387 394.9 404.4 418.2 420.9 422.6 428.9 425.7 423.1 428.7 429.7 428.3 424.2 416.5 413.2 411.4 367.3 336.7 314 284.1 251.6 229.8 213.4 200.7 190.1 187.8 189.8 200.6 205.2 213.6 233.3 252.2 274.2 294.2 316.4 343.1 372.9 386.2 392.7 404.1 395.4 385 374.3 359.1 342.9 330.1 317.6 304.5 289.7 289.5 302.1 312.1 321.8 329.8 337.3 341.8 347.3 355.5 364.7 375.7 387.6 401.4 414 423.3 416.7 385.6 357.7 332.8 302.6 271.3 239.2 212.2 186.4 161.7 149.3 151.3 161.1 176.3 183.6 190.4 199 215.2 242.2 260.7 273.6 274.3 284.9 269.4 252.4 243.3 255 270.5 290 313.1 298 282.9 265.3 252.8 235.6 218.7 218.6 212.6 200.2 214.5 226.1 233 238.7 242.5 244.1 245.9 246.7 245.6 242.8 231.7 216.3 211.8 208.9 204.4
295.7 307.8 319.2 320.2 306 290.1 282.8 268 269 268.2 259.9 266.6 280.1 288.3 296.3 304 313.2 324.5 332.2 342.1 348 353.4 355.5 361.4 367.3 365.1 364.7 357.4 365.7 373.6 382 389.2 398.7 407.2 414.9 423.4 423.2 416.1 418.8 420.4 421.8 421.1 423.4 432.5 435.3 430 426.9 420.6 408.9 393.8 377.8 361.7 344.3 329.3 315.9 304.9 308.8 312.3 324.5 332.4 340.3 351.2 364.5 374.8 380.7 373.7 365.7 359.4 362 365.3 368.5 370.3 373.1 375.4 376.4 378.5 379.1 376 378.7 387.7 392.2 400.8 410.3 416.4 415.3 427.8 435.2 435.7 442.7 437.3 438.9 442.1 443 442 436.8 432.9 429.6 423.3 380.7 345.9 322.4 292.7 261.6 234.9 220 204.7 192.8 189.6 188.5 192.9 201.2 208.9 228.3 246.3 267.6 287.2 307.8 333.9 360.4 379.7 399.1 413.9 405.1 400.4 392.2 377 362 349 336.6 323.7 308.8 297.8 313.6 325.3 336.2 346.1 355.7 364.6 372.1 381.1 390.7 402.5 414.7 425.3 426.2 428.4 404.6 378.1 348.4 315.6 284.3 254.5 224.8 198.8 173.4 152.8 151 154.2 168 181.1 187.9 195 206.6 226.2 247.1 268.8 279.9 282.5 291.1 277.6 259.7 248.8 258.1 276.4 296.2 323.6 310.1 288.7 268.9 253.1 231.2 229.6 230.9 222.3 209.3 224.9 234.1 240.2 245.4 249.7 252.7 254 255.4 252.4 246.7 235.5 222.9 219.8 215.4 211
292.1 304 311.2 305.1 289.5 274.7 265.9 251.6 246.6 244.5 248.4 262.1 271.8 279.5 288.4 296.3 306.2 311.2 319.6 330.2 339.1 343.8 345.7 351.5 353.4 354.9 354.6 353.1 368.3 378.9 386.5 395.4 405.5 413.8 420.8 422.2 416.8 419 425.3 423.8 423.5 423.2 431.1 438.1 439.4 429.6 426.8 416.4 402.7 385.4 366.9 349.8 333.8 321.3 308.6 300.2 304.4 312.4 325.8 333 342.1 355.2 371.5 382.9 379.5 369.7 361.9 358.4 360 363.9 366.2 369.9 373.3 376.8 379.7 384.1 385.5 387 391.2 404.1 409.5 418.5 422.9 427.2 424.7 436.7 444.8 448.2 447.5 453.4 450.3 457.5 456.1 449.1 445.4 443.6 448.9 429.1 389.8 355.9 325.9 296.1 269.1 249.7 228.5 210.6 198.8 193 190.4 195.7 206.6 204.7 218.2 240.2 262.7 281.6 300.2 325.7 349.8 373.5 397.6 418.5 415.2 416.7 410.5 398.4 386.5 371.9 357.3 343.3 328.1 311.5 329.1 341 352.3 363.6 374.6 385.6 395.6 405.2 415.7 427.4 434.9 434.7 422.9 408.7 385.6 359.4 329.7 295.4 267.4 239.7 211.8 186.4 160.2 151.8 153.5 159.7 174.3 183.9 191 198.8 212.9 233.1 253.2 273.6 286.2 295.9 294.1 287.9 268.5 253.9 264.9 281.2 303.6 327.8 307.1 283.6 265.8 245.8 229.7 243.4 240.6 232.9 215.2 234.7 242.5 248.2 252.7 256.8 260.5 264 265.5 262 254.2 242.7 232.5 225.9 219 215.5
285.4 290 295.5 283.2 267 255.3 245.4 236.2 228.7 232.8 244.3 252.8 260 268.3 277.3 286.7 293.7 301.8 315 322.2 329.4 333.3 336.5 340.5 342.9 346 346.3 352.3 369.7 378.8 390.5 399.9 407.2 416.5 417.1 415.5 414.9 422.9 424.7 422.4 423.3 426.4 441.3 446.6 438.3 428.9 422 410 394.3 376.3 357.8 341.6 326.7 313.4 301.3 296.5 302 316.3 326.1 334.5 347 361.8 378.4 386.9 377 367.8 360.2 354.7 357.2 360.9 365.2 369.1 373.8 378.1 383.5 388 390.6 396 406.2 418 423.1 430.5 432 433.6 436.1 442.4 451.3 453.7 451.2 459.1 458.6 464.9 459.7 455.8 454.1 455.6 461.1 439.4 402.2 372.2 354.7 324.6 290.6 263.4 238.1 217.9 206.1 194.9 192.7 196.1 218.6 220 214 235.9 253.2 271.8 292.6 318.6 341.7 365.5 391.5 418 422.3 427.6 424.5 422.9 410.9 396.3 381.4 366.7 352.7 341.2 346.9 359.1 371 382.4 394.9 406.3 416.4 427.1 437.5 445.8 441.1 428.9 409.9 386.7 364.6 338.9 306.2 276.6 250.4 224.1 197.8 172.7 154.3 154.8 161.5 170.3 176.5 186.2 194.7 203.9 220 246.6 253.3 284.7 296.3 300.9 305.3 301.8 282.6 262.6 267.9 283.3 309.1 327.1 299.9 268.3 262.9 264.6 261.9 259.8 252.5 242.2 221 239.2 248.9 254.9 259.1 262.8 267.6 272 275.4 273.2 264.9 251.7 238.6 231.3 223.5 217.5
264.1 273.1 270.3 257.5 242.3 232.7 231.7 224.7 216.2 221.1 238.9 244.4 252.9 265 272.8 282.7 289.2 300.7 309 315.1 318.2 321.8 327 331.6 334.3 333.1 333.5 351.8 371.4 381.3 389.3 397.3 406.9 409.9 411.6 405.3 412.3 418.3 420.9 421.7 423.4 429 441.9 441.9 432 418.8 413.9 404.5 386.4 368.1 350.2 334.1 318.5 305.1 295.5 295.8 304.3 314.7 326 338.1 354.4 371.2 383.5 387.2 375.6 368.4 357.8 351.3 354.8 359.1 364.8 370 375.1 380.8 386.4 390.1 395.9 405.5 417.6 429.3 431.7 442.4 443.2 442.4 445.5 446.3 448.8 451.8 454.6 462.4 467.2 465.3 461.8 461.4 466.8 471.4 469.6 453.6 437.8 406.4 388.8 359 315.4 280.2 246.2 226 213.2 204 192 199.6 220.7 228.5 218.9 233.8 249 266 283.3 311.6 334.5 358.6 387.2 399.2 404.4 417.3 434.8 442.1 432.2 421.5 407.1 392.3 375.5 360.6 364.6 376.7 389.7 403 415.2 427 437 448.1 457.2 448.8 432.4 412.2 391.3 369.5 347.6 319.8 287 259.4 233.6 209.5 183.4 160 153.2 159.3 168.2 175.9 184.3 192 201 209.9 231.2 253.5 271 296.5 311.8 319.8 319.5 314.6 296 276.7 276 290.6 314.1 325.5 298.7 266.9 280.6 283.6 281.2 275.3 266.5 246.1 233.3 243.6 248.6 257.6 262.6 267.6 273.7 279.9 283.6 282.8 275.6 260.5 244.5 234.7 222.1 214.2
248.9 249.7 242 228.3 219.7 220.3 219.8 218.1 212.7 217.6 230.4 237 251 259.8 269.2 277.6 285.5 295.8 302.3 305.7 307.1 310.2 314.9 319.5 321.9 323.6 332 357.3 372.6 385.9 385.1 390.6 391.7 399.9 399.8 393.7 398.6 411.7 420.4 420.8 422.7 430.7 433.8 434.2 425 417.1 410.4 395.4 378.2 361 342.9 323.1 309.7 298.3 290.9 297.7 306.7 316.1 328.2 345.3 362.9 377.8 385.8 383.5 376.6 365.8 351.1 349 353.2 358.5 364.5 370.2 376.6 382.7 387 393.1 403.5 414.1 429.3 435.7 443.2 454.6 451.1 450.2 450.3 452.8 454.6 462.2 465 467.7 474 467.6 464.9 471.2 480.8 480.2 472.1 457.4 454.2 437.5 417 379.9 340.6 299.5 258.3 234.2 219.5 209.2 194.8 201.2 219 230.9 237.3 233.1 246.2 263.1 278.8 300.2 326 351.1 366 370.7 384.1 401.5 422.8 440.1 442.9 435.7 429.8 415 397.6 380.8 382 394.8 409.2 424.4 436.5 448.1 457.6 461.9 459 442.9 416.5 395.1 374.4 350.2 328.8 305.6 274.7 244.2 217.5 193.6 171.2 155.1 157.2 164.9 172.5 180.8 188.7 196.9 204.9 219.7 241.2 261.7 285.3 310.8 327.5 334.9 335.7 334 308.3 280.5 285.4 307.6 327 332.2 304.7 278.8 296.8 304 300.2 292.9 277.9 254 241.5 252.5 256.8 257.7 264.8 269.6 279.9 287.1 291.5 289.8 281.6 269.2 254.2 236.2 231.2 224.9
236 223.8 209.9 205.6 211.1 217.6 212.5 212 204.2 199.3 215.2 233.1 244.6 256.1 264 267.6 278.5 288.1 293.4 297 299.1 302.7 305.3 310 312.5 320.2 334.8 353.1 365.8 376.3 375.4 377 381.1 391 386.9 381.8 389.1 404.9 415.4 417.8 420.4 426.7 423.8 423.4 415.7 408.6 402.5 387.4 367.6 351.1 333.3 315.2 302.4 290.7 291.6 297.8 306.9 317.1 331.4 349.1 368.7 378.8 384.4 380.5 371.8 358.5 345.4 344.7 349.1 355.2 363.7 370.9 378.2 382.5 387 397.2 411.2 429.2 443.3 443.4 457.5 465.4 460.3 460.4 457.1 457.4 460.2 466.8 473.8 477.8 475 472.3 471.1 484 486.2 480 467 460.7 455.5 445.5 428.7 388.3 351 309.4 269 244 226 213.4 194.3 203.4 215.2 229.1 239.5 245.5 244.8 254.1 269.4 285.8 300.7 319.9 335.3 345.3 364.5 387.2 409.3 436.3 440 446.3 453.1 437.7 416.9 402.4 402 414 428.9 445 459.1 470 470 463.6 453.8 424.7 398.7 378.1 354.9 332.4 311.6 289.7 261.2 230.2 204 180.2 159.5 156.6 162.9 169.1 176.1 183.6 191.4 200.5 209.7 228.4 249.6 270.8 298.2 323.5 344.3 348.1 354.4 358 327.6 295.3 301.3 323.2 342.5 344.8 309.1 294.9 313.4 324 323.2 311.3 291.3 259.9 252 259.4 262.7 264.8 267.4 273.7 285.8 293.8 299.8 298.2 289.3 277.3 262.2 250.2 242.8 235.7
205.6 190.4 186.6 194.1 200.1 207.9 201.2 196.5 189.9 183 206.1 223.5 234.9 245.1 254.4 261 271.1 279.1 283.4 289.5 292.5 291.4 295.7 301.9 308 320.5 332.8 348.1 355.5 358.2 354.7 359.3 367.8 374 369.7 372 375.7 386.1 397.6 405.3 408.3 406.5 408.9 408.4 404.7 399.4 393.4 377.2 359.6 342 321.4 305.3 293 280.7 288.1 296.9 306.5 318 335.4 353.4 370 378.6 379.6 373.4 366.3 350.5 340.8 341.8 346.2 354.4 363.3 371.2 378.7 380.9 386.8 401.1 418.3 439.5 449.9 453.6 471 470.1 466.5 466.5 465.6 461.5 462.4 475.5 481.7 480.8 477.2 476.4 479.6 488.3 486.5 475.9 463.3 462.3 453.6 449.3 438.9 404.3 363.7 322.4 283.1 255.6 235.9 215.7 198 215.3 227.6 237.2 245.4 256.5 261.5 267.3 278.2 288.9 297.4 308 328.4 353.4 378.9 397.3 406.7 420.2 442.6 461.7 474.5 469.6 446.9 433 428.4 433.7 449.3 465.6 479.2 475.3 466.7 456.7 431 402 380.9 359.7 336.9 315.7 294.5 270 241.6 214.8 191.3 169.2 154.7 160.8 165.5 171.3 178.5 186.6 194.8 204 214.9 235.8 258.7 278.4 310.7 334.8 357.2 362.8 372.9 377.8 347.6 316.8 325 346.5 361.2 350.4 309.1 325.1 334.7 342.2 345.2 327.8 303.4 265.8 254.8 263.6 267.5 269.6 271.7 278.5 290.5 300.4 307.6 307.7 298.6 287.1 271.9 266.6 257.1 249.9
175.7 166.4 168.9 180 185.1 191.7 179.4 174.8 173.9 171.5 192.4 213.6 222.9 233.9 242.8 251.7 262.4 272 278.9 282 283.6 283.8 288.9 294.1 305.7 316.4 327.6 339 339.1 338.4 334.6 337.5 349.3 354.6 358 359.8 363 368.9 374.4 380.1 384.4 388.5 395.4 393.5 389.9 385.1 385 367.6 349.6 330.1 308.1 294.3 284.9 277.7 285.6 295 305.7 316.2 335.8 356.9 369.7 374.4 371.2 366.4 358.6 341.8 336.7 338.3 342.7 352.3 361.7 369.6 375.5 379.2 390.6 407 424 446.3 454.6 464.3 475.7 473.8 471.1 472 468 464.4 471.1 481.1 483.5 479.2 478.9 479 487.8 489.2 484.1 467.3 463.5 458.7 449.7 447.2 445.6 426.7 390.3 342.2 303.4 272.7 249.8 221 201.9 228.7 242.2 254.8 265.4 274.2 279.9 285.7 294.9 305.1 320.2 334.2 353.7 374.4 394.8 415.4 431.4 445.1 454.3 471.6 487.6 491.3 486.6 468.1 465.9 473.3 478.2 484.6 479.9 469.4 457.3 436.2 407.5 382 361.7 342.1 321.1 299.1 276.4 250.1 222.8 199.7 178.1 158.8 159.5 165.9 169.5 174.5 181.3 190.1 198.2 206.9 220.5 243.5 266.3 290.6 322 347 367.5 378.3 388.4 393.5 374.6 335 352 369.8 385.3 353.6 337.8 348.8 353.1 358.3 357.1 333.3 307.8 283.2 262.5 262.1 266.6 274 276.6 284.8 297.7 307.6 316 316.5 309.5 297.1 286.3 281.5 273.3 264.6
150.4 147.6 157.3 156.7 164 167.9 155.7 152.5 153.2 162 177.2 194.3 211.2 224.8 230.9 245.4 256.1 265.4 273.9 275.6 276.7 275.3 277.2 292.6 300.8 311.1 320.6 324.7 322.3 316.9 315.7 321.6 327.9 338.7 338.7 344.6 351.7 356.5 360.5 363.4 368.2 375.1 380.2 378.2 378.5 382.9 376.7 356.8 337.2 316.3 296.1 284.8 275.2 277.8 284 294.8 303.5 318.7 336.9 355.1 364.3 365 363.5 358.8 347.8 334.9 333.4 337.4 341.7 351.6 360.8 367.8 373.3 380.5 394.6 411.3 430.4 448.3 458.3 473.5 476.6 473.9 476.2 476.1 473.2 469 477.5 482.2 480.5 479.4 478.5 479.3 486.7 485.5 476.5 461.1 460.8 453.9 447.1 447.5 448.3 440.3 421.9 372.5 329.3 291.2 259.9 232.3 218.8 244.3 260.7 274.5 284.9 293 299.6 304.6 313.1 324.2 336.6 352.9 377.9 396.8 416.1 437.1 453.8 466.1 472.8 481.6 497.7 510.9 513.1 508.7 499.9 497.9 489.1 481 469.2 450.1 424.8 403.2 382.4 362.4 342.1 324.3 304.2 281.9 258.4 232.3 207 184.7 164.4 157.5 160.4 167.7 171 175.9 183.8 192.6 201.4 211.2 228.5 251.4 275 304.9 334.8 360.5 380.5 391.5 401.1 400.9 381.9 369.4 377.9 389.5 406.9 367.1 362 368 371 374.4 367.6 339 311.5 290.3 273.8 274 274.1 276.7 283.1 291.6 305.6 316.7 325.1 326.6 321.1 311.2 303.8 298.3 290 280.7
130 132.1 130.5 130.6 129.6 132.8 130.4 137 140.2 156.7 166.3 180.7 198.6 216.4 224 238.3 249.6 262.7 270.9 268.2 264.2 258.5 270.2 286.5 296.4 301.6 302 300.5 298.4 294.7 291.2 300.2 309.5 316.8 326.2 330.1 338.9 347 348.3 352.4 355 362 364.2 363.1 369.4 375.5 363.7 343.9 323.4 303.1 285.7 276 269.3 277.2 283.2 293.3 301.3 317.9 337.3 350.2 355.7 355.9 352.7 345.5 336.2 332.3 329.9 335.5 341.1 350.7 359.5 366.5 372.7 382 397.5 414 433.2 446.8 459.6 467.9 470.1 477 477.2 475.6 471.7 470.7 477.3 479.9 478 476.9 475.6 476.9 478.1 476.1 464.8 456.4 456.3 446.9 446 446.3 448.8 443.8 421.6 388.4 358.2 310 273.4 242.4 234.4 257.2 279.7 295.9 306.1 315.3 322.1 327.1 334.1 344.5 356.8 374.3 400.1 419.7 442.4 462.4 477.8 488.2 493.3 501.3 508 519.2 519.4 508.6 499.1 492.5 480.9 470 456 420.6 396.4 378 360 341.2 321.6 304.6 285.8 264.8 241 216.2 191.5 169.3 159.7 158.4 159.3 163.3 170.6 176.5 185.3 195.2 204.9 217.4 237 261.6 285.2 316 347.5 375.9 394.8 403.9 411.2 409.1 395.3 392.7 398.7 410.3 417.1 380.4 382.2 388.5 389.7 389.2 380.4 347.3 318.5 294.8 284 285.7 283.9 278.8 291.5 302.3 313.5 325.5 335.1 338.1 334.3 327.1 320.9 316.4 308.2 299.3
118.6 123.8 127 128.5 132.2 133.7 127.3 131.1 139.7 152.3 160.1 174.7 191.8 206.8 215.6 231.1 245 260.7 263.5 252 243.2 240.1 258.8 275 281.2 281.8 278.3 277.8 275.4 276 275.1 281.4 290.5 291 304.5 319.8 329.9 332.3 333.5 340.9 341.6 342.5 340.9 344.4 353 356.4 346.3 329.2 309.4 291.4 276 265.7 269.2 275.8 282.2 287.6 302.9 317.8 333.1 344.5 346.5 343.8 339.6 335.9 330.8 328.2 329.2 335.1 340.6 349.7 358.3 363.5 371.7 383.9 399.9 415.9 432.1 445.1 457.9 464.5 469 472.2 469.3 470.1 469.1 469.6 478.7 477.6 476.6 473.6 472.8 469.8 470.1 465 455.7 453.1 447.7 444.5 446 445.4 444 443.3 432.6 426.1 390.2 340.8 291.3 251.8 260.7 283.9 302 318.9 332.2 342.2 348.5 355.7 361.5 371.1 381.4 398.7 427 448 466.4 482.4 496.3 502.7 507.1 517.5 516.9 523.5 520.3 508.7 497.9 483.7 469 458.7 432.1 396.9 362.1 350.5 335.5 318.5 300.6 285.1 268 247.9 225.4 201.7 177.4 160.7 158.3 164.4 168 161.3 169.4 176.9 186.3 196.7 208 223 243.6 268.1 292.7 329.6 361.2 391 409.4 415.3 420.4 416.9 410.7 411 414.6 420.2 417.4 396.4 399.6 408.1 407.8 404.4 396.4 358.1 329.7 309.7 295.1 298.4 294.4 285.4 301.9 313 323.4 334.7 346.1 351.1 349.5 344.1 338.7 335.2 327.2 318.9
125.4 138.9 143.2 143.3 150.6 147.3 140.7 130 139.5 149.7 158.3 170.5 181.6 191.4 204.6 224.8 239.7 255.1 247.3 231.6 219.1 227.5 244.1 257.8 258.1 259.4 257 255.6 252.5 255 254 265.6 267.3 269.6 289.3 295.8 305.6 311.2 313.4 318.5 322.4 320.8 317.8 323.9 337.1 340.3 328.3 313.1 297.3 281.5 268.8 265.4 271 275.2 279.8 286.4 301.9 314 326.7 334.5 336.6 331.6 328.2 326.2 325.2 322 329.2 333.3 339.4 347.2 353.9 360.8 369.8 384.4 401.5 416.7 430.3 443 451.8 455.7 463.6 463.4 465.8 466.1 465.1 475.5 480.1 476.8 475.6 472.4 471.1 468.7 470.3 457.5 449.4 445.7 443.2 443.5 445.3 443.8 438.4 435 431.5 431.4 418.6 370.9 308.1 268.7 294.3 325.8 339 350.3 366.8 382.5 384.4 393.8 402.4 398.6 408.4 426.6 456.4 472.8 486.6 495.4 504.8 509.2 516 522.9 523.8 525.3 522.8 510.8 505.9 492.9 479.7 466.7 436.3 401.1 367 339.4 317.1 294 268.2 257.6 251.4 235.5 216.1 190.4 164.9 160.4 163.7 173.3 167.4 163.3 168.3 174.7 185.2 197.8 210.7 227 247.8 272.5 299.8 339.8 373.8 406.6 420.9 425.4 428.3 427.1 423.9 424.8 426.5 426 425 416.6 420.4 427.8 425.9 419 408.8 369.8 342.9 323.6 307.6 303.3 301.8 298.7 307 322.2 334.7 346.9 357 365.7 366.9 363.2 358.1 355 348.8 339.3
140 152.1 156.7 157.8 168.9 169.6 159.4 139.1 135.2 145 157 169 177.4 181.5 194.3 216.7 230.2 239.3 226.7 210.6 195.8 217.5 225.8 230.6 232 234.9 234.3 232.8 235.3 235 238.5 240.1 243.8 242.3 258.8 275.6 287.2 292.1 293.1 297.2 303.1 301.7 293.7 300.6 314.6 320.2 313.5 299.5 284.2 272.1 263.3 266 271.4 272.2 277.5 285.3 298.6 307.2 317 322.7 321.7 320.5 317.4 320.7 319.2 322.8 327.4 331.8 338.1 345.1 351.2 358.4 369.3 384.7 403.5 414.8 429.7 443.3 444.9 449.7 456.6 455.1 458.2 457.7 464.9 480 475 474 472.7 471.7 470.8 472.6 472.2 462.7 450.2 444.4 442 442.2 444.1 438.7 435.4 429.7 430.3 430 422.8 378.1 324.1 322.3 325.4 368.5 380.8 394.2 409.2 434.1 426.6 436.4 442 440.1 442.6 457.8 480 488.2 493.9 501.7 506 513.7 519 524.1 526.8 528.4 523.5 514.1 513.1 501.8 489.8 479.9 446.8 411.1 377.7 349.5 322.6 300.2 281.9 259.2 236.8 229.3 210.6 183.9 162.5 163.5 172.6 178.5 181.7 167 168.5 172.6 185.3 198.9 212.7 230.6 252 275.6 304.9 348.1 387 418 429.6 432.6 433.7 432.4 431.2 432.7 434.5 434.9 435 430.9 436.6 442.2 439.6 431.6 422 381 355.8 337.2 322.2 318.4 313.3 309.4 319.1 330.5 346.8 359.7 369.5 380.7 385.1 384.5 379.3 375 370.6 360.8
154.2 166.9 168.5 174.8 193 195.7 179.5 165.9 149.7 137.5 154.9 165 173.2 178.2 194.9 210.2 215.4 216.6 204.2 191.3 189.2 202.4 207.2 211.3 211.7 205.6 211.1 217.4 215.8 213.7 219.1 218.5 218.4 224.7 238.5 251.4 258.6 262.2 265.2 273 278.8 278.2 267.8 277.2 289.9 307.5 298.3 284.3 271.5 261 253.7 261.8 268.5 266.7 271.8 283 290.9 301.9 310.8 311.4 310 308.9 309.1 313.8 311 319.9 325 330.4 336 342.2 349.5 359.9 372.6 388.1 405.8 415.2 428 437.4 437.5 445.5 450.4 452.6 453.3 454.3 465.4 478 473.9 472.2 472.2 471.8 471.9 477.4 475.5 465.4 457 448.2 441.7 439.2 439 430.5 427.6 426.5 426.3 425.8 421.6 403.8 360.5 357 380.3 404.7 422.6 433.7 450.8 470.7 476.9 481 484.7 480.1 480.6 485.6 494.6 498.2 497.1 501.4 504.3 513.9 518.3 523.3 522.3 528.3 521.6 514.6 516.1 504.8 495.5 489.4 459.3 419.3 385.1 356.2 328 303.4 282.5 259.3 237.6 214.8 199.1 177 163.4 169.9 177.6 182.6 186.6 170.2 168 175.1 186 199.5 214.2 232.7 255.3 279.9 306.4 349.1 393.4 427.4 436.6 438.8 437.4 436.2 435.9 438.1 441 442.2 443.4 443.9 450.1 456.7 453.5 445.9 436.8 396.5 370.6 350.9 336.6 332.9 332.2 322 330.5 343.2 357.2 370.7 383.4 396.4 405.6 406.6 401.8 395.7 390.5 382.8
163.2 183.9 183.7 201.9 216.1 210.5 195.1 184.9 168.9 152.1 141 155.3 166.6 172.9 189.4 201.3 195.2 193.5 186.8 180.4 181.5 184.1 183.1 187.6 189.7 192.6 197 201.5 197.8 200.8 201.8 205 208.4 213.9 221.9 231.4 237 239.5 240.3 246.7 255 252.4 250.6 259.5 264.3 275 279.7 268.7 258.3 252.7 246.2 257 260.7 261.6 268 277 287.1 295.6 301.9 299.8 299.7 298.3 300.7 303.2 308.1 314.6 321.2 327.2 333.7 341.2 350.9 364.3 378.1 392 405.2 415 427.2 431.2 433.7 439.3 443.9 446.2 447.6 453.2 470.8 472.5 469.5 470.8 471.9 472.1 472.8 481.5 480.5 467.5 463.3 450.6 444 443.9 441.4 434 427.4 425.9 422.5 421.9 417.1 403.1 387.1 381.2 414.9 425.6 439.5 449.7 465.1 476.8 480.4 487.8 492.7 493.3 492.9 494.2 497.5 499.1 498.3 497.7 503.3 510.3 513.1 516.4 520.5 524.2 517.8 511.7 515.1 505 498.6 492.3 470.5 430.6 392.5 361.8 333.3 307.3 282.7 258 234.1 207.4 181.3 168.9 164.4 172.9 180.7 186.1 189.7 172.2 169 174.9 185.1 198.6 213.7 232.8 256.3 280.8 307.1 343.5 387.1 432.5 442.7 443.3 441.1 440.4 440.4 442.9 446.2 449.5 451.6 454.9 461.4 469.3 466.6 459.7 451.4 411.4 384.8 363.5 348.3 344.3 340.3 334.1 345.7 357 370.8 382.4 399 414.1 426.1 430.6 426.6 419.6 412.9 406.4
174.8 194.6 203.1 217.7 232.6 223.9 209.7 201.1 188.7 175.3 164.2 156.7 148.4 159.4 168.9 176.9 178.5 177.5 176.3 169.8 176.2 186.7 191.8 196.2 199.8 199.4 197.2 197.1 197.2 196.9 198.3 200.4 201.5 203.3 206.7 213.1 215.9 217.8 221.4 228.7 231.3 232.7 235.3 240 247.9 258.2 260.8 255.6 250.1 245.8 242.9 246.1 251 257.7 266.9 273.9 282.1 289.2 291.1 288.8 290.1 290.8 295.6 303.9 308.3 313.4 318.1 323.8 329.9 338.2 351.1 364.8 380.5 392.2 401.4 411.2 422.3 424.9 430.3 436 440.3 440.7 442.1 457.2 469 467.9 468 471.2 472.7 473.2 477.8 490 484.2 472.7 464.4 453.4 448.8 451 447.8 434.4 428.5 428 426.6 421.9 418.3 412.8 407.3 402.9 413.5 424.1 439.4 452.3 465.5 475.3 478.5 489.8 492.9 497 495.4 498.2 500.6 497.5 494.4 493.3 498.5 505 506.4 510.5 520.1 518.9 511 503.9 510.1 503.6 496.5 489.7 476.8 446.2 402.3 367 336.1 307.9 281.5 255.9 232.4 209.5 187.3 166.3 165.5 172.2 185.6 189.6 192.7 189.7 176.4 171.2 183.1 196.1 211.4 231.9 256 279.8 305 337 380.5 426.1 445.9 445.7 443.9 444.3 445.1 447.7 451.1 455 458.8 462.6 469.6 476.3 479.4 474.1 466.4 435.3 408.6 385.9 364.3 351.8 348.4 346.3 360.8 379.1 385.8 400.8 411.9 430.1 446.8 453.9 452 445.3 438.1 429.9
186 206.2 221.6 236.8 239.9 234.3 223 217.4 206.3 203.7 190.4 175.1 165.1 156.5 152.4 157.7 161.5 166.6 161.7 173.8 187.5 197.3 204.3 209 217.3 215.7 211 203.9 205.1 202.5 201.9 202 203.9 209.4 211.1 212.5 209.1 211.7 214.2 217.8 219.8 224 227.1 230.4 238.4 246.7 245.3 244.2 240.8 240.9 243.9 246.4 247.5 252.5 258.2 270.4 276.1 278.3 281.2 282.2 285.1 290 297 302.9 308.9 313 313.4 323.8 326.9 334.6 347.3 361.2 376.4 388.1 397.3 406.4 415.1 421.5 427.2 430.7 432.3 430.1 437.8 461.1 466.2 465.5 466.8 470.2 475.2 476 484.1 493.4 487.7 477.1 467.3 458.2 454.1 459.4 451.7 436.2 431.1 430.3 427.8 423.6 422.3 414.7 407 408.2 411.6 421.8 436 449.5 459.7 468.3 475.7 487.7 493.4 496 495.7 498.2 498 492.1 486.6 486.4 490.1 497.5 498.5 503.5 511.1 508.4 499 491.9 502.5 497.2 490.5 483.7 472.1 454.4 409.5 367.2 334.6 305.6 278.4 253.7 231.6 209.4 187.2 167.6 166.5 175.4 188.2 192.4 196 200.7 190.5 177.4 180.3 192.1 208.2 228.2 251.8 275.3 298.6 328.5 372.3 417.1 445.5 444.6 444.1 446 448.6 452 456.2 460.2 464.5 469.7 476.5 484.6 486.4 484.9 481.8 457.8 427.5 402.7 376.2 362.5 360.6 363.2 377.9 394.7 406.3 416.9 431.2 447.5 465.8 478 478.4 472 464.6 452.1
196.6 214.4 233.6 243.7 245.8 244.5 239 229.9 220.2 220.8 211.9 195.2 181.5 170.2 158.7 154.2 156.9 159.3 168.5 180 192.6 205.3 214.6 224.8 235 239.9 233.9 228.2 227.5 226 224.1 215.8 214.4 221.9 220.2 223.9 227.2 222.9 221 223.3 221 221.8 220.3 224.2 230.2 230.2 235.9 237.3 239.6 244.8 249.4 251.1 249.7 257.5 265.9 277.9 283.5 287.7 287 287.5 285.4 288 294.9 298.7 305.7 313.1 321.5 330.2 332.5 336.6 346.3 358 373.4 382.6 393.2 401.7 409.7 414.7 418.5 421.3 421.8 424.6 434.7 455.5 457.6 458.5 462.7 469.9 476.4 481.3 492.9 501.4 491.1 481.2 467.9 460.9 460.7 462.2 451.9 437.2 432.7 431.6 428.5 425.1 423.5 418.6 413.6 407.9 408.7 418.8 430.6 441.9 451.2 459.4 468.4 477.4 482.8 487.6 491.4 493 491.7 486.2 478.4 477.6 482 486.7 488.1 495.3 500.4 495.7 485.8 480.5 489.8 485.9 479.7 475.3 464.4 453.8 409.3 364.8 331.9 302.2 274.2 249.8 226.6 204.9 183.6 167.6 167.3 180.8 191.4 196.4 202 207.5 206.8 196 182.2 184.7 204 223 245.9 268.9 291.6 317.5 350.6 391.6 434 441.7 443.9 448.1 452.2 455.8 460.3 466.1 470.9 476.2 481.6 489.6 495.2 491.8 494.8 483 452.8 422.1 396.8 385.1 383.9 389.2 399.3 411.2 427.6 437.5 450.4 463.4 481.7 501.1 502.4 498.8 492 480.2
206.1 224.4 239.8 248.6 250 251.4 249.3 241 232.2 233.8 228.9 214 195.7 178.6 168 157.5 158.7 162.3 172 182.7 196.9 213.6 226.3 237.2 248.4 256 256.8 253.2 248.9 245.8 243.1 237.3 237.5 241.2 241.7 242.4 240.3 243.2 241 237.1 238.8 238.4 232.8 236.2 242.2 240.2 244.9 242.1 246.9 256.1 255.3 257.7 259 263.9 274.3 283.6 289.3 291 292.2 294.7 293.1 290.9 293.9 297.2 306.9 314.6 322.9 328.7 331.9 341 352.3 364.2 376.2 385.5 395.3 400 403.6 408 410 412.8 414.6 417.9 430.6 448.8 447.1 453.5 460.4 472.3 479.2 488.5 496.3 503.4 489.6 478.7 468.5 463.9 467 461.3 448.6 439.4 432.6 430 427.9 426.5 427.8 422.6 412.8 407.6 408.4 415.5 424 433.7 442.5 450.4 457.6 465.4 471.8 477.6 482.7 485.6 485.6 481.5 472.2 467.8 471.7 476.3 476.2 485.7 490.4 483.1 470 469 475.7 472.2 467.2 464.1 454.6 447.6 401.2 358.5 326.2 296.7 268.7 244.5 221.3 198.8 177.9 170.2 166.8 185.3 196.2 202.5 207.9 212.4 215 209.1 198.6 181.9 195 214.2 236.1 259.1 283.2 308.7 341.9 379 422.5 438.6 442.8 448.7 453.6 459 464.1 470.1 476.2 481.1 485.5 492.5 499.3 499.5 503.5 504.7 480.6 450.7 428.8 418 414.6 418 426.8 436.2 448.3 458.4 470.4 482.9 495.2 513.9 520.3 515.2 507.9 501.4
214.7 234.1 246.3 255.4 255.5 258.2 256.8 251.5 245.8 247.2 241.2 228.1 205.7 184.9 173.5 161.2 160.9 167.4 177.3 185.2 200.2 221.6 236 247.6 258.8 267.4 272.8 273.5 271.3 269.9 268.1 262.1 259 259.2 258.7 260.2 260.4 258.2 258.2 260.1 271 273.9 261.3 264.3 264.7 262.7 261.3 254.3 258.9 264.5 265.2 266.3 266.2 271.5 279.3 287.6 293.9 294.2 297.6 298.1 299 298.3 298.8 299.5 305.9 314.8 323.6 325.1 332.1 341.8 354.1 366.3 377.8 388 401.9 403.3 403.5 405.8 406.9 409.6 412.8 416.3 427.6 437.7 438.9 448.1 458.7 473.3 484.5 493.1 504.1 499.7 485.1 476.4 470 467.9 468.3 454 445.1 436 431.8 430.1 428 425.7 423.9 417.6 416.3 411.5 407.1 410.5 417.4 425.3 433.1 439.8 446 453.5 461.5 468.8 474.7 478.6 479.6 476.8 467.5 459.8 463.1 466.6 467.1 477.4 480.3 470.8 459.7 459 462.4 458.3 455.2 451.7 445.1 437.6 390.9 349.2 317.2 288.7 262.3 237.5 214.9 192.9 174.7 169.4 176.7 192.4 201.5 208.1 214.2 219.7 226.1 222.3 212.7 209.3 206.8 203.6 225.9 247.6 273.9 300.4 331.2 363.9 408.6 434.5 441.7 449.2 455 460.7 466.5 472.5 479.1 484.9 489.3 493.5 502.2 505.3 509.3 515.3 507.5 484.1 470.5 457.3 449.7 450.6 458.5 467.8 472.8 477.1 485.7 497.9 506 516.1 521.4 519.8 513.9 512.2
223.2 240.5 252.5 259.4 265.9 267.3 267.6 263.9 260.3 262 254.7 238.6 217.1 193 178.8 166.9 164.2 172.1 182.9 187.2 201.7 226.4 242.4 256.7 271.8 284.8 290 292.8 295.4 299.1 300.7 296.7 285.3 280.4 277.8 277.8 279.1 279.2 283.1 287 298.5 300.3 296.4 293.8 288.1 287.5 278.4 272.4 272.3 272.7 273.8 274.6 274.5 280.6 287.8 293.2 301.2 299.7 302.9 303.7 304.2 304.8 304.7 305.1 304.6 312.2 318.3 321.4 329.3 339.1 350.8 363.2 375.1 385.9 395.7 396.4 398.2 400.9 403.9 408.9 414.3 419.3 425.2 431.4 437.2 444.5 463.6 479 486.5 490.8 497 490.5 480.1 471.2 465.6 467 457.8 446.4 441.6 435.5 434 432.9 431.8 430 425.9 420.4 416.1 413 409.2 409.2 412.6 417.3 422.9 428.4 433.8 443.3 453 463.1 469.2 473.5 474.4 471.7 463 454.2 458.2 458.5 461.5 470.8 473.9 464.4 456 449.4 450.4 447.3 443.7 437.8 436.2 423.6 377.7 338.2 307.3 280.4 254.7 230.6 208.7 187.8 175.2 168.9 185.6 199.7 206.7 213.5 221.4 229.1 238.9 242.8 235.6 235.3 229.3 217.4 220.5 237.7 265.8 294 325.1 362.3 405.4 433.7 441.8 449.3 455.7 461.4 466.3 472.3 478.8 484.5 489.3 493.9 502.1 508 510.7 518.3 517.4 507.2 500.2 491.1 486.7 481.4 484.3 494.5 498.9 498.3 499.3 501.2 506.9 513.3 516.8 516.3 515.1 516.2
239.8 249.5 258.9 266.8 275.3 276.2 277.9 276.6 273.8 273.2 268.8 251.5 225.2 197.8 182.5 173.8 163.7 173.6 185.2 191.9 203.7 226.8 245.6 265.3 284.7 300 310 312 313.8 321.2 326.5 327.2 315.3 308.6 305.6 308.3 312.8 318 316.2 323.2 326.5 322.3 318.8 314.8 309.8 304 287.5 288.1 281.7 281.1 283.6 282.9 283.8 290.2 299.3 304.3 303.8 304.2 306 308 309.1 310.2 310.7 311.4 311.7 310.8 313.5 318 327 336.5 347.7 359.8 371.9 382.5 389.8 389.9 392.2 395.7 400.2 407.6 417 423.5 428.9 434 441.3 448 469 479.4 485.1 487.9 489.9 483.9 476.4 467.2 463.8 461.9 453.5 443.2 441 439.2 437.7 436.9 436.2 436.1 431.8 425.4 418.1 414.2 411.1 409 410.8 413.8 416.7 421.4 426.8 435.6 446.4 457.6 464.1 469.1 471 467.8 458.2 448.6 451.8 452 456.3 466.6 469.5 460.3 456.1 447.4 437.3 436.6 431.7 427.1 427.3 405.6 361.9 326.9 297.3 270.3 244.4 221 202.2 189.3 171.4 170.3 192.2 204 211.4 219.9 230.6 241.8 248.2 255.2 262.1 261.4 254.5 247.2 242.9 234.2 268.3 291.8 324.2 364.9 404.8 433.2 439.6 446.3 453.1 457 460.6 467.2 473.2 478.8 484 491 498.3 503.8 507.5 514.5 509.2 502.2 496.6 495.1 495.6 496.4 499.3 505.7 505.3 502.1 498.6 500.1 504.1 507.2 508.9 509.6 513 515.6
246.9 255.5 265.1 273.5 279.1 285.1 288.8 289.5 289.4 284.1 281.7 265.9 234.1 207.5 185 175.4 165 174.3 184.7 193.2 205.3 224.3 245 268.1 290.1 306.2 319.3 323.5 323.4 331.5 341.6 345.5 343.8 341.3 340.4 340.7 346 349.1 350.5 348.6 345.9 342.4 333.4 326.4 319.9 307.2 299.1 296.6 289.8 290.2 291.5 291.9 292.5 298.8 305.2 307.9 308.6 308.5 310.1 312.3 314 315.7 316.9 318.7 319.8 320.4 321.5 324.1 327.2 334.4 345.9 357.6 368.8 375.8 381 382.7 386.1 390.1 396.5 407.5 418.8 427.1 434.4 440.7 442.8 450.4 472.2 477.6 480.6 483.1 480.9 477.4 472.7 465.4 464.8 465.1 452.2 449 445 442.9 441.8 440.9 440.9 442.1 437.1 429.8 422.5 418.1 413.4 408.6 411.1 413 416.5 420.2 426.1 433.5 444.1 454.1 460.9 466.1 468.6 463.1 453.1 443.9 444.8 443.1 451.7 463.2 465.2 460.6 457 448.4 441 433.6 423.4 412.9 414.5 382.4 345.9 313.7 285.9 257 224.1 192.4 184.9 177.5 172.7 176.5 195.3 207.1 215.9 226.2 239.5 251.7 262.6 271.1 278 284.2 283.3 277.2 267.1 246 254.6 288.5 323 360.6 397 430.7 434.5 439.5 442.9 446.4 451 455.5 462.7 469.3 477 484.7 491.7 495.8 500.8 500.5 496.7 491.9 490.5 491.7 494.6 497.2 502.2 502.9 498 492.7 491.1 494 497 498.3 499.5 502.5 506.8 510.4
251 261.9 272.7 275.6 285.2 293.2 297 297.9 298.1 295 292.9 277 245.3 214.1 189.2 177.7 165.5 173.6 181.4 188.6 201.2 218.1 239.3 261.4 285.7 299.9 309.4 316.4 325 334.9 346.7 353.7 355.2 355.4 356.1 355.4 358.9 361.5 360.1 358.1 352.3 343.8 336.7 327.7 317.6 309.5 306.3 302.2 297.8 298.2 299.9 299.6 300.1 303.8 308.9 310.6 311.5 312.3 314.4 316.5 319.3 321.7 323.3 325.4 327.3 330 331.5 333.8 335.9 338.3 346.9 357.5 366.7 371.2 372.8 376.6 380.8 385.9 396.2 407.6 419.3 427.3 435.1 441.6 444.6 454.7 472.2 473.7 472.5 478.7 476.5 475.2 467.6 466.6 468.1 462.9 456.6 456.8 448.8 445.9 445.6 444.5 445.3 446 441.3 434.1 427.7 423.6 419.2 411 411.2 412.6 415.7 419.4 425.6 433.4 442.4 450.2 456.7 462.4 463.8 457.2 447.7 439.5 439.8 439.8 448.5 459.1 462.6 461.3 458 450.4 449.6 443 431.4 401.1 378 349.9 323.8 299.2 271.4 240.9 206.3 203.1 200.2 183.2 174.6 185.5 199.8 209.9 219 234.2 250.3 262.5 274.6 286.3 294 306.5 312.8 307.7 291.2 271.6 255.2 288.5 325.5 363.8 395.5 424.7 422.4 420.6 424.3 430.6 438 445.3 453.5 461.1 469 476.4 481.7 485.9 486.8 484.7 481.2 478.7 481.3 483.8 488.2 492.4 495.7 492.8 487.9 483.2 483.2 485.6 485.3 486.4 488.5 492.8 498.2 503.4
254 265.9 276.4 279.3 288.6 297 300.3 304.4 305.9 303.8 301.4 289.6 258.1 225.5 196.8 185.3 174.3 172.4 180.6 185.4 193.5 208.6 226.9 243.5 257 269.8 284.6 294.8 312.8 328 342.8 350.4 354.9 359.3 363 361.6 362.1 363.7 362.4 358.2 351.1 343.4 334.1 323.5 311.7 307.6 303.8 300.2 300 300.9 301 301.8 302.2 304.9 308.3 310.2 311.9 313.7 316.8 320.5 323.2 326.3 329.6 332.4 334.8 337.8 340.8 343.3 345.1 347.3 349.2 357.2 364.5 369.4 371.6 373.2 377.2 382.2 391.2 403.8 418.5 426.2 433.6 439.8 444.6 455.6 466.5 467.8 470.2 476.5 475.7 472.3 467.9 467.3 472.6 462 461.2 464.5 455.9 452 449.4 447.7 447.8 447 443.1 437.5 432.9 428.6 425.7 417.9 411.4 412.9 414.8 418.3 423.6 430.7 436.6 443.1 448.6 453.5 454.3 448.7 441.6 435.3 436.5 438.1 445.8 455.6 461.8 461.6 460.3 455.5 455.8 449.9 434.9 411.8 379.8 352.9 321.8 292.1 268.4 238.9 209.6 213.3 194.6 186.4 176.1 189.8 201.5 210.2 220.8 242.7 258.9 273.9 289.2 300.5 312.8 323.2 334.6 339 317.3 296.3 272.5 287.5 327.6 364.9 395.5 411.4 396.7 378.2 406.9 416.8 424.3 433.8 443.7 453 460.7 465.6 467.9 470.8 471.7 467.5 462.9 461.3 467.6 473.4 478.2 482.4 482.1 477.3 471.4 472.1 473.6 474.1 476.5 479 481.1 486.6 492.5 496.3
258.3 269.4 278.2 283.7 295.9 304.5 307.9 308.5 311.6 307.2 308.1 299.1 271.2 238.6 207.4 192.9 183.8 171.2 179.4 183.8 189.5 200.1 213.8 225.7 235.3 246 259.3 275.3 296.3 312.5 326.8 338.4 346.6 353.4 358.3 357.9 361.8 360.2 356.8 351 343.8 334.8 325.5 314.3 303.9 300.4 297.6 296.5 300.9 302.6 303.8 304.2 303.4 302.9 306 306.2 309.5 314.1 318.6 322.9 326.8 331 334.5 338.8 341.7 345.8 350.3 354.5 356.4 356.5 356.8 357.9 361.9 366.7 368.3 370.8 374.2 377.9 386.6 399.1 413.8 424.8 432 437.5 443.5 458.2 465.3 465.2 471.2 478 476.3 472.2 469.3 475.8 479.3 467.4 464.2 468.9 467.1 459.7 453.1 450.9 450.5 449 444.9 440.9 437.5 434.2 431 423.2 411.3 413.1 414.5 415.5 419 424.2 429.8 434.5 438.6 442.9 442.1 438.3 433.9 431.9 434.9 438 448.9 461.3 464.8 463.4 463.6 459.8 460.4 451.8 431.4 419.8 404.4 366.8 336 306.8 282.9 262.1 240.9 220.8 203.4 198.1 176.5 189.3 203.4 215.4 226.2 247.8 267.9 286.4 303.8 316.8 329.8 342.1 355.4 359.8 342.7 324.8 307.5 292 321.1 356.1 385 377.9 355.7 381 408.9 393.2 414.5 421.6 430.4 439.6 449.9 450.9 452.4 454.7 454 450.2 440.5 450.4 453.8 454.9 461.1 463.4 466.4 468.6 473.5 475.2 478.8 480.2 481 482.6 485.5 486.9 489.4 493.3
270 275.4 279 281.7 293.1 301.3 307.4 310 310 308.6 312.6 307.7 282.6 251.9 222.7 197.9 191.4 182.1 175.8 180.4 186.6 192.9 204.6 212.2 220.1 233.4 246.2 259.2 277.5 293.6 307.8 321.5 333.7 337.6 345.4 346.1 349.1 349.8 345 338.8 330.8 323.2 314.4 303.7 294.8 292.3 290.9 291.5 294.4 296.3 297 296.9 300.5 301.3 301.7 303 307.8 313.8 319.8 324.7 329.6 334.2 339.4 344 348.9 353.6 359.4 365.5 369.6 371.3 371.2 370 369.9 368.1 371.1 371.9 372.8 376.2 385.1 398.9 411.8 424 429.7 434.9 440.2 453.9 459.2 464.9 474.9 478.4 477.5 473.4 474.8 490.1 485.2 472.3 468.8 472.3 472.9 466.7 456 454.4 453.9 451.7 445.8 441.6 437.6 435.3 431.1 419.9 412 415.5 417.8 418.4 417.1 418.3 422 424.9 427.8 430.6 430.5 427.7 429.3 432.7 435.5 442.3 455.9 468.4 471.3 467.5 468.1 463.6 462.5 455.1 433.8 434.2 425.7 384.5 349.9 316.7 291.1 269.7 248.3 227.8 208.5 202 186.7 188.1 204.5 221.2 236.6 256.8 278.5 299.2 315.6 331.4 346.3 360 371.9 383.1 376.9 355.7 342.2 338.9 338.9 340.2 344.4 354 379.9 399.4 417.9 418.9 419.5 421.7 419.7 427.1 435.2 436.5 435.9 438.6 438 442.4 453.8 460.2 463.9 467.1 469.4 472.9 474.9 477.3 478.8 481.5 483.8 484.1 487.1 488.6 492.2 494 494.4 496.3
281.9 284.4 285.8 284.2 292.3 300.3 308.1 312.4 308.9 308.8 314 316.2 292.5 263.1 236.5 209.9 196 192.5 183 177.8 181.7 186.8 196 199.9 210.7 226.5 235.7 244.6 257.8 272.6 284.8 300.5 312.8 319.9 326.9 332.6 337.8 337.2 331.1 325.2 316.8 309.7 301.9 292.2 286.6 285.4 284.5 285.7 288.1 289.6 290.1 290.9 292.5 294.4 297.1 300 306.4 312.7 319 325 330.5 337 342.7 348.4 354.3 361.2 368.9 376.8 383.9 387.8 387 384.4 381.8 378.4 374.2 374.5 374 378.5 392.8 407.1 417.7 423.8 427.8 431.4 440.8 456.9 462.3 468.6 480.3 478.7 477.2 475.3 480.8 491.4 486.9 475 472.8 475.4 474.6 467.4 457.5 456.3 455.7 453.1 446.4 441.8 437.9 433 422.7 411.6 413.8 416.8 419.6 420.7 421 418.7 418.6 420 420.6 422.2 423.8 428.4 431.4 434.8 442 451.6 464.5 474 474.7 470 471.6 466.2 466.4 461.1 441 446.4 441.7 400 363.8 329.3 298.6 275.8 254.4 232.9 214.2 203.8 189.7 183.1 204.6 224.8 237.5 269.1 292.3 315.1 330 346.4 362.3 377.4 391.2 402.6 408.5 390.1 377.4 373.4 376.2 382.3 380 385.8 394.9 416.6 426.6 428.3 429.5 432.5 433.7 434.9 433 434.6 438.2 437.6 441.4 449.5 458.3 464.9 470.3 473.4 477.2 480.5 484.7 486.3 486.9 490 492.4 489.9 494.3 498.6 503.6 505.1 503.7 500.3
291 293.7 290.6 294.4 295.9 297.5 304 305.6 308.4 310.5 317.7 321.1 301.6 273.6 244.7 229.9 212.5 203.9 194.5 184 181 180.4 185.1 191.7 204.2 213.6 219.8 226.1 232.5 244.2 260.3 279.3 287.7 298.3 308.7 319 323.5 323.1 319.1 311.7 303.7 297.3 289.5 281.4 278.6 278.1 278.1 279.4 280.8 281.9 282.9 283.9 286.4 288.8 292.3 297.6 304.4 311.7 318.3 324.7 331 337.4 343.8 350.4 356.4 366.1 376.3 385.8 400.5 409.3 406.5 403.4 400.1 396.1 387.2 380.7 378.9 390 406.7 418.7 424.6 423.4 425.7 428.5 443.2 456.1 463.8 475.5 483.5 482 478.5 478.8 481.4 485.9 481.6 473.5 473.6 476.3 476.2 466.5 457.1 455.9 455.4 452.8 446.8 441.9 434.7 424.2 412.7 413.3 415.8 419.2 421.1 422.6 422.7 422.5 422.5 423.5 424.6 426.7 427.2 430.8 434.7 439.8 447.4 458.7 471.2 481.1 481.5 476.3 474.9 469.8 471.9 466.4 449.4 460.2 459.8 414.7 378.5 344.2 311.7 284.2 261.2 238.6 218.9 201.5 194.9 185.9 199.4 224.2 250.7 282.2 309.4 328 344.9 361.2 378.6 394.2 408.5 421.5 428.8 420.6 411.5 405 407.1 414.8 415.8 414 415.2 425.7 435.9 439 441.1 444 446.4 447.2 447.3 447.1 447.9 449 449.1 450.4 451.8 463.2 471.2 477.8 482.4 487 491.5 493.8 494.9 497.2 499.9 502.2 502.5 508.7 514 517.7 518.3 510.6
300.5 303.9 299.8 303 302.9 304.8 306.5 309 312.4 318 323.8 324.8 309.3 284.3 255.9 247.1 229.3 219.3 209.2 195.6 188.4 182.9 181.9 188.5 194.9 199.2 203.3 207.7 215.3 223.8 236.9 254.5 264.6 274.9 283.2 299.4 305 305.7 300.7 296.5 290.8 285.1 278.4 272 270.1 271.2 271.3 272.2 273.1 274.3 275.7 277.7 280.2 283.1 287.8 294.1 301.2 308.5 315.9 323 329.5 336.2 342.9 350 358.6 369.7 381.1 393.5 410.3 415.9 415.3 419.9 420.1 418.1 407.6 396.6 401.3 409.1 422.4 424.7 423.4 423.4 423.5 427.1 442.1 451.5 466.8 479.6 481.5 480.9 479.5 479.9 481.9 485.1 482.7 473.6 474.1 476.5 476.2 464.3 455.5 454.3 454.1 451.2 444.7 436.4 423.9 413.5 412.4 414.2 418.8 420.9 422.8 423.9 424 424.5 425.3 426.1 428.3 432.5 429.7 432.1 435.4 438.8 446.7 458.4 471.8 483.2 482.7 482.9 479.8 475.8 479.1 471.7 463.8 474.1 474.8 435.8 395.2 359.8 327.4 299.3 270.7 245.8 222.7 209.6 198.9 196.6 196.2 228.3 260.3 293.5 322.9 340 358.2 376.6 395.1 410.9 425.5 439.9 447.9 444.5 436.9 429.8 431 437.3 438 432.6 427.5 434.8 445.4 450.1 453.1 455.7 458.1 459.8 458.5 457.6 456.7 456.4 456.6 458 460.3 458.4 467.9 476.3 483.5 490.5 495.8 498.7 498.7 501.3 504.8 507.2 511 517.9 524.5 529.2 530.5 526.4
308.4 314.4 312.5 314 314.3 319.7 318.6 317.8 319.5 323.6 336.2 335.3 316.1 291.5 272 261.3 256 240.7 225.2 212.6 199.1 189.8 186.7 184.5 188.4 191.2 196.3 199.3 203.1 209.9 221.2 237.7 252.4 257.1 264.1 277.3 283.4 287.1 283.1 279.6 276.3 272.1 266 261.6 260.8 262.9 264.8 265.9 266.3 267 269.1 271.7 274.2 277.2 281.9 288.3 295.1 302.2 310.6 319.1 327.5 334.4 341.3 349.8 360.5 372.3 385 397.5 407.1 416.4 426.4 434.5 432.8 430.3 424.1 415.8 422.1 426.5 429.5 426.5 423.4 423.4 423.4 427.4 439.3 451.7 470.4 485.3 486.6 481.6 479.5 479.5 482.3 484.8 484.1 475.4 472 474.9 473.7 461.9 453.8 452.2 452.2 446.5 435.9 422.8 412.4 412.4 412.4 417 420.3 422.4 423.9 424.7 426.1 426.8 428 429.3 433.7 438.7 436.1 432.3 437 440.3 445.2 454.4 467.1 478.4 480.3 482.8 480.1 482.2 486 475.8 475.8 486 486.7 456 413.2 376.6 344 310.3 278.4 252 227.2 216.2 210.9 189.4 205.4 238.8 272.5 304.4 333.1 351.8 372.1 391.8 410.8 425.3 438.1 451.4 458.5 458 454 447.6 448.1 453 454.1 448.1 441.3 445.4 455.8 462.1 466 465.9 468.8 471.5 468.4 467.6 465.6 465 465.5 466.3 468.6 472.6 473.7 471.6 479.7 490.2 497.1 499.1 501.1 504.1 508.9 514 518.7 524.8 532.3 538.9 540.9 541.4
314.9 321.9 321.9 321.2 325.6 335.7 330.3 325.9 326.3 331 336.2 332.8 323.1 294.6 286.5 288.4 283.2 267.3 244.5 230.7 214.3 198.8 191.9 190.7 192.7 191 191.2 193.1 197.3 202.6 211.4 225 235.2 237.7 245.8 255.9 261.5 265.1 264.9 261.7 260.1 259.2 254.8 253.1 253.6 256.2 259 259.7 259.2 259.8 262.4 265.2 268.1 270.9 275.5 281.6 288.5 295.9 304.4 313 321.1 329.8 338.6 348.2 360.1 373.7 386.7 398.5 409 419.4 426.6 433.3 434.6 432.3 427.3 427.1 434.4 433.3 430 426 423.4 423.4 423.4 430.4 442.7 456.8 469.5 482.9 485.8 481.9 479.5 477.9 480.4 482.8 481 474.1 469.4 472.1 471 458.8 450.7 447.6 446.7 437.6 421.6 412.4 412.4 412.4 414 418.2 421.2 423.4 424.7 426.5 428.3 429.2 430.9 433.8 439.9 445.8 445.7 438.1 439.6 442 445 450 461.3 471.3 476.1 480.3 483.6 486 492.3 482.7 489 494.6 495.4 477.3 433.3 396.9 360.8 326.2 289.9 254.8 240.2 213.4 210.8 190.1 217.1 249 283.3 318.7 345.8 366.8 386.8 405.6 423.9 438.7 447.7 456.1 460.7 465.3 462.6 461.9 464 467.6 467.5 463.1 455.5 456.5 466 471.2 476.1 477.5 479.4 481.5 478.1 477.1 475.2 474.2 474.6 475.4 477.3 480.1 482.3 480.6 478.4 489.2 496.2 500.2 503.5 508.1 513.6 518.8 524.6 531.5 538.9 545.2 552.1 556.6
323.5 329.9 331.7 333.2 340 342.7 343.1 343.4 342.6 337.9 339.9 340 331.5 314.2 299.4 309.9 301.7 284.6 273.9 250.1 228.6 211.9 201 199.2 198.6 196.4 195.1 193 195.3 197.3 203 213.2 219.4 223.3 229.7 237.9 243.8 250.3 249.3 249.5 249.6 249 247.6 245 246.9 250 252.1 251.4 251.5 252.4 256.5 259.9 262.8 265.1 268.9 274.8 281.5 289.4 298.2 306.5 314.7 322.9 333.3 344.3 358 373.3 386.9 399.4 411.2 418.9 427.5 434.9 437.2 435.7 433.7 433.9 439.8 434 429.3 425.1 423.4 423.4 423.4 434.7 448.6 459.4 463.8 475.5 478.7 480.6 478.2 476.5 477.6 478.5 475.3 468.4 465.6 467.2 462.2 453.2 446.8 441.6 437 426.3 412.4 412.4 412.4 412.4 415.3 418.8 421.8 423.7 425.4 427.1 429.6 432.5 434.5 436.9 445.5 453.6 453.4 448.2 445.7 451.4 452.7 453 461.4 469.7 475.6 480.9 482.4 488.7 496.4 490.1 496.7 500.3 500.4 494.1 456.6 420.5 383.8 346.8 310 279.3 253.7 235 220.7 212.3 222.2 262.8 297.6 332.2 356.7 380.2 398.2 414.1 429.8 444.7 450.9 456.2 461.3 469.3 467.8 470.5 473.4 477.6 477.9 473.6 468.2 468.1 474.7 479.3 483.7 485.7 488.9 490.4 486.3 485 482.6 483.2 482.8 483.2 485.4 487.2 488.3 489.1 486.5 487.6 495.2 500.9 506.1 510.5 514.7 520.8 527.9 538.2 547.6 553.8 561.8 567.7
332.4 337.6 339.8 343.8 348.4 347.5 349.7 352.4 350.9 349.7 349.3 346.8 343.3 332.8 321.1 320.8 316 306.7 294 267.7 242.6 229.4 215.5 213.9 211.6 206.2 202.6 199.5 192.7 196 199.3 203 208.5 212.8 220.7 224.2 230.2 233.4 238.5 240.6 239.7 240.2 239.8 237.4 235.6 239 241 243.6 247.4 251.7 256 257.5 258.9 260 263.2 268.6 274.3 282.7 290.5 298.4 306.7 315.7 326.3 338.3 354.5 370.9 387.4 398 408.7 418.3 426.6 432.6 435.7 435.6 434.9 440.3 440 431.8 427.5 424.4 423.4 423.4 425.1 439 450.6 454.5 459.1 471.3 473.7 476.1 475.2 473.4 474.4 474.7 469.1 462.7 461.1 461 456.2 446.5 441.1 435.2 426.9 413.5 412.4 412.4 412.4 412.4 415.9 419.2 421.9 424 425.7 427.7 430 433.4 436.3 439.2 449.4 459.8 460.5 456.5 451.5 457 459.6 459.4 471.7 480.8 484.9 489.3 484.7 490.8 495.7 491.2 501.5 501.9 501.4 498.7 471.9 445.7 414.9 375.8 336.9 306.6 280.4 263.4 245.3 242.1 234.1 279.6 319.6 343.5 365.4 384.8 400.9 414.5 429.1 442.4 448.6 455.5 462.2 470.1 469.7 471.5 476.8 482.9 489.5 483 477.4 476.3 481.2 484.9 488.1 493.3 497.3 498.2 494.2 491.5 489.3 491 490.8 490.4 491.3 492.7 493.2 493.7 492.6 492.8 496 502.1 505.8 509.7 516.1 523.1 531.7 542.9 553.8 563.8 569.7 575.7
346.1 346.5 348.7 354.2 356.6 358.5 362.9 366.9 364.8 363.9 361.7 357.2 351.9 346.9 339.6 335.7 332.3 326.5 306.5 281 259.2 243.6 233.4 233.4 229.8 221.4 212.3 207.3 204.4 202.5 199.4 200.7 202.7 204.9 210.1 214.4 218.1 223.6 228.7 232.6 231.5 227.2 230.8 233.8 238.2 240.2 243.3 247 251.4 255.2 259.5 262.7 264.2 265.2 265.6 266 269 275.5 282.3 290.2 298.7 308.6 319.3 331.4 349.3 366 379.3 391.6 403.7 414.5 422.6 428.3 432.1 433.3 435.3 443.2 437.7 429.6 426.3 423.4 423.4 423.4 433.9 441.6 444 447.3 451.4 461.9 469.5 472.8 471.7 472.1 472.6 469.9 461.4 458.7 457.4 456.8 452.7 441.2 433.3 425.5 419.8 412.4 412.4 412.4 412.4 412.4 415.6 419.1 421.7 423.7 425.9 428 430.8 433.1 435.1 439.1 450.7 463.7 465.7 463 456.1 461.3 465.5 466.9 479.4 490.4 495.5 497 488.7 492.2 495.8 491.2 502.1 499.3 495.6 491.5 468.4 457.7 431.3 408.5 375.8 346.4 316.2 308.4 285.3 271.7 276.9 296.1 337.9 351.3 379.2 387.3 401.7 414.9 429.3 440.9 445 453.6 459.1 466.7 468.4 469.2 474.4 481.7 492.7 485.9 480 479.7 485.3 486.8 491.4 497.6 502.8 503.5 503.2 501.1 496.2 498.2 498.1 497 496.7 496.5 496.6 497.1 497.5 499 502.4 504.7 507.1 510.3 517.4 524.2 533.2 545.6 557.7 568 577.9 581.2
357.4 356 359 365.9 368.5 369.8 374.7 378.5 379.1 377.9 374.4 369.5 363.5 357.1 353.9 348.6 343.6 334.6 315.8 292 271.6 255.4 249.6 249.9 241.7 235.7 228 216 216.4 215.7 213.5 211.8 211.9 211.6 208.7 212.3 215.2 216.5 220.5 224.5 232.1 234 236 238.5 242.8 245.7 249.5 252.4 255.7 259.8 263 266.6 269.5 271 272.5 273.9 273.2 273.1 274.6 280.6 291.3 301.5 311.9 324.8 342.5 358.1 371.1 383.7 398.4 409.3 416.9 423.9 428.1 431.7 434.5 442.4 435 428.4 424.3 423.4 423.4 423.4 438.9 442.3 441.1 440.1 447 454.7 461.7 466.2 466.7 471.5 469.9 463.6 456.7 454.9 454.3 454.6 450.7 438 431.2 421 412.4 412.4 412.4 412.4 412.4 413.1 415.5 418.2 420.6 423.2 425.6 427.7 430.1 431.9 433.7 437.3 449.1 464.4 467.9 467.3 460.1 463.6 468.2 471.5 483.4 496.5 502.1 501.6 489.7 487.9 490.1 484.7 496.2 493.6 488.6 481.4 462.9 450.3 429.8 424.3 410.8 383.2 354.7 352.3 325.5 308 293.7 312.1 341.9 358.1 372.8 388.3 402 415.9 430.3 439.4 443.2 449.6 451.4 460.9 464.8 467 472 480.3 487.3 481.3 478.5 476.8 485.1 486.8 493.1 500.9 505 506.7 507.1 506.7 505.4 505.6 503.4 501.1 500.1 499.4 499.2 499.5 500.5 504.6 507.8 507.9 509 511.4 517.3 523 533.9 546 559.8 569.3 577.9 577.6
373.1 368.3 369 376.1 376.4 380.7 385.8 390.4 389.9 386.6 385.4 380 374.1 369.7 364.8 357.6 351.3 341.8 324.7 305.7 286.9 271.6 263.9 261.7 253.5 248.3 243.5 233.8 227.2 229.3 228.1 226.2 223.6 221.3 218.5 214.2 213.3 218.8 224.6 231 238.3 239.9 241.7 244.3 248.9 252.6 255.4 258.7 261.8 265.3 266.7 270.9 273.8 276.7 278.3 279.4 280.1 279.9 279.3 283.7 282.4 291.7 302.3 316.7 333 347.6 359.7 375.4 392.5 403.4 410.1 417.9 424.4 429 435.5 439.2 431.8 424.5 423.4 423.4 423.4 426.5 440.3 439 435.5 433 439.8 452.3 457.9 458.8 458 467.2 467 459.1 454 451.2 451.2 452.2 448.2 435.7 428.8 423.8 412.4 412.4 412.4 412.4 412.8 414.9 415.1 417 420.2 422.4 424.7 425.9 428.7 431 433 434.8 443.7 458.1 465 466.9 459.6 465 470.9 472.1 483 495.4 499.2 495.6 482 478.3 480.6 479 490.8 487.5 483 472.7 455.6 444.4 434.2 431.4 428.7 410.2 382.3 374.3 358.6 328.6 308.6 311.1 340.8 358 372.6 386.4 400.1 413.6 426.1 434.5 437.9 439.3 441.6 451.4 456.1 461.2 467.3 476.3 478.9 471.1 469 470.1 479.2 483.6 492.1 500.5 504.7 508.2 510.7 511.1 512 510.9 508.4 504.7 503.4 502.4 502 502.1 504 508.4 512.2 511.2 510 509.8 514.2 524.9 537 549.5 559.8 567.4 574.5 577.6
387.6 382.9 381.9 383.2 386.8 391.6 396.7 400.2 403.4 400.5 395.4 390.8 385.9 382.2 376.6 368.8 361.8 353.3 338.6 320 302.3 285.8 275.2 270.1 265 259 253.4 252.3 250.8 242.9 242.5 240.6 236.1 233.8 230.7 225 220.5 227.8 231.8 239.4 244.9 246.3 248.2 252.4 257.4 261.6 265 268.6 271.9 274.6 277.1 277.9 279.1 282.8 284.9 285.8 285.9 285.7 285.8 289.7 295.4 298.5 300.6 301.6 316.1 333.7 350.2 368.8 385.2 396.7 402.9 409.7 417.2 426.1 435.2 435.1 428.7 423.4 423.4 423.4 423.4 427.9 439 434.3 431.3 430 440 447.1 450 453.7 454.3 467.1 466.3 455.1 451.7 446.4 447.7 448.4 438.4 425.9 422.4 421.7 417.3 412.8 412.8 413.7 413.8 414.8 415.6 416.7 418.1 420.5 422.9 424.5 425.7 428.5 430.9 433.2 436.2 447.5 456.2 459.2 457.3 465.2 471.8 472 474.6 486.2 487.7 483.1 474.2 468.7 474.4 477.9 487.8 485.8 478.2 467 452.6 441.5 436 432 427.9 410 391.5 385.3 374.4 352.9 338.9 329.8 333.1 357 368.9 383.1 397.5 410.8 421.5 428.4 431.5 429.8 433.6 442.3 448.1 453.3 459.2 463.6 458.4 454.7 453.2 460.2 471.1 480.9 489.5 497 503.3 509.1 511.9 512 512.9 513.5 510.6 507.6 505.7 504.7 503.8 504.6 507.1 511.5 513.2 510 505.5 499.4 510.7 527.1 540.3 549.8 560.7 567.9 573.4 574.5
400.1 394.6 392.9 394.1 397.5 406.6 414.1 414.1 419.6 414.4 407 401.5 397.2 394 388.9 381.6 376.2 367.3 354.5 335.2 316.4 298.5 282.6 279.5 274.6 269.2 264.3 263.8 263.3 260.8 258 254.3 249.1 243.8 240.1 232.8 225.8 238.1 242.5 248.1 250.7 252.4 255.2 259.4 265.7 271 275.2 280.3 283.9 287.8 290.7 291 293.9 296.9 298.5 297.5 298.5 293.5 294.4 297.4 301.4 305.8 311.7 318.4 325.5 328.7 343.8 363.2 377.7 388 393.7 401.4 411 420.7 429.8 431 429.9 424.1 423.4 423.4 423.4 429.5 432.6 429.9 427.4 431.8 439.1 442.2 448.4 451.1 451.7 463 466.4 451.5 449.3 442.6 440.6 442.9 429.4 419.5 418.2 418.8 418.4 415.8 414.4 414.4 414.7 415.2 416.1 417.7 418.2 419.7 421.2 422.5 423.7 425.3 427.7 430.4 433.1 439 447.6 451.9 454.2 460.4 466.4 464.5 464.5 471.3 472.8 467.8 463.2 465.5 473.4 480.6 486.2 487.5 478.8 470.1 457.8 444.7 441.2 439 437.5 426.8 408.7 393.9 381.1 362 360.1 344.1 336.4 350.8 364 379.8 394.4 407.4 415.6 420.9 421.3 418.8 423 430.5 436.4 440 442.8 441.2 436 435.4 441.6 455.4 467.5 478.8 487.8 494.1 500.8 505.5 508.8 508.7 509.2 510.9 509.3 507.1 505.5 504.9 504.7 508.3 509.3 510.7 507.1 499.4 489.1 496.7 514.3 532 544.2 554.6 563.9 569.1 568.8 567.3
