ncols 200
nrows 82
xllcorner 400000
yllcorner 585100
cellsize 50
212.8 210.3 209.2 208.2 207.7 209 210.4 211 210.2 210.2 211.1 211.6 211.6 210.5 211.9 208.7 201.4 195.8 203.2 209 210.1 211 211.3 211.5 212.3 212.4 211.8 212.1 212 212.3 212.8 215.6 217.3 218.2 218.3 218.7 218.8 220.5 222.5 225.7 227.7 227.5 224.5 223 218.9 216.9 213.7 210.6 207.4 203.9 202.5 200.9 198.2 191.5 184.4 181.6 193.8 194.5 195.5 196.5 197.6 196.3 196.3 196.7 197.7 199.6 200.5 200 198.4 197.5 194.5 192.6 192.5 192 192.3 194.5 195.7 194.5 194.1 197.4 197.5 198.9 200.5 201.5 203 206 206.9 205.4 207.7 214.2 215 213.3 209.8 206.1 202.2 198.8 197.7 201 199.6 197.9 195.9 196.9 201.6 202.3 201.4 198.2 195.6 191.3 187.3 184.6 179.9 175.8 173.3 173 172.7 171.9 169.7 171.2 172.4 172.6 173.3 173.6 175 175.8 175.5 177.1 179.1 184.3 191.9 191.5 191 191.3 197.6 201.7 201.5 198.4 192.8 188.7 186.9 183.9 180.4 176.4 173.2 171.7 170.2 168.6 166.8 164.3 161.9 159.4 158 156.8 154.9 155.3 152 151.8 151.8 150.5 149.2 149 148.4 148.1 147.7 146.6 145.9 145.8 146 146.4 146.2 145.4 144.2 143 141.6 141.1 141.1 141.6 142.4 141.6 144.7 144.6 144.3 143.5 142.4 142.6 142.8 143 141.4 140 138.8 136 133.5 132 129.9 127.6 124.4 121.5 128.5 130.2 129.8 128.9
211.6 210.6 211.4 211.2 212.8 213.9 212.9 212.2 211.6 212.2 213.7 214.3 214.1 213.3 213.5 211.7 204 195.1 200.6 207.8 209.8 209.3 210.3 210.7 210.8 210.9 210.4 210.2 209.7 209.9 211.5 214 215.4 215.6 215.6 216.2 219.1 221.1 222.6 225.7 227.5 226.5 224.9 222.7 220.5 219.8 217 213.6 210.1 207 204.3 201.6 198.5 191.2 181.7 186.6 197 196 196.4 196.7 196.5 195.3 193.7 194.6 196 197.9 199.1 198.9 198.6 197.3 195.8 194.1 192.4 192.3 190.8 191.8 192.8 193.7 194.1 196.6 197.9 199.2 200.6 202.4 204.6 207.2 206.7 207.2 214.4 218.2 215.9 212.3 209.5 205.9 202 198.6 198.7 198.9 196.4 195.2 193.8 193.6 201.4 201.3 199.7 197.8 194.5 190.9 187.1 183 178.9 175.4 173 171.7 171.2 170.6 168.9 171.4 170.6 170.7 171 172.2 173.1 174 174.3 176.3 180.5 186.1 188.9 189.3 189.9 189.1 194.8 200.4 199.1 196.4 192.6 187.9 186.9 183.5 181.2 176.1 173.6 173.8 172.4 170.1 167.5 165 162 158.5 156.7 156.3 157.5 158 157.8 157.3 156.4 155.2 153.9 153.1 152.8 152.8 152.1 151.8 151.7 151.6 151.6 152.3 151.2 150.3 149.8 149.6 149.1 147.9 148.4 148.8 147.6 147.4 148.8 149.2 148.2 147.2 146.9 147.1 147.2 145.6 144.1 143.2 141.6 139.2 137.6 135.7 133.6 130.9 130.3 125.1 126.8 130.8 130.5 129.5
212.3 212.3 213 213.9 214.5 218.8 215.7 213.5 212.2 214 216.4 216.8 216.3 216 215.3 213.5 207.4 195.4 196.6 208.2 208.4 207.1 208 208 207.8 207.9 208.2 208.4 208 207.9 209.9 211.5 212.6 212.7 212.6 214.7 217.6 220.5 223.1 225.9 225.9 225.4 225.8 224.6 222.6 220.9 218.3 215.5 212.6 209.3 205.5 202.9 199.8 192.3 180.4 186.7 196 195.8 196.4 196.6 196.2 194.9 193.4 192.5 193.9 195.1 196.2 196.8 196 196.1 195.3 193.2 191.4 191.1 188.4 189.2 191.5 193.2 195.3 197.8 198.9 200.5 201.8 205.4 207.7 206.4 206.9 218.1 224 221.4 217.5 213.6 209.6 205.7 201.8 198.4 197.1 195.7 194.7 193.1 193.1 192.7 195.7 197.5 197.2 195.1 193.2 190 186.5 182.5 178.4 174.8 172.6 171.6 170.8 169.1 168.7 170.8 169.5 169.8 170.5 171.5 172.3 173.4 174.6 176.6 180.6 184.2 185.9 188.7 189 186.9 186.9 187.4 191.8 187 184.9 186.9 185.6 183.1 180 177.2 175.6 173.8 172.9 170.6 168.5 165.8 162.7 159.9 160.1 161 162.1 162.5 162.4 161.4 160.4 159.3 158.2 157.9 157.9 157.9 157.3 157.8 157.7 157.7 158.3 158.8 157.5 156.7 157.9 157.5 157 156 154.6 153.3 152 150.6 151.8 152.3 151.7 150.1 150.7 151.3 151.5 150 147.6 146.7 144.4 143.2 141 138.7 136.2 133.4 132.1 129.3 123.1 127.6 130.4 129.7
213.8 214.6 214.9 215.3 216 218.6 215.5 214 215.5 217.5 218.9 219 217.8 217.1 215 212.4 208.7 199.9 193.8 206.4 207 205.5 205.9 205.5 205.2 206 207.6 207 206.7 206.3 207 208.2 209.3 210 210.8 213.1 216 218.9 221.7 225.8 226.4 226.4 226.3 225.9 224.4 221.9 219.5 216.6 212.6 209.5 206.5 202 198.2 193.2 180.7 186.2 194.4 195.3 196 195.9 195 192.5 190.5 188.1 189.1 191 193 193 193.5 193.3 193 192 190.4 190.5 188.2 189.2 191.5 193.4 195.1 198.3 200 201.7 205.5 208.3 207.8 206.7 216.6 227.6 227.2 223.4 219.1 215.3 210.2 205.8 201.8 198.1 196.6 196.2 195.7 194.7 193.1 192.8 192.9 195.5 195.3 194 191.8 188.8 185 180.9 178.1 175.2 173.4 172.3 170.8 168.7 169 171.1 169.3 170 170.5 171.4 172.4 173.8 175.4 177.3 179.8 181.2 182.4 186.4 186.3 184.2 181.4 179.7 179.1 177.6 180.5 182.1 183.1 181.6 180 178 175.2 173 171.4 170.1 168.6 167.1 164.2 164.5 164.3 165.6 166.7 168.1 166.9 166.4 165.3 164.2 163.3 162.5 162.9 163.1 164.4 164 164.2 165 164.7 164.5 164.3 163.3 164.8 164.2 162.7 160.6 159 157.7 156.2 155.4 155.3 155.1 153.9 153.9 154.9 155.4 155.2 153.9 151.7 149.8 148.4 146.8 144.4 141.4 138.5 136.3 134.3 130.2 126.3 126.2 130.7 130.4
215.3 216.4 216.7 216.5 216.3 216 216.3 216.7 217.9 219 219.1 218.7 215.4 214 211.9 209.4 206.4 201.2 194 203 203.9 203.3 204 203.8 203.6 203.9 204.7 203.8 203.7 204.6 205.3 205.6 205.7 207.2 208.8 211.7 214.3 216.6 219.1 222.9 226.1 226.6 226.7 226 224.7 222.4 219.7 216.1 213.7 210.4 204.9 200.5 196.4 191.6 180.1 184.1 194.5 195.2 194.5 193.7 192.7 189.1 188.1 185.6 184.5 186.9 190.9 191.3 191.5 191.9 191.5 191 189.2 187.2 186.6 188.2 191.2 193.2 195 198 201.1 204 206.7 208 207.8 212.4 220.1 226.5 228.4 224.4 220.8 215.9 210.5 205.9 201.8 199.2 197.8 197.2 194.9 193.9 193.8 192.1 191.7 194.7 194.1 192.6 190 187.1 183.4 180.1 178.6 176.1 174.5 173 168.7 169.1 171.5 172.6 170 170.5 171.1 172.3 173.5 174.9 175.6 177.1 178.7 179.1 179.8 181.1 181.6 181 180.5 180.9 180.4 178.7 174.2 176.2 178.3 178.9 178.3 176 174.3 173 171.5 170.4 169.7 168.5 169.1 169.7 170 171.1 172.1 173 171.5 171.3 170.4 169.4 168.5 167.6 168.3 169.1 169.3 169.4 169.8 170.2 171.2 171.1 170.8 170.5 168.8 167.2 165.6 161.7 160.9 160.1 158.4 156.8 156.8 156.5 156.3 156.5 157.1 157.9 157.1 155.3 153.5 151.3 151.2 149.3 147 143.1 139.3 138.4 135.6 131.9 126.8 129.7 132.5 132.2
217.1 217.3 218.2 216.5 215.9 216.3 216.9 216.1 215.8 217.1 217.1 214.9 212.9 210.8 208.6 206.5 205 203.2 193.9 195.7 201 201.7 203.3 203.1 201.8 200.8 201.2 200.7 200.7 201.4 202.1 201.1 201.7 204.3 206.7 208.8 210.8 213.1 214.9 219.3 223.7 226.2 225.1 225.2 224.4 222.4 218.6 214.2 210.9 208.5 203.9 199.5 194.9 189.2 180.2 184.5 193.4 193.5 190.9 189.3 187.9 185 184.2 184.1 182.5 183.9 186.6 187.8 190 191.6 191.5 190.3 187.7 184.8 184.6 186.4 189.4 192.6 195.8 198.8 202.2 204.6 206.7 207.9 208.2 218.3 227.1 229.2 225.8 223.1 219.1 215.1 211 206.6 202.1 201.6 199.2 195.4 192.3 190.5 189.4 188.7 190.7 191.9 191.6 189.4 187.6 185.1 182 180.5 178.9 176.2 173.6 170.3 168.8 171.6 172.5 172.9 170.9 171.1 171.7 173.1 174.4 175.2 175.7 176.3 176.6 177 177.7 178.7 178.9 179.4 179.7 178.7 177.8 176.1 173.6 171.1 172.5 173.6 174.9 174.8 173.7 172.8 172.2 171.3 170.5 170.9 172.9 174.8 176.1 176.9 177.6 178 178.4 175.7 174.8 174 173.2 173.1 173.9 174.6 174.6 175 175.4 175.7 176.2 175.9 175 172.9 170.9 169.1 166.4 162.6 161.8 160.8 159.5 159.3 158.5 157.9 157.2 157.3 158 157.5 156.5 155.5 154.5 153 152 149.8 147.2 143.4 141.3 138.8 135.9 132.9 127.4 132.5 134.3 134.5
217.1 217.2 216.6 214 213.1 214.1 215.5 214.1 213.5 214.5 213.7 212.3 210.5 208.6 206.5 204.9 203.4 202 196.4 192.7 195.5 202 202.8 201.8 200.3 198.4 198.3 197.9 197.9 198.2 198.3 197 197.9 200 202.8 205.1 207.3 208.9 210.5 215.2 219.8 222.6 224.2 223.7 222.6 220.8 217.4 210.8 211.7 207.1 203.2 199.9 195.5 186.9 180.9 185.7 189.7 189.9 186.1 182.7 181.5 179.7 181 181.9 181.2 182.2 184.9 187.1 188.6 190.7 190.4 188.9 187.2 184 182.6 185.4 188.6 191.9 195.5 200.2 203.3 205.5 206.5 207 210.1 224.2 230.5 229.8 228 226.1 221.1 216.8 211.7 206.8 203.8 202.4 197.6 193.9 189.9 186.4 184.7 186.1 188.5 189.5 188.3 188.4 187 184.3 182.2 180.3 177.6 174 170.8 171 170.4 172.5 173.3 172.6 171.8 172.1 172.5 173.3 173.9 173.4 173.5 173.9 174.1 174.6 174.9 176 175.7 175.3 174.5 174 173.3 171.6 169.4 168.7 167.9 167.5 169.9 172.4 173 173 172.8 172.2 171.8 172.5 175 178.3 180.2 181 180.3 180.4 180 179.4 178.3 178 178.1 178.7 179.5 180 180.1 179.3 178.5 178.3 177.6 176.5 174.7 173.2 170.9 168.3 165.6 163.3 161.9 160.7 160.5 159.2 158.4 157.8 157.3 157.4 156.7 156.8 155.7 154.6 153.6 152.4 150.7 148.7 146.3 143.5 142.1 139.5 136.5 133.5 127.5 133.4 135.8 136.6
216.6 216 213.8 213.3 212.7 214 214.2 212.9 211.7 211.8 211.1 209.4 208 206.3 204.4 202.7 200.9 199.8 198 190.9 190.1 195.9 199.4 198.9 197.3 196.2 195.9 196 196.6 196.9 196.9 195.5 195.9 197.3 199.3 200.8 203.2 205.5 206.7 211.1 215.7 219.2 221.4 221.8 220.1 218.6 215.9 209.4 211 206.7 203.3 200.3 194.5 184.2 179.3 181.9 185.7 184.8 180.3 176.2 174.2 173.7 172.1 178 179.2 180.6 183.6 186.4 188.1 188.9 188.6 187.2 185.9 183.2 181.1 184.2 188.3 191.8 195.7 200.5 203.3 205.4 205.8 201.1 208.9 221.9 228.3 228.2 229.5 226.8 221.8 216.8 211.5 206.4 205.1 201.3 195.3 190.7 185.5 181.8 182 182 188.1 189.8 190.4 189.8 186.5 183.8 181.9 179.8 176.9 173.5 169.9 170.8 172 171.8 171.1 170.1 170.1 170.1 169.7 169.6 170.3 170.1 170.1 170.9 171.6 171.9 170.9 171.4 170.9 170 169.3 168.4 167.8 167.1 166 166.1 165.5 165.1 165.4 168.2 170.8 171.3 171.3 172.6 173.1 174 176 178.5 179.7 181.7 182.2 181.9 181.3 181.1 180 180 180.8 181.8 181.7 181.3 180.6 180.2 179.5 177.7 176.4 175.5 174 171.6 169 166.5 164.3 162.6 162.1 161.4 159.9 158.3 157.7 157.2 156.8 156.6 156.1 155.8 154.5 153.3 152.1 150.9 148.9 146.9 145.2 144 142.5 140.2 136.9 134.2 129.4 135.5 136.8 137.6
216.4 216.9 214 213.5 213 213.4 213.2 211.8 210.5 209.8 208.3 206 204.4 203.3 202.2 200.6 198.8 197.7 196.4 193.6 191.7 189.3 193.2 193.4 193.4 193.6 194.3 194.5 195.1 195.7 195.6 194.6 195.3 196.4 197.6 199 200.4 202.5 203.1 206.6 211.3 216.2 219.1 220.1 218.2 217.7 214.7 212.8 209.7 206.5 203.2 202 199.3 189.2 179.1 178.9 180.8 178.9 176.4 179 181.7 178.2 173.2 171.7 172.3 177.6 181 184.1 185.7 186.2 186.8 186.1 184.4 181.8 178.6 182.2 186.7 191.1 195.5 199.8 202.7 204.1 200.7 198.5 217.6 222.5 229 229.6 230.7 226.3 221.5 216.7 211.5 205.8 202 197.8 191.5 186.7 181.3 176.9 178.3 184.1 191 192.5 192.2 188.8 185.6 182.3 179.8 176.9 174.5 172.1 168.3 168.6 169.7 168.9 168.8 167.2 167.1 166.6 166.3 166.4 167 166.9 166.7 167.5 168 167.5 166.5 165.1 165.6 165.9 165 164.1 163.7 163.7 163 163.7 163.2 162.9 162.2 163.3 165.6 169.7 172.7 174.2 174.8 175.6 176.9 178 179.6 180.8 181.5 182 181.9 182.2 181.6 182.3 182.1 181.5 181 180.1 179.4 178.4 177.3 175.9 174.6 173.1 172.4 170.1 167.7 165.5 163.3 161.8 161.5 160.6 158.4 157.6 157.1 156.8 156.4 156 155.5 154 152.5 151.9 150.7 149.1 147.2 146 145.2 144 142.6 140.4 137 133 135.7 136.7 137.7 138.3
217 216.7 215.5 214.6 214.1 213 212 210.8 209.2 207.3 205.3 203.7 203 201.4 199.9 198.6 197.4 196.7 195.9 194.6 191.5 189.3 189.4 190.1 189.1 189.4 192.2 193 193.7 194.4 194.4 194.4 195.3 196.4 197.1 197.7 198.1 198.7 199.1 203 207.8 214.5 217 217.4 215.6 214.8 214.8 211 208.6 205.9 205.8 203.4 200.6 195.8 190.1 186.1 183.6 183.1 185.4 186.7 183.6 180 176.1 173.4 170.9 172 177.1 180.1 181.7 182.5 183.2 183.1 181.3 179.1 176.9 180.2 184.6 189.4 194.3 198.7 202.7 203.9 196.1 205.5 228.1 234.5 231.5 232.9 230.1 226.1 222 216 210.1 204.3 198.5 193.6 189.2 183.8 177.9 177.7 182.5 191.9 191.2 192.5 191.1 187.8 184.1 180.3 176.9 173.9 170.8 168.4 164.7 163.7 164.9 164.5 163.7 162.6 164.2 163.4 163 162.9 163.2 163.4 163.5 163.7 163.7 163.6 163.8 164.1 163.8 163.4 163.1 162.6 162.3 161.9 161.5 161.3 161.3 161 161.1 161.8 162.7 167.4 171.5 172.7 173.4 174.4 175.7 177.5 178.4 179.3 179.5 179.8 179.7 180.2 180 180.4 180.2 179.4 178.4 178.5 177.9 176 175 173.7 172.7 171.7 170.6 168.7 166.6 164.4 162.3 161.1 160 158.8 156.9 156.3 156.1 155.7 155.2 154 152.8 151.8 150.5 150.1 149.2 147.4 146.7 145.9 145.2 144 142.2 140.3 136.4 135.2 137.4 138.1 137.5 137.3
216.2 215.1 215.1 214.6 214.4 213.7 211.3 208.4 206.4 205.4 203.2 202.7 201.5 200.6 199.8 197.8 196.6 196.7 195.8 194.4 191.9 189.7 187.1 186 186.8 186.9 187.6 190.1 191.5 192 193.3 192.8 194 194.9 195.1 195.6 195.7 195.8 196.9 199.9 204.6 210.5 214 214.2 213.7 213.5 213.1 210.1 208.4 207 206.9 204.8 201.6 199.6 202.1 202.3 195.7 192.6 189.6 187.6 184.2 180.3 176.5 173.6 170.9 170.5 171.5 176 177.7 178.7 179.2 178 175.8 175 175.5 178.1 182.9 188 193.1 196.9 200.5 200.7 192.8 210.5 229.8 233.5 232.2 227.1 227.6 225.1 217.5 210.8 205.6 200.2 196.9 191.1 187.3 181.9 175.4 179.3 184.4 190.5 188.5 190.4 188.3 184 180.5 177.3 174.1 170.8 167.2 164.1 160.9 161.3 160.2 159.8 160.1 159.6 161 161 160.8 160.8 161.2 161.2 161.7 161.7 162.9 162.9 163.3 163.1 163 163 164.2 164.6 164.2 162.7 161.5 161 160.6 160.3 160.2 161.2 162.1 165.9 169.6 170.8 171.6 172.8 174.5 176 176.8 177.4 177.4 177.5 178 178.8 178.8 178.4 178.2 177.6 177.2 177.5 176.4 173.9 172.7 171.8 170.8 169.8 168.9 167.3 165.4 163.7 162.4 160.9 158.8 156.3 155.4 154.7 154.4 154.2 152.7 151.5 150.9 149.5 148.5 148.1 148 147.3 146.7 145.9 145.2 143.7 141.7 138.8 134.8 136.7 137.9 137.3 136.6 136.2
214.1 213.1 212.9 213.6 214.1 211.7 210 207.1 204.7 203 202.1 201.4 200.4 199.8 199.3 197.4 196.4 195.7 194.9 192.1 192 192.3 192.4 192.6 192.2 188.2 185.5 184.4 185.5 189.6 190.4 190.8 191.9 192.8 192.5 192.8 192.8 193.4 194.6 196.8 200.6 205.7 210.5 210.4 210.5 210.8 209.6 209.3 207.6 207.1 206.8 204 201.7 200.8 206.9 203.2 196.5 194.1 190.8 187.5 184.4 180.6 176.7 173.7 172.1 173 169.4 171.3 174.4 174.5 173.7 173.1 172.9 173.4 174.3 176.7 181 185.3 190 194 196.4 194.6 191 213.2 225.2 228.6 228.4 222.1 215.8 212.2 209.7 206.7 203.6 198.2 193.1 188.6 184.4 179.6 174.1 170.2 179.3 186.5 183.3 184.7 184.9 181 176.1 172.2 167 163.8 161.1 159.8 159.9 159.7 159.5 159.2 158.9 159.1 159.8 159.8 160.2 160.5 160.9 161.1 161.5 161.9 162.7 163.1 162.7 161.4 161.8 163.3 164.9 165.4 164.4 163.1 161.6 161.5 161.5 161.5 160.7 161.2 162.4 164.8 167.6 169 169.9 171.4 173 174.2 175.2 175.3 175.3 175.6 176.9 177.5 177.6 177.6 177.8 176.7 175.7 174.7 174.3 172.6 171.4 170 168.9 167.9 167.3 165.5 163.8 162.3 160.9 158.7 156.5 155.1 154 153.2 152.5 151.8 150.5 149.9 149.2 148.6 147.5 146.8 147.1 146.3 145.2 144.7 144.1 142.9 141.7 138.5 134.8 137.1 137 136.8 135.7 135.1
210.4 209.5 209.6 211.2 211 209.6 208.1 206.3 203.3 200.6 199.9 199.8 198.3 197.3 197 196.7 195.2 196 196.2 195.8 194.9 195.1 194.8 195.2 194.8 193.6 191.8 186.6 183.7 183.3 185.1 187.2 189.6 190.4 189.9 189.9 190.6 191.4 192.3 194.5 197.3 202 207.1 207.5 208.2 208.4 208.2 208.2 206.5 205.6 204.7 203.8 202.5 201.1 201.3 197.9 197.7 195.2 191.7 188.6 185.4 181.3 178.1 174.8 172.3 171.8 170.6 172.5 169.9 172.4 172.1 172 171.9 172.8 173.9 176.3 180.6 184.2 187.2 191.1 191.9 188.6 193.9 212.5 221.2 224.7 225.1 221.8 215.2 209 204 204.3 200.8 195.1 190.1 186.2 182.1 177.3 170.3 166.3 170.3 179.6 177.9 174.3 172.5 170.5 168.6 164.6 160.5 159.9 159.8 159.9 159 158.9 158.9 158.8 158.4 158.9 159.3 160.6 161.2 161.4 161.7 162.4 162.9 163.3 162.5 162.4 160.8 159.6 159.8 160.8 162.4 163 162.8 161.7 161.4 162.2 162.3 162.5 161.2 160.5 162.6 164.1 165.6 166.7 168 169.2 170.4 171.6 172.2 173.1 173.2 174 175.2 175.8 175.8 175.3 175.5 175.5 174.2 173.3 172.3 171.2 170 168.7 167.1 166.9 165.4 163.3 161.4 159.7 158.2 156.8 155.4 154.2 153.3 151.3 151 149.8 149.1 148.7 148.3 147.9 147.7 147 146.7 146.2 144.8 142.9 141.7 143 141.4 137.7 135.3 135.7 135.4 135.2 134.8 134.2
209.9 208.3 209.3 206.8 207 206.6 205.1 203.6 202.4 202.2 202.2 200.9 200 199.4 198.7 199 199.4 199 198.4 197.4 196.3 196.5 195.9 195.1 194.9 194.1 192 189.7 187.6 183.5 183.2 183.4 185.8 187.7 187.4 187.2 188.6 189.1 190 192.1 194.8 199.3 203.9 206 206.2 206.4 206.6 206.3 205 203.7 203.3 203.2 202 200.2 197.4 196.7 198.3 196 192.6 189.5 186.5 183.3 179.5 175.7 172.7 171.2 170.4 169.1 168.7 169.7 170.9 171.4 172.5 173.6 175 176.2 179.2 182 184.9 188.4 189.1 187.5 195.2 219.4 228.3 225.9 225.2 221.9 214.5 206.9 201.5 199.5 195.9 192.3 187.5 183.9 179.8 175.2 170.8 164.6 164 164 163.2 162.9 162.1 161.1 161.4 160.1 159.6 158.9 158.6 158.3 158.1 158 158.1 158.2 159 160.3 160.8 161.6 162 162.4 162.8 163.5 164.3 163.2 161.7 160.4 159 158.4 159 159.1 159.6 160 160.1 160.2 160.6 161.2 161.4 161.3 160.5 157.5 159.9 160.3 161.8 163 164.4 166.1 167.8 168.4 168.9 169.8 170.5 171.2 171.9 172.6 173.1 172.1 171.1 171.6 171.5 170.3 169.4 169.3 167.3 165.5 164.6 163.7 162.6 160.6 159.5 158.1 157 156 155.9 155.9 154 152.6 151 149.5 149.3 148.8 148.4 148 147.7 147.6 146.3 144.8 143.3 142.2 143.6 143.2 140.9 138.6 136.9 136.3 135.3 135.4 134.4 134.6
213.2 212.7 212.7 214.1 213.3 210.9 209.5 207.9 207 206.3 205.7 204.5 202.8 201.9 201.1 200.9 201.4 201.2 200.2 199 197.7 196.8 195.2 193.6 193.5 193 190.9 188.6 187.2 186.7 184.5 181.8 181.2 183.4 184.4 184.7 186.2 187.2 187.9 189.8 191.9 195.9 200 203.2 203.3 203.2 203.1 204.1 203.8 202.9 202.7 201.5 200.4 199.3 197.4 195.8 197 195.5 193.2 190.1 187.1 184.1 181.1 178 174.3 171.9 176 168.9 168.8 168 168.8 170.7 172.7 174.2 175.6 177.3 179.9 182 183.6 186 187 187.5 202.8 224.4 226 223.8 219.1 217 210.8 204.8 199.2 195.4 191.6 187.2 182.4 178.4 176.8 175.8 172 166.2 163.9 164.2 162.8 162 161.3 161 160.2 159.9 159.1 158.6 158.2 158 157.8 158.3 158.5 158.9 159.7 161.2 161.4 161.5 161.6 161.8 162.8 163.6 163.7 162.1 159.7 158.5 157.2 157.8 158.5 158.6 157.9 157.4 157.6 157.6 157.5 158.5 159 158.1 157.2 155.9 156.9 157.2 158.1 159.2 160.9 162.8 164.6 165.1 165.7 166.2 166.5 165.7 165.9 167.2 167.1 166.5 166.9 166.7 166.5 166.8 165 164.6 163.7 163.1 162.4 161.3 160.8 159.7 159.1 157.8 157.2 157.1 157.1 155.1 152.9 151 150.4 149.8 149.4 149 148.5 148.6 148.5 148.1 146.2 144.7 144 144.5 144.9 143.5 141.4 139.7 138.2 135.8 136.1 136.7 136.6 136.5
213.8 213.9 214.5 217.1 218.3 215.1 212 211.1 210.3 209.5 208.2 206.5 204.1 202.9 202.3 201.6 201 199.9 199.7 199 197.3 196.1 194.4 192.8 192 191 189.8 187.8 187.3 186.7 185.1 183.8 180.9 181.6 181.7 182.7 184.5 185.1 186.2 188.2 189.9 192.7 196 198.7 200.8 199.5 199.6 200.6 201.5 200.4 199.7 199.9 200.9 199.1 196.8 194.4 194 192.7 191.2 189.7 187.6 185.4 183.2 181.1 178.9 174.3 171.6 169.6 168.6 167.1 167.5 168.7 171.1 173.2 175.2 177.6 181.3 182.8 184.4 186.6 187.8 188.2 201.2 214.6 214.6 213.1 210.9 206.7 203.8 200.8 197.8 193.3 190 186.4 182 175.2 171.9 169.3 167.4 165.4 166.3 164 163.5 162.2 161.5 161.2 160.5 160.1 159.6 159.2 158.6 158.3 157.9 157.9 158.7 159.5 160 159.6 159.5 159.1 158.9 159.2 159.8 160.9 161.2 159.5 157.2 156 155.7 156.8 157.5 156.6 155.8 155.2 154.9 154.5 154.2 154.3 154.8 154.7 154.3 155 155.1 154.9 154.5 155.1 157.3 159.8 161.3 161.5 161.9 160.7 160.9 160.2 159.3 160.4 160.9 161.4 162 162.5 161.2 160.9 161.2 160.8 161.1 160.8 160.1 160.3 159.6 158.9 159.4 158.5 157.9 158.1 156.3 154.6 152.9 152.3 152.3 151.5 149.9 149.2 149 149 148.7 148.3 146.8 145.2 144.5 145.1 145.4 144 142.1 140.1 138.7 137.7 137.8 138.4 138.3 137.5
216.4 217 217.5 219.5 219.8 216.7 214.9 213.3 211.8 208.9 206.3 204.6 202.4 201.2 200.6 199.5 198.4 197.5 197.6 197.4 195.9 194.6 193.5 192.2 190.7 189.5 188.4 187.8 187.3 186.4 186 184.8 183.5 180.3 180.3 181 182.7 184.1 185.4 186.5 188.1 189.5 190.7 193.9 196.7 195.8 194.2 195.5 195.7 196.5 195.5 195.8 197.3 198.8 197.3 193.9 192.2 190.7 189.4 188 186.8 185.5 184.1 182.4 180.2 176.9 174.2 170.7 169.4 168 165.6 166.6 169.2 172.3 174.8 177.9 182.1 184.2 186.3 192.3 193.3 192.1 197.2 202.4 205.4 207.1 205.9 205.2 204.5 205 200.3 196.1 192.4 187.3 182.2 173.8 171.4 169 167 168 169.2 167.1 166.4 164.3 163.6 162.5 162.8 162.4 160.5 159.7 159.2 158.7 158.5 158.2 157.4 158.3 157.9 157.2 156.8 157.2 156.4 155.4 156.1 156.9 157.4 156.3 154.7 153.5 154.7 155.8 156.2 154.5 153.3 152.8 152.9 152.4 152.1 151.8 151.8 152.7 153.3 154.5 154.3 153.7 153.5 153.6 155 156.2 157 156.4 157 158.1 158.3 158.4 156.9 157.7 157.1 157 157.2 158.1 157.9 157.7 157.5 158.8 158.9 159.4 159.6 159.8 159.3 159.8 160.5 159.9 159.3 159.2 157.7 155.9 154 154.5 154.3 153.5 150.7 150.1 149 148.8 148.6 148 147.4 145.8 145.6 146 145.4 144.6 142.9 140.9 138.8 139.9 140.5 140 139 137
218.5 218.7 220.2 218.6 215.9 214.1 212.9 212 209.5 206.8 204.3 202.5 200.7 199.5 198.2 196.8 195.7 195.5 196.3 195.6 194.5 193 191.9 191.2 190.4 189.1 188 187.4 187.2 187.1 186.9 185.5 183.8 182.7 179.9 179.6 180.5 182.5 183.8 184.4 184.8 185.9 186.8 188.7 191.2 191.5 189.6 190.4 191.6 193.2 191.9 192.5 193.4 194.8 195 192.7 190 189.5 188.3 187.5 186.2 184.9 183.6 182.1 180.2 177.2 174.4 171.7 169.4 167.4 166 165.5 165.7 171.4 174.2 177 180.9 185.3 190.4 195.6 198.1 197.4 197.4 199.1 202.5 203.4 204.1 205.7 206 205.2 202 197.1 192.1 186.6 182.1 176.4 174 170.3 170 173.8 175.1 174 171.1 168.3 166.1 164 165.7 164.5 162.4 160.9 159.8 159.2 158.4 158.2 158 157.9 156.6 156.4 155.8 155.4 155.4 156.4 155.5 155.1 154.1 154.3 153.2 152.8 154.3 154.9 154.4 153.1 152 151.1 151.4 151.2 150.6 150.5 151 153.1 154.3 155 155.1 154.1 153 152.6 153.8 154.1 155.2 155.3 156.1 157 156.8 156.4 155 154.1 153.5 152.9 152.7 153.6 154.6 154.8 156.1 156.8 157.4 157.7 159.1 159.3 159.3 160.7 161.4 161.3 160.6 160.2 159.3 157.5 155.4 155.9 156.2 154.7 153.4 152 150.6 149.3 148 147.8 147.3 146.1 146.4 147.1 146 144.2 141.8 140.8 141.1 142.2 142.5 140.3 137.6 136.5
218.4 218.7 218 214.9 212.2 210.9 209.5 208.6 206.2 203.7 201.7 200.3 199.1 198.2 197.4 196.1 194 194.2 194.7 193.7 192.7 191.5 190.5 190.1 189.4 188.6 187.8 187.1 188.3 187.7 186.7 185.4 184 182.1 180.8 179.5 179.5 180.9 181.6 182.4 182.4 182.9 184.3 185.5 186.2 187.5 186.8 186.6 187.4 187.6 189.7 189.2 189.6 191 191.4 191.2 188.4 188 187.4 186.2 184.7 183.1 181.6 179.9 178 176.1 173.5 171 168.4 167.4 167 164.5 164.2 170.4 172.7 174.9 178.7 182.3 186.1 189.8 192.9 193.7 195.5 195 197.5 200.6 201 202.8 204.5 203.5 200 195.3 189.4 184.2 181.1 177.8 172.7 170.2 175.2 180.5 176.5 174.2 171.3 168.2 165.6 165.4 166.3 165.2 164 161.6 160 160.2 160.4 159.7 160 159.2 158.1 157.8 158.5 158.3 158.3 158.2 157.2 157.2 157.1 156.2 155.2 153.8 152.6 152.5 151.9 151.6 151.8 151.8 152 152.7 152.8 152 150.2 152.3 154.4 155.7 155.2 154.1 153.2 152.2 152.4 153 154.2 154.8 155.3 155 153.6 152.5 151.1 150.6 150.4 149.7 150 150.3 151.8 152 154.2 155.2 155.6 155.9 157.4 158.9 159.9 161.5 162.4 162.6 162 161.4 160.9 158.8 156.6 156.3 156.9 156 154.6 153.1 151.9 150.6 149.1 147.7 147.4 147.8 148 147.1 145.7 142.7 141.8 141.5 142.2 142.8 141.4 138.3 136.4 135.5
218.6 217.1 213.7 210.9 209 207.7 206.2 204.9 202.9 201.1 200.3 199.5 198.5 197.8 196.9 195.4 193.6 193 192.9 191.8 190.8 190.3 189.5 189 188.3 188.3 187.6 186.7 187.4 187.2 185 184.3 182.8 181.6 180.4 178.8 178.2 178.8 179.6 180.4 181.3 181.7 183.1 183.7 184 184.5 183.9 183.9 184 185.2 185.4 187 186.7 186.5 187.3 188.3 187.5 186 184.3 184.2 183 181.8 180.5 178.1 176 173.9 171.1 169.7 168.8 167.9 167.5 165.5 164 168 170.3 172.3 175 178.4 181.6 184.1 185.7 187.1 189.7 191.9 193.9 195.9 197.3 198.7 200.7 200.6 197.7 192.3 187.1 182.9 178.6 174.5 176.1 175.9 179.5 177.8 174.9 172.8 170.7 167.5 166.5 167.6 167.7 166.4 162.8 161.2 161.4 161.8 162.2 161.5 161.3 160.9 159.8 158.7 159.9 160.7 160.7 160.9 159.2 159 158.8 158.2 157.2 155.9 154.3 153.1 152.8 152.6 152.8 153 153.6 154.2 154 152.2 149.8 151.8 153.8 154 153.3 152.9 152.3 151.5 150.5 151.4 152.5 151.6 151 150.5 149.8 148.5 147.5 147.1 147.1 147.2 147.5 147.8 149.1 149.3 151.9 152.9 153 153.9 155.6 157.1 160.1 162.1 163.3 163.2 162.7 162 162 161.8 159.4 156.8 157.4 155.5 155 154.3 153.2 151.8 150 149 149.7 148.3 147.1 146.1 143.6 140.8 140.9 141.1 140.8 139.4 137.2 135.5 135.7 135.9
216.4 212.9 210.3 207.6 205.8 204.5 203 201.6 200.5 199.8 199 198.2 197.4 197 195.7 194.2 193.6 193.2 192.8 192.4 191.9 190.8 189.8 189.8 189.8 188.7 188.1 187.1 186 185.3 185.2 185.2 183.7 182.1 180.9 179.5 178.8 178.6 178.1 178.1 179 180.1 181.8 181.9 182 181.6 181.8 182 182.5 183.7 184.2 185 185.2 185.1 184.8 185.4 185.7 184 182.5 182.2 180.9 179.8 178.6 176.1 174.4 172.6 172 171 169.9 168.8 167.7 165.4 162.4 164.8 167.4 169.5 170.9 172 174.9 177 180 181.2 184.4 190 193.1 194.9 194.8 194.9 196.2 195.6 194.4 191 183.5 180.5 179.2 179.6 178.3 178.5 179.5 176.8 174.2 172.1 170.9 167.3 167.9 169.1 167.3 164.3 163 162.9 163 163.3 162.3 161.9 161.2 160.3 159.6 159.1 158.7 160.1 162.3 162.4 161.6 161 160.6 159.8 159 157.2 155.6 154.6 154 153.9 154 154.3 154.8 155.2 154.1 152.6 149.7 150.5 151.8 151.6 151.1 151.1 150.5 148.7 148.2 148 148.9 147.3 146.6 145.9 145.7 146.2 144.9 145.1 144.9 144.8 145.1 145.5 146.1 147.1 149 149.6 150.2 152 153.7 155.7 159 160.5 161.9 162.8 161.5 161.7 162.3 161.8 160.2 157.9 157.7 156 154.2 153.7 152.2 151.6 149.8 149.8 149.2 147.3 146.2 144.5 141.5 140 139.5 137.9 136.5 136.1 137.6 138.3 137.5 137.7
210.1 208.6 206.9 206.6 204.3 203 202.4 201.2 200 198.7 198.5 197.8 196.6 195.8 195.7 196 194.8 194 193.8 193 191.8 191 190.9 190.9 190.7 190 189.5 188.4 187.5 187.2 187.1 186.9 186.3 184.7 183.2 181.2 179.3 178.2 177.6 177.6 177.1 176.8 178.1 177.4 180.2 180.6 179.5 180.2 181 182.3 183.6 184.3 184.1 183.9 183.3 183 183.6 182.1 181.3 180.5 179.5 178.3 177 175.6 174.9 174 173.4 172.8 171.7 170.5 168.4 166.2 162.7 162.8 164.6 166.5 168.3 169.8 170.5 171.3 173.1 178.8 180.6 187.3 190.4 193 195.5 196.2 194.4 191.7 192.6 190.8 187.6 185.8 184.2 182.6 181.1 180.9 178.9 176 173.5 172.7 171.7 169.4 166 167.1 164.6 164.8 165.7 165.5 165.2 164.2 162.4 162.6 162.7 161.3 159.6 158.1 156.6 156.2 159.1 160.4 162.2 161.6 161.3 161.1 160.1 158.5 157.1 156 155.2 155.2 155.9 155.9 155.9 155.2 154.3 153.6 152.1 148.8 149.6 149.3 149 149.1 148.7 147 146.8 146.4 145.7 145.7 145.7 145.3 145.4 145.9 144.2 143.5 142.9 142.5 143 143.9 145.5 146.2 147 148.1 149.1 150.6 152.5 155.1 156.8 158.2 161 161.5 161.2 161.5 161.7 161.6 160.9 159.5 157.9 155.9 153.8 152.8 151.4 150.1 148.9 148.8 147.3 146.3 144.9 142.6 139.7 138.1 136.9 137.7 138.9 140.3 140.7 140.1 139.2 139.6
209.3 209.2 208.1 207.2 205.2 203.4 203.7 203.1 202.1 200.8 200.5 200.1 198.4 197.5 197.2 196.9 195.3 194.3 193.4 192.4 191.8 192.1 192 192 191.5 190.9 190.6 190.1 189.4 188.6 186.7 186.8 187.5 186.8 185.5 184.2 182 179.9 177.4 176.9 178.3 176.8 176.3 176.4 176.3 179.2 177.9 179 180.8 181.7 182.6 183.5 183 182.7 182.1 181.6 181.4 180.9 180.1 179.2 178.6 177.6 176.7 176.1 175.8 175.2 174.9 174.6 173.3 171.5 169.3 168 164.6 162.6 162.7 164.5 169.2 170.5 170.6 171.4 174.5 176.7 179.8 182.5 184.7 189.6 192.5 194.3 194.3 192.1 194.1 194.8 191.1 187.4 185.1 183.2 182 180.1 177.5 175.2 173.7 172.1 170.9 169 166.3 165.4 165.4 166.8 167.8 167.6 167.3 164.6 164.1 163.7 162.4 161.5 160.2 158.1 155.9 155 154.1 155.8 157.5 159.7 161 161.6 161.1 158.4 156 156.3 156.5 157.4 157.4 156.6 155.9 155.3 155 154.7 153.2 150.3 148.3 148.1 147.7 147.4 146.8 146.5 146.3 146.1 145.9 145.3 145.2 145.6 145.6 145.6 145.1 144.8 144.4 143.9 142.2 142.6 144.2 147.2 148.2 149 148.9 150.7 152.2 153.8 153.9 157.1 158.8 160.3 161 160.2 159.8 159.8 159 156.7 155.8 153.2 152.1 151.3 150.2 149.2 148 146.5 145 143.5 142.3 141.1 139.9 137.4 138.1 140.1 141.9 142.3 142.1 141.4 139.6 139.8
212.5 211.5 208.4 207 208.4 207.8 206.2 205 203.6 202.2 201.3 200.8 200.3 199.6 198.4 197.3 195.7 193.9 192.9 191.9 192 192.3 193.1 192.9 192.3 191.7 191.6 191.7 190.1 188.2 186.3 186.1 187 186.8 185.9 185.6 185.1 184.1 183 182.7 183.1 182.3 180.7 177.5 175.4 175.4 176.3 180.1 181.8 181.5 180.8 181.2 182.3 181.5 180.7 180.6 180.3 179.5 178.9 178.3 177.9 177.4 177.1 176.7 176.5 175.9 174.1 175 174.1 172.5 170.6 169.8 169 163.3 162.6 167.9 171.7 173.4 174 173.9 173.6 175.3 177.4 180.3 180.2 184.7 188.7 191.7 192.9 193.7 195.1 193.7 190.7 188 185.5 183.4 181.4 179.2 177.2 174.9 173.5 171.3 169.3 167.4 166.6 167.2 167.5 168.2 169.3 169.1 168.6 166.5 166 165.5 164.2 162.4 160.9 158.3 156 153.8 152.6 152.3 153.1 155.5 156.9 157.7 158.1 157.3 154.9 155 155.5 157.2 157.2 156.5 155.9 156.3 156.1 155.4 154.3 152 149.7 149.1 148.6 148 148.2 147.4 147.4 148.1 146.5 145.4 145 144.6 145.5 146.3 145.5 145.1 144.7 144.1 142.2 142.7 144.5 147.3 148 149.9 148.9 149.9 150.4 151.7 153.6 154.4 156.3 158.3 158.6 157.6 157.1 155.8 154 151.9 151.3 150.9 149.5 147.6 146.9 146.2 145.3 143.8 143.6 142.9 141.4 139.8 139.1 136.4 139.6 142 142.9 143.4 141.6 140.3 139 139.2
215.1 212.1 208.7 211.6 211.6 209.7 207.7 206.3 204.9 203.5 203.1 202.8 202.4 201.5 200.3 198.6 196.9 195.2 193.3 191.9 192.1 192.3 193.4 193.4 193.1 192.6 192.4 191.5 189 187.5 185.8 185.2 185.1 184.9 184.7 185.7 185.4 184.1 183.6 183.7 183.7 183.3 182.3 180.8 178.9 175.9 175.4 180 183.3 181.9 180.7 180.9 182 181.1 180.2 179 178.9 178.5 178 177.4 177.4 177 177.1 176.5 175.9 175.4 174.9 174.2 173.8 173.1 172.1 170.9 169.5 167.6 163 170.4 173.1 175.1 174.7 173.5 171.9 172.9 174.1 176.8 178.6 180.7 184.3 189.6 191.2 193.1 193 191.9 189.7 187.4 185.3 182.9 180.5 178.3 176.3 174.1 171.4 171.2 169.2 168.8 169.1 169.6 169.9 170.1 170.8 170.4 169.7 168.4 167.8 167.3 166 164 161.5 159.4 156.6 153.8 152.3 151.3 151.3 151.5 153 153.7 154.5 154.3 153.8 153.6 154.5 156.5 156.1 156.9 158.1 157.2 157 156.8 155.1 153.4 151.5 150.4 148.9 148.8 148.7 147.9 149 147.8 146.3 145.6 146 146.1 147.2 147 146.2 145.5 145.1 143.9 142 142.7 145.8 148.2 150.2 150.6 149.8 149.5 151.3 151.8 151.3 151.3 153.2 154.4 155.3 154.5 153.1 151.6 150.3 148.3 147.2 146.8 145.6 144.7 145.3 144.8 143.4 143.6 142.8 142.1 140.9 139.5 137.8 137.7 142.8 143.4 143.3 141.8 141.4 140 139.4 139.5
217.2 213.5 210.5 213.7 212 210.3 208.9 207.5 206.2 205.7 205.3 205.2 204.9 203.9 202.9 201.1 199.6 197.7 195.6 193.7 192.9 193.8 194.4 193.3 193.2 193.4 191.8 189.1 187 185.5 184.4 183.7 183.2 183 182.9 183.8 183.4 182.9 182.2 181.6 180.9 181.5 181.9 180.8 179.5 175.1 173.5 179.3 182.7 181.7 181.3 180.9 181.6 180.7 179.7 178.8 177.4 176.8 177 176.5 176.7 176.6 176.2 175.8 175.3 174.5 173.2 172.7 172.2 171.4 170.4 169.3 167.9 166.9 165 168.9 171.8 173.1 173.2 172.2 171.1 170.9 171.8 173.9 175.8 177.9 181.7 186.3 188.7 190.7 190.6 189.9 188.1 185.9 183.5 181.2 179.4 177 174.2 171.5 169.8 171.4 171.3 171.1 171.4 170.9 170.3 169.9 171.4 171.6 171 170.4 169.7 169.2 167.5 165.2 162.2 160.3 157.8 154.8 152.1 151.2 150.2 149.9 150.2 150.4 150.9 151.9 152.8 152.4 152.8 153.6 153.9 154.7 155.3 155.2 154.7 154.2 153.4 152.6 151.4 149.4 148.7 148.6 148.2 146.6 147 147.3 146.3 146.5 147.7 148.7 148.6 147.7 146.9 146.1 145.4 143.8 142.1 141.8 145.5 147.6 148.7 149.2 148.9 150.4 150.9 149.5 149.3 148.8 149 150.1 150.7 150.3 149.6 148.2 147.3 146.4 145 143.9 143.1 142 142.5 143 142.4 142.3 141.8 141.1 140.3 139.5 137.4 138.8 142.6 143.7 142.3 141 141.4 140.8 140.1 140.2
218.2 215.6 210.9 214.3 213.2 211.9 210.7 209.4 208.3 208.6 208 207.2 206.5 205.2 204.3 203.7 203.6 202.2 200.1 198.4 196.8 196 196 194.5 194.2 194.1 191.8 188.2 186.6 186 185.8 185.3 184.5 182.4 181.2 181.1 179.4 178.2 178.5 178.4 177.8 178.5 178.9 177.9 176.8 173.8 172.6 177.1 180.7 181.6 181.9 181.4 181.2 180.3 178.7 176.9 175.6 174.7 174.9 175.3 174.4 174.4 174.6 174.1 172 170.7 171 170.5 169.8 168.6 167.5 166.5 165.5 165.2 165.1 166 168.1 169.6 170.6 170.2 170.4 170 170.1 171.3 172.6 174.4 177.9 182.1 184.4 186 186.4 186.4 185.3 182.7 180.3 178 176.4 174.1 171.8 171.4 172.5 172.9 173 173.2 172.8 172.2 171.7 170.9 171.3 171.4 171.2 171.2 170.9 169.9 168.1 165.4 162.6 160.7 158.5 155 152.5 151.1 150.4 150 149.6 149.3 149.8 150.3 151.5 150.8 150.2 150.7 151.3 152.1 152.8 152.6 152 151.5 150.7 150.6 149.7 148.3 148.5 148.4 147.1 145.6 145 145.3 145.6 147.5 149.3 149.1 147.8 147 146.3 145.5 144.9 144.1 142.5 141.1 143.1 145.2 145.9 145.9 146.3 146.9 146.6 145.4 145.6 145.4 145.5 145.7 146.1 145.7 145.2 144.4 143.6 144.7 143.4 142 141.7 140.7 141.2 141.4 141.2 140.7 140.5 139.5 138.4 138.8 137.2 137.7 141.3 142.3 141.4 141.4 141.4 141.3 141.6 140.7
218.7 216.9 212.4 214.7 214.9 213.8 212.5 211.3 210.5 211 211 209.9 208 206.5 206.3 206.2 205.9 204.8 203.7 201.7 200.1 198.2 197.7 197 195.9 194.7 192.3 189.1 187.8 187.4 187.1 186.9 186.2 183 180.6 178.2 176.6 175.8 175.5 175.2 175 174.8 175.1 174.7 173.4 171.8 172.4 175.5 178.9 181.1 181.5 180.9 179.6 177.5 175.7 174.1 174.2 174.4 174.2 174.1 171.8 170.7 170.9 171.2 169.1 168.2 166.3 168.1 167.3 166.6 165.8 164.6 163.3 162.1 162.1 161.7 164.3 165.8 167.3 168.7 169.6 169 168 168.3 169.3 170.7 174.4 178.2 180.6 182.2 182.1 183.4 182.2 180.4 179.1 176.8 174.8 173.1 172.4 172.4 173.9 174.3 174.4 174.4 174.2 173.7 173.2 172.6 171.3 170.5 170.5 171 171.5 170.3 167.8 165.5 163.1 160.7 157.2 154.8 153.2 150.8 150.4 150 149.7 149.5 149.3 149.9 150.3 149.7 149.4 149.6 149.9 150.3 150.7 150.1 149.4 148.8 148.8 149.1 148 146.9 146.5 146.5 145.5 144.4 143 143.4 143.9 145.9 147.8 147.6 146.6 145.1 144.4 143.6 143.4 143.1 143.4 141.7 139.5 143.4 143.1 143.8 143.4 143 142.8 143 143.4 143.7 142.6 142.4 142.6 142.3 142 141.4 141.4 141.5 141.2 139.5 138.8 140 140.6 140.8 140.5 140.1 139.2 137.9 137.4 137.4 137.8 141.3 144.4 143.5 142.1 142.5 142.9 143 142.3 142.9
218 216.3 212.9 215.2 216 215.5 214.4 213.2 212.9 213.3 212.3 211.1 209.7 208.4 207.4 207.3 207.3 205.5 204.2 202.7 201.9 200.7 200.2 199.4 198.5 195.6 193 191.2 190.6 189.3 188.5 188.2 187.2 184 180.1 179.3 180 179.3 177.9 176.3 174.3 173.6 172.7 172.8 171.7 171.2 170.7 172.4 175.6 177.2 177.3 177.5 176.1 174.3 172.8 172.4 172.9 173.6 172.9 171.7 169.8 168.6 168.3 167.7 167.5 167.7 167.6 167.4 166.9 166.3 165.5 164.4 163.2 162.2 160.5 160.6 162 163.2 164.4 165.8 166.6 166.6 166 166.5 167.3 169 172.3 175.2 177.3 179 179.1 179.6 179.3 179 177.7 177.6 174.5 172.3 172 173.6 175.2 175.5 175.5 175.6 175.5 175.1 174.5 173.5 172.2 170.9 170.2 171 170.9 169.9 167.4 165.2 163 160.4 157 154.4 152.6 151.1 150.7 150.2 150.1 149.9 149.7 149.5 149.7 149.4 149.6 148.6 149.4 149.5 149.1 149.2 148.4 147.9 147.5 147.9 147.1 145.8 144.5 143.3 142.5 141.9 141.8 141.9 142.2 143.7 145.2 145.6 144.8 143.6 142.4 142 142.1 141.1 142 142.8 142.3 138.8 143.3 143.3 143.2 142.9 143 142.8 143.3 142.2 142 141.8 142.1 142.6 142.6 142.6 142.2 140.8 139.9 139.8 139.1 139.2 139.8 139.3 139 139 138 137.8 137.4 138.5 138.4 141.1 142.4 142.9 142.8 143.2 143.9 144.1 143.3 144.2
217.2 216.2 216.7 216.9 216.7 216.6 216 215.4 215.2 213.5 211.8 211 209.3 208.4 207.6 206.9 205.9 203.8 202.3 199.9 199.5 199.6 200.9 201.1 199.4 196 193.8 192.5 192.2 190.6 188.4 186.9 186.4 182.4 179.4 183.4 183.5 182.1 180.5 178.8 176.7 174.4 173.1 172.4 171.4 171.3 170.3 170.1 171.6 172 173 173.5 172.5 170.9 169.9 170 170.2 171.2 170.8 168 167.5 167.6 167.8 167.6 167 166.7 166.9 166.1 165.4 164.8 164.3 164 162.7 163.2 164.2 164 163.3 162.2 161.8 163.2 163.8 164 165 165.7 166.4 167.8 169.5 172.2 174.5 176.6 176.3 176.3 176.5 176.4 176.9 176.2 174.6 173.8 174.1 175.4 176.3 176.6 176.7 176.8 176.8 175.8 174.4 173.9 172.5 170.9 169.8 170.5 170.1 168.9 167.2 165 162.6 159.8 157.4 155.1 152.5 151.8 151.7 151.8 151.3 150.5 150 149.9 150 149.8 149.3 149.4 149.2 149.6 148.1 148.2 147.8 147.3 146 146.7 146.1 145.2 143.7 142.7 142.2 141.8 141.4 140.9 141.1 141.2 142.9 143.5 143 141.7 140.8 140.7 139.6 139.4 140.6 141.6 142 136.4 143.1 142.9 142.5 143.2 143 142.7 142.6 142.3 141.8 142 142.5 143.1 143.1 141.5 140.3 139.7 141.4 142.9 143.8 141.6 139 138.7 138.3 138.1 138.4 138.1 139.4 140.9 141.1 141.2 142.6 143.9 143.9 144.3 144.7 145 144.1 143.4
218.1 218.3 217.2 217.3 217.4 216.6 215.8 215.1 213.4 211.6 210.3 209.8 208.5 207.4 206.2 204.8 203.5 202 200.4 197.5 196.8 198.3 199.4 199.7 197.4 194.3 193.2 192 190.1 187.6 184.4 181.8 181.2 180.3 185.1 186.2 185.3 183.7 182.1 180.5 178.2 175.3 173.7 173.1 173 171.6 169.8 169.8 169.1 169.7 168.3 166.8 166.6 167.4 167.6 167.9 167.5 168.3 168.7 167.3 167.5 167.7 167.9 167.8 167.1 166.3 166.2 165.9 165.7 165.3 164.3 163 162.2 164.3 164.3 164.3 162.6 161.1 160.4 160.7 161.7 163.1 164.2 165 165.7 166.8 168.4 169.8 171.7 174.1 173.6 172.9 172.5 172.7 174.6 176.1 176.8 175.8 176.3 176.9 177 177.1 176.4 176.5 176.7 175.6 174.6 173.4 172.2 171.4 170.2 169.8 169.5 168.1 166.4 164.2 162.1 159.7 157.2 154.9 154.1 153 153.1 153.1 151.9 150.6 150.4 150.3 150.3 150.1 150.4 151.1 151.6 151.1 150.7 148.9 148.7 147.5 145.4 145.7 145.4 144.1 143.4 142.7 142 141.7 141.4 141.1 140.7 140.9 141.4 141.7 140.8 140.8 139.7 139.4 138.3 137.9 138.8 138.5 139.3 136.5 142.6 142.7 142.7 143 143.7 143.7 144 143.6 143.9 143.7 144.3 143.6 142.3 141.2 140.3 140.2 141 140.8 143 141.9 141 140.5 140.4 139.9 139 138.7 141 142.1 142.2 141.6 142.6 143.6 142.8 143.7 145.1 146.9 144.1 142.8
217.9 218.6 216.8 216.6 216.3 215.7 215.1 213.7 211.6 209.5 209.1 208 206.3 205.1 203.7 202.3 200.9 199.4 196.9 194 194.3 196 197 197 193.6 190 188.9 186.9 184.7 182.4 182.1 182.7 185.3 186.5 185.8 184.8 183.8 182.2 180.9 178.8 176.7 175.8 174.6 175 174.7 173.1 170.7 169.6 168.2 167.8 167.6 168.1 167.7 166.4 165.8 165.8 165.4 165.3 165.4 167.2 167.4 167.8 168.1 168 167.2 167.2 167.9 168 167.7 166.9 165.3 164.1 164 163.6 163.8 164.1 163.2 162.4 161.5 160.7 159.6 161.2 163.3 164.2 165 167.4 169.2 170.8 171.1 171.7 171.2 170.9 170.8 171.8 176.5 178 177.9 176.8 177.3 177.6 177.7 177.7 176.9 176.1 175.9 175.2 174.6 172.8 171 171.1 170.4 169.4 168.4 167 165.6 163.3 161.4 159.4 157.3 157.1 156 155.1 154.6 153.6 153.4 153.2 152.9 152.4 151.7 152.6 153 153.4 153.3 152.8 152.3 150.6 149.2 147.8 146.5 145.1 144.8 143.6 143 142.9 142.7 142.3 142.1 142 141 141.3 142.3 141.7 142 142.2 140.5 140.4 140.3 140.1 139.8 140.2 139.4 137.7 140.9 141.1 140.9 140.3 141.5 143.1 143.7 144.2 144.6 144.6 144 143.3 142.5 142.2 142 142.4 141.7 139 141 143.2 141.7 140.8 140.7 140 139.3 139.1 140.7 140.7 140.3 139.5 139.6 140.8 141.3 143.2 146.6 148.2 143 141.5
215.5 217.1 215.6 213.4 214.1 214 213.9 211.9 209.6 207.3 208.4 206.5 204.1 202.7 201.3 200.1 199.2 196.4 193.2 191.8 190.6 190.1 194.1 192.9 188.5 185.5 184.9 183.8 183.9 184.9 186.7 188.1 187.5 186.9 185.6 184.4 182.8 180.9 178.6 177.2 177.2 176 175.6 175.8 176.8 175.9 174.7 172.8 173.3 172.7 172.2 172.3 171.4 169.7 168.7 167.1 165.2 163.8 163.6 163.5 167.4 167.9 168.2 168.3 168.6 168.9 168.8 169.7 168.5 166.4 165 163.5 162.9 162.8 163 163.6 165.6 164.2 163 161.5 160.1 159.3 161.3 162.7 164.6 168.3 171.1 171.2 170.5 170.1 169.9 169.6 171.7 175.4 177.8 178.4 177.6 177.6 178.3 178.3 177.7 177.3 177.4 175.6 175 174.3 173.4 172.5 171.4 170.6 169.4 168.2 166.9 166 165.1 163 161.5 160.5 159.3 159.4 158.8 157.7 156.9 156.6 156.4 155.6 155.1 154.3 154 155 155.9 156.1 155.5 154.7 153.6 152.6 150.6 149 147.7 147 146.4 145.3 145.4 145.5 145.4 144.5 143.7 143.9 143.1 143.1 144.8 144.2 144.3 143.7 141.8 141.2 140.1 139.4 138.7 138.3 137.1 138.7 139.1 138.7 138.4 139 138.4 139.7 139.9 140.5 140.9 140.9 141.8 142.1 142.4 141.9 140.7 140.6 140.7 138 140.8 143 142.2 141 140.8 140.1 139.7 139 140.4 139.4 138.8 138.8 138.9 139.6 141.7 145.3 147.7 146.4 141.9 140.9
208.2 208.4 207.6 207.4 207.6 211.2 211.3 208.8 206.6 204.9 207.1 204.4 201.7 200.4 199 198.2 197 193.5 192.2 196.4 195 189.3 188.9 187.5 186.3 190.5 189.2 188.3 188.7 190 189.4 187.8 187.2 186.5 185.6 184.2 182.8 180.9 178.5 177.5 177.7 177 176.6 176.3 177 175.4 173.1 170.8 170.9 170.8 170.7 171.8 170.9 170.1 169.2 167.9 166.8 166.2 164.7 162.8 162.8 166.9 167.1 166.9 167.5 168.3 167.6 169 167.2 164.9 163.5 162.2 161 161.5 162.4 164.3 165.8 165.8 164 162.2 160.4 158.1 159.5 161 162.8 166 167 167 166.7 166.8 167.8 169.9 172.1 175.8 178.1 178.9 178.5 177.3 177.5 177.6 177.1 177 176.8 175.6 174.6 173.1 172.2 171.3 170.5 169.4 168.2 167.3 166.9 166.6 165.7 165.5 164.2 163.2 161.4 161 161.4 160.6 160.1 159.1 157.9 156.4 156.5 156.3 156.2 156.9 157.5 156.4 155.3 154.1 153.6 153.4 152.2 150.7 149.8 149.2 148.4 148 148 148 147.8 146.2 144.7 145.7 145.2 146.1 147.7 146.9 146.1 145 143.8 142.4 141.1 139.8 137.8 137.4 136.8 134.7 136.6 137.2 137.4 138 137.5 136.9 136.6 136.6 136.7 137.1 138 138.9 139.1 139 138.4 138.7 138 138.1 140.6 141.9 142.7 141.8 141.1 140.8 140 139.3 139.9 139.5 138.8 138.6 138.6 139.6 143.7 146.9 148.2 145.7 141.6 141
209.8 213.9 213.1 210 207.4 204.1 205.4 204.9 203 201.8 202.6 200.2 199.8 198.6 197.4 196.3 195.2 195.5 197.7 196.3 194 190.7 188.9 190.3 195.8 194.9 193.8 193.6 193.5 192.3 189.3 187.2 186.6 186 185.2 184 182.6 181.2 179.3 178.9 178 177 176.1 175.7 174.7 172.7 170.8 169.1 168.6 168.6 169 169.4 168.5 168.6 167.7 167 166.6 166.3 165.4 163.9 162 162.3 165.5 165.3 165.3 166.2 166.6 166.6 164.7 162.7 161.5 160.4 159.2 159.7 161.6 162.3 163 162.8 161.7 159.9 158.4 157.8 158.6 160.1 161.7 161.9 162.7 163.3 164.4 165.6 166.8 169.7 173.7 177.1 178.9 178.4 176 175.8 176.1 176.5 175.8 175.2 175.6 175.9 174.1 172.7 171.1 170.2 169.4 168.5 168.2 167.8 167.5 167.9 166.8 166.4 166.5 165.5 163.6 162.8 163 162.1 160.9 159.7 158.1 157.8 157.5 157.4 157 157.1 156.7 155.2 154.4 153.7 153.7 153.4 152.9 151.9 151.6 150.9 149.1 147.9 148.1 148.4 148.2 147.5 146.4 146.5 147.4 147.7 147.7 147.6 146.6 145.1 144.1 142.7 140.3 138.1 136.5 135.3 137.4 131.9 136.2 137.3 137.3 136.9 135.7 135 134.7 134.4 135 135.6 136 136.3 136.9 136.7 136.6 136.8 136.2 136.8 137.9 138.6 140 140.8 141.4 141 140.2 139.5 139.6 139.5 138.8 138.7 138.7 139.9 144 146.3 147.8 145.9 143.1 141.5
214.7 216 216 213.8 211.1 207.4 204.2 204.7 205.6 205.5 199.9 198.3 197.9 197 196.3 196 197.3 198.4 197.4 195 193.6 193.9 195.1 197.4 198.3 197.8 196.4 195.6 194.1 191.9 189.1 186.5 185.6 184.9 183.8 182.5 181.5 180.3 180.1 180.4 178.7 176.8 175.8 174.9 173.6 172.1 170.5 168.9 168.2 167.9 167.3 166.6 167.1 167.1 166.3 166 166.3 166.1 165.3 164.8 161.8 161.5 163.8 164 163.4 163.7 165.8 163 162.3 161.6 160.6 159.5 158.4 157.4 157.6 159.2 159.8 159.8 158.8 157.5 157.9 157.2 157.9 158.9 159.9 160.9 162 163.5 164.5 165.1 167 169.6 173.7 177 177.4 176.4 175.7 174.7 173.8 173.4 173 173.7 174.2 174.6 173.9 172.2 169.9 169.1 168.3 168.5 168.5 168.4 168.1 168.4 167.9 167.3 166.9 166 164.8 163.6 162.8 162.6 160.7 159.2 158.1 158.2 157.9 157.2 156.4 155.2 154.6 154 151.8 150.6 151.3 151.5 150.8 150.1 149.8 149.4 147.7 147 146 145.2 146.1 146.2 146.4 146.5 146.5 146.7 147.3 146.9 145.9 144.7 142.5 141.4 138.5 136.2 135 135 136 133.7 132.8 134.4 135 134.9 134.8 133.8 133.3 133.2 133.4 134.1 134.4 135 135.9 136 135.9 136 136.1 135.7 136 136.7 137.8 139.6 142.3 140.6 140.2 140.1 140.3 140.1 139.1 139.1 139.1 140.6 143.1 144.3 145.2 143.8 143.5 143
215.6 216.6 216.1 213.8 210.3 207.8 207.2 206.7 205.9 202.7 199.4 198.1 197.9 198.6 198.5 198.2 198.6 197.7 196.3 195.4 194.5 194.8 196.4 197.1 197.8 196 194.3 192.8 191.4 189 187.5 185.2 183.9 183 182.1 180.8 179.9 179.4 179.8 179.9 178.7 177.1 175.6 174.6 173.2 171.7 170.2 168.7 168.3 167.8 167.1 166.7 166.1 165.9 165.5 165.3 165.4 165.9 165.3 164.6 163.4 161.9 160.8 162.4 162.6 162.3 164.3 161.9 161.4 160.7 159.8 158.8 157.7 155.5 156.5 156.4 156.5 156.6 156.3 156.7 156.4 156.9 158 159.4 160.1 160.5 162.4 164 164.5 165 166.8 169.7 172.7 177.1 177.7 176.3 174.1 171.9 171 170.2 169.7 171 171.9 171.5 172.4 170.5 168.8 167.9 167.6 167.9 168 167.6 167.1 166.4 165.4 165.1 164.4 163.6 162.9 162.2 161.5 160.8 158.8 157.5 156.9 157.4 156.9 155.5 154.8 153.3 152 150.9 148.7 147 145.7 144.6 144.2 143.6 141.7 140.8 143.1 143.7 142.6 142.9 143.7 143.8 144.1 144.4 143.9 143.8 144.7 144.6 143.2 141.8 139.7 140.1 137.6 135.1 135.3 135.3 135.2 137.3 130.5 131.6 132.8 133.2 133.1 133 132.3 132.3 132.8 132.7 132.8 133.9 134.7 135.3 135.2 136.1 135.9 135.5 136.4 138.1 139.9 142.3 143.1 142.1 141.9 141.4 141.1 140 139.4 139.7 139.8 141.9 146.8 147.4 145.4 145.3 144.7 144.7
217 216.1 214.7 211.6 209 207.6 203.8 201.9 201.5 200 199.3 199.5 201.3 201.2 201 199.9 198.7 197.3 197.1 196.3 195.4 195.8 196.1 196.4 194.7 192.5 190.7 189.2 187.8 187 185.4 183.9 182.5 181.4 180.4 179.5 178.8 178.3 178.5 179.3 178.2 176.9 175.6 174.2 172.8 171.3 169.9 170.6 170 169.3 168.3 167.4 166.3 166 165.3 164.8 164.5 164.8 165 164.4 163.8 161.6 159.5 160 159.7 159.9 162.7 160.7 160 159.6 158.8 156.9 156.7 155.2 156.8 155.3 154.4 155.2 155.6 155.1 154.8 157.2 158.5 159.8 160.9 161.3 163 163.5 164.7 165.7 165.9 168.8 172.5 175.4 176.7 174.3 172.3 169.6 168.7 167 166.4 166.9 166.8 167.4 168.9 168.2 166.9 166.4 166.2 166 165.4 164.8 164.1 163 162.1 161.9 161.9 161.1 160.5 160.4 159.9 158.7 157 155.4 154.8 156.1 155.9 154.7 153.1 151.5 150.5 147.4 144.4 140.7 139.3 136.2 134 131.5 129.5 126.3 131.6 139 140.7 140.9 141.8 141.6 141.9 142.2 141.5 140.5 140.5 140.2 139.6 139 138.4 138.5 137.5 135.2 135 134.7 133.5 134.1 131.6 128.2 130.8 132 131.3 131.6 131.5 131.5 132.1 131.8 132.9 133.6 134.3 134.9 135.8 136.7 137.1 136.9 138 140 142.7 143 142.2 142.3 143.2 143.8 143.6 143.4 140.8 140.9 140.8 142.6 146.1 147.3 146.9 146.3 146.1 146.8
216.8 215.6 212.4 209.3 207.7 205.3 204 205.5 202.4 201.9 202.3 204 204.4 203.9 203 202 199.5 198.7 197.8 197.1 196.4 194.8 194.4 194.1 191.5 189.6 187.9 186.5 185.5 184.3 183.5 183.6 182.3 181 179.9 179.3 178.7 178.2 177.9 178.3 177.6 176.3 174.8 173.8 172.1 170.6 171.8 172 171.5 170.9 169.3 167.9 166.6 165.5 165.1 164.5 164.8 164 164.6 164.2 163.5 161.4 160.6 160 158.6 158.8 158.7 158.4 158.2 156.6 157.3 157.1 155.9 154.5 156.7 154.4 155.7 155.6 155.6 155.1 154.2 154.8 157.7 158.9 160.3 161.9 162.8 164.1 165.9 166.8 166.8 168.8 173 174.8 174.3 172.1 170.8 168 166.3 164.6 163 162.4 162.3 162.7 165 165.6 164.9 163.9 163.1 162.5 161.7 161.1 160.5 159.6 158.9 158.8 158.9 158.8 158.3 158.5 158.3 157.2 155.2 154.6 155.3 156 155.7 154.1 152.1 148.4 136 133 132.3 131.6 129.8 130.3 129.8 128.5 131.2 134.2 129.7 130.1 135.4 137.1 139.8 141.3 141.4 141.4 143.4 142.9 140.7 139.2 138.1 136.3 126.5 119.5 119 119.4 134.5 133.6 132.3 131.6 132.3 130.3 129 130 130.7 131.1 130.7 130.7 130.1 131.6 133 134.2 135.1 135.4 136.3 135.8 137.1 138.3 140.2 142.8 144.4 143.5 142.7 143.8 145 146 146.2 146.3 143.6 142.1 142.2 144.1 145.7 147.4 147.4 146.8 147.4 147.9
214.4 211.8 208.8 206.9 205 205.5 207.5 205.9 204.1 206.2 206.5 207.7 208.5 208.5 205.9 204.6 202.6 201.2 199.4 197.6 195 193.8 192.5 191.3 189.3 187.9 187 186.7 187.8 187.9 186.3 185.3 184.2 182.8 181.4 180.8 180.2 179.6 178.4 176.6 175.3 175.5 173.8 173.4 172 172 173 172.9 172.5 171.9 170.5 168.4 167 165.6 164.8 164.4 164.3 164.3 163.8 163.6 162.9 162.4 162.5 159.6 158.9 159.2 162.5 158.1 157.8 156.6 156.4 155.5 155.3 154.9 155.9 156.3 156.6 157.1 157.4 157.4 154.8 152.5 155.9 157.2 159 160.4 162.5 166 166.7 166.4 164.5 170.1 173.8 174.1 171.7 169.5 167.7 165.6 163.4 161.9 161 160.2 159.8 159.5 160.7 161.1 161.3 160.4 159.5 158.7 157.9 156.9 156.3 156.2 155.8 155.7 156.2 156.1 156.1 156.5 156.3 156.2 156.5 155.9 156.6 156.3 154.4 151.5 144.1 136.8 135.7 144.7 141.8 139.6 133.9 131 134.6 139.8 144.7 142.3 136.2 129.3 126.7 128.4 130.9 131.5 134.9 139.1 141.9 141.9 139.4 137.8 130.4 121.2 121.3 121.8 119.9 118.9 134 132.6 130.9 131.4 133.1 133.3 133.1 131.6 129.2 130.3 129.6 129.2 127.7 130.9 132.5 133.6 134.7 135.5 135.4 136 137.5 139.4 142.2 144.8 145.2 144.4 144.4 145.5 146.6 147.8 148.7 148.5 146.2 144.7 144.8 145.5 146.1 147.6 147.7 147.4 147.5 147.6
210.9 208.3 207.9 206.6 207 209.1 208.9 207.9 207.9 209.9 210 210.4 210.9 210.3 209 206.8 204.1 201.5 198.8 196.7 193.9 193 190.4 189.4 189.1 188.9 188.6 190.2 190.8 189.5 187.7 186.8 186 184.7 183.3 182.3 181.7 179.7 178.2 176.5 174.6 174 173.2 172.6 172.6 173.4 173.9 173.8 173.6 172.6 171.2 169.6 167.6 166 165.2 165 164.6 164.2 164.4 164.1 163.9 164.2 163.9 163.5 162.7 163.3 163.3 161.6 160.1 160.4 158.6 158.4 158.6 158.3 158.2 159 158.1 158.6 158.4 158.9 158.4 151.6 153.9 155 156.5 158.9 161.9 164.2 163.4 162.9 163.7 168.3 171 170.9 168.7 165.5 163.7 163.2 161.4 160 159.2 158.7 158.6 158.8 158.5 159.1 159.1 158.5 157.8 157.2 155.5 151.8 149.9 149.2 149 149.5 149.9 151.9 152.1 154.2 154.8 155.2 156.1 157.1 156.2 150.7 143.5 137.7 137.2 138.7 148.4 149.2 148.9 150.6 150.1 148 148.5 149.6 149.8 147.2 143.9 138.3 134.4 127.6 126.4 124 123.4 123.1 129.2 138.6 137 129.5 120.6 125.1 130.1 131.7 124 120.1 120.2 121.4 123.4 127.9 132.6 133.9 134.1 131.4 126 129.8 129.1 129.1 126.8 128.3 130.8 132.4 133.5 134.3 134.6 135.8 137.4 139.8 142.1 144 145.1 144.8 146.5 147.6 148.7 149.8 150.6 150.8 149.6 147.7 146.6 146.5 146.7 148.1 147.9 147.7 147.4 147.6
208.5 208.3 209.7 211.3 212.4 212.3 212.1 212.1 213.8 214.3 213.9 212.1 210.6 209.7 208.6 206.3 203.3 200.3 197.5 195.4 192.4 192.8 192.1 191.8 192.2 191.5 191.9 193.8 193.1 191.3 189.2 188.3 187.2 185.8 184.6 183.1 180.9 179.5 178.1 176.4 174.5 174 173.4 174.5 174.7 174.5 174.9 174.7 174.6 173.7 173.4 171.8 169.8 167.7 167 168.5 168.1 168.1 167.9 166.3 166.3 165.1 165.1 164.8 164.5 164.9 164.9 163.9 162.3 160.3 161.2 161.6 161 160.7 161.1 161.9 159.5 159.8 160.1 160.7 160.5 158.2 157.1 156.2 156 157.5 157.6 156 155.9 157.1 158.9 162.8 165.9 166.9 165.8 164.6 162 161 159.8 158.2 158 158.2 158.7 158.4 158.1 158.4 158 157.5 154.9 153.2 146.6 143.3 142.8 142.6 141.8 140 138.5 138.9 141.5 147.7 152.3 154.5 154.7 154.4 147.8 137.5 137.3 137.7 142.2 151.8 151.3 150.3 150.3 150.1 150.9 152.2 153.5 153 151.3 148.9 146.6 144.7 140.2 135.6 134.1 130.9 129.4 125.8 124.3 124.4 123.2 123.6 122.4 134.6 138.1 136.1 134.8 122.5 117.1 117 117.3 117.4 121 129.7 131.3 129.6 125.1 121.6 122.5 120.8 116.6 119.2 123 130 131.6 133 133.4 134.7 137.2 139.6 141.9 143.8 145.3 147 147.7 148.5 149.6 150.7 151.2 151 150.3 148.7 148.5 148 148.2 148.2 148.1 147.9 148.2 148.7
214.8 214.9 215.3 216.6 217.3 217.4 217.2 217.8 216.9 215.7 212.4 209.9 207.8 206.8 205.4 203.7 200.9 197.9 195.7 195.6 193 194.6 196.1 195.3 194.9 195.3 195.9 195.6 193.9 191.1 190 188.2 186.7 185.2 183.8 181.5 180.5 179.2 177.9 176.1 174.5 174.5 174.5 176.4 176.4 176 176 176.1 176 176.6 175.8 173.6 171.5 170.1 169.9 171 171.7 171.6 170.1 168.1 166.3 164.6 164.2 164.1 164.7 165.5 165.6 164.2 162.5 162.1 163 163.7 163.7 163.6 163.5 163.6 161.7 161.8 162.4 161.6 160.6 160.6 160.8 158.6 158.5 158.7 157.3 158.6 158.8 157.5 157 156.3 161.1 163.8 164.7 162 160 158.5 156.9 155.7 157.7 158 158 157.8 157.2 157.4 156.3 154.2 147 144.5 145 148.7 149.6 149.3 148 146.7 145.4 138.5 138.3 139.4 143.7 150.2 151.6 143.1 137.1 137.7 143.1 149.1 153.1 154.1 152.5 149.9 147.8 147.2 148.1 151.5 153.2 152.8 149.4 146.5 144.5 143.1 141.3 140.4 141 141.7 142.5 139.4 134.4 130.1 125.8 124.2 132.6 138.7 137.5 136.2 135.5 134.2 125.8 116.5 117 116.5 115.6 115.5 120.6 124.3 120.9 112.2 111.7 112.9 116.4 117.8 113.4 118.8 128.6 131.3 132.5 134.5 137 139.5 141.3 144.2 146.4 148.2 148.6 149.3 150.4 150.7 150.5 150.7 149.4 149.2 149.2 149.3 149.8 149.6 148.9 148.9 149.3 149
221.1 221.9 222.1 222 223 223.1 222.8 221.5 218.2 214.3 210.3 206.9 204.7 203.2 201.8 200.5 198.1 197.1 196.4 195.4 195.9 197.1 199.5 200.2 197.8 197.3 197.2 195.1 192.7 190 188.2 185.6 182.7 181.8 180.8 179.9 179 178.5 177.2 175.7 175.9 175.9 176.2 177.5 177.9 177.5 178 178.8 177.6 178.4 176.6 174.4 172.9 172.5 173 174.3 174.3 172.3 170.1 167.7 165.7 164.4 164 163.6 163.5 164.5 164.7 163.2 163.4 163.7 164.2 165.4 165.4 164.8 163.9 164.2 163.3 164 163.3 162.4 161.7 162 161.9 161.6 161.4 161.4 162.4 162 161.7 161 159.6 157.6 159.3 160 160.7 158.2 156.7 155.6 154.1 155.6 155.7 155.5 154.6 155.4 154.8 154.3 150.9 146.3 143.2 147.4 153.2 155.4 154.8 153.7 152.8 152.1 150.7 148.1 140.6 138.5 138.5 141.9 140.4 137.7 141.2 149.7 152 153.3 153.4 152.1 150.5 147.9 146.7 146.6 147.7 148.9 149.6 149 146.4 144.1 142.9 142.4 142.1 142.3 143.1 143.5 142.8 142.9 143.5 142.1 141.8 141.6 139.8 137.8 136.1 135 133.4 133.3 131.7 128.7 121.8 117.4 121 116.9 114.1 115.3 113.1 112.2 111.1 117.7 122.1 127.1 122.8 110.9 127.6 133.3 134.5 135.9 138 140 142.6 144.3 147 149 149.3 149.9 149.8 149.7 149.7 150.1 149.5 150.2 149.8 149.8 150.2 150.2 149.6 149.7 150.3 149.4
225.9 226.5 226.8 226 226.4 225.6 223.6 221 216.8 212.5 207.5 204.2 201.2 199.9 199.1 198.2 197.7 196.8 196 196.3 197.4 199.4 202.2 203.1 199.6 197.7 196.9 194.1 191.3 188.3 185.5 183.1 179.9 178.9 178.5 178.6 178.4 177.5 177 176.6 176.7 176.7 177.1 178.2 179.4 179.6 180 181.2 180.1 179.9 177.9 175.6 174.3 174 174.4 174.6 173.5 171.2 169.1 167.1 165.6 164.7 164.1 163.7 163.7 163.7 163.6 163.9 164.4 164.8 165 165.3 165.8 165.3 164.7 164.5 165 164.1 163.8 163.3 162.9 162.4 161 160.9 161.4 161.6 161.4 161 161.1 161.2 160.4 159.1 156.1 155.3 152.5 153.8 152 150.4 147.9 147.7 146.6 146.6 146.6 146.6 146.5 145 143.5 149.5 153.2 156.6 156.5 155.2 154.7 153.6 152.6 151.8 151 149.9 145.6 139.8 138.9 138.6 138.7 143.4 148.8 151.5 152 152 151 149.2 147.6 146.9 146.4 147 147.8 147.4 146.3 145 144 143.2 143.2 143 143.3 143.8 144.3 144 142.4 142.8 142.9 141.3 139.9 138.4 136.6 135 133.8 132.5 131.7 130.5 128.6 128.1 130 130.3 128.5 125.9 120.6 113.8 113.1 112.4 114.8 122.7 126.9 129 127.6 110.4 126.8 134.6 136.6 137.7 139.2 141.2 143.9 145 147.8 148.5 148.8 148.8 148.9 149.2 149.7 149.5 150.3 151.2 150.3 150.7 150.4 150.6 150.4 151 150.7 150.7
229.9 228.9 228.7 229.2 228.1 225.8 223.3 219.8 215.5 210.5 205.8 203.5 201.1 199.6 199.3 199.2 198.9 197.7 196.5 197.8 199.5 202 205.4 203.3 198.8 196.3 194.8 193.6 191.7 188.1 184.4 181 179.9 178.8 179.2 179.5 179.1 178.7 178.2 177.6 177.5 177.7 178.3 180.2 180.8 183.1 183.3 183.2 181.3 179.3 177.3 175.1 173.4 173.5 172.9 173.3 171.6 171 169.5 168.6 166.2 165.1 164.2 163.9 164.1 163.6 165.1 165.8 165.4 165.8 166 165.5 165.8 165.7 165.5 164.8 165.2 164.3 163.5 162.9 162.3 161.1 159.5 158.7 158.7 158.3 158.6 158.1 158.5 158.5 157.7 155.6 155.2 151.2 149.3 149.2 148.9 148.8 148.9 150.7 154.1 155 152.5 150.8 148.8 148.4 148.9 157.2 157.5 156.4 155.3 154.2 153 152.9 152.4 151.8 151.3 150.9 150.6 145.4 142.4 142.8 147.5 151.1 151.2 150.8 150.9 150.7 149.3 148 147.3 147 146.8 146.3 146.1 145.1 144.2 144 143.7 143 142.6 141.4 141 141.2 141.1 140.8 140.9 140.6 140.4 138.9 137.3 136.6 135.3 133.9 132.8 131.9 131.9 131.8 131.6 130.7 130.3 131.2 130.1 128.6 126.9 123.9 113.6 118.2 126.3 128.8 127.9 127.1 119.2 111.3 123.3 134.7 136.1 137.4 139.6 142.4 145.1 146.5 147.2 147.7 148.3 148.8 148.9 149.2 149.6 149.7 150.1 151 152.1 152.3 151.9 151.6 152.2 152.6 152.7 152.9
231.3 231.3 231.3 230.7 228.7 225.1 222.4 218.4 213.8 209.1 205.3 203.6 202 202.1 201.6 200.9 200.1 199.1 197.9 199.2 200.8 204 205.5 202.1 197.8 195.8 193.8 192.1 191 188.1 184.2 181.4 180.1 179.7 179.5 179.6 179.9 179.8 179.3 179 179 179.4 181 183.4 185.8 186 186.1 183.4 181.1 178.8 176.7 174.8 172.7 172.1 171.4 171.8 171.2 171 170.7 169.5 167.4 165.4 164.3 164.2 164.4 164.1 164.3 164.8 166.3 166.3 166 166.1 166.9 166.8 165.7 163.5 163.6 163.4 162.5 161.5 160.9 159.7 158.7 158.4 158.4 159 158.9 158.3 158.2 158.7 159.1 159.3 158.7 157.2 153.9 150.3 151 153.6 156.9 157.4 157.6 157.8 157.3 157.5 157.4 157.8 157.4 156.2 155.1 154 153.7 153.7 154.5 154.3 153.6 153.1 152.7 152.5 153.1 152.6 151.7 152.6 153.1 151.9 150.6 149.8 150 149.9 148.7 147.9 147.2 147.2 145.7 144.2 143.9 143.4 143.5 143.9 143.1 141.7 140.4 138.6 139 139 139 139 138.6 138.1 137.9 136.5 136.1 135.6 134.2 134.1 135.8 134.9 134.1 134 132.8 131.6 130.5 131.2 131.4 129.9 128.2 127 126 127.6 129.9 128.5 126.9 126.3 114.3 110.3 120.3 133.9 136.7 138 140.5 142.4 145.3 146.6 147.6 148.2 148.9 149.4 149.7 149.6 149.6 150 151.3 152.5 153.5 154.5 152.8 153 153.7 154.4 155.1 154.2
231.8 232.9 232.4 231.1 228.6 224.9 221.2 217 212.8 209.7 207.3 206 204.5 204.9 203.5 201.2 200.1 199.5 200.3 200.4 202.8 205.4 204.4 201 197.8 195.6 193.6 190.8 189.7 187.3 184.5 182 181.2 181.4 182.5 181.5 181.6 181.1 181.2 181.5 181.6 183 184.9 187.4 188.5 187.9 185.4 182.7 180.2 177.8 175.4 173.8 172.1 170.9 170.3 171.7 171.4 171 169.8 168.7 167.4 167.3 164.6 164.1 164.5 164.6 164.6 164.6 166.4 166.3 166.4 166.5 166.4 165.8 164.2 162.2 161.7 163.2 163.4 162.6 162.4 162.2 162.1 161.5 160.3 162 161.8 160.7 161 161 161.3 160.3 159.6 159.6 158.7 158.4 158 159 159.3 159.7 159.7 159.5 159.2 158.5 157.2 155.8 154.2 153.4 153.1 153.7 155.9 156 154.9 154.9 154.8 154.6 154.3 154.3 153.9 154.9 154.5 154.3 152.5 151.6 150.5 149.2 148.2 148.2 147 145.4 146.9 146.6 145 142.7 142.1 142 142.3 141.7 140.9 139.7 139 139 139 139 139 139 137.4 136.5 135.7 135.6 135 134.5 136 137.3 138.7 138.8 138.5 137.2 136.1 134 131.6 131.7 131.5 130.8 129.7 129.6 129.8 130 128.4 127.4 126.1 121.3 111.1 108.4 121.4 133.5 135.8 137.8 139.1 140.5 142.9 146.3 147.6 148.5 149.2 150.2 150.4 150.3 150.1 151.5 152.8 154 155 155.1 154.4 155.1 155.7 156.1 155.6 155.1
232.3 233.4 232.2 230.2 227.4 223.1 219.5 216.8 213.8 212.3 210.6 208.4 207.1 205.6 202.8 201.2 200 200.4 201.8 201.8 203.9 205.2 203.3 201.5 199.6 196.1 193.4 190.9 188.4 186.6 185.1 184.8 185 186 185 183.8 183.3 183.3 183.9 184.1 184.3 186.8 188.8 190.7 190.2 187.5 184.8 182.1 179.3 176.5 174.2 172.6 171.2 170.2 169.9 170.2 171.1 169.8 168.5 167.8 166.5 165.8 164.5 164.8 164.8 164.9 165.8 165.1 166.6 166.2 164.7 164.6 163.4 163.1 162.2 162.4 162.4 164.2 165.1 165.3 165.6 165.5 164.5 163.6 162.6 163.8 163.5 163.2 162.5 161.9 160.9 159.7 158.4 157.9 157.2 156.4 156.7 157.5 158.6 159 158.6 157.2 155.9 154.2 153 152.2 153.2 153.7 156.9 158 156.3 154.2 154 153.3 152.4 152.7 152.9 153.4 153.6 153.9 153.5 153 151.9 151.1 150.2 149.7 150.1 150.4 148.6 146.3 143.5 143.1 143 141 140.1 139.7 139.9 139.3 139 139 139 139 139 139 139 139 137.3 135.9 135.3 136.3 137.3 137.6 138.4 139.9 140.8 141.6 140.1 138.7 138.2 136.6 134 133 132.6 132.1 131.7 130.6 129 128.3 127.2 125.9 124.4 120.3 110.1 108.2 125.5 132.6 134 135.4 136.8 138.5 140.6 144.4 147.5 148.6 149.5 150.1 150.4 150.7 151 152.9 154.3 155.5 155.8 155.9 156.9 157.1 157.5 157.3 157 155.8
232.9 232.5 231.3 229.3 226.7 222.4 218.8 215.8 214.8 213.5 211.3 209.7 207.1 205.4 202.9 201.1 200.3 202.4 203.7 204.4 205.8 206.2 205.2 203.6 201.2 197.8 194.3 191.6 189.9 188.5 188.2 188.8 189.7 188.9 187.6 186.3 186.1 186.2 186.9 187.8 189.3 191.1 192.5 191.1 188.7 186 183.2 180.5 177.8 175 173.1 171.8 170.5 169.7 169.4 169.2 169 168.5 167.4 166.9 165.6 165.7 164.8 164.5 165 166.9 165.6 165.8 166.7 165.2 163.2 162.9 162.3 162 161.9 162.7 163.1 164.2 165.7 166.7 166.6 165.6 164.2 162.6 161.9 162.6 162.8 162 160.4 159.8 159.3 158.1 157.8 155.6 154.8 154.5 154.2 155.2 155 154.1 152.8 151.6 151 150.2 150.8 152.8 155.6 157.5 156.3 153.8 152.1 151.2 150.7 150 150 150.2 150.5 150.9 152.3 151.3 150.8 150.5 149.6 151.5 151 150.9 151.6 152.3 150.2 148.9 146.3 143 140.2 139.1 139 139 139 139 139 139 139 139 139 139 139 139 138.1 137.1 136.7 137.6 137.4 138.3 138.7 139.4 140.4 139.4 139.7 139.4 138.5 137.3 135.7 134.8 135.6 135.7 134.6 130.7 129.1 127.6 126.7 125.9 124.5 113.5 108.8 107.5 129.9 130.7 131.4 132.6 133.6 136.3 138.4 142 145 147.4 149.2 150.1 150 149.8 151.2 153.8 155.8 156.5 156.9 157.3 158 159.1 159.3 158.2 157.7 155.8
232.1 231.5 230.6 228.1 225.7 221.8 218.4 216.5 215.1 213.5 211.3 208.5 205.8 204.4 202.5 201.4 202.3 203.2 205 206.5 207.8 207.6 206.5 204.4 201.5 198.2 195.8 194 193 191.5 192.3 192.8 191.6 190.7 189.7 189.7 190.5 190.8 191.1 192.4 193.5 194.3 192.7 190.1 187.7 184.1 181.5 178.8 176 173.7 172.3 171.4 170.3 169.1 168.9 168.2 167.4 167 166.6 166.1 166.3 165.8 165.2 165.7 166.7 167.5 168.1 166.2 165.2 164 163.7 162.6 161.8 161.7 161.5 162.2 163.6 163.3 163.8 164.9 164.3 161.7 160.9 160.3 160 159.9 160.2 159.9 159.2 159.1 158 157.3 157.2 156 155.4 154.7 153.6 151.9 150.5 149.2 149.4 148.4 147.5 147.8 150.8 152.4 151.4 150.4 149.7 148.8 147.4 147.1 145.7 145.6 146.7 147.2 147.7 148.8 150.6 149.6 150 149.5 148.9 148.7 148 148.7 150.7 149.4 148.3 145.7 143.6 142.3 139 139 139 139 139 139.3 140.2 140.6 141.1 141 140.9 140.3 140.2 139.7 139.4 138.5 137.7 137 136.7 136.6 137 136.8 138.1 138.3 138.3 138.4 137.7 136.6 136.1 136.7 139 139.7 137.2 132.1 129 127.4 127.4 127 123.6 110 107.5 106.7 125.4 126.1 127.8 129.3 131.9 134 136.1 139 141.6 144.1 146.2 148.9 148.6 149.3 150.6 154.1 156.9 157.1 158 158.9 159.3 159.2 159.4 157.4 155.3 153.9
231.7 231 230.1 227.4 224.5 221.4 218.7 215.9 214.4 211.9 209.3 206.9 204.7 203.9 202.3 203 204 205 206.1 207.8 208.1 207.9 207 204.3 202.4 199.8 197.2 197 195.6 195.8 195.9 195.6 193.5 192.9 192.7 192.8 193.6 194.4 195.2 196 196.3 195.2 192.6 190 187.4 184.3 180.6 177 175.3 172.8 171.9 171.7 170.2 168.7 168 167.5 167.2 167.3 166.4 166.3 166.2 165.6 166.3 166.6 166.9 167.7 168.1 167.5 167.5 166.5 164.6 162.7 162 161.6 161.2 161.3 161 160.5 160.7 162.4 162.6 159.5 159.7 159.7 159.7 159.6 160.1 159.9 159.3 158.9 158.7 157.8 158 156.8 156.8 155.3 154.7 153.3 151.7 149.7 145.8 145.2 144.2 144.4 144.9 143.9 143.2 142.8 143.1 143.8 143 143.1 143.3 143.9 143.9 144.5 146.3 148.4 149.2 149.4 149.2 149.2 148.5 146.9 145.7 144.1 143.5 143.5 142.3 140.8 140.8 139.9 139.2 139 139.1 139.9 141.1 141.9 141.9 142.4 142.5 142.2 141.7 140.9 140.2 139.9 139.4 138.6 137.2 135.9 135.7 134.9 134.7 134.6 134.5 134.9 134.2 134.7 135.1 135.7 136.5 138.1 140.2 140.1 137.4 133 129.2 128.3 127.2 127.1 123.3 109.2 106.9 107.9 121.7 121.5 119.2 118.4 129.1 131.4 133.6 135.2 137.7 140.2 141.5 144 147.1 147.4 150.9 152.8 154.9 155.8 156.4 156.4 157.7 156.8 155.5 154.7 151.5 150.8
231.4 230.8 229.2 226.1 222.9 220.3 217.8 215.3 212.6 209.8 207.3 205.1 204.6 204.4 204.2 204.6 205.5 206.4 207.7 208.2 208 207.3 206.9 205.1 203.4 201.3 199.6 199.4 199.5 199.2 198.6 197.4 196.5 196.1 196 195.9 196.7 197.5 197.9 198.5 197 195.4 193 189.8 185.9 182.2 179 176 175 174.3 173.4 172.4 170.9 169.7 169.6 168.6 168.1 167.3 167.3 167.5 167.3 167.5 168 168.4 168.9 169.3 169.6 169.8 169.5 167.9 166 163.4 162.4 161 160.6 159.9 159.3 159.5 159.6 160.8 161.7 161.1 161 160.8 160.6 160.5 159.8 158.8 157.1 156.7 156.9 157.5 156.2 155.7 155.2 154.2 152.6 150.7 148.3 146 143.5 143.4 142.8 143 143 141.9 141.1 141.3 141.7 141.1 142.3 141.8 142 142.9 143.9 146.5 147.8 147.5 147.4 149 148.4 148.7 149.2 149.2 148.7 147.5 146.7 145.7 144.8 143.7 142.4 141.6 141.6 140.8 141.3 141.9 142.8 142.8 142.1 141.2 140.5 140.6 140.6 140 139.7 139.1 137.6 135.8 134.8 135 134.3 134 133.6 132.7 132.2 131.4 130.8 131.4 132.2 133 133.8 136.2 138.3 137.4 135.6 133.1 130.2 129 127.5 126.4 125 109.3 107.6 106.9 108.4 108.4 108.4 107.4 114.4 129.4 131 132.6 134.3 136.3 138.3 141.6 144 146 148.7 151.1 152.2 152.1 152.6 153.1 153.9 152.6 151.4 150.8 149.9 148.2
231.4 229.6 228 224.9 221.3 218 215.5 212.5 210.1 208.4 206.6 205.7 205.5 205.4 205.4 206 206.8 207.7 208.3 208.4 208.6 208.7 207.9 205.9 203.9 202.8 202.2 201.7 202.3 202 200.9 199.8 199.6 199.4 199.2 199.1 199.7 200.1 200.3 199.1 197.5 195.9 192.7 188.8 185 181.7 179.8 178.3 176.8 175.8 174.5 173.1 172.1 171.1 170.9 170.1 169.4 169.4 169.6 170.9 171.8 172.1 172.3 172.2 171.9 172.4 172.6 172.3 170.5 168.4 166.1 163.3 161.7 160.5 159.7 159.3 159.3 159.5 160.6 162.4 162.3 162.5 160.7 158.8 157 156.9 155.6 154.4 153.2 153.4 152.9 153.5 152.6 152.3 151.4 150.5 146.8 144.8 143.2 142.2 141.8 141.9 142.1 142.9 143.2 143.3 142.6 142.5 142.4 141.6 140.9 142.8 143.6 146.1 146.7 145.5 145 146.2 147 147.7 148.6 149.2 149.6 151.1 151.4 151.2 151.4 150.1 148.6 147.2 145.7 144.4 144.3 144.3 143.8 143.5 142.4 141.1 140.1 140.1 139.9 139.8 139.4 138.8 139.2 136.8 135 133 132.6 132.8 133 133 133.2 132.1 130.4 129.1 128.4 128.8 129.7 131.6 133.7 134.5 135.6 134.6 132.7 130.8 129.1 127.1 125.7 124.3 123.5 116 114.8 111.6 108 114.9 122 109.8 105.7 127.2 128.9 130.5 132.1 133.7 136.9 140.4 141.7 145 148 149.6 151 151.9 152.3 152.6 152.7 151.4 150 149.5 148.6 147.8
231.7 229.5 226.7 223.3 219.7 216.1 213.7 211 209 207.2 205.9 206.2 206.4 206.7 207.2 207.7 208.4 209.8 210.3 210.3 210.4 210.5 208.9 206.9 204.9 203.9 204.5 204.6 204.7 204.2 203.4 202.6 202.6 202.5 202.4 202.2 201.7 201.5 201.5 200.1 198.4 195.9 191.9 187.8 183.6 182.7 181.9 181.1 179.1 178 176.6 175.5 174.6 173.7 172.6 172.2 172.6 173 174.3 175.7 176.4 176.8 177 176.6 175.1 174.3 174.1 172.3 169.8 166.9 164.5 162.7 162 161.4 160.7 159.2 159.4 159.9 161.4 162.2 161.7 160.8 160.5 158.3 156 153.6 152.4 151.1 150.8 150.7 150.6 149.8 149.8 148.8 147.8 146.3 144.8 143.7 142.9 142.2 141 140 142.5 143.3 143.7 144.4 144.3 142.2 140.6 140.4 142.4 146.2 146.3 144.5 143.8 144.2 144.9 145 145.4 145.8 147.1 148.6 149.9 151.2 152.6 152.3 151.8 151 149.6 148 147.5 146.3 145 143.7 143.5 142.1 140.6 139.6 138.9 138.4 138.4 138.3 138 137.4 136.9 134.8 132.3 130.4 130.4 130.6 133 133.7 133.1 131.2 129.2 127.6 127.8 129.4 130.8 132.6 134.4 135.2 135.2 133.6 132.7 129.5 126.9 125.3 124.2 123.5 123.5 121.6 120.8 120.8 122.6 122.2 121 111.3 108 123.9 126.2 128.1 130.1 132.7 136.6 140.1 141.7 144.4 145.6 147 148 148.4 149.5 150.5 150.5 149.7 148.6 147.3 146 145.3
231.6 227.8 224.1 220.8 217.4 214.3 212.3 209.9 207.9 207.9 207.7 207.9 208.4 208.4 208.9 209.5 210.4 212.3 212.7 212.2 212.3 211.8 209.9 207.9 206.3 205.7 206.3 205.8 206.4 206.3 205.9 205.2 205.3 205.2 204.9 204 203.1 202.1 201.9 200.9 197.5 194.1 190.3 187.7 186.7 185.8 184.6 183.5 182.2 180.7 179.4 179 178.5 177.7 175.9 176.2 176.6 177.4 179 180.5 181 181.5 181.3 180.2 178.8 176.1 172.5 170 168.3 166.2 164.6 163.6 162.8 162.2 161.3 160.1 158.3 158.8 159.4 159 158.4 158.1 158.2 155.9 153.3 152.5 152.6 152.2 151.6 150.4 149.4 148.6 148 147.4 146.7 146.4 145 143.7 142.9 142.2 140.9 140 141.4 142.6 142.7 140.8 139.8 138.4 140.7 143.3 144.6 143.2 141.7 142 143.2 143.8 143.4 142.9 143.1 143.7 144.5 146.3 148 149.6 150.6 151.2 150.7 150.5 149.8 148.9 148 147 145.4 143.5 142 140.6 139.3 138.6 137.8 136.6 136.5 136.1 134.9 133.3 132.9 131 128.9 128.2 131.5 134.2 135 135.2 133.6 131 128.2 126.2 127.7 131.2 133.3 134.8 134.6 134.5 134.2 134.4 134.4 130.1 126.7 125.4 125.7 124.6 124.5 124.3 123.2 124.1 123.2 122.7 121.8 107.5 104.7 111.2 124.7 127.1 128.9 131 135.2 139.5 141.5 143 144.1 146.1 145 144.8 145.9 146.9 147.1 146.8 146.1 144.6 144.1 143.4
229.6 225.8 221.8 218.2 215.1 213.1 211.2 209.6 210 209.9 209.6 210 210.8 210.9 210.6 211.3 212.2 213.8 214.6 214.5 214.1 212.8 211 209.3 207.9 207.5 207.7 207.8 207.9 207.8 207.4 207.9 208.1 207.6 206.4 205.1 204 202.7 202.6 199.7 195.9 192.9 191.6 190.5 189.8 188.8 188 187.3 186.3 185 183.3 182.8 182.6 180.7 180 180.3 180.6 182 183.2 184.7 185 184 182.5 179 176.2 173.3 170.7 169.2 167.5 166.7 165.8 164.6 163.6 162.9 161.7 159.4 157.5 157.8 157.3 156.5 156.1 155.7 156 155.9 154.4 154.2 154.2 153.7 152.6 151.5 150.2 149.4 149.3 148.8 148 147.2 145.2 143.8 142.9 142.1 140.9 139.4 137.9 139 139 137.5 137 137.5 141.9 140.8 139.9 139.1 139.6 140.1 141.2 142.6 142.2 141.6 141.3 141.7 142.3 143.5 145.2 146.7 148.1 149.2 149.6 149.5 150.3 150.2 149 147.6 145.9 144 141.4 139.3 138 136.9 135.9 134 134.1 133.4 132.1 130.6 129.4 129.3 127.6 129.8 132.7 134 135.2 134.6 132.1 129.2 126.6 125.1 127.9 131.4 134.5 135.5 134.8 135.2 136.2 136.3 135.3 131.2 128.1 127.7 127.1 125.9 125.3 125.2 124.4 124 122.9 121.9 120.5 103.8 103.8 106.8 124.9 126.4 127.3 129.1 134.1 138.1 140.4 141.5 142.2 142.3 141.9 142.6 143.3 144.4 144.4 144.1 143.3 142.9 142.5 142.1
227.1 223.9 219.9 216.6 214.5 212.7 211.4 211.5 211.8 211.7 211.7 212.3 212.9 213.3 212.7 212.9 214.1 215.3 215.9 215.9 215.6 213.8 211.9 210.8 209.5 208.9 209.2 209.6 210 210.1 209.4 211 210.3 208.4 207 205.7 204.6 203.6 202 198.6 197.3 196.6 195.1 193.8 193.6 193.4 192.5 191.4 190.2 188.9 187.2 186.4 185.6 183.8 184.2 184.4 184.2 184.4 185.9 186.2 184.8 182.6 179.6 176.2 172.7 172.1 171 169.9 169 168.2 167.6 166.3 164.5 162 160.1 158 156.6 156.7 155.7 155.4 156.2 155.4 155.6 156.2 156 155.3 154.7 154.1 153.1 152.1 151 150.3 149.3 148.8 146.9 144.9 144.4 143.1 142.1 141.3 140.7 139.2 137.7 136.3 136.2 135 134.6 135.1 135.3 137.2 136.9 136.7 137.1 136.6 138.2 140.6 141.1 140.6 140.5 140.5 140.5 141.2 142.4 143.8 145.6 147.3 148.5 149.7 150.9 150.6 149.9 148.6 146.9 144.2 141.5 139.7 138.8 138.3 137.1 135.3 133.4 132.1 130.6 129.1 127.9 127.6 128.1 128.3 129.7 130.9 130.6 129.7 129.9 127 126.4 124 124.2 127.5 129 131.3 135.6 136.5 139 141.5 137.7 134.7 132.6 129.8 128.5 127.3 126.2 126.1 124.4 123.6 122.8 122.2 118.2 102.4 103.3 105 117.2 125 125.7 127.1 130.2 134.8 138.5 138.6 138.4 140.9 140.2 141.2 142.4 143.2 143.1 142.5 141.8 141.4 141 140.6
225.7 222.6 219.3 218.3 215.7 213.5 213.6 213.6 213.5 213.5 214.2 214.8 215.3 214.9 214.1 214.5 215.8 216.8 217 217.1 216.4 214.4 212.4 211.2 210.8 211.4 211 212 212.7 213 212.9 212.5 212.1 209.9 208 206.5 205.2 203.9 203.2 202.6 201.1 200.6 199.2 198.1 198.2 197.4 196.3 194.9 193.1 191.7 190.5 188.8 186.6 187.9 187.8 187.5 187.2 186.8 185.4 183.2 181.4 178.3 175.9 173.5 173.8 173.8 172.6 171.4 170.4 169.5 167.5 165.8 163 160.4 158.1 157.1 156.1 155.6 154.8 154.3 154 155.2 155.4 155.4 155.4 154.8 153.7 153.1 151.9 150.4 149 147.8 146.9 146.3 144.2 141 142.3 141.3 140 140 139.4 139 137.7 136.5 135.4 134.6 133.7 133.7 133.8 134.9 135.5 134.3 134.1 134 136.6 137.9 138.9 139.5 139.6 139.5 139.5 139.4 140.6 142.2 144.2 146.1 148 149.6 150.8 151 150.6 149.4 147.9 145.8 143.7 142.9 142.4 141.7 140.5 138.8 136.5 134 132.4 130 127.7 126.9 126.2 126.2 126.7 126.6 125.2 125.2 126 124.7 123.3 122.9 122.8 122.6 123.5 126.8 133.6 136 139.6 142.1 141.1 137.3 134.7 131.8 130.5 129.1 127.7 127 126.5 125.6 124.7 124.1 121.3 102.1 102.7 103.6 115.7 124.3 124.9 125.9 127.8 130.5 134.9 134.5 135.3 137.6 139.1 140 140.8 143.2 142.4 141.2 140.2 139.8 139.4 138.9
225.7 222.4 220.3 219.2 216.3 215.7 215.8 215.8 215.7 215.5 216.4 217.4 216.5 215.3 215 215.3 216.3 217.4 217.5 217 216.3 214.9 213 212.7 213.4 214 214.5 214.2 213.8 213.5 213.4 213.1 211.3 210.4 209.1 207.5 205.9 206.1 206.4 206.3 205.7 204.6 202.9 202.3 201.6 200.1 197.9 195.9 194.5 193.4 191.1 189.7 189.5 189.8 189.8 188.5 186.5 184.3 182.6 180.7 177.8 177.4 177.7 176.8 176 175.4 174.4 173.5 171.1 168.6 165.7 162.3 160.5 158.7 157.9 157 156.3 155.6 155.2 154.5 153.7 153.5 153.6 153.4 153.1 154 153.5 152 150.3 148.6 146.9 146.1 144.9 142.6 141.3 139.3 137.7 137.3 137.4 137.2 138.1 138.2 136.9 136.2 135.5 134.5 133.5 132.7 132.5 132.6 132.9 132.8 132.2 132.4 134.1 135.3 136.3 137.4 137.9 138.6 138.5 138.6 139.1 140.4 142.1 143.8 146.1 148.4 149.8 150.2 149.9 149.1 149.3 148.1 146.6 146.3 145.9 145 143.6 141.3 138.9 136.4 134.4 132.2 129.9 127.8 126.9 126.2 125.4 124.8 124.2 123.4 123.3 123.2 122.7 122.5 122.4 122.3 122.5 123.3 127.6 134.1 136.9 139.1 139.6 137.1 134.6 133.1 132.6 131.8 131.5 130.1 127.7 126.6 125.7 124.7 122.8 115.7 101.4 102.7 122 122.9 123.9 125.6 127 128.9 130.6 131 131.7 134.3 133.9 135.1 137.2 139.5 140.9 139.8 138.8 137.9 137.8 136.7
226.8 223.5 220.8 219.6 218.4 217.9 217.7 217.7 217.7 217.6 217.8 217.8 216.6 215.9 216.4 216.8 217.1 217.9 217.4 217 216.2 215.3 214.6 215.4 216 216.3 216.6 215.4 214.4 213.2 213.2 213.9 213.9 212.1 210 208.7 209 209.3 209.5 209.5 209.2 207.7 206 204.1 202.4 200.2 197.9 195.9 194.5 192.7 191.2 191.9 191.6 191.2 189.4 187 185.1 183.2 180.9 179.3 180.6 181.3 180.7 179.5 178 176.2 174.2 172.3 169.4 166.1 162.7 160.8 160.4 159.7 159 158.3 157.5 157 156.4 155.4 153.9 151.7 151.6 151.3 151.3 151.7 154.5 154.2 153.3 148.5 144.2 142.2 141.2 139.5 138.7 137.3 136 135.6 135.4 136.4 136.8 136.7 137.3 136.4 135.8 134.8 133.9 132.9 132.4 132.5 132.4 131.7 130.8 130.4 131.5 132.6 133.7 134.9 136.1 137.1 137.5 137.9 138.2 139 140.3 142.4 144.8 147.2 148 148.7 149.2 148.7 149.5 149.1 149.2 148.4 148 146.5 144.7 142.8 140.7 138.7 136.5 134 131.2 129 127.8 127.1 126.3 125.4 124.6 123.8 123.7 123.2 122.9 122.5 122.2 122.4 122.5 122.2 123.6 127.1 130.7 133.2 135.6 135.9 135.1 132.8 131 131.4 130.6 127.7 125.9 125.7 125 123.4 120.9 119.4 111 101.1 118.2 121.6 122.3 124 125.9 127.1 127.6 128.3 129.1 129.8 130.5 131.2 133.2 135.6 137.7 137.8 137.2 135.9 135.6 135.5
227.2 224.5 222.5 221.7 221 219.7 218.8 217.8 217.8 217.8 217.8 217.7 216.8 217.3 217.1 217.2 217.6 217.5 217.3 216.9 216.1 215.3 216.9 217.6 217.7 217.5 216.9 215.3 214.1 212.9 213.5 215.4 214.5 213.5 213.2 212 212 212.3 212.6 212.6 211.3 209.1 206.7 204.1 201.3 198.4 195.8 195 193.7 193.6 192.5 192.4 191.6 190.1 189 186.8 184.4 182.3 183 184.3 184.3 183.8 182.1 180.3 177.8 175.6 172.8 170.5 167.6 164 163.8 164.1 162.6 161.3 160.6 159.8 158.9 158.2 157.4 155.7 153.6 152.3 150.1 149.3 149.6 150.2 153.6 155.4 154.9 151 144.5 141.9 139.9 138.9 137.8 137 135.8 135.7 135.6 135.5 136.4 136.5 136.7 136.8 136.2 135.4 134.5 133.3 132.8 132.8 132 130.9 129.9 129.5 129.6 129.1 130.1 131.9 133.6 135 136.4 136.9 137.3 137.7 139.6 141.4 143.8 146 146 146.7 147.6 148.3 149.2 149.8 148.3 149.2 148.2 146.9 145.3 143.8 142.1 140.2 137.9 135.4 132.3 130.5 129.2 128 127 125.9 125 124.2 123.9 123.5 123.2 122.9 122.4 122.1 122.5 121.8 122.5 123.9 125.4 127.9 130.4 132.3 134.2 131.8 129.5 128.6 127.8 125.3 124.1 123.9 123.6 122.4 119.9 119 117.4 102.1 104.4 109 120 122.6 124.6 125.1 125.8 127.3 128.3 128.4 128.4 128.7 129.7 131.9 134.4 135.4 134.8 133.9 133.4 133.1
228.5 225.6 224.2 223.2 222 220.8 219.9 218.9 217.8 217.8 217.8 217.8 217.3 216.8 216.3 217.3 217.2 217.1 216.8 216.5 216.3 215.9 218.2 219.1 218.8 218.4 216.8 214.8 213.6 213.2 214.9 216.4 214.4 214.1 214.6 215.2 214.9 215 214.6 212.4 210.4 207.9 205.2 197.5 198.3 196.2 195 194.3 194.2 193.8 193.1 192.5 191.2 189.8 188.6 185.5 185.7 187.2 188.4 189.1 187.5 185.6 182.8 179.7 177.1 174.8 172.2 168.7 165.9 167.2 166.6 166.6 165.2 163.4 162.2 161.2 159.9 158.7 157.5 155.7 154.2 152.9 150.7 149.6 145.9 148.3 152.4 155.1 155.1 151.6 145.2 143.7 141.8 139.7 138.1 136.9 136.4 136 135.9 135.9 135.9 136.2 136.2 135.8 135.3 134.8 134.5 134.4 133.6 133.6 132.8 131.4 130.7 130.1 129.7 129.1 129.1 130.1 131.7 133.6 134.9 135.6 136.3 137 138.9 141 142.8 144.1 144.1 144.7 145.6 146.2 147.4 148.7 148.3 148.2 147.9 147.1 144.9 143.1 141.4 139.5 137.1 135.3 132.5 130.8 130.5 129.9 128.7 127.1 126 125.1 124.2 123.9 123.6 123.2 122.8 122.8 122.7 121.5 122.6 122.9 123.2 123.6 126.1 128 130.1 128.4 127.1 127.1 126.7 123.4 122.2 121.9 121.1 120.2 118.1 117 118 117.3 100.9 100.9 104 119.4 122.6 123 124.3 125.8 127.3 127.3 127.9 128.6 129.2 129.9 131 132.4 132.7 132.4 132.4 132.8
228.4 226.6 225.2 223.7 222.1 220.5 220 218.8 217.9 217.9 217.6 217.6 216.8 216 215.7 216.4 216.4 216.5 216.3 216 216.2 216.8 218.3 219.7 219.4 217.9 216.6 214.7 213.2 215.1 216.9 215.4 214.5 214.8 215.3 216 217 215.9 213.4 210.5 208.4 205.6 200.7 198.6 196.6 195.7 195.1 194.8 194.5 193.7 192.7 192.1 191.7 190.4 188.1 187.9 191.3 192 191.9 190.3 187.9 185.5 182.3 179.1 176.3 174.1 171.5 169.6 170.1 170.3 169.8 168.2 166.9 164.5 162.4 161.1 159.7 158.4 157.3 155.9 154.1 151.2 148.5 147.8 147.3 145.4 150.2 154.3 154.7 151.2 146.4 145 143.1 140.8 139.9 138.6 137.5 137.1 136.6 136.2 135.7 134.4 135.2 134.7 134.4 134.2 134 134.4 134.5 134.8 134.6 133.5 132.6 131.9 131.3 130.8 130.5 129.6 128.4 129.2 132.7 134.8 135.6 136.2 137.2 140.6 142 142.4 142.4 142.3 142.8 143.3 142.7 143.9 144.4 145.8 146.5 145.4 143 140.3 138.5 137.3 136.5 135.9 135.4 134.8 133.7 131.7 130.3 128.8 127.4 125.7 124.6 124.2 123.8 123.6 123.5 123.4 123.2 123.1 121.9 122.9 123.1 123.1 122.8 124.1 126.1 126.3 126.2 126.5 126.1 122.2 119.2 118.2 117.2 116.4 112.9 112.1 114.8 116.9 116.3 104.2 97.2 107.3 120.2 121.4 123 125 126.1 127.3 128.1 128.7 129.1 129.2 129.4 131.7 134 132.4 131.9 132.9
227.8 226.3 225.4 223.8 222.1 220.4 219.7 218.7 218 218 218 217.4 216.6 215.8 215.2 215.5 215.3 215.3 215.5 215.5 217.3 218.9 220.2 220.6 219.5 215.9 214.9 214.3 214.7 218.1 215.8 214.8 215.2 215.7 216.3 216.7 215.8 213.6 210.3 207.5 205.9 203.2 199.6 198.7 197.4 196.3 195.6 194.9 194.8 194.2 193.6 192.9 192.2 190.2 190.5 193.6 194.1 193.9 193.4 191.1 187.8 184 180.5 178 177.8 175.1 174.1 173.7 172.2 172.3 170.5 168.3 166.3 162.8 160.9 159.5 158.5 157.5 156.2 154.1 151.4 148.5 146.2 145.7 144.5 142.6 147 150 150.7 148.6 146.9 145.4 144 142.2 140.9 140.5 140.2 138.1 136.9 135.9 134.4 134.9 134.1 133.5 133.6 133.5 133.4 133.9 134.3 133.6 133.6 132.9 133.4 133.5 133.6 133.2 133.6 133.6 132.9 127.6 131.8 134.2 134.8 135.4 136.1 138.1 140.7 141.1 141.2 141.3 140.8 140.5 141 140.9 141.7 142.7 142.7 141.4 139.1 138.9 138.2 138.1 138.2 137.7 137.4 135.9 133.9 132 131 129.1 126.8 125.2 124.1 123.7 123.5 123.6 123.5 123.4 123.3 123 122.6 123.1 122.1 121.8 121.6 123 124.9 126.8 125.1 126 126 122 119.2 117.4 118.5 118.7 117.8 115.5 110 112.9 113.4 108.1 102.1 99.2 111.9 119.6 122.4 124 125.7 127 127.7 128 128.1 128.1 128.2 130.3 131.8 130.7 130.9 131.9
227.5 226.5 225.1 223.7 222.1 220.4 219.3 218.5 218.1 218.1 218.1 217.4 215.6 214.9 214.4 214.4 214.6 214.9 215.3 217.3 219.2 220.7 221.8 221.1 218.4 214.6 213 217.6 215.6 214.6 214.7 215.9 216.6 216.9 216.6 215.3 214.2 211.6 208.6 205.7 201.8 199.5 199.5 197.7 198.8 199.6 197.7 195.7 195.5 194.5 194.1 192.8 192 192 193.7 194.3 194.6 194.8 193.9 190.4 186.9 183.3 179.8 178.4 178.2 176.8 177.4 175.4 174.3 172.3 169.6 166.9 163.7 160.7 159.3 157.9 156.5 154.3 152.1 150.1 148.1 145.9 144.1 142.9 141.6 139.6 143 146.4 148 147.4 145.4 144.6 143.8 143.2 141.7 140.5 137.8 136.2 135.4 135.2 135.3 134.3 133.2 131.6 131.3 131.4 130.8 131.3 130.8 130.4 130.7 131.4 132.4 133.5 134.5 134.4 132.7 130.9 129.7 125.6 130.9 132.2 132.7 133.1 134.7 137.1 139.1 139.3 139.9 140.2 139.8 140.5 141.3 140.6 140.5 140.1 140.1 139.8 140.1 139.7 139.3 138.4 137.5 137 136.2 135.2 133.7 131.9 130.1 128.3 125.9 124.8 123.9 123.6 123.2 123.5 123.5 123.5 123.3 122.7 123 123.2 122.3 121.4 121.1 121.8 123.2 124.6 124.2 125 125.7 121.7 119.4 119.6 120.9 120.8 119.7 118.5 115.3 107.7 104.3 103.7 99.7 98.4 118.8 122.7 123 124.2 124.9 126.1 126.5 127.2 127.7 127.7 127.9 127.8 129.3 129.4 130.3 130
226.6 225.6 223.4 222.2 221 220 219.3 218.4 218.3 218.5 217.5 216.3 215.1 213.4 213.1 212.9 214.2 213.7 216.8 219.5 221 222.6 222.5 221.1 217.8 216.4 219.7 218.1 213.7 212.2 213.6 215.3 215.9 216.1 215 213.8 212.2 209.5 206.5 201.9 200.7 198.9 197.2 198.7 202.3 201.4 199.6 198 197.1 194.7 193 192.8 194.1 194.3 195.2 196.7 195.6 195.7 192 188.6 185.3 182.1 179 178.7 178.5 178.4 177.6 175.7 173 169.7 166.5 164 161.1 159 156.6 154.2 152 149.8 147.6 145.7 145 143.1 141.8 140.6 139.4 137.6 138.9 142.9 144.1 143.8 142.1 141.1 141.1 140.1 138.3 137.7 135.6 134.8 134.1 133.4 133.2 133 132.2 130.7 129.1 127.9 127.6 126.9 126.8 126.7 127.4 128.8 130.7 131.6 131.8 130.1 128.3 127.6 127.2 124.2 128 128.8 129.5 130.6 133.2 135.8 137.1 137.5 139.4 140.7 141.3 141.1 140.7 140.8 140.9 141.3 140.7 140.2 139.2 138.1 137 136 135.2 134.3 133.7 132.5 131.7 131.1 128.8 127.5 126.3 125.6 124.4 123.7 122.8 123.3 123.5 123.5 123.4 123.5 123.4 123.2 122.2 121.8 121.4 120.6 121.3 121.3 120.6 120.1 120.4 118.1 122.8 123.5 123.1 123.1 122.1 121.4 120.3 111.8 102.3 97.3 96.9 111.3 124.2 124.7 124.9 126.1 126.8 126.7 126.9 127.1 127.2 127.5 127.8 127.7 127.6 128.8 128.1 127.5
226.6 225.4 223.5 221.8 220.9 220.4 219.6 218.9 218.2 218.5 216.3 215.9 215 213.8 212.9 212.2 210.9 213.9 217.6 220.8 223.4 222.7 222.4 219.2 218.1 219.2 219.6 214.1 211.4 211.3 213.3 214.4 214.3 214.3 213.3 212 210 207 203.7 200.2 197.8 197.5 198.7 202.3 205.4 202.9 201.2 199.2 196.3 192.6 192.3 193.9 195.9 197.9 200.1 198.1 196.7 193.7 189.9 186.7 183.4 180.4 178.7 177.2 175.8 175.6 175 172.4 169.8 166.5 163.2 160.2 157.5 154.3 151.8 149.7 147.5 145.3 144.4 143 141.8 140.6 139.9 138.8 136.5 134.5 135.5 138 138.8 137.5 137.1 134.8 134.9 134.5 133.8 133.1 132.5 131.6 130.1 129.7 130.3 130.5 129.8 128.8 126.7 125.5 125.3 125.5 125.5 125.6 125.6 126 127.3 127.3 127.3 126.4 125.4 125.1 125 123.5 125.2 126.5 126.9 128.7 130.6 132.1 134.4 137 139.7 139.6 139.8 140.7 142.3 141.3 138.8 138.5 137.6 137.6 136.9 136.3 135.2 134.6 134.2 133.4 132.5 131.6 130.7 130.2 129.2 128.1 127.6 126.4 125.4 124.5 124.3 124 123.7 123.8 124.4 123.8 123.4 123 122.7 122.3 121.9 122.1 123.2 125 126.4 124.1 121.9 124.9 126.4 127.2 126.5 125.3 123.8 122.5 119.4 106.4 98.1 96.3 108.5 121.9 124.8 126 126.9 128.1 128.2 128 127.9 128.1 128.5 129.5 130 129.8 128.4 126.5 126.1 125
226.8 225 223.1 221.7 221.4 220.8 220.1 219.3 218.6 218.4 217 216.1 213.5 212.3 211.8 210.1 212.8 216.4 220.4 223.7 223 222.1 220.8 217.7 218.1 217.8 216.1 213 210.2 212 213.5 213.6 212.7 212.5 211.4 209.9 207.7 203.5 200.1 198.1 196.2 198.4 202.3 203.6 203.4 203.4 201.2 197.5 193.9 192.7 194.2 197.8 200.5 202.4 200.6 197.6 195.9 191.7 188 185 181.9 179.8 177.5 174.9 173 171.3 170.3 168.6 165.7 163.1 159.8 156.4 153.6 150.3 148.6 146.3 144.7 143.3 142.2 141.3 140.2 139.2 137.5 137.8 137.7 134.5 133.6 133.3 133.1 132.1 132 129.1 129.3 130.8 130.6 129.9 128.9 127.5 125.9 126.1 126.7 127.4 126.7 126.1 125 123.6 124.6 124.9 124.5 124.6 124.3 123.9 124.6 125.2 125.8 125.8 125.4 124.6 123.9 122.8 122.9 124.2 126.5 128 128.8 130.1 132.6 134.3 135.3 136.5 137 138.2 138 136.1 134.6 134.6 135.1 135.5 134.8 134 133.4 132.9 132.5 132.2 131.8 131.3 130.8 130.5 130.1 129.6 129.2 128.7 128 127.3 126.6 126.4 126 126.5 125.7 125.5 124.7 123.8 123.6 123.3 123 124.2 127.9 130.6 132.4 130.6 127.9 127.7 127.9 128.3 127.1 124.5 121.8 120.2 118.2 103.7 96 97.1 107.4 119.8 122.5 125.6 127.7 128 128.4 128.2 127.8 127.7 128.2 128.7 128.7 128.5 128.2 126.5 125.3 124.5
225.3 224 222.2 221.8 221.1 220.5 220.5 219.7 219 218.2 215.7 213.2 211.1 210.1 210.1 211.6 217.8 221.7 223.7 222.5 221.4 220.2 217.7 215.3 214 213.5 212.4 211.1 210.6 212.5 212.2 210.9 210.2 210.1 208.9 207.2 203.9 199.6 197.3 196 195.7 200 201.7 202 201.9 202.1 200.3 194.6 192.7 195.5 199 202 204.8 205.5 199.5 196.8 193.6 189.8 186.6 184.1 181.5 178.5 175.1 172.2 170.5 169.3 167.2 165.5 162.3 159.1 156.2 152.9 149.7 148.1 146.8 145.6 144.9 143.5 142.2 140.7 139.7 139.5 139.7 138.9 136.6 135 133.9 133.2 132.7 133.1 132.3 131.1 128.8 127.1 127.4 126.2 124.9 124.1 123.3 123 123.3 124.2 123.7 123.8 124.5 121.8 124.1 124.4 124.1 123.9 124.6 125 126.2 127.2 127.7 127.3 127 127 126 124.5 119.7 121.4 124.3 126.3 127.6 128.8 130.6 131.5 131.4 132 132.4 132.3 132.4 132.6 133 133.6 133.9 134.4 133.8 133.4 133 132.4 132.1 131.8 131.8 131.4 131 131.2 131.5 132.4 132.1 131.6 130.7 129.8 129.7 129.4 130.5 131.1 130.4 128.8 126.6 125.6 124.4 124.3 126.2 130 133.3 132.2 130.5 128 124.6 124.8 125.2 124.7 123.6 121.5 119.8 118.4 118.1 104.7 96.1 95.1 95.5 113.3 120.3 123 125.1 126.1 126.7 126.7 126.5 126.4 126.3 126.3 127.1 127 127.1 127.2 126.7 125.4
224.1 223 222.6 222.1 221.5 220.6 220.4 220.3 218.8 215.8 213.3 210.6 209.1 209.2 211 218.2 222.1 222.2 220.8 219.7 218.7 217.6 215.8 212.7 211 211.7 210.8 208.7 209 209.7 208.7 207.8 207.1 206.2 204.7 202.9 199.4 197.2 195.8 194.5 196.2 199 199.7 200.4 199.4 196.4 193.6 192.8 196.5 198.7 200.8 205.5 204.6 203.8 198.6 195.1 192.5 188.2 185.4 182.4 179.2 176.1 172.7 170.2 168.7 166.8 164.8 162.5 159.3 156.1 153.2 151.4 149.6 148.5 147.3 146.1 145 143.5 142.1 140.3 141.3 140.5 139.6 139.3 138.5 137.3 136.4 136 135.4 135.3 134.2 132.5 129.5 126.5 125.5 124.5 123.9 123.2 122.2 121.9 121.9 121 121.4 122.7 123.2 120.2 122.7 122.9 123.6 123.8 125.2 126.1 127.4 128.8 129.5 129.6 129.4 128 126.7 125 123.6 120.7 124.4 126.6 126.6 127.6 129 130.1 132 132.1 133.3 133.7 134.3 134 134.4 135.3 136.3 136.1 134.9 133.5 132.7 131.9 131.7 131.4 131.4 131.3 132.1 132.6 132.8 133.6 133.6 133.3 131.8 131.4 132.4 133.8 133.9 133.1 130.4 128.5 127.7 128.6 129.5 128.9 128.3 128.3 129.2 127.6 125.4 122.6 120.4 119.6 120.1 120.5 119.7 119.1 118 117.3 117.8 108.1 95.9 95.8 94.2 93.7 106 119.3 123.2 125.1 124.1 122.9 123.1 123.9 124.4 124.4 126.1 128.1 129.9 128.9 128.4 125.8
223.6 222.9 222.9 222.4 221.5 220.5 220.4 219.4 216.9 213.5 210.3 208.2 209 211.4 217.1 220.6 221.3 220 218.5 217.2 216.2 215.5 213.6 210.3 210.9 212.1 208.9 207 206.6 206.3 205.1 203.9 202.7 201.6 200.5 198.9 197.5 195.8 194.9 193 192.8 193.4 192.4 192.2 191.9 191.2 193.2 194.8 198.2 200.7 203 204.6 203.4 202 198.6 194.3 190.8 186.8 182.6 179.4 176.3 173.2 170.3 168.6 167.4 166 164.6 162.3 158.9 157.1 154.8 152.1 150.2 148.9 147.3 145.4 143.6 142.7 141.4 141.4 141.4 140.9 140.9 140.8 140.3 139.7 138.9 138.3 137.1 135.7 134.1 132.5 130.1 128.7 127.8 127 125.8 124.8 124.8 125.4 124.9 122.8 120.5 119.7 119.9 118.7 121.8 120.6 122.5 123.8 124.8 125.7 127.9 129.1 129.5 129.5 128.2 126.6 125 123.8 122.6 117.4 123.2 125.1 126.1 127.7 129 129.6 130.9 131.6 134.3 135.4 138.2 139.9 141.5 141 139.9 137.5 136.1 134.3 132.3 131.4 131.3 131.3 131.5 131.3 132.1 132.9 133.9 134.1 133.5 133.7 132.6 131.3 131.5 133.2 132.5 131.6 129.6 129.7 130.2 130.4 129.3 126.9 125 124.9 125 124.5 123.6 120.4 117.5 116.3 115.8 117.2 117.3 116.6 116.2 116.6 118.2 117.4 101.5 96.3 100 94.3 93.1 99.6 114.3 122.8 120.3 119.4 119.7 120.4 121.5 123 125.7 129.3 130.8 130.7 129 126.3
223.6 222.8 222.1 222.5 221.5 220.5 219.1 215.9 213.4 211.3 208.3 207.5 211.3 220.5 220.9 221.1 219.8 218.5 216.7 215 214.1 213.2 210.4 209.8 210.3 209.6 207.7 207.7 206.3 203.9 203 201.6 200.2 198.9 197.4 196.3 195.7 194.6 194 192.5 191.9 191.3 190.6 189.5 190.5 192.5 194.5 196.5 198.6 200.1 201.8 203.5 201.9 200.2 195.8 191.4 187.8 185 180.7 176.9 173.7 171.3 169 167.4 166.8 165.8 164.1 163.3 161.1 158.6 155.9 153.5 150.4 147.8 145.9 144 142.6 142 141.5 141.6 141.9 142.2 142.2 142.2 141.7 141 139.4 137.6 136.6 135.6 134.1 133 133.5 132.8 132.7 132.2 131.2 128.9 128.6 128 125.3 123.2 121.9 120.9 119.7 116.5 117.1 117.1 118.8 119.9 120.8 121.6 124.5 125.6 126 126.3 125.2 124.5 122.9 120.8 118.9 120.5 123.5 125.3 126.3 126.6 127.4 128.3 129.5 133.3 138 141.4 143.7 145.1 144.8 143.7 141.6 138.9 136.3 133.1 132 131.2 131.6 131.6 131.5 131.3 132.1 133.1 134.1 134.8 133.9 133.8 132.5 131.2 130.6 131 130.5 130 129 128.9 128 128.1 127.3 124.9 122.6 121.6 122.1 123.4 123 119.6 116.2 114.6 114.3 114.7 115.1 115.1 115.2 116.8 118.9 119.5 119.3 120.1 117.9 107.9 102.4 96.6 92.8 101.2 117.1 117.5 118.1 118.8 119.8 121.3 125.6 129.5 133.1 133.1 129.1 124.4
221.6 221 222.6 224.7 223.2 219.4 215.9 213.5 211.1 208.5 207.1 210.8 221.9 221.5 221.4 220.2 218.5 216.4 214.4 212.6 211.6 210.1 210.1 211.1 211.3 210 208.9 208 205.5 203.4 202.3 201.2 200.7 199.9 198.5 196.6 195 194 193.4 193.9 194 193.1 191.7 189.6 189.8 192.4 193 193.9 195.6 197.6 198.7 199 199 197.4 193.7 189.3 185.6 182.4 179.1 175.5 171.9 169.9 167.6 166.6 166 165.4 165.4 164.6 161.8 159 155.7 152.3 148.7 146.6 144.6 143.6 142.9 142.7 142.5 142.9 143.3 143.4 143.6 143.4 142.7 141.5 139.7 137.7 136.4 135.6 135.4 136.5 137.3 137.4 137.3 136.7 134.7 132.4 129.6 128.6 126.6 124.7 123.3 122 119.9 116.7 115.3 114 114.3 113.6 114.6 116.2 118 120 121 121.3 120.7 120.2 118.9 114.2 115.6 121.3 123.3 123.6 123.7 123.7 124 126.5 128.9 133.4 135.8 138.6 139.6 141.5 141.9 139.9 140.4 139 136.1 134.4 132.6 131.2 131.2 131.5 130.9 131.3 132.2 132.9 133.4 133.1 132.9 132.1 131.4 130.7 130.7 130.9 130.9 129.7 128.9 128.4 127.4 126.4 125.1 123 120.7 118.6 118.8 118.6 119.3 116.3 113.8 113.6 113.6 113.4 114.6 114.4 114.3 116 116.4 116.2 115.7 117.5 118.4 120.2 120.4 115.6 106.9 95.4 96 101.3 110.3 117.8 118.8 119.2 123.3 126 128.3 129.6 125.2 120
220.7 221.1 223.1 223.2 222.4 217.6 213.1 211.3 209 207.3 208.6 214.8 220.4 220 219.2 217.8 216.1 214.1 212 210.3 210.3 210.8 211.3 211.4 211 210.6 209.8 206.5 204 202.8 202.4 202.3 201.8 199.6 197.7 196.6 194.5 194.3 196.9 196.2 194.6 192.8 190.7 189 188.1 190.1 190.7 191.7 193.6 193.9 194.3 195 195.4 194.2 191.5 187.6 184 180.7 177.3 174 170.4 167.8 166.4 165.2 164.1 164.9 163.8 162.5 160.2 157.1 153.7 150.3 147.5 145.6 144.6 143.8 144 143.7 142.7 143.1 143.5 143.9 144.3 144.2 143.2 141.8 139.8 138 136.6 136.8 137.4 138.3 139.4 139.9 139.1 136.7 134.6 132.4 130.3 129.3 127.7 126.1 123.6 121.6 119.7 118.7 118 114.8 113.9 113.2 112.2 112.3 112.2 112.8 113.1 114.2 114.6 114.7 113.9 112.5 116 119.2 120.2 120.8 121.7 121.7 122.3 123.1 125 127.2 129.5 130.8 133 134.9 136.9 136.6 137.7 137.2 136.8 135.9 133.9 131.6 130.9 130.6 129.4 129.7 130.5 131.3 131.3 131 130.8 130.7 130.7 130.7 131.2 131.4 131.5 130 127.9 126.6 125.3 123.7 121.9 120.5 119 117.4 116.8 116.1 115.3 113.7 111.9 111.5 111.5 112 112.5 112.9 113 113.5 113.7 113.3 113.4 115.5 118.9 121 119.7 117.9 116.1 114 105.2 91.8 92.2 99.6 108.1 116.4 119.2 122.6 123.7 123 119.4 114.9
220.4 222 222.5 221.2 219 215 211.4 208.8 206.6 207.4 211.2 215.9 217 217.7 216.3 214.5 212.8 211.1 209.9 209.3 209.7 210.3 210.8 210.8 210.3 209.8 208 205.9 203.3 204.1 204.5 202.9 200.8 198.2 196.9 196 193.3 198.4 196.9 195.3 193.6 191.7 189.7 188.2 187 188.4 188.9 189.5 189.4 189.2 189.9 190.6 191.8 190.6 188.1 185 181.8 178.7 175.6 172.3 168.9 166.1 164.3 162.9 163.2 162.6 161.7 160.1 157.7 154.7 151.7 148.9 146.9 145.9 145.1 145.6 145.7 145.2 144.4 145.1 146.5 146.5 146 144.9 143.5 141.7 139.8 138.4 137.8 138.7 139 139.4 139.3 138 136.2 134.7 132.9 130.8 128.6 127.4 126.6 125.5 124.6 124.3 122.7 121.2 118.6 117.2 116.9 114.9 113.1 110.6 110.6 110.5 109.8 109.7 110.2 110.7 111 110.2 113.3 115.4 117.2 118.2 119.1 120.5 123.8 124.2 122.4 124.2 126.6 125.5 126.9 128.8 131.1 133.6 134.6 135.1 134.9 133.6 132.4 131.3 130 128.8 128 128.1 128.5 128.8 128.7 129.1 128.9 129.6 130.3 130.8 130.8 130.2 129.4 127.7 125.5 124.1 122.8 121.3 120.9 120.5 119.1 117.1 116 115.3 114.3 113.4 111.7 110.1 110.2 110.7 111.3 111.7 112.5 113.3 114 114 113.7 115.2 117.3 118.5 119.5 119 118.4 116.4 116.3 114.9 101.1 90.6 92.7 96 105.4 107.5 118.5 116.7 115 112.4
221.7 221.9 220.6 218.6 215.8 212.1 208.1 205.8 206.3 210.2 216.6 218.6 218.4 217.2 214.9 212.3 210.8 210.1 210 209.6 209.2 209.5 209.9 211.1 209.8 208 208 207.3 206.9 206 203.7 199.7 198.2 197.3 196.3 195.4 195 196.5 195.4 193.8 191.8 189.9 187.5 186.5 186 187.1 186.5 185.6 185.4 185.1 185.4 186.5 188.1 187 185.3 182.7 179.2 176 172.9 169.7 166.9 165.2 163 161.8 160.3 160.2 159.6 156.7 155 152.4 149.6 148.3 147.8 147.3 147.2 147.9 149 148 148.3 149.2 149.8 148.9 148.1 146.4 144.5 142.1 140.4 139.6 139.6 139.5 137.7 136.6 136 134.9 134 132.7 131 129.7 129.4 129 128.5 127.6 126.7 125.2 122.7 121.3 121.2 120.8 120.4 118.7 116.8 115 112.6 110.7 109.6 109.1 108.6 109.1 108.4 108.7 110.2 112.3 115.2 118.5 120 121.6 123.4 122.8 120.9 121.3 123.3 120.4 121.5 124.4 127.4 129.9 131.8 132.3 132.8 132.4 131.4 131.1 128.7 128 127.2 127.2 127.7 128 128 127.5 127.4 128.1 128.8 129 128.7 128.2 127.1 125.3 123.1 121.7 120.3 119.9 119.6 119.3 118.9 117.2 115.2 114.5 113.4 112.4 111.3 109.3 108.5 109.1 109.7 110.4 111.9 114.7 115 114.3 113.6 114.3 115.1 116.4 117.3 117.7 116.9 116.9 116.5 115.9 112.4 103.6 100.6 97.2 95 89.4 90.7 95.4 111.4 109.7
220.9 219 216.4 213.6 210.9 207.9 205.8 204.7 208.5 215.2 218.2 218.4 217.9 215.3 212.5 211.4 210.3 210.3 210.1 209.8 209.6 210 211.6 210.8 207.5 208.5 209.3 208.4 205.9 202.9 199.3 197.1 196.7 196.8 196 195.3 194.9 194.2 194 191.6 190 188 186.5 184.4 184.5 183.7 182.3 181.5 181.5 181.3 181.7 182.7 184.5 183.1 182 179.4 176.5 173.3 170.1 167.9 166.2 164.6 162.9 162.3 161.7 160.6 157.6 156.9 155.6 154.2 153 151.3 149.5 149.1 149.5 150.4 152.3 152.1 153.3 153.3 152.5 151.2 149.4 147.5 145.6 143.3 142.6 140.1 138.1 136.4 135.5 134.6 133.9 133.4 133.3 131.9 131.7 131.2 130.4 129.7 128.9 127.2 125.6 124.5 124.4 124.2 124.5 124.3 123.8 122.6 120.8 118.9 116.9 114.4 112.2 111.2 109.9 108.7 106.7 107.3 108.5 111.4 115 117.2 118.7 120.4 121.3 120.2 120.2 120 120.9 117.7 117.1 120.7 123.6 126.1 128.8 129.7 131.7 132.3 132.5 132.8 130.9 129 127.3 127.1 127.4 125.4 125.3 124.6 125.2 126 126.7 126.7 126.2 125.3 123.9 122.5 120.7 119.2 117.8 117.2 117.7 117.4 116.7 116.1 115.1 113.7 112.4 111.9 110.6 108.5 107 107.6 108.2 108.8 110 113.6 114.6 115.2 114.2 114.5 114.3 113.9 114.7 116.4 114.2 116.2 117.9 117.9 116.2 114 112.2 112.2 108.9 95.8 88.2 87.4 84.9 99.4
215.3 214.7 211.6 209.3 207.3 204.8 202.4 205.8 208.6 212.3 215 215.8 214.8 213.1 211.1 211.3 211 210.4 210.3 210.1 211 212.4 212.7 209.7 209.9 211.7 210.9 207.2 202.4 198.5 196.1 194.8 194.8 194.8 195.6 195.5 195.1 193.6 191.7 190 188.5 187.5 185.5 182.9 181.5 179.7 178.1 177.5 177.6 178.8 178.8 179.3 180.7 180.3 179.1 176.8 174.5 171.3 168.9 167.7 166.1 164.7 163.8 163.6 163.8 162.5 162.9 161.2 158.9 156.9 153.9 152.3 150.8 150.9 151.7 153 155 155.9 156.2 155.1 151.9 148.6 147.9 147.1 145.8 144.2 141 138.6 137.2 136.6 136.1 135.6 134.8 135 133.7 132.8 131.8 130.9 129.7 129.2 128.3 127.4 127.8 127.4 127.5 127.4 127 126.8 126.3 126 124.6 122.8 120.2 117.9 115.3 112.7 111.3 110.2 108.9 105.9 104.8 108.2 113 114.8 116.1 117.5 119.4 119.5 120 119.9 118.8 117.9 116.4 116 119.5 122.1 125.5 129.3 131.7 132.9 134.7 133.9 132.3 129.1 126.2 124.6 123.8 123.1 123.2 122.4 123 123.5 124 123.4 123.4 122.3 120 119 117.1 116 115.2 114.5 115 114.7 114.5 114.1 113.6 113.6 112.3 110.8 109 107.1 105.7 106.3 107 107.4 108.4 111.3 112.9 113 112.6 113 112.8 112.2 113 115 113.9 115 117.4 117.3 116.6 115.3 114.1 112.9 111 108.3 96.6 92.1 86 83
209 209.6 210 209.5 207 204.2 200.3 203.4 205.2 208.8 210.2 211 211 209.6 211.4 212.7 212.4 211.1 211.1 212.1 213.8 214.5 213.1 213.2 213.3 210.2 205.8 202.4 198.7 195.7 193.7 193.3 193.3 194.2 197 195.7 193.4 192.3 190.8 189.1 187.8 186 183.9 181.9 180.4 178.6 177.1 175.9 175.3 175.9 176.3 176.9 177.6 177.2 176.3 175 172.7 169.7 168.2 166.9 166.1 164.8 165.3 165.3 165.7 166.1 165.3 162.8 159.7 156.3 152.6 150.4 148.9 148.6 150.4 153.7 155.5 156.3 155.4 152.5 149.4 145.9 145.3 145.2 143.3 142.3 140.7 139.2 138 137.2 136.3 135.8 135.7 135.7 133.4 132.3 131.7 131.6 131.3 130.9 130.2 129.3 129.1 128.2 126.7 126.4 126.4 127.3 127.9 127.9 126.7 124.8 122.5 119.7 117 115 113.3 112.8 111.5 108.5 105.6 104.2 109.7 111.7 114 115 116.6 118.3 119.2 118.4 115.9 115.3 113.8 113.7 115.5 118.7 123.7 127.6 129.8 132 132.6 131.8 129.8 126.9 125.2 123.9 122.8 122.4 121.3 120.5 120.2 120.6 121.7 121.4 120.7 119.5 117.7 115.4 113.7 112.4 112.1 111.9 112 112.8 112.6 112.5 112.8 112.5 111.4 109.1 106.7 105.3 104.6 104.2 104.4 104.7 106 108.4 109.7 110.3 110.2 110.7 111.1 111.7 112.3 112.9 113.8 115 115.7 115.9 115.6 114.6 113.2 111.1 110 108 101.4 95.3 87 85.1
207.5 207.5 207.1 207 204.7 202.9 200.5 200 203 206.5 207.7 208.2 208.5 209.4 211.2 212.3 211.9 210.2 212.4 213.2 214.1 214.3 215.5 215.1 212.1 207.8 203.3 199.7 195.9 192.9 191.8 191.8 191 193.5 197 195.6 194 192.8 191 189.1 187.1 185.3 184 182 179.3 177.5 176.5 175.8 175.1 174.7 174.5 175.1 175.2 174.7 173.8 173 170.6 169.1 167.7 166.8 166 165.3 166 167.4 167.6 167.4 165.2 162.2 158.9 155.3 151.3 149.1 147.6 147 148.1 150.8 152.3 152.2 150.8 148.7 146 145.4 144.4 144 143.6 142.9 141.3 139.8 138.7 138.1 137.2 136.3 136 135 132.9 131.9 132.3 132.7 132.5 131.9 131 129 127 125.8 125.2 124.9 124.5 125.2 126.4 126 126 125.1 123.2 122.1 119.9 117.6 115.8 114.6 113 110.2 106.9 104 103.5 107.6 110.8 112.2 112.8 114 114.7 114 113 111.6 111.5 111.2 113.3 115.9 120.8 124 126.1 128.1 129.3 129.4 128.5 127 125.6 123.9 122.3 120.8 120.3 119.9 119.1 119.7 120.5 120.9 120.4 119.4 117.7 115.1 113.1 112.3 111.8 111.7 111.8 112.8 112.6 112.7 110.1 112 111.1 109.5 107 104.7 103.9 103.5 103.6 103.7 105.4 107.3 108.9 108.9 108.4 108.8 108.8 109.1 109.7 110.3 111.5 112.2 113.5 113.3 112.9 113.6 109.6 108 106.4 105.3 103.6 98.5 90.9 85
206.8 205.8 205.3 204.2 202.4 200.6 198.9 194.6 201.3 204.7 207.3 207.8 207.3 207.9 209.2 209.2 208.5 209.7 210.7 211.4 212.8 215.7 217.4 214.5 211 206 201.7 197.2 193.1 190.1 189.1 188.1 188.2 190.2 190.8 192.8 194.6 192.9 191.1 189.3 187.4 186.3 185.4 183.2 179.6 177 176.3 175.6 175 174.7 174.7 174.1 173 173 172.2 171.2 170.1 168.6 167.5 166.5 166 165.9 167.5 168 167 166.8 164.1 161.6 158.3 154.5 152 149 147.2 146.5 146.2 147.4 148 148.1 146.5 146.6 146.9 146.6 145.4 143.6 143.1 143.5 141.9 140.3 139.5 138.9 138.7 137.3 136.2 134.4 133.3 133 133.4 133 132 130.6 129 127.3 125.6 124.7 124 123.2 122.7 123.2 123.1 122.5 122.9 123.6 123.2 123 122.2 120.5 119.3 117 114.8 112.3 110.8 107.7 102.9 101.6 103.8 108.4 108 109.7 109.1 108.3 107.8 106.9 110.1 108.6 109.9 112.3 116.4 120 122.1 124.2 126.1 126.6 126.2 125.3 123.9 122.2 120.8 119.9 119.7 119.3 118.1 118.7 118.7 119.5 118.7 117.7 116.4 115.3 114.7 113.9 113.4 112.7 112.5 112.4 113 112.3 112.1 112.6 112.4 110.4 108.8 106.2 103.9 103.2 103.3 103.3 104.4 106.2 107.3 106.9 106.5 106.6 106.1 106.6 107.1 107.7 108.4 108.7 109.4 108.4 110.2 111.8 108.8 106.6 105.4 104.5 103.3 100.5 97.2 92.3
