ncols 200
nrows 82
xllcorner 230000
yllcorner 795900
cellsize 50
218.9 214.2 215.6 221.6 218.7 207.2 202.9 203.2 198.7 195.5 192.6 187.7 177.3 168.6 158.2 143.4 128.9 113.8 100.1 83.2 62.8 42.2 37.2 33 33.9 32.9 32.9 32.9 32.9 32.9 32.9 34.1 57.6 85 107.1 132.3 147.8 158.6 172.3 185.1 205.2 219.9 227.6 240.8 258.6 277 298.2 317.5 327.5 335.7 343.7 352 363.2 375.1 386.8 393.6 397.9 399.6 404 395.3 385 376.8 366.6 348.7 336 325.6 316.3 304.3 295.8 289.4 285 279.9 267.7 253.1 254.8 252 262.8 269.1 273.1 283.9 289 297.9 306.9 317.4 330.4 340.2 345.9 354.5 360.6 367.8 372.2 376.6 379.1 379.9 380.1 372.3 373 368.9 365.5 364.4 362.8 361.6 361 360.2 360.3 359.9 360.9 361.4 362.1 362.5 359.4 364.5 361.6 367.5 377.1 379.9 382.4 383.9 391.1 396.5 400.3 402.1 405.5 408.8 410.1 411.1 413.9 416.5 419.2 421.2 423.3 426 428.8 432.6 435 438 440.3 443.5 447 450.9 456.1 464 470.8 481.6 494.1 497.3 493.4 489.1 486.6 485 474.6 465.2 461.1 454.5 449.6 444.3 441 437.2 431.9 427.9 425.6 421.7 415.5 407.1 408.9 415.6 423.8 423.2 426.3 430.7 433.9 435.3 436.5 436.5 437.8 441.1 443.1 445.8 449.1 451.9 454 454.5 454.1 455.4 457.6 458.4 458.6 460.1 449.9 437.9 448.4 464.9 474.7 491.8 503.4 520.4 535.4 551.5 565 575.9
226.8 222.9 221.3 218.8 210.9 201.3 198.7 198.3 191.5 187.6 182.7 175.7 166.1 154.1 141.4 129.2 116.5 106.1 91.5 75.1 50.7 39 32.9 32.9 32.9 32.9 32.9 32.9 32.9 32.9 33.6 48.9 83.3 104.7 123 142.2 158.6 171.3 183.9 199.2 213.6 225.8 241.8 261.8 280.4 300 318.5 335.6 344.3 347.3 353.6 363.3 377.1 385.5 390.4 394.4 397.8 402.5 401.6 391.9 385 370.6 355.9 342 331.6 319.7 314.9 304.4 295.4 289.9 281.7 272 269.8 269.2 263.3 251.9 269.5 273.8 281.5 290.6 296.9 304.2 316.8 328.8 340.3 346.1 355.6 362.8 369.8 374.2 378.7 383.5 386.6 387.2 384.3 384.8 381.5 380.2 377.4 375.4 374.6 371.7 371.1 368.9 367.1 367.5 366.8 367.5 368.3 367.4 368.6 368.1 373.4 370.9 378.2 384.8 387 388.6 395.8 400.9 403.8 406 408.3 412.5 415.5 416 417.2 419.5 422 424.6 428 429.8 432.9 435.7 438.9 442.1 444.1 448.3 452.1 458.2 468.3 479.6 489.9 503.4 507.5 501 492.4 487.4 484.8 479.4 470.8 464 459.8 455.1 450.1 446 440.7 435.2 431.1 427.3 423.7 419.7 403.7 412 415.4 422.7 427.4 426.9 430.6 435.1 437.8 439.4 441 441.5 443 446.4 449 452.3 456 459.4 460.4 462 460.8 460.5 461.7 462.9 463.7 464.1 467.4 451.7 444.7 458.9 473.3 487.9 502.5 517.3 530.3 543.7 556.7 574
228.5 225.9 222.2 216.9 205.6 197 190.4 182.7 178.3 176.6 173.1 165.5 154.4 141.4 131.1 123.8 110.4 98.7 82.7 62.6 41.3 34.7 32.9 32.9 32.9 32.9 32.9 32.9 32.9 32.9 44 70.4 100 123.5 139.9 159.3 173.2 186.2 202.7 216.7 228.1 244.8 264.7 282.3 301 318.5 337.9 349 351.9 356 363.4 376.7 388.5 392.7 396 396.7 397.4 399 394.6 383.8 377.8 365.1 348.5 337.8 326.4 317.7 311.4 303.4 294.9 287.5 275.7 269.1 272 270 262.6 259.5 274.4 280.9 287.1 297.4 305.9 314.4 327.6 337.9 346.6 355.9 363.2 369.8 376.1 381.1 386.5 389.9 392.5 394.5 395.2 395.1 395.2 393.3 391.5 388.1 387 386.2 383 381 377.3 374.9 373.1 374.5 374.8 374.4 376.5 375.4 377.3 380.9 382.1 387.2 390.4 395.7 399.7 404.8 408.4 411.2 413.7 417 419.5 420 419.2 422.7 425.3 428.4 432.1 434.3 436.7 440 443.9 447.5 449.9 455.9 463.3 477.7 493.1 504.8 509.6 514.7 504.5 494.6 488.8 485 481.5 477.3 471.9 465.9 459.8 455.1 450.4 445.6 438.9 433.5 429.3 424.3 422.6 408.5 415.2 419 421.7 425 429.8 430.9 434 437.8 440.6 442.3 445.5 446.9 449 452 456.4 462.7 464.9 467.2 468.4 469.9 469.1 467.5 467.3 468.7 468.9 468.4 472.4 463.4 442.4 455 472.2 483.9 498.1 511.2 523.9 541.1 553.3 572.1
222.5 220 212.3 205.4 199 190.3 184.3 178.9 174.1 165.4 157.2 152.9 142.9 132 126.2 115.2 104.1 89 71.3 51.3 39.6 32.7 32.9 32.9 32.9 32.9 32.9 32.9 32.9 41.4 62.8 88.3 114.2 135.6 156.8 170.6 185.4 200.8 219.5 231.8 249.2 267.3 286.6 306.1 322.3 336.3 350.3 356.4 362.1 366.9 374.2 387 393.7 398 398.4 398.3 399.2 397.1 387.8 379.3 372 357.7 348.3 335.8 321.1 314.7 310.9 303.4 291.5 277.7 269.3 274.8 275.7 271.1 264.2 263.4 278.1 287 297.7 307.4 313.5 323.5 336.5 345.1 355.3 364.6 370.6 376.4 382.5 389.2 392.4 397.5 403.7 405.5 405.5 406.7 407.1 405.8 403.5 402.6 401.8 399.7 395.3 391.1 388.1 385.9 383.3 383.3 383.3 382.5 384.5 384 383.5 389.7 391.7 394.2 396.2 402.7 404.4 409.8 413.8 416 418.1 420.6 422.5 423.2 423.2 424.8 429 432 435.1 439.8 442 445.6 449.5 453.8 460.2 468.9 483.5 496.7 511.2 518.5 517.4 513.8 503.2 493.5 488.3 484.1 480.5 475.1 469.1 463.3 459.1 454.9 447.8 443 436.4 433.4 427.3 424.7 410.1 415.6 422.7 425.4 425.5 428.5 433 434.7 437.5 440.5 443.9 447 450.2 453.6 455 460 464.4 468.4 471 472.6 476.9 478.2 476.1 473.8 473.9 474.9 475.8 477.4 479.3 468.9 451.3 449.1 465 479.5 491.2 504.3 518.5 533.6 549.6 568.4
232.8 230 227.5 220.6 206.4 193.3 185 180.6 177.3 171.1 164.4 146.5 139.7 126.2 113.7 105.4 93.2 80.5 60.6 41.3 35.7 32.9 32.9 32.9 32.9 32.9 32.9 32.9 36.5 57.7 81.2 107 127.9 148.2 167.8 184.7 200.8 218.9 235.5 254 271.8 288.7 312 325.6 336.3 349.1 361.2 363.3 368.7 373.3 384 392.6 399.9 400.3 400.6 406.7 396.6 386.3 378.5 374.1 360 352.4 346 332.1 319.3 312.2 308.3 301.4 290.3 268.2 276.1 278.4 277.8 272.1 268.5 274.8 283.2 294.6 305.4 312.3 321.4 332.4 343.5 352.6 362.5 369.9 376.7 380.4 387.3 393.2 401.9 410.6 414.7 415.4 416.3 417 417.6 417.8 417.9 417.5 414.7 410.8 407.2 405.7 402.1 398.1 394.7 392.9 392.5 392 392 391.6 388.2 397.2 398.8 400.1 404.4 410.3 413.1 414.7 418.1 420.5 422.3 423.8 425.4 426.9 427.7 427 432.2 434.5 438.2 444.3 447.4 452.7 458.4 466.1 473.7 486.9 501.1 517.4 523.4 525.9 534.3 518.1 500.6 493.3 488 484.5 479.7 472.1 467.6 463 457.5 451.5 447.1 444.4 438.9 433.7 427.9 414.6 416.9 421.9 426.6 429.7 428.9 433.2 435.4 437.8 441.8 444.1 447.6 451.7 455.7 460 463.4 465.7 469.2 472.7 475.8 477 481.1 483.3 480.9 479.8 481.2 482.1 485.2 486.9 485.2 486.3 466.6 449.4 457.9 472.9 487.8 500.5 513 528 544.9 564.1
240.8 240.8 237.1 229.6 211.9 192.1 184.3 180.5 174.9 168 157.4 144.4 134.5 122.2 109.2 97.4 81.4 64.8 48.4 37.8 34.5 32.9 32.9 32.9 32.9 32.9 32.9 32.9 51.9 76.7 100.2 122 140 161.5 179.9 199.4 217.6 239.4 261.3 278.2 296 315 330.7 342.7 350.2 357.5 366.1 370.3 375.5 382.4 393 402.7 402 401.8 406.8 397 385.7 378.3 371.3 363.1 347.7 343.2 332.2 321.5 316.9 312.7 305.6 297.6 278.2 270.8 280.5 280.5 279.3 268.3 266.6 280.9 291 295.5 311.3 319.4 332.1 340.9 350.9 362.7 369.9 375 380 386 396.2 404.1 412.1 416.6 422.4 423.8 425 427.7 428 431.6 434 433 430.2 426.9 423.7 419.1 414.3 410 406.4 404.1 402.3 400.9 401.3 402 398.1 404.4 401.7 408.6 412.5 415.3 418.6 414.5 422.8 425.5 427 427.7 429.2 430.2 430.9 431.6 435.7 438.5 442 448.9 454.8 463.2 471.7 479.2 497.8 514 530.8 530.4 531.5 546.8 535.8 515.3 497.7 491.8 488 480.1 474.1 472.4 468.2 461.5 456.4 452.4 448.4 444.4 439.1 431.2 420.7 423.3 428 426.4 431.6 431.6 432.9 436.7 438.5 443.1 446 450.2 453.6 457.7 462.1 466.5 471.3 473.5 476.8 479.6 481.9 484.3 488 490.1 489.4 488.1 488.1 489.5 491.3 492.5 494.3 496 476.3 455.3 457.8 467.8 483 497.8 509.9 521.7 537.4 560.2
248 242.7 234.8 223.8 211 191.1 180.5 176.2 171.8 162.7 149.2 140.6 128 115.3 99.8 87.1 70.3 53.9 41.4 35.4 32.9 32.9 32.9 32.9 32.9 32.9 32.9 47.1 71.4 95.5 117.4 136.7 155.8 177.1 192.8 212.8 239.4 264.6 284.2 302.3 322.5 339 348.2 356.8 363.1 369.7 375.6 380.4 386.1 392.4 397.3 400.5 400.5 406.4 394.5 383.5 377.1 371.3 359.5 350.7 339.3 336.9 331.7 325.1 316.4 306.9 300.3 286.5 271.1 276.9 282.5 283.5 278.9 269 262.8 283.9 297.3 303.8 315.7 323.3 340.3 348.1 359.3 371.9 375.2 378.2 386.3 396.1 403.7 411.5 417.1 424 427.5 431.3 433.8 436.7 441.6 448.7 450.9 449.1 445.3 441.5 436 430.4 426.6 423.6 419.6 416.4 412.8 413.1 411.5 410.6 408.6 412.2 403.4 416.1 417.6 420.9 423.7 423.3 427.6 429.7 431.2 431.7 433.1 433.7 435.3 435.2 437.7 443.1 447.6 454.4 465.6 474.7 487.5 499.9 520.9 536.5 541.2 535.7 536.8 545.6 527.4 506.6 496.7 490.9 484.4 478.8 476 471.8 467.8 461 455.9 452.3 446.9 440 435.5 428 417.2 425.1 427.9 429.5 433.3 434.7 436.6 438.9 443 447.7 451.7 455.3 459.7 464.6 469.9 475.5 479.7 483.4 485.4 488.9 491.4 495.5 499.2 499.6 500.2 498.8 497.3 497.4 498.7 498.5 498.5 502.2 480.9 463.7 456.3 467.5 476 491.8 505.6 517.2 532 549.7
245 238.9 229.2 216.8 200.9 184.5 172.6 168.7 164.9 155.2 142.9 131.9 121.4 107.8 91.9 74.9 58.5 42.6 34.9 32.9 32.9 32.9 32.9 32.9 32.9 32.9 42.4 69.7 91.2 114.5 135.3 154.7 175.2 196.5 215.3 235.6 265.9 288.9 307 329.2 345.3 355.7 364.6 369.7 376.2 380.1 390.7 392.1 393.7 398.8 398.3 398.1 396 390.2 384.4 379.5 375.6 368.3 365.4 353.8 348.6 342.2 332.8 324.8 317.7 310.8 302.2 291.4 274.9 284.1 285 285.2 280.3 265.4 270.7 289.4 299.9 310.5 321.8 333.8 341.3 351.7 361.9 371.7 376.5 384.7 393.9 403.1 409.6 416.5 423.6 430.4 434 438.7 444.1 448.9 457 464.5 463.4 462.4 460.5 456 449.4 444.6 439.8 435.7 433.3 427.3 425.1 422.5 420.9 418.4 416.5 419.3 418.4 421.2 423.5 426.3 428.1 426.6 429.8 432.2 434.3 435.8 437 438.1 439.6 441.3 444.2 449.7 458.9 469.9 486.9 494.2 506.2 516.3 538.4 545.3 542.7 537.1 534.4 533.1 514.5 501.9 495.1 489.3 484.5 479 475.1 470.1 465.5 460.6 456.6 451.7 446.2 440.9 435.9 428.9 422.7 430.9 434.2 435.9 437.3 438 439.8 443.4 447.1 452.8 456.9 462 466.9 471.8 477.3 484 490.9 493.9 494.7 498.2 501.4 507 511.6 512.7 513.9 510.9 506.6 505.5 505 504.1 505.1 504.2 496.8 475.2 458.4 463.4 474.6 485.4 498.6 511.2 525.9 542.1
246.3 237.6 223.7 208.3 189.2 174.8 164.9 159.1 153 145.8 137.4 125.4 113.9 98.2 80.8 63.5 46 38.2 32.9 32.9 32.9 32.9 32.9 32.9 32.9 39.5 63.4 87 112.1 135.5 152.8 174 195 217.6 238.5 260.7 289.3 311.8 332.8 352.2 361.2 370.4 374.7 381.8 388 394.6 400 398.4 399.3 397.5 396.1 396.9 391.8 389 384.3 377.7 376.9 374.9 365.3 360.5 351 342 333.9 324.5 318.7 309.7 299 281.2 288.6 290.4 289.3 288.9 284.3 273.9 276.1 291.4 303.3 316 328.5 337.5 345.8 358.3 371.5 377 383.6 392 401 407.9 415.4 424.7 431.9 435.1 439.8 446.5 453.3 459.6 467.1 469.7 470.3 471.7 471.1 469.6 463.5 456.8 450.9 444.3 440.6 435.5 432.7 429.8 427.5 424.2 423.4 425 426.7 425.2 428 430.3 431.3 431.4 431 435.6 438.1 439.3 441.4 442.4 444.6 447 451.3 459.9 475.6 493.9 512 514.4 531.8 544.2 547 547.1 550.7 544.1 530.7 523.7 507.5 499 493.1 488.5 482.7 477.9 474.9 469.3 466.2 461.4 456.7 450.7 443.1 438.9 432 422 424 433.7 436.1 438.3 438.6 440.5 443.2 448.6 450 456.9 462.6 467.9 473.7 481.3 488.2 496.5 502.2 505.8 507.2 509.6 513.7 520.2 525.7 527.3 528.2 524.7 518.8 514.5 512.4 511.6 509.9 507.9 503.8 490.6 477.6 464.6 468.3 482.5 494.8 507 519.9 534.5
246.3 232.6 215.7 197.2 177.8 165.1 159.9 152.3 146 139.2 131 117.5 104.3 86.3 67 49.6 40.7 36.9 32.9 32.9 32.9 32.9 32.9 32.9 37.9 59.7 85 106.5 127.7 150.6 170.3 192.9 215.7 242.3 267.6 287.4 312.8 334 356 368.2 372.8 380.7 390.8 393.5 403.1 404.8 403.4 401.6 399 402.5 402.1 397.6 391.6 386.3 382.3 383.5 377.3 374.2 367.5 359.5 350.8 342 332.8 324.2 316.1 307 284.8 295.5 300.8 298.2 296 291.2 290.7 280.5 273.6 292.3 305.6 318.5 328.9 340.7 349.8 364.1 374.8 381.4 388.5 396.4 404.9 413 423.9 433.9 437.3 441.3 446.7 455.8 461.3 467.7 473 475.4 478.2 480.4 480.8 479 475.4 468.9 461.3 455.3 448.6 443.2 439.5 437.1 433.9 429.2 428.2 429.8 430.7 429.1 432.3 433.9 434.5 433.7 432.9 437.3 440.4 442.8 445.8 446.9 451.8 455.9 463 476.7 495.3 513.7 527.1 530.7 542.8 549.5 545.1 549.3 546.7 539.7 529.7 516.8 503.6 497.5 491.3 487 481.9 478.4 474.4 469.5 466.7 461.5 454.5 446.9 441.1 440.5 426.9 427.9 431.4 436.1 438.6 440.4 442.8 446 448.7 453.1 457.4 459.4 468.3 475.1 482.5 491.1 502.1 509.7 514.7 516.8 520.4 524.1 527.8 536.5 539.2 543.6 542 536.6 529.2 523.4 521.3 518.7 517.3 512.6 507.1 502.7 489.9 482.9 466.4 476.3 490.4 503.1 516.3 527
237.6 222.4 204.8 185.8 169.4 162.6 156.7 148.1 141.3 134.6 121.9 107.7 92 72.2 52.7 40.4 37.4 32.9 32.9 32.9 32.9 32.9 32.9 32.9 55.8 80.6 103 126.1 148.9 167.3 190.2 214.6 242.1 267.7 290.8 311 334.2 353.2 366.4 376.6 385.5 397.5 398.6 408.7 414.2 408.6 405.2 401.4 401.9 405.5 401.5 397.6 390.9 386.7 385.5 380.2 374.1 371.3 365.5 357.9 351.2 337.9 328.4 312.1 290.8 287.7 295.3 306.2 303.4 301.2 299 296.7 294.4 288.1 276 290.6 307.4 320.8 330.7 340.3 352 366.2 376 383.9 393.5 401.7 409.2 419 427.5 435.4 439.1 446.6 456.4 461.8 467.6 475 480.1 483.5 487.4 490 491.1 489.7 484.9 477.3 470.7 465.4 458.8 451 446.6 442.9 438.5 431.1 433.2 434.1 435.1 436.1 437.1 437.7 437.6 437 433.3 440.1 442.3 446.2 449.4 453.6 460.4 467.4 481.7 500.5 518.1 523.5 532.5 535.7 539.8 541.8 536 539.8 532.5 525.4 518.8 511.4 502.5 497 491.5 487.5 484.1 481.8 473.7 471.3 467.2 458 450.9 445.5 440.5 432.6 426 432.1 439.1 442.3 441.8 443.8 448.4 452.2 455.5 458.8 463.1 468.6 474 484.5 493.4 504.8 515.9 521.5 527.6 532 534.4 538 541.9 547.3 554.7 557.9 554.8 549.1 540.5 533.2 527.6 526.3 520.1 518 512.4 505.9 500.5 495.1 477.7 470.7 482.2 495.2 508.8 521.5
224 210.4 194.4 177.4 162.2 152.5 149.5 142.6 133.7 125.2 108.9 93.8 77.5 57.6 39.8 36.3 32.9 32.9 32.9 32.9 32.9 32.9 32.9 46.9 77.4 100.5 123.8 145.5 164.2 184.8 211.1 238.7 267 292.4 314.4 335.4 347.6 359.7 378.5 386 400.7 406.2 411.1 419 414.1 410.3 403.3 403.9 408.7 403.5 400.8 397.4 394 386.9 384.5 380.4 377.6 372.8 366.8 359.5 346.9 336.4 325.8 302.9 314.8 308 303.2 311.9 308.4 306.3 305.7 302.4 300.7 292.9 277.6 289.1 307.1 321.7 333.7 344.8 355 367.9 378.6 388.4 399.9 407.3 413.9 421.8 429.3 434.9 443 453 461.3 466.5 476.5 484.3 488.5 491.5 495.2 500.6 503.2 499.4 490.8 482.8 476.6 469.3 461.5 455.2 451.8 447.2 441.9 436.5 438.3 439.5 440.9 441.3 442.3 442.5 442.8 441.4 437.5 441.3 444.3 450.1 454.4 461.9 470.3 479 507.3 526.9 531.2 533 533.2 533.4 531.4 529 525.1 523.7 523.9 517.4 514.3 509.6 503.6 496.9 492.1 486.1 483 478.3 474.7 470.9 461.9 455.3 449.7 441.9 443.9 437.3 430.6 435.7 443.6 444.3 445.5 450.2 452.7 457.4 459.3 463.8 469 475.2 483.3 494.9 506.2 518 533.6 537.2 542.1 546.8 547.7 550.9 556.1 562.9 570.4 572.6 568.9 561.8 551.2 542.9 536 531.3 530.6 526.6 517.7 510.7 508.1 503.8 494.8 474 485.8 492.5 504.5 515.2
210.6 198.2 183.1 169 156.6 149.3 143.5 133.7 124.4 110.2 93.4 80.1 61.4 43 34.8 32.9 32.9 32.9 32.9 32.9 32.9 32.9 41.2 70.1 97.9 120.6 145.5 166 184.1 206.6 234.8 262.5 287.8 310.9 332.6 354.6 371.2 382.2 390.4 399.5 409.2 416.8 417 418 414 406.6 406.8 414.3 410.5 404.9 400.7 396.2 394.2 387 389.8 386.6 381 377 366.8 354.7 341.5 332.2 310.5 321.6 319.9 320.5 303.4 318.5 314.8 312 310.8 309 307.4 296.1 281 292.8 306.6 318.7 335.2 346.4 356.2 368 382.3 396.9 404.9 408.7 417.1 424.6 431.3 439.5 448.4 455.4 463.9 472.2 482.8 489.2 494.2 499.9 507.5 511.4 510.2 503.3 495.1 486.2 478.3 470.7 462.5 458.4 454.1 448.9 442.7 443 443.9 444.2 443.8 444.5 446.1 446.8 447 445.8 443.9 444.3 447 454.4 459.7 470.3 479.1 502.9 521.6 533.5 533.2 531.6 532.3 530.6 526.8 524.1 520.2 517.6 514.6 512.2 510.8 508.1 502.7 496.9 490.7 484.8 480.5 476.7 472.2 467 461.3 455.7 446.3 447.7 444 440.5 435.7 441.3 443.9 446.6 450.1 452.7 457.3 460.7 464.5 470.2 475.8 482.5 493 505.7 519 536.7 544.6 552.2 555.9 559.6 561.8 564.7 570.1 579.1 585.6 583.2 579.8 570.9 560.6 551.9 544.3 539.6 534.8 528.1 521.3 514.7 514.8 507.3 496.2 481.7 486.5 492.1 497.8 508.4
201.1 188 176.1 163.6 154 144.9 136 124.9 109.9 95.7 83 63.3 44 34.1 32.9 32.9 32.9 32.9 32.9 32.9 32.9 36.2 59.8 92 118.3 144.7 163.3 185.2 208.3 233.7 260.6 284.3 307.4 328.9 350.7 369.4 382.8 390.5 397.9 410.1 421.4 419.4 417.5 415.3 413.3 410.9 413.5 415.1 410.4 406.8 403 394.6 389.6 389.1 391.3 387.8 383.7 372.8 359.5 344.2 338.8 326.4 318 326.6 326.3 311.7 325.9 324.5 320.6 319 320.7 317.5 313.4 300.2 283.2 294.4 305.7 320.8 335.4 346.6 357.1 369.6 385.9 397.1 403 411.2 418.4 424.8 432.2 441.5 450.3 459.2 465.5 473.4 483.9 495.4 499.1 508.9 515 519.1 513.8 505.6 495.8 486.8 477 469.7 464.2 459.5 454.8 449 446.7 448.2 447.8 448 445.5 447.5 448 448.9 448.9 448.9 446.5 450.4 448.6 456.8 468.4 481 500.9 525 531.7 533 532.8 533.7 531.8 530.7 525.1 519.9 516.4 513.3 511.9 510.3 508.1 503 502.7 494.9 486.8 483.7 479.8 473.6 469.2 465.3 460.4 452.1 451.6 448.2 447.6 435.9 440.1 444.9 448.1 449.3 453.9 457.8 461.1 466 470.6 476.2 482.7 490.9 503.5 517.9 533.9 546.5 554.3 562.2 567.1 572.4 575.4 577.5 585.8 593.2 597.6 594.9 586.9 578.3 570.4 559.5 551.8 544.1 537.8 536 528 521.3 518.4 506.4 490.8 497.3 482.4 492.2 498.9 504
189.6 178.5 168.4 158.2 150.6 140.3 126.3 111.9 90.3 78.4 62.7 45 32.9 32.9 32.9 32.9 32.9 32.9 32.9 32.9 32.9 50.4 84.7 113.9 139.9 162.7 182.9 208.1 233.6 259.9 286 307.1 327.6 348.5 366.4 385.2 392.4 400.7 416.2 421.8 423.9 421.6 417.9 420.6 418.7 415.9 416.6 414 410.4 407.5 400 389.4 387.7 390.6 390.3 392.4 373.4 364.4 348.3 343 334.6 310.6 330.4 333.5 334.6 313 333 332.4 329.3 329.8 329.2 324.2 318.1 303.5 282.9 293.5 304.8 321.9 336.1 345.4 357 368.8 381.8 393.8 403.6 411.8 418.8 426.8 433.3 443.5 454.3 461.3 467.7 477.8 488.4 493.6 504.4 515.6 522.7 526.4 517.6 502.5 493.3 483.5 475.9 470.1 464.2 458.4 453.3 448.2 450.7 451.5 451.2 448.3 448.7 449 450.2 451.3 451.5 451.5 447.7 453.9 455.7 456 472.5 491.2 523.1 528.7 533.6 533.7 532.9 531.9 531 525.7 521.7 517.7 513.8 511.1 508.5 506.2 503.2 500.2 494.6 489.3 485.5 481.7 477.2 472.7 466.8 462.1 455.2 455.5 452 450.3 439.6 438.5 442.6 446.8 450.9 456.2 460.6 465 466.7 471.5 475.9 481.7 489.2 498.6 513.6 532 546.1 557.6 564.3 573.7 579.6 584.9 588.9 591.3 599.9 607.3 606.5 601 593.3 585.6 576.9 566.4 557.8 550 545.2 535.5 531.5 526.4 522.6 502.9 512.4 509.2 500 490.7 491.1 504.2
180.2 171.2 161.6 153 144.4 132.3 118.8 101.1 80.6 60 45.6 32.9 32.9 32.9 32.9 32.9 32.9 32.9 32.9 32.9 44.7 78.4 108.1 136.7 162.4 182.5 204.5 229.2 256.7 283.3 307.3 327.4 349.4 368.1 389.1 400.2 411.2 426.2 430.9 427.8 424.8 424.7 429.1 427.4 422.1 419.7 416.7 415.2 417.3 410.1 398.1 387.5 380.5 385.5 380.9 375.9 363.3 352.6 346.3 341 316.4 330.3 341.5 340.2 330.7 328 339.9 338.4 338.4 337.6 335.5 328.9 321.3 306.5 289 294.6 303.3 322.3 337.8 344.8 354.2 365.4 380.1 393.4 401.5 408.8 417.9 427.7 433.7 441.5 452.2 458.7 467.3 476.9 485 490.9 502.9 519.6 533.3 536.2 516.4 497.6 487.3 481.7 476.4 470.6 462.8 457.7 452.9 453 453.8 452.6 451.5 449.9 450.5 450.9 452.3 453.6 454.4 455.4 452.3 457 462.7 463.4 473.2 498.8 519.7 535 540.4 535 532.3 531.9 529.4 522.5 518.2 512.4 509.5 508.3 506.6 502.5 501.1 497.9 493.2 489.2 484.8 481.6 476 471.1 466.4 457.5 459.2 456.2 454.1 450.7 439.9 445.5 447.1 451.5 453.4 457.4 463.3 467.7 471.5 475.7 481.6 488.8 497.8 508 526 546.9 561.6 566.7 576.6 589.7 595.4 596.2 600.9 602.4 615.2 617.1 614.4 607.7 600.5 589.7 582.5 572.4 564.4 556.5 548 544.6 536.8 530.8 522 519.5 523.7 521.9 515.7 512.2 501.4 496.3
172 163.1 155.9 147.8 135.7 121 105.1 83 59.8 40.1 37.2 32.9 32.9 32.9 32.9 32.9 32.9 32.9 32.9 41.5 77.3 107.5 130.5 155.7 181.5 204.9 229.3 255.1 284.1 307 328.7 349.3 368.3 388.4 404.9 417.8 435.2 438.2 435.7 431.3 429.3 436.1 436.4 434.5 432.1 424.4 421.2 419.9 419.8 410.9 395.5 389 378 375.9 370.1 362.7 355.6 348 332.8 328.3 325.8 342 347.4 344 318.3 344.8 350 345.7 345.3 345.1 340.1 334.2 325.2 309.7 295.5 293.6 305.6 319.6 332.6 342.2 350.2 361.9 376.3 386.7 399.1 409.3 418.2 424.7 430.5 439.1 449.4 462.1 474 483.3 490.7 492.6 498.5 509.3 517.1 513.4 508.7 492.5 481.1 476.4 473.2 467.4 461.2 456.4 455.1 455.2 455 454 451.9 451.7 451.9 452.8 454.1 455.8 458.5 459.2 458.6 458.3 466.5 474 479.8 490.3 509 530.4 537.2 534.7 530.6 529.1 525 518.8 514.8 509.8 507.6 506.7 504.5 502.4 498.8 496.2 492.3 488.9 484.7 479.9 475.1 469.8 463.9 460.6 460.2 457.9 455.7 442 440.1 449.8 450 455.8 459.8 461.6 465.8 472.2 476.2 482 487.2 494.7 506 518.1 538.7 555.5 566.9 579 590.8 602.7 604.9 605.3 612.8 616.7 622 623.1 621.3 612.9 604.2 595.6 586.8 577.5 568 558 551.5 543.9 538 542.6 523 532.7 530 527.9 524.2 523.9 517 514.1
163.9 155.4 147.5 137.5 123.3 106.4 86.1 67.4 43.1 32.9 32.9 32.9 32.9 32.9 32.9 32.9 32.9 32.9 35.4 68.7 104.1 133.4 156 178.7 205.2 229.1 255.4 280.7 306.9 327.9 347 367.9 387.1 404.6 425.4 436.7 441.2 442.2 436.3 434.8 443.1 443.1 444.9 442.7 436.9 430.8 427.6 428.8 419.9 407.7 396.7 388.3 379.6 374.6 365.6 358.5 351.9 335 337.3 336.2 345.9 356.2 354.6 338.3 351.6 354.8 356.2 351.8 351.5 349.5 344.8 337.6 327.1 311.3 302.2 292.7 306.1 318.4 328.1 339.1 351.2 358.9 372.7 385.5 400.2 409.6 415.4 424.8 435.8 448.7 461.8 470.5 481.7 490 484.2 482.9 483 484.6 488.5 491.1 483.1 475.6 473.6 469.4 465.9 462.4 459.6 458.5 458.3 457.7 457.1 455.1 454 453.6 454.3 457.4 458.4 462.3 464 464.1 463.1 458.6 469 476.8 485.1 491.1 498.9 517.4 528 529.2 527.3 525.2 521 515.8 511.6 508.5 506.7 505.3 502.2 500.8 497.4 495.3 491.9 487.7 484.5 478.9 473.3 468.3 466.1 463.3 461 456.4 453.4 446.4 451.4 453.4 458.3 458.5 465.3 467.8 472.3 474.5 481 486.8 494.8 502.1 512.5 526.4 543.4 557.5 574.6 590.8 600.1 611.9 609.6 614.8 622.7 627.6 634.9 638.2 631 621.4 611.6 602.1 594.4 584 576.1 569.1 563.7 557.2 552.1 547.5 528.8 540.5 536.5 534.1 530.3 528.9 526.6 529.2
155.7 145.9 135.3 123.7 108.8 90.2 66.7 48.5 33.2 32.9 32.9 32.9 32.9 32.9 32.9 32.9 32.9 36.9 62.5 102.5 130.9 155.5 183.6 209.1 228.7 255.4 277.8 303.5 324 344.4 362.6 382.8 400.5 422.1 435.6 443.2 445.9 442.9 445.8 451.4 450.7 452.4 451.1 446.4 443.9 435.2 432.6 430.6 418.7 404 393.7 385.8 377.1 367.5 361.5 352.6 335.7 347 354.7 356.9 359.6 366.5 357.7 337.1 362.6 362.5 362.7 359.6 358.7 354.2 347.6 339 324.2 327.5 307.4 296.8 306.6 315.7 324.8 336.1 349.5 357.6 369.2 386.6 397.1 408.4 419.9 432.3 447.8 465.9 470.8 472.4 475.9 480.6 475.4 470.6 469.9 472 474.2 476.1 472.1 468.3 467.2 466.5 463.8 461.8 460.4 460.5 460.3 460.1 459 457 456.8 461.6 464 466 467.7 470.7 472.2 470.9 469.5 465.1 470.9 477.9 485.5 491.2 497.6 512.2 518.2 523.2 522.8 520.3 516.8 513.9 510.3 507 504.3 502.2 502.1 499.4 496.8 494.3 490 486.8 482.5 475.5 473.6 468.9 468 465.9 461.7 453.1 448.7 450.2 457.2 458.9 461.5 463.8 466.1 471.8 475.1 480.6 484.3 492.8 501.1 507.6 518.2 532.7 547.3 562.8 578.8 595.5 604.8 612.2 614.6 627.2 633.5 645.5 648 644.9 636.5 627.3 617.7 607.7 600.3 591.3 582.2 575.7 568.1 562.3 557.2 543.6 546.6 546.9 542.4 540.4 537.5 535.8 533.2 538.2
147.3 135.5 125.2 108.6 90.6 70.4 51.6 36.8 34.6 32.9 32.9 32.9 32.9 32.9 33.9 39.9 45 64.7 95.9 128.3 154.1 182 210.5 231.8 253.2 277.1 297.2 318.7 340 360.2 378.1 394.1 414.2 435 443.4 446.8 447.1 452.9 457 456.7 462.1 460.7 455.6 446.4 441.2 436.8 432.6 426.3 412.9 401 390.3 378.5 370 363.9 355.5 340.4 354.3 362.4 363.8 366.8 371.3 371.5 339.9 367.9 370.3 369.2 368.2 365.8 363.6 358.1 352.8 341.7 343 335.1 315.2 300.6 301.8 311.6 319 333.9 346.3 357.5 370.6 383.4 395.8 416 428.8 442.4 453.1 458 467.7 466.4 473.7 470.3 465.3 463.3 463.5 464.1 465.4 465 465.2 465.3 464.8 464.2 463.8 463.3 462.7 463.1 463.1 461.2 461 462 464.9 469.2 472.9 476.5 478.9 481.4 479.7 476.7 474.9 470.3 471.4 477.9 486.7 491.7 497.1 502.6 510 516.1 517.9 517 514.6 511.9 509.5 506.6 504 502.8 501 498.5 495.5 491.2 486.7 483.8 482.4 480 473.7 473.5 469.7 467.2 452.3 459.9 455.6 456.7 458.7 462.8 467.2 465.1 471.2 478.2 481.8 486.1 491.4 497.1 506.6 513.1 524.6 538 551.8 564 580.6 592.8 602.9 613.2 623.4 635.8 644.4 654.5 654.1 648.9 641.5 632.8 624.4 615 608.3 598 587.1 579.8 572.8 566.6 560.8 548 554.5 551.8 548.8 547.7 545.9 543.9 540.3 542.2
137.3 125.1 109.4 92.6 70.8 52.1 38.9 37.7 34.8 32.9 32.9 32.9 32.9 32.9 40.8 50.1 68.2 93.3 123.9 150.4 179.9 205.1 235.8 257.2 273.2 292 312.8 332.7 357.4 376.9 390.6 409 428.9 441.7 445.9 452.2 456.7 458.7 458.8 460.5 464.4 463.5 453.3 441.3 434.7 430.6 420.5 414.5 404.3 390.3 377.1 370.4 366 357.8 347.1 359 365.7 369.1 375.7 379.5 379.4 347.6 376.3 376.7 379.1 376.7 372.2 369.3 367.3 362.1 358 351.2 350.2 339.3 324.4 315 305.8 311.3 321.4 331.6 344.6 354.9 367.5 382.4 402.4 419.8 429 440.2 449 455.1 460.9 460.7 464.9 462.4 461.1 459.5 459.6 460.6 461.8 462 463.1 463.9 464.9 465.9 465.2 465.1 466.2 466.2 466.3 465.3 467.4 471.8 476.8 479.9 486.1 489.1 493.2 493.8 490.3 483.9 480.9 479.5 479.8 484.2 485.1 494 497.1 502.5 507.6 512.9 516.8 515 513 510.4 506.7 505.4 503.6 501.6 498.7 495.9 495.6 493 491.1 488 483.8 481.3 475.9 474.5 472.2 462.3 454.6 459.5 460.1 460 463.6 467.7 471.2 474.5 474.8 480.1 487.6 493.1 494.9 498.6 510.4 518.5 529.4 542.6 554.5 565.8 579.9 591.9 605.1 616.2 629.5 642.5 652.7 656.7 655.4 651 645.9 639.8 631.9 620.8 611.4 600.9 590.8 581.5 575.5 569.6 562.8 561.3 563.7 555.2 554.6 554.9 556 552.9 551 550.3
125.7 113.9 94.9 77.5 55.3 40 38.3 35.8 34.4 32.9 32.9 32.9 32.9 38.4 54.9 71 88.4 114.2 141.4 174.7 203.3 232.6 255.9 269.1 286.2 312.8 323.4 353.5 374.2 391.8 405.6 420.6 435.9 445.9 455.9 458.2 459.2 462.1 461 459.7 461 455.8 444.8 432.5 429.1 421.4 415.5 408.7 393.2 376.3 371.8 366.6 353 353.8 363.2 368.3 373.5 376.2 384 387.9 368.4 378.8 385.8 384.7 387.5 379.9 376.5 375.5 371.1 367.6 366.1 358.5 357.2 350.3 340 321.5 317.3 308.4 319.3 329.2 339.4 352.3 367.5 382.9 401.5 417.3 425.5 433.7 439.8 448.5 453.8 457.4 459.1 459.1 458.7 457.2 457.2 458.3 459.1 460.5 462 464.5 466.9 468.3 469.7 469.5 470.5 472.7 473.4 475.1 480.4 483.4 490.7 493.8 501.1 504.8 507.4 505.5 498.7 493.4 487.2 487.5 487.7 489.3 492.1 495.2 499 505.2 509.1 514.6 516.2 514.7 511.3 509 508.2 505.7 505 503.1 500.9 500.1 498.3 495.1 491.9 490.6 487.5 484.2 480.1 475.9 471 464.9 457.8 462.9 464.3 466.4 468.4 474 476.2 480.7 481.7 482.7 488.7 491.8 499.4 506.4 511 524.1 535.1 546.2 557.3 569 582.3 594.1 605.1 617.1 632.6 644.2 651.9 655 656.5 658.7 653.5 645.8 636.3 625.5 614.4 603.5 593.8 586.6 578 572.2 565.3 559.4 564.1 562.8 562.8 563.7 565.3 563.5 561 560.1
113.7 99.7 80.1 61.1 42.4 36.4 36.5 33.7 32.8 32.9 32.9 32.9 32.9 41.6 65.1 86.2 104.7 122.9 152.3 187.9 221.5 249.4 264.9 279.5 304.3 325.4 336.6 360.1 387 400.5 417.3 432.4 442.8 456.2 463.3 463.2 461.2 463.9 459.4 455.7 452.1 446.7 437 426.2 425.9 413 405.1 391.5 379.9 373.9 367 367.4 370.9 369.8 373.4 375.9 379.4 389.9 393.1 390.8 361.6 391.1 392.6 393 389.6 385.3 382.5 379.8 374.4 371.1 366 371.6 366.9 358.5 350.3 338.8 326.3 317.9 313.7 327.9 338.7 350.5 363.3 379.7 392.9 401.5 419.7 431 439.9 447.5 455.9 460.1 457.9 457.8 457.5 456.3 457 458.5 460.2 462.5 465.1 467.3 469.8 471 474.3 475.5 478.1 481.4 485.8 486.4 494.1 497.1 502.8 510.6 520.9 525.4 524 517.9 510.3 502.9 497.4 495.6 495.8 495.5 497.5 499.9 502.7 508.2 512.7 515.1 516.3 514.5 512.8 513.1 511.8 508.8 507.7 504.9 503.7 501.5 500.7 498.3 494.4 492.7 489.9 485.9 480.8 476.1 469.6 461.9 462.2 469.7 468.3 472.8 475 479.2 481.6 485.6 487.5 485.2 491.3 498.9 502 510.1 521.4 524.5 538.4 549.2 559.8 571 584 594 606.2 617.4 630.8 642.8 651.3 655.5 661.6 662.6 655.3 648.6 638.3 629.5 618.2 607 595.9 588.6 582 575.5 573.4 570.2 570.8 571.3 571.6 572.9 576.1 574 571.2 571.3
100.3 84.2 62.2 45.4 35.9 32.9 32.9 32.9 32.9 32.9 32.9 32.9 32.8 47.7 73.7 95.5 120.4 140.2 161.5 187 225.5 253.7 282.3 293.6 314.6 333.8 347.5 370.2 396.9 413.1 430 443.6 453.3 466.5 466.7 460.2 460 461 447.3 441.4 434 427.3 423.7 419.4 409.5 398.7 385.8 377.8 374.6 368.3 373.2 373.9 373.8 374.2 378.8 384.6 396.3 400.4 400.7 395 373.4 395.4 398 397.5 392.8 390.5 386.2 383.7 381.3 378.3 367.4 378.3 369.9 365.5 351.6 352.1 335.6 328.8 312.6 327.5 336 349 362.2 377 390 409.6 425.8 432.3 437.2 444.4 448.4 454.6 454.6 455 455.4 456.6 458.7 461.2 463.7 466.2 469 471.7 473.2 477.2 479.9 486.4 490.7 495.2 498.1 502.3 505.1 508.7 517.1 527.2 527.2 526.9 524.7 519.7 515.5 509.4 504 503.2 503.7 503.5 506.8 506.1 510.1 513.7 517.1 520.2 519.7 519.7 518.7 518.6 516.2 513.4 511.4 508 506.2 506.8 504.8 503.7 500.1 496.3 491.9 485.7 481.8 477 467.2 464.5 474.6 476.5 475.3 478.2 479.7 483.1 488 490.3 492.5 492.5 493.9 501.5 504.3 516.7 523.2 534.1 538.7 552.4 561.9 574 583.6 593.9 606.3 617.1 629.1 641.6 651.3 659.4 666.2 663.3 656.3 648.7 642 630.8 620.5 609.6 602.7 594.5 586.2 582 580.1 578.1 578.9 579.3 581.7 583.7 586.9 583.4 582.5 581
81.7 63.4 46.1 39.4 32.9 32.9 32.9 32.9 32.9 32.9 32.9 32.9 34.9 57.7 84.4 110.6 139 163 187 207.6 236.2 263.7 284.9 301.3 320 342.9 363 391.4 416.2 428.8 443.2 450.2 466.9 467.7 462.9 456.5 454.3 448.3 439.6 434.5 426.2 417.9 412.7 406.6 391.4 387.1 381.6 377.2 373 375 378.5 376.8 376.6 379.4 386.5 397.2 405.2 406.9 407 401.9 384.1 402.7 405.1 401 398 397.6 390.5 388.6 389.7 383 374.1 379.8 374 370.7 364.8 360.5 352.2 337.8 329.3 326.3 338.6 349.6 359.3 375.6 389.6 407.9 421.8 432.1 440.7 445.9 450.8 451.6 452.6 454.3 456.6 460 462.4 464.7 467.4 470.7 474 477.4 480.6 485 489.4 496.9 502.3 505.9 509.5 510.5 513.9 518.2 525 530.4 532.8 533.1 529.2 522.6 517.1 514.3 512.4 512.5 513.6 514.5 519 515.7 521.6 521.6 522.7 525.6 526.7 526.2 526 524.5 522.9 519.1 515 513.5 511.9 511.5 509.5 508.2 504.2 499.2 495.2 487.2 484.8 477.6 469.4 476.3 475.2 480.1 479.4 480.7 484.2 488.1 490.7 493.5 496.2 500.1 505.1 501.5 514.5 521.3 531.6 537.1 546.2 552.8 562.6 573.1 583.4 593.8 606.8 616.8 628.8 641.9 653.2 660 661.9 661.5 658.6 651.6 643.5 635.3 623.6 613.5 603.5 596.9 592 588.8 587 587.8 587.8 589.3 591.6 594.6 600.6 593.7 591.1 589
63.5 46.3 41.7 32.9 32.9 32.9 32.9 32.9 32.9 32.9 32.9 32.9 41 72.9 99.1 130.9 158.9 182.1 208.8 230.8 254.6 277.4 293.9 312.6 335.7 369.2 396.6 413 426.6 441.6 452.5 463.4 467.8 468.3 456.8 452 447.6 437.6 430.4 425 420.8 407.8 406.8 398.7 390.3 384.1 380.2 375.9 372.2 376.1 378 378.6 382.1 387.4 395.1 408.4 412.4 414.5 408.5 407.2 396 409.6 407.3 404.5 402.3 399.4 395.2 393.4 392.2 379.9 383.2 383.7 378.3 373.4 375.1 373.6 367.3 350.4 338.5 328.9 337.7 340.5 360.1 378.3 395.4 410.8 425.9 436 439.4 445.3 447.3 449 452.3 455.9 458.8 463.6 466.9 468.7 473.4 477.4 481.5 486.1 490.6 496.6 503.3 510.4 515.7 519.3 524.1 525 528.1 530.4 537.4 544.5 546.5 549.1 540.6 531.2 525.8 524.8 524.5 525.8 526.7 529.2 531.7 529.3 531.7 532.6 533 534.7 535.1 534.6 534.2 531.3 527.9 523.9 519.5 518.8 517.3 516.6 514.4 511.9 507.8 500.7 494.7 493 485.5 475.7 477.4 480.9 478.9 482.6 481.5 484.4 489.5 496.8 499 498.2 502.3 507.8 512.6 514.7 514.3 523.2 533.3 543.9 548 556.4 566.1 575.1 584.8 594.8 606.6 618.3 631.6 644.5 654 660.9 663.3 663.4 659 652.3 643.3 635 624.8 614.3 607.2 600.5 600.1 596.4 595.9 594.2 594.8 597 603.1 608.1 608.7 605.4 601.7 597.1
50.1 41.6 35.6 32.9 32.9 32.9 32.9 32.9 32.9 32.9 32.9 34.8 58.4 88.6 119.3 148.6 175.4 202.9 231.6 252.6 276.5 297.3 318.4 342.8 362 388.4 409.4 428.4 442.4 452.8 457.8 467 470.6 465.5 458.3 447.9 438.2 426.8 419.2 413 406.1 401.7 402.4 396.1 386.3 382.2 378.9 374.7 374.5 378.9 380.8 384 389.7 394.8 405.4 416.3 418.9 416.2 414.3 401.7 405.9 416.9 411.7 408.5 406.7 404 399.2 398.7 390.6 388 392 392.4 386.9 382.2 381.1 380.5 376.3 362.7 350 328.6 345.4 357.3 366.1 375.9 390 410.4 421.7 432.9 438.9 445.2 448 450.1 453.7 458.2 463.4 467.6 471.3 474.6 480.5 486.8 491.2 495.9 501.6 507.3 515.1 524.6 531.6 536.9 537.6 536.7 535.7 541.8 549.4 553.5 561.3 557.6 549.7 542.9 540.9 540.1 540.2 539.9 540.4 542.2 544 538.6 539.9 541.5 542.4 544.3 545.9 547.6 545.7 538.9 532.5 528.9 526.1 524.6 523.3 521.8 519.7 513.9 510.1 504.3 500.7 496.2 486.2 476.9 486.8 487.3 484.8 484.7 486.4 489.4 494.5 498.8 506.9 510.5 512.4 515.6 519 521.6 522.6 524.2 540.3 544.2 551.7 560.5 570 579 587.2 598.4 611.8 624 636.5 648.7 658.4 664 665.6 665.1 660.2 654.5 647.2 635.3 625.9 617.4 610.7 607.6 605.2 602.2 603.3 602.7 605 608.1 615 622.7 621.6 615.1 610.7 606.1
40.1 32.9 32.9 32.9 32.9 32.9 32.9 32.9 32.9 34 36.4 50.4 77.3 107.5 139.4 169 195.3 222.5 251.5 272.8 298.4 321.8 342.7 368.5 387.4 409.2 428.3 441.2 451.6 462 465.5 478.3 478.3 468.1 456.1 442.7 432.4 422.4 411.6 401.3 395.4 391.6 389.9 387.4 384.4 381.4 377.3 374.4 376.8 381.4 385.6 392.5 398.3 405.7 417.4 422.8 422.8 419.5 418.6 392.9 418.5 417.9 415.3 413.9 414 408.6 404 399.9 396.3 401.8 400.2 398.9 393.1 387.9 388.9 387.8 382.9 374.4 363.4 347.4 353.1 366 376 387.9 402 412.4 423.2 431.5 440 445.1 448.4 451.5 456.5 462 467.1 472.7 478.6 483.9 490.1 495.8 502.4 507.7 513.2 521.4 530.8 540 549.5 548.5 546.1 547.1 543.1 548.4 551.7 556.1 558.7 558.5 556.9 555.8 558.5 558.4 558 554.4 554.3 553.2 553 550 549.4 550.8 551.5 553.6 553.8 552.5 548.5 543.7 538.5 536.5 533.9 530.2 530 527.5 524.4 519 512.7 506.6 502.3 495.7 485.7 485.4 489.3 486.4 488.6 490.2 491.6 494.3 503.8 507.4 513.4 517.7 523.1 524.7 531.5 533.4 532.7 535.2 538.7 553.2 556.1 563.5 573.3 582.1 591.7 603.8 617.1 630.7 642.5 654.6 663.2 669.5 674.8 674.4 667.2 660.2 651.8 640.6 630.9 620.6 615.7 613.4 610.3 608.5 606.9 607.9 610.9 622.4 633.7 635.3 632.1 626.9 620.9 615.3
36.6 32.9 32.9 32.9 32.9 32.9 32.9 32.9 36.1 37.7 42.2 68.2 96.1 126.9 157.4 186.3 213.7 240.1 268.5 290.1 314.5 339.8 363 383.4 404.1 425.2 440.4 448.6 458 463.2 477.1 488.8 487.2 466.8 454.5 439.4 431.8 425.5 413.2 399.6 391.7 388.8 386.5 384.2 381.8 378.8 375.8 376.9 380 384.9 391.6 398.6 405.8 414.4 424.3 425.2 423.8 425.5 397.3 411.8 423.7 421.5 420.6 419.5 418.9 412.5 409.7 405.3 408.7 412.5 411.3 406.9 400.5 399.2 395.9 396.9 392.5 387 375.4 359.5 356.2 375.1 382.4 397 407 415.4 424.4 431.1 436.8 443.3 449 454.9 460.2 467.2 474 480 486.2 492.8 499.4 508.8 520.3 525.1 531.5 538 549 558.5 564.1 559.8 556.5 552.1 550.6 552.8 556.9 560.9 563 564.4 567.2 569 572.9 574.2 568.9 567.3 565.9 562 560.8 560.6 559.5 560.1 562 563.8 561.5 558.2 553.8 549.5 547.1 544.5 540.5 537.5 534.7 532.4 528 521.4 513.6 507.9 501.7 493.1 480.8 491.4 491.7 490.6 493.7 498.2 497.8 499.6 501.8 508.2 514.2 518.9 529.6 535.1 537 542.1 544.9 547 543.8 552.7 564.2 570.3 577.3 586.2 598.9 611.7 626.1 637.5 651.3 663 672.1 678 682.6 682.6 677.4 670.7 660.5 646.7 635.9 625.8 620.3 619.4 617 616 612.2 615.1 620.9 632.8 641.9 642.8 639.3 635.9 627.7 621.5
32.9 32.9 32.9 32.9 32.9 32.9 34.2 34.7 37.3 40.4 62.8 87.1 115.5 146.3 176 205.8 231.6 257.3 282.8 304.1 329.8 355.8 377.9 397.3 415.4 434.5 449.8 458.2 465.6 480.9 488.9 493.6 481.2 464.6 457 449.6 441.3 426.5 410.5 395.5 388.6 385.3 382.8 381.2 379.7 377.5 378.6 382.8 385.4 390.1 396.5 404.8 412.2 420.8 428.7 427.2 428.8 424.8 408.1 426.5 427.2 425 424.4 423.6 421.3 417.4 415.9 417.3 422.1 420.9 417.9 414.1 408.4 405.6 402.7 404.8 403.2 392.8 385.2 370.4 371.9 382.3 390 400.8 413.3 418.6 424.8 430.9 438 445.2 452.1 458.7 466 473.2 481.5 488.1 496.4 503.1 516.6 533.1 542.1 544.9 554.3 562.8 563.4 567.6 571 570.9 564.2 560.3 557 559.9 562.9 572.9 576.3 582.3 583.8 581 582 580.5 579.9 576.6 574.3 572.5 570.8 570.7 569.4 569.3 570.7 571.7 571.3 568.3 563.6 559.1 555.4 551.1 546.8 544.8 541.3 535.5 529.1 522.3 515.9 509.8 503.1 492.1 484.2 496.5 494.9 497.9 498.7 499.3 501.5 506.4 509.8 513.9 520.3 528.9 536.4 546 553.5 554.4 556.3 558.9 561.1 558.6 568.4 576.1 583.9 593.5 606.4 620.7 634.1 646.2 659.4 672.4 682.4 690.6 693.3 695.2 691.4 683.5 667.6 654.8 643.9 633.8 627.5 625.5 623.5 620.7 625.3 625.2 632.7 643.3 651.7 651.5 649.7 643.7 636.4 629.9
32.9 32.9 32.9 32.9 32.9 35.7 35.3 36.4 38.9 59.2 80.8 107.1 136.4 166.1 194.9 221.9 252.6 273.4 294.7 321.5 347.2 372.4 391 407.8 427.7 453 467.9 469.6 477.2 483.3 486.4 480.8 472.9 464.7 466.1 456.7 444.4 419.1 405.2 393.2 383.7 380.9 379.8 377.9 376.6 380.4 383.8 387.1 390.8 396.2 402.1 409 417.8 427.7 427.2 428.8 431 424.6 417.4 428.7 431.5 430.4 432.3 432.6 429.9 429.1 429.3 426.9 429 426.5 423.5 421.3 416.5 414.5 412.3 410.8 408.8 403.3 393.5 379.3 391.6 395.8 399.9 407.4 413.5 420.4 425.8 432.2 438.8 448.5 457.1 463.6 471.1 479 487.9 497.2 508.8 517.5 538.3 551 558 564.9 572.6 580.4 591.1 594.8 592.1 584.7 578.7 572.6 572.3 572.1 575.9 582.9 588.1 589.5 590.1 590.2 590.3 590.1 588.7 588 585.2 584.5 581.2 579.7 580.5 580 578.7 578.5 577.5 574.2 571.3 568.5 564.8 557.8 554.2 550.1 544.6 538.3 530.4 524.4 519.7 512.2 502.5 491.1 489.3 500.8 500.2 498.8 501.7 503.9 508 511 517.2 525.8 536.1 546.4 558 566.3 572.9 571.1 568.2 569 571.8 573.2 569.1 585 592.2 601.3 614.2 628.9 641.8 654.3 669.5 684.1 693.1 707.5 714.9 710.6 704.7 693.5 679.2 665.5 654.9 644.8 636.8 633.6 629.4 629.3 632.1 636.1 643.6 653.3 660.2 659.4 662.4 656.5 647.4 638.9
32.9 32.9 32.9 32.9 32.9 35.1 36 37.8 50.2 73.7 99.2 127.2 156.6 186.6 214.1 239.4 264.3 285.5 311.4 336.3 361.4 386.8 400.4 421.2 451.8 468.2 473.5 478 482.2 483.2 483.7 478 473.7 477.3 464.4 450.4 437.5 415.1 398.2 391.4 382.3 379.7 379.2 379.2 380.5 383.9 387.3 390.9 395.6 402 409.1 416.6 425.1 427.9 428.7 429.8 431.7 419.9 418.7 436.3 441.7 445.4 445.3 446.9 440.7 437.6 432.8 432.4 432.8 431.5 430.2 424.7 424.9 424.3 421.2 419.7 415.4 409.9 406 397.1 397.1 401 405.9 409.8 413.7 421 428.3 434.7 442.2 451.2 460.2 468 476.2 485.6 496.5 508.3 518.6 533.1 557.7 568.7 578.8 585.7 595.7 602.9 606.1 608.9 605.6 600.3 594.6 589.3 589.5 589.3 590.2 593.3 596.8 599.4 599.9 600.6 601.3 598.6 595.2 594.8 595.7 595.4 591.9 590.4 590.8 589.5 587.7 586.2 583.2 580.4 577.3 573.7 569.5 566.4 561 553.4 544.7 539.7 532.9 526.9 520.8 516 506.2 493 494.8 504.8 504.6 502.9 506.1 509.4 514.1 520.3 526.3 537.5 550.2 563.7 576.3 585.6 592.1 589.2 582.3 579.4 577.7 576.7 576.6 594 601.6 611.1 623.1 636.7 649.6 662.6 677.6 695.5 715.5 728.6 732.1 722.1 712.1 701.2 688.9 680.7 668 658.8 651.1 648.7 642.1 643 646.9 648.4 655 663.5 668.9 671.3 670.6 669.9 659.4 650.1
32.9 32.9 32.9 32.9 34.4 34.8 36.8 41.3 63.2 87.6 116.3 146.6 176.6 206.7 232.9 254.5 275.7 299.9 327.4 347.5 374 394.3 414 438.4 462.2 472.7 474.9 482 479.8 478.5 474.8 473.2 477.7 480.6 455.9 438.6 424 406.3 395.5 390.5 384.2 381 381.1 380.1 383 386.3 390.1 394 401 408.5 415.6 423.5 429.1 428.5 429.2 430.7 432.5 432.1 443.8 451.9 454.4 455 455.7 453.1 448.5 437.8 440 440.3 439.8 438.7 435.2 431.5 431 429.7 426.8 426.5 423.4 417.3 413.5 404.4 393.6 396.7 408.3 415.6 416.4 424.6 431.4 436 446.1 455.3 463.7 472.8 482.9 494 504.5 516.4 528.9 551 568.6 587.6 600.8 610.6 620.9 626.4 626.9 624.3 617 608 602.2 601.6 602.7 603.4 606.3 608.5 610.7 611.3 612.5 612.1 609.8 606.5 607.2 608 606.2 603.9 601.7 600 598.3 596.3 594.5 593.4 592.1 591.9 587.2 582.5 579.4 571.5 563.2 553.7 546.1 539.9 533.3 527 521.1 511.9 512.9 493.4 488.1 508.1 508.9 510.1 511 515.7 519 525.7 536.3 550 568.5 587.3 595.3 609.4 614 606.3 598.5 590.6 589.2 586.8 596.6 602.9 612.3 618.8 632.1 645.1 657.2 672.6 691.6 711.6 730.6 741.1 743.3 738.1 725.4 715.7 702 690.9 680.5 672.6 665.7 660.6 656.1 657.2 658.5 662.3 667.4 674.1 679.3 683.1 687.1 685.8 675.7 660.3
32.9 32.9 32.9 32.9 34.7 35.8 37.8 51 75.4 102.8 134.2 165.4 195.6 225.4 249.9 268.7 289.4 312.6 335.1 359.2 384.5 405 424.7 451.5 465.1 471.9 478.7 480.5 475.5 473.3 465.8 470.4 485.1 476.4 453.8 429.2 412.6 402.4 394 388.9 383.6 381.9 381.7 381.8 385 389 393 397.2 405.4 413.5 421.3 429.1 429.2 429.7 431.2 438.7 449.9 454.6 455.5 460.4 459.6 458.3 454.8 449.1 444.3 443.6 444.6 446 445.3 444.1 442.3 438.5 439.2 435.2 433.3 430.8 426.7 420.5 419.4 408.6 401.9 394.9 410.8 417.7 422.8 427.7 436.2 441.2 447.1 460.2 470.5 479.6 489.6 501.1 513 525.8 545.8 566.3 586.6 607.6 622.2 634.5 640.3 640.6 634.2 626.1 621.4 617.9 614.2 615.2 616.9 618.8 622.6 625 626.9 626.1 623.7 622.1 621 621.6 622.7 623.8 621.7 617.1 615.4 612.8 610.9 608.7 606.5 606.7 605.7 603.8 599.8 595 587.3 578.7 566.9 556.7 548.8 542.2 534.6 530.1 523.1 518.2 518.3 495.1 493.7 513.6 513.6 515 517.8 517.7 523.4 533.8 544.6 570.6 583.2 596.7 614.2 624.3 628.8 620 609.6 602.4 600.4 603.9 600.9 599.9 618.7 627.3 638 652.6 668.2 686 703.8 724.9 740 751.4 757.7 754.9 745.8 729.3 717.1 707.9 696.5 687.8 680 678.2 673.1 673 673.5 676.2 680.3 686.3 691.3 698.1 702.5 699.8 683.7 673
34.4 32.9 32.9 32.9 35.4 36.6 38.5 62.5 87.7 118.9 150.9 181.5 212.3 240.5 263.8 284 304.1 324.2 347 373 394 413.7 433 454 467.5 475.2 481.3 474.2 466.7 465.7 457.5 466.3 475.8 470.1 451.5 429.6 412.8 400.9 390.8 384.7 381.6 381.8 381.9 383.4 387 391 395.6 402.3 409.8 417.1 424.2 430 431.5 434 445.5 454.3 461.3 461.6 461.2 462.9 461.8 458.1 455.2 451.3 446.8 448.4 450.2 450.8 449.6 449.1 446.8 445.3 444 441.4 437.8 432.9 429.3 427.2 430 416.5 409.9 399.1 410 419.4 425.5 430.8 436.5 446.8 453.3 463.8 475.4 486.9 497.6 508.1 521 537.3 558.9 579.9 605.2 623.5 634.6 648 655.7 654.5 647.2 637.5 631.7 628.6 627.7 629.8 631.3 636.3 637.4 638.8 638.9 637.5 636.1 636.2 640.9 644.5 644.2 641.9 634.7 630.6 627.7 624.9 623.2 622.1 622 622.8 620.4 617.3 611.6 604.1 594.8 583 569.3 560.1 552 541.8 537.1 531.7 526.1 524.5 515.4 494 495.8 514.6 519 520.6 523.1 524.1 528.5 540.8 557 576 591.6 616.1 624.9 633.9 637.4 629.9 618.4 613.5 611 614.6 616.4 616.7 621.6 632.4 644.8 658.7 676.8 693 712.9 731 747.7 763.1 769.2 771.8 764.4 749 730 724.1 714.8 704 699.9 693 696.7 699.6 695.9 694.2 693.5 700.2 706.2 713.4 720 712.8 696.3 685.1
34.8 32.9 32.9 32.9 34.1 37.2 51.7 78.2 106.3 137.9 169.1 196.8 225 250.6 275.1 296.7 318.5 336.4 361.7 382.9 402.6 422.4 435.9 450.7 465.6 473.3 471.3 466 456.1 446.9 443.7 452.1 453.2 445.7 434.4 421.5 403.6 394.5 383.9 380.9 379.3 381.4 382.5 385 391.4 395.2 399.8 408.6 415.5 421.8 427.2 429.9 439.2 446.4 453.1 464.1 464.5 459.6 466.5 468.8 464.3 461.5 459.3 455.7 454.6 453.9 455.2 455 454.9 453.8 452.4 452.7 449.8 443.4 444.5 442.3 436.8 433.2 434.6 422.8 417.8 409.1 412.4 427.2 427.7 435.6 440.3 449.1 456.2 470.5 480.4 492.2 504.2 516.9 529 547.2 571.1 593.8 614.3 631.4 652.2 663.4 665.3 664.7 657.5 649.6 643.8 641.5 638.8 642.7 646 649.9 654 658 658.4 654.6 655.4 658.4 661.4 662.1 664 657.5 648.9 642.9 640 636.7 637.8 641 640.4 636.3 632.1 626.9 616.8 606.5 595.5 581.4 568.1 560.7 554 546.2 540.3 534.7 527.1 526.6 514.1 494.3 502.7 519.9 521.3 525.2 528.6 530.3 536.4 547.1 563.6 583.2 605.8 621.4 633.2 641.1 641.2 636.5 630.3 624.8 622.3 622.4 625.9 626.4 627.4 638.1 650.4 664.6 681.4 700.2 715.7 738.2 756.2 769.6 780.1 785.5 779.1 767.3 752.2 741.9 735.3 723.3 719.9 720.9 721.3 716 712.9 709.7 713.2 721.7 721.4 725.2 726.2 721.2 710.4 697.1
36 35.4 32.9 33.2 35.3 43.8 69.6 96.4 125.5 154.8 186.6 214 239 263.4 285.9 308.5 330.2 350.6 372.5 393.5 409.4 424.1 436.1 451.2 465.8 472 469.2 454.1 437.2 428 427.3 434.7 428.9 422.9 413.3 400.1 389.3 382.5 379 377.9 378.5 380.1 383.9 387.5 394.3 399.3 404.1 412 419.7 427.2 434.7 442.6 450.1 456.6 464.4 465.4 463 466.7 469.8 466.9 466.1 465.7 461.3 459.5 460.4 460.6 460 459.9 459.4 458.4 457.5 455.3 452.3 451 452.8 447.4 442.4 438.2 440.1 433.6 422.7 415.3 413.8 427.2 432.3 442.6 446.5 453.8 463.3 475.3 487.7 497.6 510.9 524.7 538 555.8 579.3 602.3 625.8 643.1 660.6 666.8 667.4 665.3 663.2 659.6 656.9 653.5 650.5 653.4 660.2 666.7 674.6 677.2 678.9 677.8 679.2 681.6 678.7 677.3 673.2 667.3 658.6 656.2 657.2 656.5 656.6 654.8 646.2 643.9 637.9 630.1 619.6 607.2 595.3 583.7 571 562 554.7 549.9 543 538.2 530.6 524.8 509.6 495.8 503 519.1 523.9 528.4 532.9 536.2 544.8 558 573.7 589 611 627.2 637.5 643.9 647.1 644.3 641.5 637.5 633.7 633.3 633.3 635.2 641.1 645.6 656.4 670.4 685.3 704.2 723.1 743.8 760.1 777 789.9 792.1 790.3 782.6 766.7 754.5 749.6 742.6 741 739 739.4 738.1 732.9 726.1 726.6 730.1 733.4 737.7 739.8 742.6 729.8 714.3
33.8 33.9 33.7 35.1 38.1 60.6 86.9 114.3 143 170.9 201.2 228.9 253.3 276.6 299 320.9 343.8 362.3 380.7 399.6 414.5 427 433.9 448.9 462.1 463.6 456.5 436.4 417.6 414.2 412.7 414.6 410.8 404.9 397.1 383.3 378.4 376.4 375.9 376.4 377.3 380.4 388.9 391.7 396.4 402 409 416.3 422.8 433 446.1 454.6 455.7 465.1 470.4 467.5 466.3 468.9 470.7 469 466.7 467.3 464.3 464.5 464.8 464.5 465.7 465.8 466.2 463.9 463.9 462.6 457.4 458.9 457.4 455 451.7 447.3 446.2 437.9 430.6 421.7 417 430.7 436.8 444.9 451.2 460.6 471.4 481.2 491.3 504.7 518.1 531.9 546.8 565.5 588.9 612.4 633.4 650.2 659.6 665.8 671.8 679 677.9 679.1 673.8 668.8 667.9 671.2 676.5 688.2 693.8 697.3 697.6 697.2 698.3 696.2 693.9 688 681.9 672.6 668.5 668.9 669.4 668.8 663.6 658.1 649.3 646.1 638.5 630.3 619.7 607.2 594.6 582.2 572.3 565.6 557 552.2 545.2 537.8 530.6 525.6 515.1 497.9 506.1 520.4 525.8 530.5 536.9 545.1 554.4 565.4 578.9 596.1 615.7 629.7 641.3 648.2 654.2 655.4 652.7 650.8 646.3 643.2 642.4 644.1 649.2 650.1 661.2 674.3 689.4 706.9 726.5 745.4 763.8 777.8 790 797.2 797.3 790.8 779.3 767.4 757.3 755 753.3 751.1 748.7 744.9 740.9 736.2 736.2 742 745.4 749 753.6 753.6 750.4 737.3
33.5 33.7 35 39.8 60.1 76.8 102.1 128.7 158.4 186.8 211.6 238.6 263.3 287.7 310 329.4 351 367 386.1 403.3 414.8 423.6 437.8 455.1 463.4 452.8 438.9 414.4 405.8 398.2 399.3 397.5 395.6 389.4 379.7 375.7 374.7 373.6 374.2 374.7 377.2 381.5 388.3 392.8 399.5 405.8 414.6 423.2 430.1 442.5 453.7 460.4 465.2 469.5 470.1 469.9 465 469.8 470.4 471.2 469.9 469.9 469 469 468.9 470.3 469.8 470.6 470.8 470.7 471.4 470.7 468.2 471.9 469.4 465.3 459 455.1 450.3 446.3 442.3 432.7 421.4 431.3 443.1 449.8 458.8 465.2 477.5 486.6 496.8 511.5 525.2 541.1 558.8 577.5 600.6 620.3 636.5 650.9 665.2 679.1 691.1 689.2 698.8 698.2 692.4 685 684.6 686.7 696.2 706.1 711.5 713.6 716.1 715.6 711.3 706.5 699.7 692 684.8 679.5 677.1 674.6 673 669.1 663.2 656.6 651.2 644.3 636.3 626.9 617.5 604.1 592.2 581 572.8 566.5 558.7 551.4 546.3 540.9 534.8 526.5 506.4 502.6 519.8 524.4 530.2 536.8 541.2 551 559 573.2 587.7 602.4 617.2 631.4 644.6 655.1 659.7 661.7 665.4 665.4 660 655.1 652.6 654 658.8 665.1 667 679 693.9 709 727.2 745.2 762 777.8 790.1 799.7 803.2 797.5 788 779 765.9 762.6 762 758.3 754.7 749.9 746.8 744.8 746.9 752 755.4 760.4 764.1 766.1 764.5 759
33.8 34.2 36.5 47.6 71.5 89.8 117.7 144.9 170.7 202.9 225.2 248.2 271.5 293.9 315.3 337.7 354 372.8 391.3 408.4 421.8 429 441.5 455.6 450 438.9 416.6 395 390.6 387.3 384.8 382.8 380.1 374.7 368.7 368.3 368.4 371.3 372.3 374.5 379.3 384.4 389.6 394.5 401.8 407.8 416.9 427.4 442 455.6 466.2 468.7 475.3 472.5 474.7 468.5 470.7 467.3 472.6 472.4 472.4 473.5 473.3 473.4 473.7 475.2 475.6 477 479.1 478.2 480.1 480.6 483.6 481.5 477.9 473.1 467.2 463.8 458.9 454.3 450.1 440.2 433.5 433.9 446.5 452.1 464.7 475.7 484.4 487.6 503.3 516.4 531.3 548.7 568.4 587.7 608.1 622.5 637.3 653.2 674.8 686.7 693.8 701.1 707.1 704.5 700.2 701.3 703.4 704.4 712.7 719.7 725.9 725.8 724.5 719.6 714.2 709.4 701.8 694.3 688.4 684 680.6 676.1 672.6 666.5 660.8 655.4 649.9 641.5 633.1 623.1 612.4 600.4 589.9 579.4 573.3 565.8 558 552.3 546.7 540.4 535.3 520.6 504.3 519 530.6 530.1 536.4 544.4 546.7 555 564.7 576.6 592.9 609.4 620.7 634.8 646.9 656.4 664 670.7 676.3 675 671.1 668.4 667.2 666.3 668.5 674.4 675.4 683.7 694.4 711.7 727.3 742.7 759.9 776.4 789.2 799.8 804.4 802.6 797.9 786.4 774.4 770.5 767.4 763.3 760 756.3 753.6 753.2 753 757.9 763.4 767.6 772.1 773.8 773.3 768.1
34.4 34.7 40.2 60.2 80.2 106.3 135.3 160.2 183.3 211.5 235.8 256.2 277.5 301.2 321.2 340.6 356.7 379.8 398.2 411.6 422.4 431.1 442 444.7 436 415.1 396.2 384.6 381.2 377.1 373.7 370.5 369.3 366.6 364.2 361.3 365.4 369.1 372.7 377.9 382.3 387.6 393.2 398.9 404.9 410.2 422 434.8 451.5 464.3 471.4 474.5 476.9 477 474.8 474.7 474.1 472.2 473.9 475.9 475.7 476.5 477.5 478.8 479.4 480.3 482.5 485.2 487.6 487.3 491.2 493.8 495.7 493.3 486.1 480.1 474.7 474.8 468.3 462.5 455.8 450.3 444.5 444.7 449.4 458.6 466.7 480.1 484.2 495 511 524.3 538.9 554.2 574.2 594.1 611 622.7 638.5 656.1 676.2 691.9 699.9 708.4 713.9 719.4 723.7 724.8 728 725.6 728.8 733.6 739 740.1 735.2 725.6 718.1 710.5 702.9 696.1 689.3 683.9 678.5 672.7 667.9 662.1 656.9 652.8 646.2 638.2 628.9 618.8 608.6 598.2 589.8 581.3 572.8 564.4 559.3 552.2 547.3 541 524.5 509.6 512.5 529.6 535.9 536.8 538.2 547.7 554.1 565.1 577.7 586.1 599.4 610.7 624.2 638.1 649.8 660.5 672.3 683.7 685 683.5 680.7 680.2 680.4 678.7 680.6 682.1 685.6 691.2 700.5 711.8 727.2 741.3 758.6 774.4 786.7 798 803.2 804.3 799.5 787.1 779.1 773.3 769 766.1 763.1 758.7 756.6 758.5 758.5 761.2 766.1 770.4 776.4 776 775 766.1
35.1 37.4 51.4 71 92 117.8 147.8 173.7 194.4 220.2 244.2 264.5 283.8 304.2 322.9 341.1 357.2 380.5 395.2 409.6 417.6 427.8 435.5 435.1 418 397.1 378.4 374.9 371 367.5 364.5 361.2 360.1 359.8 358.7 362.6 367.6 371.7 375.9 380.1 385.5 391.5 397.2 406.6 416.5 426.3 436.3 448.9 462.7 473.6 477.9 476.7 478.6 477.6 475 476.1 477.6 476.5 475.8 479.5 480.6 481.4 482.5 485.5 486.1 486.8 492.3 494.1 496.3 498.8 502.5 506.2 505.7 503.9 498.4 490.7 482.5 477.6 476.2 472.2 465.2 458 453.8 448.8 459.2 462.2 467.6 481.6 490.3 500.6 514.5 528.9 543.9 558.8 577.4 597.3 611.1 624.4 642 659.4 678.9 701.1 712.2 716.5 726.9 737.5 741.2 748.5 748.4 746.6 749.2 751.2 754.9 753.4 742.4 731.2 720.3 712.1 703.1 695.7 688.3 682.3 676.3 669.5 664.5 660.7 655.2 649.2 642.4 633.8 625.2 615.3 606.4 597.7 589.2 580.2 572.7 564.2 557.5 553.1 546.8 539 523.1 510.4 531.2 530.6 534.9 541.8 545 554.2 560.7 572.9 584.7 595.9 607.2 619 629.4 641 651.5 667.4 685.2 696.1 696.5 691.3 692.9 692.4 690.6 689 690 692 695.2 697.5 706.5 715.4 727.2 743.2 759 774.1 785.2 793.3 798.3 798.6 794.4 787.1 778.2 771 766.7 764.3 759.8 757.8 756.4 756.5 758.2 759.1 762.9 764.7 767.7 770.1 769.6 760.1
36.7 46.8 64.6 83.3 105.1 130.6 156.4 180.3 205 228.4 248.9 270 288.4 305.8 320.4 342.3 362.2 385 395.8 404.7 416.7 424.9 427.8 417.8 394.6 378 366.1 365.6 363.7 360.5 357.1 353.7 356.6 359.2 360.5 365.3 369.9 374.5 378.9 383.5 389.2 396.2 404 416.6 428.9 439.9 450.7 464.7 474 479.2 481.3 482.1 481.8 478.7 479.4 481.6 482.2 480.5 477.1 482.6 484.9 486.9 487.7 491.6 496.1 498.1 500.1 504.4 507.6 511.2 514.8 516.4 518 515 508.4 497.5 491.2 487.3 483.3 479.7 472.6 466.5 463.3 458.1 463.5 465.8 476.3 483.7 493.9 504.2 520.3 534.7 546.9 564.5 581.6 599 613.3 629.1 647.1 664.8 689.2 714.1 727.6 739.3 741.9 751.3 755.3 763.1 764.7 764 762.8 766.2 763.6 758.1 748.1 735.6 724.3 714.3 704 693.6 686.4 679.6 673.1 667 661 655.3 649.8 644.5 637.2 628.8 620.7 612.2 604.9 594.8 587.6 579.9 570.7 564 558 552.5 547.2 534.8 522.9 518 533.7 534.9 541.9 545.9 552.3 556.8 568.4 582.3 595.2 607.1 618.1 629.8 638.8 648.1 662.5 680.2 692.9 701.4 701.8 699.5 702 704.1 703.6 704.4 701.6 702.2 703.9 709.5 715.7 722 732.6 745.2 758.2 771.4 780.6 789.2 792.3 792.6 789.2 783.2 775.2 766.5 760.8 758.9 755.2 753.1 750.5 749.6 748.3 751.2 753.7 755.8 759.5 758.8 755 747.3
40 63.8 79.4 96.8 119.1 142.9 166.7 188.3 216.7 239.7 255.7 275.1 292 308.4 327.1 348.4 368.4 386 393.4 401 409.6 415.1 401.1 394.6 375.3 364.9 357.9 358.9 358.2 355.3 351.6 357.5 362.8 362.3 362.6 366.5 372.6 377.6 382.9 388.5 394.8 401.8 413.9 428.1 440.5 452.2 464.1 473.7 479.2 483.7 490.5 487.7 483.7 482.5 483.4 484.5 487.4 485.1 486 486.5 489.6 493.8 496 500.1 504.9 507.5 510.9 514.4 518.6 523.8 525.8 527.7 527 524.2 514 502.8 498.9 495 491.6 486.5 481.4 474.2 471.4 469.7 464.6 477.3 480.4 485.7 499.8 512.2 521.9 537.3 552.4 567.5 583.5 599.1 615.9 638.3 653.1 670.8 693.2 723.3 740.4 747.6 755.5 765.5 770.3 775.9 774.7 773.8 774.4 775.9 771.8 762.8 750.6 736.1 725.7 715.5 704.5 692.4 683.8 674.5 667.5 661.8 655.8 651.8 645.1 639.1 632.9 625.2 617.9 609.6 603.1 593.9 585.5 577.9 570.8 564 557.7 552.3 548.4 537.6 520 526.4 540.1 543.3 545.9 550.3 555.4 568.9 584.4 595.3 605.1 619.6 631.5 641 651.1 661.7 676.7 687.7 697.9 704.4 705.9 708.8 711.4 713.6 715.3 715.1 714.8 713.1 714.4 719.5 723.9 732.1 739.1 750 759.9 769.1 776.9 783.8 786.1 785.1 782.2 778 769.7 759.4 754.9 751.6 748.1 743.5 740 740.4 741 742.9 746.9 749.3 749.7 747.2 741.1 735.3
54 74 90.6 109.9 132.3 154.5 176.6 197.5 219.8 245.9 263.6 282.4 298.1 316.1 334.3 357.1 371.5 380.5 391.6 399.1 397 389.8 378.9 373.1 363 353.2 351.9 352.8 351.1 349.2 353.4 359.6 365.4 367.5 365.9 367.6 373.9 381.3 386.5 394 403.6 414.5 426.4 439.8 451.8 461.8 470.9 479.9 486.6 497.7 491.9 487.9 488.7 487.3 488.2 488.1 490.2 485.5 492.7 494.1 496.1 503.1 506 510.1 514.1 517.9 522.4 527 531.6 534.9 538 539.6 537.5 530.2 519.8 510.9 506.5 502.2 497.8 495.1 490.2 481.9 480.7 478.4 474.5 481.2 486.4 492.7 501.4 514.8 528.2 539 555.4 569.8 585.8 599 621.3 646.2 662 676.6 697 719.5 741.9 752.3 763.9 775.4 781.4 783.9 786.5 781.1 783.2 779.6 772.1 762 749.5 737.1 725.6 715 702.3 690.5 681.1 670.7 663.8 658.2 652.4 645.7 640.2 634.5 628.6 622.1 614.1 608.3 600 592.6 583.7 576.6 570.4 564.2 558 551.7 543.9 537.6 520.7 530.5 542.7 546.2 550.8 555.3 567.4 587.1 595.7 606 617 630.6 642.7 657.1 663.8 675.3 684.3 693.5 701.2 707.4 711.6 713.8 716.6 718.8 722.5 723 720.3 718.6 721.2 723.9 730.3 734.9 743.9 753.6 761.3 767.8 774.4 780.8 780.1 778.4 773.9 766.9 758.1 753.9 746.6 742.8 739 736.9 735.5 735.1 734.7 736.9 740.6 741.7 741.6 736 733.8 727.5
68.7 86.5 104.9 122.8 143.7 165 185.7 205.9 227.4 248.1 268.4 288.2 307.6 326.9 344.9 371.8 389.5 393.2 396.9 390 383.8 375.9 366.6 361.6 353.2 346.3 344.7 345 347.4 352.7 357.6 361.9 366.3 376 373.8 370.1 376.3 384 393.1 403.6 414.5 425.6 437.1 449.4 460.1 469.2 477.9 487.7 494.5 493.3 492.9 490.8 491.1 491.1 492.2 495.7 494.8 491.3 497.3 505.4 503.8 510.7 514.3 519.7 524.3 529.1 533.8 540 543.6 548.1 551.6 550.3 543.2 538.2 529.6 521.9 517.2 511.7 507.3 503.4 497.4 489 489 486.8 482.4 485.2 494.6 499.3 505.3 515.7 528.1 540.3 556.6 571.7 585.4 602.3 625.4 650.5 668.4 681.1 695.5 719.2 737.3 752.7 763.9 773.4 778.9 786.1 785.1 781.7 779 777.3 769.9 759.7 747.2 735.1 724.7 712.6 700.1 687.3 676.5 666.6 661.4 654.2 648.5 642.3 636.1 630.8 623.5 618.2 611.1 604.5 596.2 589.5 583.9 575.4 569.2 563.8 556.7 552.5 547.9 532.3 524.3 536.9 547.7 550.7 557.7 563.2 574.6 592.2 603.7 617 631.3 647.5 660.5 670.6 676.6 683.6 689.9 696.5 702.3 707.2 709.9 712.3 715.7 719.8 722.5 721.4 720.5 719.4 722.3 725.8 731.1 735.5 743.4 751.8 760.5 764.8 768.9 774.1 773.6 771.7 766.7 759.9 756.2 750.1 746.8 742.2 738.3 734.8 731.7 731 730.6 732.6 734.7 735.5 733.2 729 726.6 721.3
83 101.8 119.4 137.5 156.6 174.9 194.9 214.5 234.1 252.5 272.2 294.1 319 337.6 358.4 384.7 392.1 388.6 387.7 373.7 370.9 363.2 354.8 350.7 345.8 338.4 343 347.5 351.6 355.8 359.4 365 370 379.4 378.2 374.5 382.7 390.8 402.1 413.7 423.9 434.9 446.6 458.4 470 477.6 487.6 492.4 495.5 496.9 497.1 495.3 496.3 497.4 498.5 500.7 500.7 499.1 505.8 511.1 514.6 517.4 524.6 529 534.1 540.8 546.7 552.2 556 564.1 565.7 557.2 549.5 545.8 539.5 535.3 529 525.5 520.7 514.7 505.2 499 497.5 495.3 491.5 487.2 503.8 505.6 511.9 518.9 525.3 540.4 559 571.8 587 603.7 625 645.4 659.4 676.4 695.5 715.6 732.6 747.5 758.9 769 775.7 778.4 777 774.7 771.8 768 761.9 752.7 742.6 730.8 718.8 706.8 693.7 683.3 674.5 664.3 657.8 651.9 645.1 638.8 633.3 627.5 620.5 614.9 607.3 601.3 594.5 588 581.1 574.5 567.9 561.3 556.2 550.5 546.2 531.3 531.3 549.2 551.3 554.9 561.4 568.9 584.5 599.7 615.1 626.9 640.6 653.6 669.7 677.2 683.2 688.5 692.5 697 700.4 704.7 706.9 709.2 712.4 714.5 716.2 716.6 715.5 718.2 719.8 723.8 727.5 732.2 739 747.8 755.4 760.2 764.5 767.9 767.7 766.1 762.7 758.6 755.6 750.7 746.9 743.4 737.8 732.4 730 728.1 727.7 728.8 728.9 728.3 725.6 723.5 720.4 718.6
97.6 116.4 133 150 168 185.6 204.1 222.5 241.1 258.6 279.3 302.4 327.9 353.7 372.4 380.4 379.6 369.3 365 358.6 356 349 344.6 340.5 334.6 339.6 342.8 348.4 354.3 358.5 361.3 368.1 379.9 382 381.2 381.8 388.8 399.7 412.3 423.5 435.1 446.4 457.8 466.6 478.5 485.7 491.7 496.4 500.4 501.1 502 504.1 503.3 505.4 507 508.9 510 511.6 515.6 514 523 526.3 533.2 540.5 545.9 552.5 558.8 563.6 566.7 568.8 566.1 561 558.8 557.4 550 545.4 539.8 534.8 531.4 523.1 516.5 510.7 507.4 502.8 501.6 495.8 510.2 515.1 513.7 528.2 534.5 546.1 555.5 572.7 588.5 603.6 619.2 636 652.8 673 693.1 711.9 728.9 743.2 756.4 764.8 767.9 768.2 766.7 765.2 762.6 757.9 752 744.9 735.2 723 711.3 699.4 688 679.1 668.7 661.2 655.1 648.1 640.5 634.1 628.1 622.7 617.3 610.8 605.7 599.6 591.6 584.5 578 572.8 566.4 560.8 555.2 550 545.8 529.6 539.4 549.8 553.6 558.9 567 577.8 591.8 605.3 622.6 634 646.3 658.2 668 677.1 683.2 688.3 692 695.1 698.1 700 701.9 703.5 704.9 706.8 707.6 709.1 710.6 713 715.4 719.4 723 728.6 735.7 744.1 751.5 758.2 762.4 763.5 766.1 765.5 761.6 759.6 755.5 752.7 747 743.2 735 731.7 729.1 725.9 724.4 724.6 722.9 722.9 721.7 719.7 716.5 716.5
110.4 128.5 145.5 163.7 179.2 195.3 214.7 232.4 250.3 266.7 285.7 304.2 330 356.4 358 357.5 358.7 350.2 347 344.1 341.1 339.2 334.9 331 338.6 344.6 347.8 349 357 360.5 363.7 365.8 379.6 382.2 382.5 392.3 397 410.7 423.6 435.4 446.7 457.6 468.2 476.6 486.7 492.8 497.7 503.1 506 511.1 512.8 511.9 513 516.9 518.4 519.2 519.8 521.7 522.8 527.4 526.9 535.9 541.2 551.1 556.1 562.7 568.1 572.2 573.6 574.7 573.2 569.9 568.1 564.4 560.5 555.9 548.7 544.3 537.6 530.7 523.2 524 519.9 513.1 509.3 507.1 507.8 526.5 526.9 527.2 539.6 549.6 562.9 576.5 583 600 616.2 631.5 644.8 664.9 687.2 708 725.2 741 751.6 756.5 757.6 755.4 755 753.8 751 747.1 742.1 735.3 724.3 714 702 691.4 682 673.4 663.5 657.8 650.1 644.8 637.2 631.8 625.7 619.2 612.6 606.8 601.6 594.9 588.7 582.5 575.2 569.5 564 559.4 554.2 551.5 544.8 533.1 545.8 553.4 558.1 562.5 572.9 584.7 598.1 612.9 627.2 639.1 646.8 658 667.7 675 681.3 684.9 689.2 691.2 693.8 694.1 695.9 696.4 697.4 698.7 700 703.2 704.5 707.1 710.2 713 719.9 724.2 731.8 739.6 750.4 757.6 758.3 760 763.7 764.1 762.2 760.4 758.7 757 751.2 744 736.6 729.6 726.7 725.2 722.1 720.4 719.3 717 716.5 715.7 714.4 713.4
122.7 140.1 157.5 174.3 189.3 205 224.6 243.4 261.1 278.4 296.6 316.2 337.4 343.3 343.1 340.5 341.1 336.8 334.1 332.4 331.1 329.6 329.2 336.6 344.5 348.6 352.2 354.9 354.8 362.2 367.4 373.8 377.3 381.3 387.3 396.7 409.1 421.8 435.3 447.1 458.1 469 477.5 485.5 493.5 500.7 506.9 512.9 517.1 517.6 518.9 522.4 525.9 526.6 528.4 530.5 529.9 530.3 529.5 536.9 533.4 543.5 551.5 558.1 563.9 570.8 576 579.7 580.1 579.8 579.6 578 575.8 572.5 569.4 564.7 557.7 553.3 546 539.7 534.5 534.7 533.4 525.8 521.5 516.3 513.3 542.4 538.9 534.6 549.2 558.3 567.4 581 595.3 608.1 619.2 633.1 647.5 662.4 684 704.1 721.7 735.9 744.9 748.9 748.6 745.2 743.6 740.9 738.3 734.8 730.6 723 714.1 704.9 693.7 684.6 676.2 666.1 658.9 651.3 647.3 641.3 634.1 629 623.6 616.9 610.3 601.9 596.3 590.6 584.4 579.1 572.3 566.6 562.2 556.2 554.5 551.5 536.3 538 552.2 555.9 561.5 567.8 578.4 590.5 602.3 616.2 628.9 639.4 648.5 656.5 664.1 671.3 676.8 680.8 684.7 686.8 687.3 687.2 688.1 689.7 690.7 692.9 694.2 696.6 698.2 700.5 704.8 710.4 715.7 720.4 727.1 734.9 743.6 748.4 751.6 755.3 759.3 763.8 765.3 765.3 767.6 765 754.4 747.5 738.2 728.2 725.4 722.2 719 717.1 715.2 713.5 712.9 711.7 711.3 710.9
132.2 149.6 166.7 182.1 197.7 215.5 235.3 255.1 273.8 294.5 306.9 315.2 320.8 326.7 329.1 328.3 327.3 324.2 320.7 318.8 324.4 328.9 335.5 343.6 349.2 353.3 356.9 360.3 360 362.4 367.2 375.2 383.2 388.5 393.2 401.1 413.4 431.5 445.7 458.5 469.4 479.5 488.3 495.4 501.5 511.8 518.7 519.7 522.6 525 529.6 530.7 533.8 536.2 538.5 540.3 538.8 542.3 535.8 545.6 541.9 550.3 559.6 566.7 573.1 580.1 585.9 590.1 588.8 588.1 586.4 585.1 583.2 581.2 577.1 572.7 567.4 563.8 554 547 544.2 544.1 543.4 538 532.4 523.6 517.4 547.2 548.8 545.9 557.7 566.5 574 586.8 601.6 615 631.7 647 662.6 670.9 683.1 702.6 718.2 730.7 736.7 738.6 738.2 734.8 731.8 729.1 725.9 723.8 719.1 711.6 703.4 694.1 686.5 678.5 670.3 661.8 656.3 650.1 643.8 638.9 632.3 625.9 619.4 612.3 604.7 598.6 591.7 583.8 580 574.8 568.9 563.3 558.3 554.8 550.6 548.1 536.5 550 550.1 560.7 565.9 572.8 583.7 596.3 606.7 619.8 630.2 638.9 645.9 652 659.2 664.7 670.6 674.5 678.8 679 678.7 680.2 682.3 683.5 685.1 687.6 688.5 690.5 692 694.3 699.9 703.7 708.2 715 721.3 729.4 738.4 743.1 748.4 752.5 761.8 767.4 770.9 775.1 776.3 767.3 758.4 749.6 739.6 728.8 723.5 721.2 718.2 715.9 710.7 710.4 707.5 706.1 707.2 709.3
142 159.2 175.4 190.7 207.4 226.1 243.6 264.1 282.6 297.8 303.2 306.8 311.4 315.6 317.4 317.8 317.2 312 316.9 325.6 328.7 335.9 339.6 347.5 353.1 357.8 361.5 364.2 367.7 370.9 376.4 380 387.2 396.3 399.5 411.7 425.9 442.7 457.2 469.1 480.3 489.6 498.5 505.7 511.5 517.7 522.1 524.7 529.6 536.1 538.4 541.2 544.1 549 548.1 551.9 547.6 548.9 547.7 553.7 552.7 559.5 567.1 574.4 580.7 588.5 595.1 595.7 597.6 596.4 592.9 589.6 588.3 583.5 581.7 576.7 573.3 568.5 559.9 555 554 555.3 554.1 550.2 543.1 531.6 520.6 546.8 557.1 552.8 563.4 572.1 581.6 596 613.3 627.6 643.2 653.8 667.3 678.9 690.2 704.8 718 727 730.6 729 727.9 726 723 719.4 715.2 711.9 706.1 699.2 692.7 685.4 679.6 671.7 663.9 658.8 652.3 646.4 640.9 635 627.1 620 613.1 606.3 601.2 595 587.4 580.7 573.2 568.2 564.8 560.6 556.3 552.8 545.7 539.5 545.1 552.3 556.4 561.7 568.9 576.4 588.1 599.5 610.5 621.9 630.9 636.7 641.8 647.4 653.8 659.7 664.6 668.6 671.5 672.7 672.6 674.1 676.5 678.4 679.8 681.3 682.1 683.8 686.2 687.8 692.4 697.8 704.5 709.2 714.9 723.3 731.7 738.6 746.1 753.4 759.4 767 776 776.9 773.3 766.6 760.8 753.6 740.7 728.9 723.1 719.6 716.5 713.5 710.4 705.5 705.4 704.4 705.5 707.1
148.9 167.4 183.6 199.2 217.5 235.3 251.2 269.3 283.3 288.2 293.4 299.2 302.8 306.8 307.8 304.9 306.9 315.4 325.3 329.9 335.1 336.9 344.3 350.4 354.7 359.5 364.4 367.6 373.1 381.1 378.3 387.4 394 399.9 409.6 423.9 438.9 454.5 468.3 480.4 491.8 500.6 509.1 515.7 520.2 523.6 528.7 535.1 540.7 546.5 549.7 552.7 555.3 555.9 557.6 558.2 558 558.4 556.1 557.4 563.6 566.8 574.6 582.4 588.1 596.5 600.7 601.9 602.3 601.3 601.2 599.7 596.7 590.6 587.4 582 578.3 572.1 566.3 563.5 563.5 564.2 564.5 557.7 549.4 537.8 542.9 560.1 566.1 562.3 571.8 580.4 590.2 607.2 625.7 639 650.7 663.7 675.3 684.5 695.2 708.1 719.1 724.1 725 722.8 720 717.1 712.2 708.5 705.4 698.8 694 688.7 683.7 678.4 672 666.5 659.8 654.4 647.6 640.7 635 628.1 620.1 613.4 607.6 601.6 595.7 588.1 582.1 575.6 570.2 565.4 560.7 557.7 554.5 545.8 543.4 549.8 549.9 553.8 559.5 567.3 571.2 579.1 590.9 602.3 613.9 622 630.1 634.8 639 644.5 650.8 656 661.5 664.9 666.4 667.6 668.7 668.9 669.5 670.9 672.6 675.6 675.7 677.4 679.2 682.4 686.3 690.4 696 702.8 709.1 716.2 724 732.5 741.1 747.1 756.2 764.8 772.1 775.2 772 766.3 758.8 757.2 739.8 728 722.4 719.4 715.1 710.6 706.8 704.5 701.4 701 701.3 704.7
154.1 173.2 192 208 225.7 241.7 258.1 273.9 282 284.9 287.1 293 295.6 297.2 304.2 310.8 317.7 323.4 329.7 334 338.8 342.9 349.3 354.2 356.3 360.1 364.9 369.7 374 382.8 386.1 393.4 400.4 410.8 422.1 434.5 449.9 465.1 478.8 491.4 503.5 512 519 524.1 528.8 533.8 540.6 546.8 554.9 557.8 559.8 562.7 564.4 565.9 569.9 571.7 572.5 569.1 563.6 561.1 573.2 573.5 580.3 588.3 595.7 602.8 606.9 608.5 607.3 608.5 609.6 610.2 606.1 602.6 597.2 592.1 587.3 580.4 574.5 572.7 571.8 571.9 572.6 567.7 556.8 545.9 564.1 573.5 577 575.5 579.4 588.9 602 619.7 634.7 648.4 662.6 673.5 683 691.3 700.1 711.5 718.1 719.7 718.3 715.5 712.2 708.4 704.5 700.8 697.1 690.8 685.8 682 676.7 670.6 665.8 660.8 654.5 647.3 641.4 633.5 627.5 621.5 614.8 608.9 601.5 595.2 588.8 582.3 576.6 571.2 566.9 561.8 558 554.7 546.7 549.4 552.2 551.2 553 557 563.6 571.7 578 586.4 593.4 604.2 616.3 622.5 629.4 633.2 637.1 641.8 647.3 654.3 658.8 660.6 663.1 662.1 664 664.2 663.1 665.6 665.9 668.1 668.5 669.6 671.5 674.7 679.3 682.3 688.9 695.5 703.7 711.1 719.3 729.7 736.4 741.6 750.2 758.3 765.7 772.6 770.9 763.8 758 748.8 737.5 727.8 721 718.4 714 708.5 702.2 700.8 694.9 697.8 698.4 702.1
157.1 179.6 200.8 215.5 231.9 245 260.3 267.5 279.4 281.2 282.8 286.6 294.4 302.2 309.7 317.6 323.9 328 334.8 340.2 344.5 350 352.1 355.7 359 362.3 367.3 372.3 382.6 388.8 393 399.5 412 424.4 434.5 446.8 460.7 477.3 490.3 502.7 513.8 521.7 528.3 533.9 539.9 546.9 554.7 563 567.1 569.1 572.8 575.9 576.6 580.9 582 583.2 583.7 577.9 573.5 564.4 581.1 581.9 585.8 595.2 602.8 608.2 611.3 613 614.9 616.3 618.6 620.8 618.2 613.4 607.8 601.9 598.5 593 588.7 582.6 581.4 579.3 576.9 574.6 567.4 551.9 569.5 579.6 581.2 583.8 586.3 599.3 612.1 630.1 645.1 660.7 671.1 680.8 691.7 701.2 710 714.2 716.2 716.1 714 708.9 705.2 699.9 695.3 692.2 688.9 683.9 679.6 674.8 670.4 665.7 660.4 653.8 647.4 640.7 635 628.7 622.4 615.2 609.4 603.7 596.8 590.4 583.6 576.6 570.8 566.5 560.5 557.8 555.9 549.2 551.8 554.2 554.5 554.8 558.3 562.6 567.7 575.6 583.2 589.7 598.6 608.2 617.7 623.2 627.3 631.9 635.3 639.6 647.1 654.4 657.4 658.8 659.2 658.7 657.7 657.5 655.3 658.8 660.2 663.2 663.3 663.9 665.9 670.4 674.1 677.4 684.3 692.8 703 708.6 716 725.8 732.1 737.9 743.4 750.3 755.9 763.1 758.4 756.5 753.3 746.3 736.4 726.5 720.3 717.1 709.8 703 700.4 696 693.7 692.1 696 699.3
157.2 183.4 203.5 216.1 230.6 241.2 254.3 265.2 267.6 274.4 286.3 294.2 299.1 306.3 313.3 320.4 327.5 332.7 339.5 346.7 350.7 353.3 354.9 358.1 361.1 366.1 373.1 380.8 386.6 393.8 399.6 411.6 425.7 439.1 451.1 464.9 479.1 491.7 503.1 515.2 525.6 533 539 544.8 551.5 561 566.5 571.6 577.2 580.7 584.8 586.6 589.4 594.9 596.9 597.7 592.8 585.4 582.8 576.5 584.9 587.8 594.9 601.6 608.6 613.2 616.9 619.4 621.3 625.8 633 630.9 627.3 625.4 618.6 613.4 608.9 604.3 600.6 594.8 591.9 590.4 583.9 584 567.2 566.1 577.8 586.5 587.2 588.6 595.8 607.3 623.8 639.7 653.2 665.4 679.4 690.6 700.5 709.8 715.9 719 719 715 708.6 705.7 699.8 694.1 688.5 684.9 681.7 678.3 674.1 669.2 663.6 658.9 652.7 647.3 642.1 635.6 630.3 624.5 617.8 611.8 604.2 599.4 591.9 584.6 578.5 572.8 565.6 562.4 558.2 554.4 552.5 553.5 554.5 556.8 557.8 560 565.3 569.5 574.4 580.2 586.4 593.4 602.7 614.3 618 622.4 627.2 631.9 635.5 640.1 646.9 653.4 656.6 657.3 656.1 654.4 653.6 652.2 651.8 652.8 654.6 657.6 659.1 659.3 661.3 664.7 667.5 674.7 681 689.4 697.5 704.4 711.3 717.9 725.5 730.2 737 741.1 747.6 755.2 752.8 749.9 747.7 739.9 735.2 725.2 721.3 714 705.8 699.7 695 691.8 689.6 687.9 692.4 697.9
176.6 188.2 200.7 212.3 217.6 227.4 240.2 254 263.7 276.7 291.2 299.1 307 312.9 318.5 323.8 330.9 336.7 343.9 350.4 353.8 357.1 358.9 361.2 364.1 370.7 377.8 385.4 392.3 400.4 411.7 425.6 442.1 455.4 469 482.6 496 509.3 520 530.4 538.3 543.7 550.7 558.1 566.2 573.8 578.6 583.1 588.5 591.5 595.5 601.2 604.8 606.5 607.7 604.6 600.3 595.8 590.8 589.5 588.8 596.2 602.6 606.9 615 619 623.2 625.9 631.2 637.5 641.1 639.6 635.9 632.3 628.4 624.6 621.3 618 613.5 608 602.8 597.8 593.7 593.4 567.1 573 585 591.9 592.4 595.6 603.5 616 634.8 651.4 665.9 680 691.5 703.6 714.7 720.8 724.3 724.7 722.6 716.8 710.4 700 694.9 688.8 682.9 678.3 675.3 670.5 667.7 662.3 657.4 652.6 646.4 642.1 637.6 632.7 626.9 620.1 614.5 608.3 601.2 594.5 588 580.7 576.4 569.1 565.1 560.9 557 557.9 556.2 559.3 558.2 559.1 560.8 564.9 571.6 577.2 581.4 585.7 590.4 598.5 604.9 612.2 618 622.9 626.7 630.7 633.8 638.1 642.8 648.5 651.7 652.5 651.9 650.9 649 648.7 647.8 648.1 649.6 652.5 653.6 652.8 654.1 658.6 663.4 669.7 675.5 684.5 691.9 698.9 705 711.9 717.7 723.7 731.7 737.1 742.9 748 749.7 747.8 740.1 735.2 728.6 723.3 719.1 709.4 701.6 695.8 691.2 688.1 685.7 682.2 689.4 696.1
192.2 203.7 213.5 217.9 227.3 233.6 244 260.1 276.6 288.7 297.7 304.5 310.5 319.8 325.3 328.8 337.3 342.5 350 353.2 356.9 360.6 364.7 367.6 373.1 377.2 385 391.9 399 412.7 427.1 441.4 457.7 472.7 487.6 500.6 512.9 526 536.4 546.2 552.4 556.9 565.7 574.5 582.2 587.3 590.7 595.6 600.3 604.6 611.5 615.9 615.9 615.7 615.3 613.9 605.6 603.7 599.6 600.3 592.8 604.4 606.4 614.6 622 627.2 631.9 635.2 640.8 645.7 649 648.8 644.6 641.5 639.4 635.9 633 629.3 623.5 616.4 610.2 606.1 602.4 598 569.4 591.5 592.1 596.7 598 603.7 614.9 631.2 652.9 669.5 682.2 695.9 710.5 723.1 731.6 735.4 735.9 730.7 724.7 716.2 709.4 700.8 691.7 683.4 678.9 673.2 668.3 664 660.5 656 651.1 648.1 641.8 636.9 630.8 627.9 623.4 616.6 610.6 604.6 598 591.9 585 579.6 573.9 567.4 561.7 560.1 559.5 559.6 559.5 560.9 563.1 562.2 567.6 573.9 578.5 584.2 589 590.8 594.2 601 606.9 612.3 617.6 621.6 624.8 628.5 629.4 632.4 636.1 639.8 642.1 643.7 644.3 644 642.6 642.5 640.6 641.4 642.7 645.9 646.9 645.3 648.8 650.3 658 664.7 669.6 676.2 684 690.8 697.6 703.7 710.4 716.5 725.7 732.4 735.6 739 743.5 742.8 737.5 730.3 723.7 720.6 712.1 705.6 698.6 691.4 686.5 685.2 684 681.8 687.8 694.9
201.2 208.8 217.9 225 235.7 244.3 257.9 274.5 288.8 301.1 305.9 308.9 317.4 324.7 331 337.2 343.2 348.9 355.4 357.7 361.5 366.7 371.9 375.1 381.4 386.7 393.6 398 412.7 426.9 442.1 456.3 473 489.1 505.3 516.8 530.6 543.6 553.6 561.5 566.9 574.2 582.1 590.6 594.7 597.7 602.8 608.7 613.3 620.6 625.9 627.4 628.2 630.1 627.3 623.2 616.5 609.4 610.6 611.1 600.2 611.8 613.5 621.8 628.5 635.3 640.9 646.2 650.8 654 657.7 657.6 655.5 653.5 650.8 648.9 644.8 640.6 634.9 626.7 616.5 610.5 605 590.7 580 596.8 598.4 602.4 605 614.2 629.1 651 670.8 687.1 705.6 721.5 732.9 741.4 745.4 744.7 739.5 731.8 724.3 714.8 705.9 696.5 687.7 678.5 673.4 668.5 664.1 658.7 654.4 651.4 647.1 643 640.1 634.9 629.8 623.4 620.3 613.4 608.9 600.2 595.5 589.3 584 577.8 573.8 564.4 568.5 566.8 564.6 564.8 564.6 565.1 567.3 570.7 572.5 580.6 588.2 592.5 596.5 596.7 598.4 602.7 607.9 611.4 615.7 619.7 621.7 623.7 625 625.4 628.4 632.1 634 635.7 634.9 636.8 635.6 634.4 633.6 633.5 637 639.9 640.5 638.3 642.3 645.3 651.8 657 664.7 669.7 675.7 683 690.2 694.9 700.4 708 717.1 724 726.6 732.3 737.3 737.3 732.4 726.1 719.1 714.4 710.8 702.2 691.6 686.9 683.6 681.2 678.3 681 687.9 694
208.5 216.2 225 230.5 243.3 256 268.7 280.3 292.7 303.5 310.1 316.7 324.3 331.6 338.7 345 349.8 354 358.9 362.4 368.8 373.9 380.1 383.5 387.3 396.2 399.5 411.6 426.9 441.2 456.4 471.2 489.2 506.6 520.9 532.6 545.1 560.4 571.3 578.8 585.8 591.2 598.1 601 604.4 609.5 614.5 622.1 632.1 641.3 640.5 641.7 644.1 645.2 639.3 633.4 626.5 619.2 620.1 613.8 609.9 617.8 620.8 630 636.8 643.9 648.9 653.3 657.9 662.4 665.7 666.6 667.4 665 662 659.5 655.9 651.2 643.5 633.9 624.2 618 612.7 585.4 599.4 593.9 606.5 610.6 616.2 628.3 645.8 669.1 690.8 707.4 724.3 738.1 751.1 758.5 754.8 747.6 739.1 731.1 722.1 712 700 691 681.2 673 667.1 663.7 659.5 654.7 649.6 646.3 643.5 640.2 637 632.6 627.2 623.3 616.8 609.9 605.1 598.1 593.8 587.7 582.5 578.4 569.3 573.8 570 569.3 567.4 566.7 565.5 567.7 570.4 575.2 583.2 590.8 597.2 602.9 604.5 604.3 604.5 606.6 608.3 610 614 616 616.3 616.9 615.7 618.4 622 625.7 627.4 629.9 629.3 629.6 629.2 627.8 626.6 626.3 631.8 632.2 633.4 633.2 636.4 639.8 646.2 650.1 656.7 662 668 675.5 681.2 686.6 693.3 700.1 708.8 715.9 721.2 723.9 728.6 731.4 727.9 719.3 712.3 707.9 703.9 695.2 687 682.4 678.9 675.8 671.2 679.2 685.9 693.1
215.9 223.4 231.1 240.4 251.6 262.7 274.9 286.7 296.4 305.8 313.6 322.5 331.3 339.3 346.1 350.3 354.5 358.1 362.6 368.2 377 384 389.5 394.2 397 404.3 417.1 427.3 439.7 456.6 472 486.4 505.7 524.2 539.2 551.3 563.5 579 589 596.5 604.5 610.5 611.9 612.1 616.1 622.3 629.4 641.4 649.3 650.9 653.1 657.4 658.8 656 651.4 644.8 634.8 630.8 628.2 626.2 615.8 625.2 627.3 637.6 643.6 649.6 654.7 658.6 664.3 669.5 673.3 674.4 675.5 673.6 670.6 667.6 663.3 657.9 649.1 639.2 629.9 623.5 613.8 587 608.7 613.3 615.8 619.7 628.6 645.8 664.4 689.6 707.3 726.3 741.6 755.7 765.1 765.9 764.4 756.1 741.3 728.7 718.4 706.5 695.5 685.3 675.7 668.1 663.8 658 653.8 649.8 645.8 641.8 638.7 636.8 633.5 630.8 625.2 619.3 613.4 609 604 598.7 592.9 589.4 583.1 577.2 571.2 575.4 572.6 571.3 570 569.7 571.1 572.3 576 583.8 593.7 600.8 606.6 613.4 614.2 614.4 612.1 613.4 613.7 613.9 614.9 615.4 614.3 611 610.1 611.3 615.5 618.6 621.4 623.6 622.9 623.7 623.7 622.8 620.2 620.6 624.1 625.2 625.6 630 630.3 633.7 639.8 645.7 650.2 653.9 660.8 666.6 673 679 686.8 694 700.8 707 712.9 715.5 722.6 722.1 717 710.1 706.2 701.4 695.5 687.7 681.1 676.1 673.4 670.2 672.7 677.3 686.4 693.5
223.1 230.3 240.6 250.5 257.8 270.1 281.1 293 303.6 316.2 326 331.6 340.4 346.6 352.3 355.5 361.1 364.7 367.7 376.3 384.3 394.4 398.3 404.7 411.7 422 432.4 443.7 459.3 474.3 486.5 505.8 524.7 543.5 559.4 572.4 585.6 597.9 604.5 613.6 622.3 622.2 621.8 620.9 627.8 637.7 647.2 656 661 664 666.2 670.6 670.8 666.8 661 651.9 645.4 639.4 635.5 633.5 623 628.6 638.3 645.2 650.2 655.5 660 665.8 671.5 677.5 681 683.7 686 684.4 679.6 676.1 668.3 661.3 652.2 644.7 633.7 628.1 614.7 595 616.7 617.4 622 629.1 641.2 657.1 679.5 701.3 721.2 739 754.5 769.4 772.5 775.3 769.1 756.3 740.1 725.1 712.5 701.3 691.3 678.8 671.2 668.1 662.3 655.1 649.5 646.5 643.8 638.8 635.7 633.1 631.1 627.1 623.4 618 611.3 605.5 602.1 597.9 592.6 586.8 582.9 578.4 575.8 575.8 574.4 575.5 572.7 573.7 577.9 581.7 587.6 594.3 604.3 612.8 617.5 623.1 623.8 625.7 621.7 619.8 620.4 618.2 618.7 615.9 613.3 609.2 606.2 606.4 607.5 611 613.2 615.4 615.9 616.9 615.5 615.2 614.5 613.3 614.4 618 615.1 624.4 625.4 630.2 633.8 639.7 642.8 647.9 654.3 658.2 663.7 671.2 679.5 686 691.7 696.6 702.9 705 707.3 707.3 704.3 700.6 696.9 691.2 684.3 678.2 674.3 671.3 669.1 660.3 671.5 676.8 685.4 694
231.7 241.6 253.8 262.3 268.3 281.2 292.6 301.8 313.1 326.5 336 339.3 344.5 350.4 355.6 361.7 368.4 370.2 376.6 386.1 393.9 404.8 412.3 418.5 426.7 436.9 447.7 458.3 474.3 489 501.9 520.7 543.9 563.9 579.8 593.1 605 613.3 624.1 632.9 629.4 628 627.9 633.4 641.8 652.3 661 668.6 675.2 676.3 677.9 680.5 679.9 674.4 669.4 660.1 653.8 649 643.6 640.2 628.1 636.9 645.7 650.4 655.5 659.6 665.5 671.6 679.7 686.7 691.2 694.2 693.9 693 692.5 683.6 673.7 664.4 656.4 647.5 639.2 633.4 624.9 602.8 624.9 619.7 630.1 639.9 655.2 676.3 697.6 715.4 735.1 751.1 763.7 771.5 776.4 779.8 774.1 761.9 744 727.6 710.7 700.3 687.2 680 672.7 667.2 659.2 653.5 649.2 645.3 638.5 636.8 632.7 629.3 627.9 624.6 620 615.7 608.7 603.6 600.6 596.7 592.2 585.7 579.3 577 580.8 580.9 580.6 577.8 576.3 579.8 584.1 591 599.1 606.2 615 624.1 633 634.3 634.4 635.6 634.6 632.1 628.7 625.7 624.8 621 616.2 610.8 606 605.8 603.2 604.1 606.7 608.4 608.7 610.2 609.1 609.7 608.2 606.5 607.3 610.7 613.5 618 618.1 624 627.1 630.4 636.8 640.8 646.8 649.9 656.2 664 670.2 675.8 680.1 684.1 688.5 690.8 693.5 696.5 694.6 689.4 686.5 682.5 675.3 670.6 669.1 666.9 665.3 661 666.8 676.8 684.4 692.5
242.4 254.5 265.1 276.7 285.3 293 304.5 312.7 322.1 330.9 339.6 345 350.5 355.4 361.5 367.6 371.6 379.4 387.7 398.7 407.6 416.4 423.7 431.6 440.7 448.6 460 478.3 493.4 507.5 521.4 538.2 558.5 583 601.3 613.8 619.8 632.6 636.3 633.6 635.6 640.2 641.6 646.8 655.8 664.4 672 679.9 685.1 687.4 689 689.9 683.3 677.7 673.9 670.9 663.3 656.6 651.5 643.8 641 649 653 657.2 660.7 667.8 673.8 679.4 688.5 695.1 699.7 703.1 706.6 708.7 703.2 691.2 680.6 669 659.7 651.2 643.8 636.4 616.6 615 631.4 633.4 641.4 650.6 670.2 685.6 706 729.6 747.8 759.7 767.5 777.7 789.3 785.6 778.2 771.2 761.1 742.1 722.6 703.7 690.5 682.4 675.4 668.6 661.8 654.8 649.1 644.8 638.3 633.1 631.5 628 626.6 622.1 618.4 611 604.3 599 595.5 591.7 589.3 586.7 583.6 581 584.8 589.5 588.6 585.4 585.6 591.9 597.5 601.7 609.7 617.2 627.8 637.4 643.5 642.8 645.9 647.3 647.6 646.4 638.3 634.1 631.1 626.4 619.8 613.1 605.6 602.2 601.4 600.5 600.2 601.3 601.6 602.6 602.7 601.7 600.9 597.4 599.5 602.5 606.3 610.3 611.6 616.7 620.6 624.6 631.1 632.4 638.4 642.6 649.9 656 661 665.7 669.7 673.4 676.6 679.7 681.3 682.3 682.7 680.9 677.8 674.3 668.7 666.2 663.7 661.6 656.5 658.9 667.6 673.2 679.3 686.2
252.6 264.8 276 286.7 293.1 300.2 317.4 322 330.6 337 344 349.6 355 359.5 364.4 372.8 378.7 388.9 401.1 411.7 420.7 429.1 436.9 445.2 450.8 463.6 481.7 499.7 515.1 530 547.2 560.8 583.5 604.2 616.4 626.9 634.5 640.7 643.8 644.2 648.6 652.4 652.9 657.2 665.9 675 682.3 687.8 690.5 692.9 692 689.5 687.6 685.4 684.5 680 670.9 666.5 656.7 647.3 651.5 656.5 658.6 662.5 667.4 676.6 680.4 688.3 698.6 704.7 711.3 717.8 721.4 720.8 711.1 699.2 685.8 672.5 662.2 653 645.5 631.9 612.1 629.5 636.3 642.2 651.7 662.3 679.6 698.8 717.5 736.1 749.7 761 770 780.5 788 787 785.3 783.3 779.7 760.4 738.8 716.5 697.8 684.7 676.8 674.6 666.3 657.8 650.4 644.3 637.3 632 628.9 626.9 625.4 622.7 617.4 608.9 606.8 603.3 599.7 595.8 591.9 589.4 588.6 588.5 592 598 595.7 594.1 596.1 600.9 605.3 610.2 622.2 631.1 641.5 648.2 650.8 651.5 658.1 662.1 665.9 666.3 655.3 646.2 639.6 631.7 624 617.4 608.8 605.6 602.3 600.4 597.7 598.5 598 597.2 596.8 596.8 595 592.3 592.7 595.4 598.8 605.1 603.8 610.3 617 621.2 623.1 624.7 630.7 636.3 641.4 646.2 650.7 655.6 658.8 663.1 666.8 670.2 672.9 674.1 676.8 676.1 671.6 667.8 664.6 661.5 658.4 655.7 649.7 653.8 662.1 669.6 672.6 678.4
261.9 272.5 283.6 294.2 301.7 310.3 319.4 329.6 338.4 343.7 350.4 355.5 358.4 362.7 370.7 380.8 390.3 402 413.4 424.5 433.6 441.8 449.5 456 467.9 485.8 502.5 520.1 537.6 552.2 568.9 585.2 605.8 621.2 632 638.8 647.8 653.4 653.5 653.8 660.4 664.2 666.1 667.7 675.4 680.4 686.3 691.5 693.1 695 695.4 694.9 692.1 694 694.4 686.9 680.8 668.5 659 655.5 660 663.6 668.4 672.8 677.6 683.9 691.5 700.3 710.2 719.1 725.4 730.4 732.5 726.5 717.5 704.1 687.7 673.8 663.6 655.7 647.1 633.1 623.5 640.4 643 652.5 658.7 673.9 688 707 720.5 735.2 747.5 762.9 772.8 781.2 786.8 794.7 799.1 797.5 797.2 779.3 757.9 734.1 715 700.2 685.9 678.1 669.8 662.4 651.7 644.3 639.3 633.7 627.5 626.7 624.1 623.7 621.4 618.4 614.4 609.9 606.2 601.9 600.2 597.6 600.4 604.2 609.1 608.7 605 604.1 606.6 609.9 613.5 621.1 631.7 640.5 646.2 651.2 653.3 657.9 672.9 676.5 678.7 681.7 673 659.4 649.9 640.5 631 622.5 615.2 609.3 602.5 599.9 596.1 595.7 595 594.2 591.6 593.4 591.6 590.1 587.5 591.6 591.7 595.5 598.7 605.3 610.3 612.5 614.8 616.9 623.4 628.6 633 637.1 642 645.8 649.9 653.4 657.8 663.9 667.5 673.1 675.2 672.7 667.1 663.3 661 656.2 652 651.1 644.6 647.4 657.1 664 668 670.5
267.5 279.2 290.6 301.3 310.2 318.6 325.4 333.9 343.4 349.5 356 358.9 364.4 366.4 379.4 391.6 402.1 414.5 424.7 435.5 446.2 454.8 463.7 475.6 489.9 506.3 521.6 539.8 558.4 570.6 584.8 604.6 622.6 636.4 645 655.9 662.8 661.9 663 661.1 668.3 672.9 674.8 675.9 678.3 683.6 688.1 693 698.2 700 700.4 699.8 703.1 706 701.3 693.1 681.7 665.4 661.5 664.7 669.4 674.7 680.1 686.4 690.4 697.3 706.7 716.9 726.1 732.7 738.5 740.5 737.8 731.4 721.1 706.5 688.7 676.1 664.4 656.6 649.3 629.6 630.6 647.1 653.2 660.3 671.9 679.5 694.6 708.2 719.7 733 748 762.5 772.2 779.9 790.5 807.3 812.2 813 811.7 795.2 773.4 756.3 735.5 714.3 697.6 685.8 674.8 664.7 655 646.4 638.5 634.7 629.1 626.2 626.6 628.5 622.7 620.5 616.9 616.1 613.5 613 611 612.1 617 619.5 620.1 617.8 611.1 613.1 616.6 619.9 625 631.2 640.2 646 652.1 654 659.4 670.4 680.1 685 692.3 692.4 682.7 670.2 658.6 650.6 639.6 630.4 623.8 616 607.3 603.5 599.7 595.1 593 592 590.5 590.2 589.7 588.9 587 587.5 587.9 590.9 592.2 599 604.2 606.2 609 611.2 616.4 620.4 626.2 630 634 636.5 639.3 644.5 652.6 660.7 665.6 667.6 667.4 664.7 659.3 656.7 653.6 651.1 649.2 645.5 640.6 643.7 651.9 656.8 661.9 665.3
272 284.4 297.1 307.3 317.1 324.2 330.3 340 347.7 352.3 357.2 361.6 369.2 376.8 389.6 403.1 416.6 427.4 437.5 448.3 459.3 469.8 480.1 495.5 509.3 526.2 542.7 559 575.1 591.6 605.2 622.3 638.8 650.4 661 667.8 670.2 669.5 668.2 669 673 676.3 676.8 677.2 680.3 684.4 689.8 696.3 701.2 702.8 704.4 706.5 710.5 707.4 696.6 686.1 672 664.5 668.4 669.8 676.6 683.2 691.9 698.5 704.2 713.4 724.5 733.9 741.2 743.9 743.4 740.6 736.9 731 720.6 706.6 691.2 676.2 665.4 656.6 640.6 645.5 647.8 652.1 662.7 670.7 682.6 693.1 700.5 715.4 729.8 742.9 754.6 765.7 776.2 783.3 792.8 807.6 813.8 815.9 815.2 803.3 779 767.8 740.9 733.7 714.9 698.9 685.1 666 653.4 644.4 640.6 635.7 630.6 628.6 628.3 626.7 621.8 619.2 618.8 622.4 623.5 622.6 624 627.3 631.8 635 634.9 620.3 618.8 619.8 622.4 626.1 630.8 635.4 643 647.9 652.6 658.4 665.4 673.4 685.4 690.1 692.1 691.2 683.2 677.6 668.4 659.9 651 641.7 633 623.9 615.7 608.5 604.2 599 595.2 591 589.4 588.6 588.6 586.7 584.1 583.2 585.2 585.2 586.3 590.5 594.8 600.4 600.9 606.7 609.5 614.7 619.2 622.9 626.8 630.9 633.4 638.9 647.4 655.4 659.7 659.2 658.6 655.5 654.9 651.6 649.2 646.1 643.2 639.8 635.5 636.2 645.4 648.9 650.9 655.2
281.6 292.4 302.7 312.5 321.8 328.6 335.6 346.3 351.2 355.4 361.1 367.7 375 387 401.3 415.3 429.4 441.5 451.5 459.5 470 481.3 495.1 511.8 529.7 545.3 561.4 580 596.3 611 623 639.3 652.9 663.1 672.7 677.2 677.1 675.2 673.6 673 672.2 672.7 673.1 675 682.8 687.9 690.4 697.4 704.1 704.8 707 707.4 704.7 696.4 686.9 675.8 665.7 670.1 672.4 678.2 686.4 694.7 705.3 711.1 719.6 730.4 738.9 745.7 745.2 742.7 739.2 736.6 733.8 728.2 718.7 705.1 689.3 676.7 667 656.5 646 652.4 654.7 661.7 668.4 679.1 691.3 701.8 710.8 725.9 736.8 749.9 761.7 774.6 781.9 787.8 794.5 800.5 806.8 808 806.5 799.6 780.7 764.8 753.7 739.8 722.9 701.8 684 667.1 654.6 647.4 638.8 633 631.6 631.2 628.4 626.2 619.7 619.9 620.5 623.7 625.7 631.4 633.4 631.4 625.8 628.8 622 617.7 619.4 620.6 623.9 626.5 630.9 633.7 637.5 643.3 648.7 656.9 664.1 671.2 681.3 685.6 688.4 687.7 681.6 678.7 674.2 668.4 662.5 651.5 641.2 632.5 623.4 617.7 612.3 606.2 599.8 594.8 590.6 584.5 584.3 582.3 579 579.6 580.2 579.3 580.6 584.4 588.4 592.7 592.6 598.2 603.7 607.4 611.5 615.8 620 623.6 632 635.1 639.9 645.4 650.2 651.7 651.8 651.7 649.9 646.7 642.5 638 636.3 634.6 628.8 629.7 637 644.1 649.8 654
290.2 299.2 307.9 317.1 325.4 332.4 340.8 348.3 355.8 361 366.6 372.4 381.1 398.5 414.4 427.5 440.4 451.9 463 471.8 483.2 496.1 510.7 529 547.3 564.5 582.2 601.4 613.2 623.8 637.8 652.4 661.8 672.7 680.3 681.9 681.1 680.4 674.8 672.2 671.2 671 673.7 676.9 682.4 688.3 691.3 698.7 704.4 703.2 702.9 698.9 693 685.5 677.2 669.1 669.1 673.6 678.3 687.3 698.7 709.2 715.6 723.7 729.6 737.5 741.1 740.9 738.5 736.2 733.3 731.9 730.1 724.6 715.8 699.6 687.9 678.4 668.1 656.2 658.1 661 664.6 668.7 679.1 690.1 700.7 712.5 726.4 738.9 745 753.4 768.9 776.2 782.3 785.5 797.3 806.4 804.6 803.1 799.3 795.6 795.3 778.3 769.4 757.4 736.8 715.1 686.9 670 656.7 648.5 639.7 633.9 632 629 627.7 623.1 619.2 616.2 617.5 620.6 625 631.4 629 623.8 620.2 617 616.2 617.8 619.5 621.2 624.3 626.5 628.2 628.7 630.4 634.8 640.9 650.4 656.6 662.9 669.3 675.8 679.7 681.3 681.2 677.9 676.7 676.4 673.5 661.1 649.9 640.5 631.5 625.7 619.8 613.5 605 600 593.6 585 580.2 577.6 575.6 575.2 576.3 574.8 574.6 577.9 581.3 582.7 585.2 591.1 596.7 600.2 604.4 608.6 613.4 617.2 622.3 627.7 632.1 638.7 643 642.8 644.2 644.4 642.9 639.8 634.8 630.3 631.4 627.5 619.2 623.7 632.6 643.9 650.6 654.9
290.5 303.1 313.5 322.5 331.1 339.7 347.5 353.5 360.3 366.6 372.2 380.3 389.7 402.2 421.6 435.7 448.9 460.1 469.6 480.4 495.6 511 525.5 543.4 561.8 582.2 600.8 611.7 622.1 636.6 650.8 661.5 670.6 678.3 683.9 683.7 682.9 678.2 671.7 669.9 672.5 671 671.6 676 679 683.6 690 693.8 696.3 695 691.4 685.6 680.4 676.7 672 669.2 672.2 678.3 683.9 696.1 706.5 713.9 718.8 724.5 729.1 733 732.9 731.7 729.9 729 728 726.8 725.3 719.2 709.2 696.6 687.8 677.9 670.2 663.2 664.7 666.2 671.4 680.9 694.2 703.1 712.3 727.4 739.3 746.8 748.8 756.6 772.6 776.3 780.8 787.5 801.1 808.8 807.8 803.8 797.5 793.4 793.4 788.9 777.1 765.1 742.4 716.3 688.1 669.9 656 647.7 640.2 634 630.8 627.7 623.6 618.2 613.6 609.7 608.6 614.5 616.2 620 615.1 611.7 610.8 609.2 613.2 615.1 613.4 617.5 619.5 621 620.9 622.6 624.9 626.8 630.4 636.3 642.9 650.8 655 657.4 664.2 670.9 671.6 675.6 676.4 677.4 676.2 665.4 654.8 646.7 638.7 632.5 627.8 620.4 611.2 603.8 596.8 587.3 580.3 577.5 575.2 570.9 571.8 569.9 565.4 571 573.6 573.5 580.4 584.2 588.2 593.2 597.1 600.8 604 609.6 614.3 620.6 624.6 629.2 632.9 635.3 635.7 636.2 632.7 629.6 627.2 625.9 623.8 619.3 607.1 618.9 631.9 643 651.1 658.2
299.5 311.7 322.2 330.9 339 346.1 352.1 358.3 365.2 373 379.2 391.2 403.1 415.7 429.9 442.8 455.9 465.7 475 490 507.4 523.6 539.2 557.9 576.2 595.7 606.4 618.2 633.6 648.7 661.6 670.3 677.1 681.6 681.6 680.9 677.1 673.3 672 669.7 670.5 667.3 667.1 672.4 675.8 678.8 682.6 686.4 686.9 682.8 679.7 675.5 670.7 668 667 669.1 676.1 682.3 691.9 700.5 708 713.8 718.4 721.5 722.9 724.4 723.9 722.2 722.5 721.8 721.5 721.3 719.2 712.8 703.7 696.3 688.8 679.3 670.8 670.5 671.6 675.6 684.4 695.6 705.7 716.8 721.1 735.1 745.1 748.4 753 758.8 768.5 775.6 779.6 784.5 793.9 804.2 811.1 803.5 794.8 785.5 784 785.9 781 760.1 741.7 709.5 684.3 666.2 654.3 648.7 642.8 639 635.8 629.4 621.1 612.7 608 605.5 603.1 603.9 607 603.8 603.6 603.9 604.2 603.5 606 607.4 607 611.2 612.3 612.8 612.1 613 615.2 618.4 623.9 626 633.2 641.3 646.6 649 652 658.1 662.6 668.4 670.6 673.8 671.1 665.1 659 654.5 645.1 637 635.5 625.4 615.2 608.8 600.8 589.8 582.1 578.1 574.5 572.3 568.5 565.2 563.6 562.6 566.2 570.5 573.4 578.5 582.9 586.7 589.4 593.1 597.1 602.8 608.1 613.2 617.4 620.1 621.6 625.8 626.5 626.6 624.1 621.9 619.7 619.4 617.5 611 600.1 617.9 631 640.7 650.9 661.3
303.6 318 330.9 339.4 344.4 350.3 356.6 363 370.2 379.9 394 407.6 419.4 430.9 443 453.7 466.4 474.3 487.9 504.9 520.2 535.6 550.4 571.9 587.1 601.9 616.9 633.4 647.5 659.2 669.4 673.7 675.1 676.7 674.9 673.5 672.3 671.2 671.7 669 667.8 664.1 667.1 671.4 674.8 676.2 676.9 676.9 675.8 672.8 668.9 665 664.9 664.9 665.2 671.1 674.9 684 691.9 700.7 706.3 710.3 712.6 713.2 712.6 712.7 714.8 714.8 715.7 717.1 716.2 716 712.9 709.4 700.8 695.3 687.4 681.4 675.5 677 681.7 689.3 699.7 708.3 719.4 724.3 727.2 735.6 743.3 750.1 754.6 757.2 761.1 768.3 774 780.2 788 795.4 799.3 794.6 788.9 780.2 777.6 777.6 763.8 749.3 724.4 701.9 681.9 667 655.2 650.9 649.4 648 643.8 633.3 621.9 610.9 606.3 604.2 603.2 602.7 602.7 603.9 600.3 597.7 593.4 594.7 596.9 594.3 596 598.7 601.2 601.7 603.3 603.6 604.2 607.6 612.6 617.3 622.7 629.7 636.8 641.8 645.1 647.3 651.2 657.3 661.9 665.4 667.8 664.9 664.3 659.7 648.9 641.1 635 625.6 617 609.3 598.9 591.8 585.6 583.1 579.2 574.5 572.3 569.6 566.8 560.3 554.3 564.8 568.5 571.9 575 578.4 581.5 582.4 588.3 592.7 598.8 603.3 606.3 609.4 611.8 613.5 615 616 617.2 614.8 613.4 613 602.9 596.7 603.9 617.7 630.7 639.8 652.3 663.1
308.5 321.9 334.3 342.6 348.2 354.7 361.2 369 379.7 392.8 406 420.8 432.3 444.7 455.4 465.5 477.9 489.6 504.2 519.7 534.6 549.6 566 581.2 596.6 614.4 632.7 644.3 657 664.7 672.1 673.8 673.3 671.1 670 669.1 669.6 671.3 671.3 666.9 664.2 660.1 664 667.8 668.4 668.8 667.4 666.6 664.7 662.8 660.1 656.9 658.2 660.6 663.5 667.8 675.1 682.3 690.5 697.1 700.9 704.2 703.1 703 703.6 704.6 706.3 708.5 709.4 710.9 710.5 710 708.9 704.9 699.4 694.4 688.7 682.1 682.6 687 694.1 705.6 716.7 723.5 726.9 731.9 735.1 737.4 742.3 751.4 753.2 753.3 754.6 760.4 767.9 771.3 778.5 783.8 785.1 780.5 778 773.6 770.6 765.4 750.9 735.4 719.4 694.4 674.8 664 655.4 659.8 658.3 664.1 658.3 636.6 619 610.9 607.4 607.5 607.5 601 601 599.8 593.2 585 585.3 582.1 581.6 582.8 583.8 585.5 588.5 589.8 591.7 592.1 594.2 598.6 602.4 607.6 611.5 616.8 623.7 630.5 636.1 641.4 645.4 648.5 653.4 659.3 663.1 665.7 666.8 661.1 652.2 641.8 633.2 625.3 618 609.3 599.4 594.4 590.9 585.2 581.4 576.7 573.9 570 567.6 563.3 555.4 557.4 562.7 565.1 566.1 569.3 572.8 572.5 579.3 582.6 586.1 592 594.4 596.5 600.3 603 603.4 606.2 608.2 607.8 606.4 604.2 592.5 594.3 610 620.6 630.6 642.4 654.7 665.3
313.5 324.9 337.4 344 352.5 358.9 366 376.1 390.4 403 416 430.6 444.3 455.6 464.4 475.7 489.8 502.7 518.1 533.7 547.8 563.9 576.6 590.5 606.5 626.3 638.8 651 661.1 669.6 674 673.3 672.2 670.5 667.2 665.5 666.3 670.3 667.3 664.5 661 656.9 658.2 660.2 660.5 658.8 657.4 656.3 654.9 653.7 654.7 650.7 651.7 658.8 660.6 666.4 672.6 679.6 686.5 689.6 689.6 690.9 691.6 694.8 695.8 696.9 698.6 700.8 702.7 703.6 704.9 704.9 704.4 701.8 697.4 692.4 688.9 686.5 690.3 697.1 707.1 720.4 728.9 727.1 732.8 736.2 737.4 739.3 742.5 745.7 747.6 748.8 749.4 752.6 756.9 762.3 766.2 769.7 768.8 767.1 765.6 761.9 757.1 754.4 742.8 731.1 712.3 686 671.2 662.4 661.7 674.2 691.9 682.6 657.7 633.9 619.7 613.4 609.1 610 604.6 594.7 591.9 584.8 581.4 575.9 574.6 575.5 576.9 573 572.6 573.9 575.7 578.5 580.2 581.6 585.2 588.6 592.9 597.3 600.8 606.6 611.5 618.2 624.8 632.1 636.2 640.2 646.1 651.7 658.4 663.4 663.1 658.4 650.2 641.4 632.4 624.9 617.6 610.2 600.6 596.4 591.9 586.8 582.2 579.1 575.6 570.8 567.4 561.6 557.7 545 555.1 557.4 556.9 559.4 562 563.6 570.3 573.7 578.1 579.4 583.2 587.7 591 592.5 596.1 596.9 600.4 598.9 600.1 589.5 578 593.3 608.5 621 632.2 646 657.7 669.7
315.5 327.3 335 344.1 355.7 362 368.8 383.5 397.8 409.9 423.8 438.4 452.6 464.5 470.9 489.5 503.7 512.7 528.1 544.3 556.6 568.8 582.6 596.9 616.1 633.4 645.4 655.1 663.1 670.9 671.8 670.1 669.7 668.2 665.8 666.3 663.5 663.4 664.2 662.2 658.2 654.8 651.7 651.3 651.1 650.6 649.2 648.4 648.8 647.4 647.5 645.9 649.6 654.7 657.7 661.6 666.9 674.4 678.5 679.8 680.8 683.4 686 688.9 689.3 688.8 689.7 689.8 694.8 696.2 698.1 699.4 699.6 698.6 696.3 692.8 690.6 692.9 697.9 709.1 720.1 725.3 728.2 729.3 732.5 734 735.3 736.8 738.7 739.2 740.9 743.1 739.7 740.2 744.3 745.8 750.2 753.4 752.7 752.1 748.3 745.7 744.5 742.5 735.1 718.3 703.6 680 668.9 665.6 677.7 699.9 692.3 663.4 646.4 633.3 621.6 615.7 609.4 603.4 595.6 588.9 578.7 575.8 572.8 568.2 568 567.5 563.1 559.1 560.8 564.7 564.6 566.3 568.5 570.7 574.9 579.2 582.8 587.5 592.3 598.4 601.8 607.2 615.1 623.2 628 632 639.8 645.6 650.3 657 658.9 655.8 648.3 637.6 630.7 624.2 616.6 609.2 602.1 597 593.1 587.7 583.7 580.8 575.7 569.2 565.2 558.9 556.4 545.1 546.1 552.3 550.5 550.9 553.4 554.9 560.8 561.3 567.8 571.7 572.6 576.6 580 583 585.9 588.4 588.7 592.2 585.4 573.2 589.1 599.9 610.8 622.7 634.1 648.6 661.9 674.2
318.5 326.1 332.3 343.2 357.2 362.8 373.6 388.1 401.4 414.9 430.1 444.6 459.7 471.9 484.3 506 515.9 526 542.9 551.6 559 573.5 589.4 606.4 624.1 636.7 647.7 656.4 663.3 666.9 666.7 668.2 664.4 662.4 667.9 665 663 659.1 660.4 656.9 654 649.8 645.6 645.5 643 642.7 642.6 643.5 643.7 640.6 639.8 641.2 644.2 650.8 655 657.8 661.8 668.1 670.5 673.7 675 677.7 680.6 682.7 683 682 681.9 682.9 685.5 689.3 693.1 695.3 696.4 695.5 694.1 691.5 693 697.1 705.3 714.6 720.1 723 724.8 727.7 729.4 728.8 729 729.9 731.9 733.1 733.4 731.7 729.5 729.9 733.6 736.3 737.9 739.9 739.9 738.8 735.7 731.5 727.2 725.1 723.6 708 690.7 676 666.9 671.9 690.4 694.1 675.8 664.1 642 628.3 621.2 617.9 612.5 599.3 592.9 581.7 573.9 569.1 568.5 561.9 562.9 559.9 553.9 553.2 553.3 556.8 556.2 556.1 558.3 561.3 565.4 568.9 572.6 576.9 583.9 587.8 590.8 596.7 603.2 610.3 617.1 623.2 630.5 639 644.9 651.1 652 649.2 642.4 633.7 626.9 620.2 613 606.2 602.6 598 593.3 589 585.1 580 574.3 568.5 562.8 557.6 554.1 543.9 534 541.1 544 545.4 544.1 544.3 548.6 551.1 555 560.8 561.1 567.7 571.4 575.3 578.2 579.8 582.3 575.5 564.4 580.8 591.5 602.7 612.8 624.1 638.1 650.9 665 679.3
313 321.5 329.2 341.2 351.2 363.1 373.7 387.3 401.8 417.1 434.2 449.4 465.9 479.7 491.3 511 528.3 540.5 549.6 557.9 568.4 579.2 597 611.4 627.5 640.5 650.3 653.8 657.5 659.7 658.7 658.9 658.7 664.2 664.9 661.7 657.7 654.3 650.9 649.9 647 643.3 640.9 638.8 636 637.5 636.4 636.8 639.3 639.1 637.9 638.4 641.1 646.1 650.3 655.8 659.6 663.8 665.5 666.8 668.8 672.3 674.1 676.1 676.8 675.3 675.7 675.5 679 684.6 688.1 691.8 694.4 693.5 690.8 692.6 695.5 700.9 707.4 714.1 717.9 720.3 721.3 722.7 721.9 722 722.1 723.4 723.4 724.2 721.6 719.5 720.9 722.9 723.6 724.2 725.9 726.1 725 722.5 720.6 719.4 714.5 709.8 707.9 692.7 682 671.7 668.5 676.3 687.2 685.5 676.5 655.2 637.7 629 622.3 608.8 597.3 591.9 582.6 574.1 570.4 563 559.1 559.4 562.8 555.8 546.4 547.1 547.5 550.2 549.5 549.6 551 553.2 556.1 560.8 563.8 568.2 572.3 576.4 579.5 584.5 591.3 599.4 606.9 612.7 623.4 631.3 638.8 645.3 646.4 644 637.8 630.6 621.8 613.6 610.1 602.5 600.7 597.2 594.1 588.9 584.7 578.8 571.9 567.7 562.2 557.2 552 549.1 542.2 528.8 531.9 536.9 536.8 534.5 537.8 540 543.6 549.4 550.5 556 561.5 568.4 569.9 568.1 556.8 565.5 576.6 583.8 596.2 604.8 616.1 626.7 639.7 654.3 667.7 682.1
301.6 310.6 320.8 335.4 346 358.8 370.8 384.3 400.1 415.4 435.2 452.9 467.9 483.9 499.7 520 532.9 541.8 554.6 565.2 578.1 588.3 601.1 613.7 629.3 643.1 648.9 649.8 650.3 651.7 651.5 651.9 658.4 660.6 660.2 657.2 652.6 647.1 644.5 641.1 639.6 637.4 636.8 635.4 634.4 635.1 634.6 634.2 636.5 639.6 637.9 636.4 637.5 643.4 648.5 652.4 656 657 658.5 661.3 663.7 667.2 668 669.4 670.4 669.4 669.4 670.7 676.7 680.6 684.3 688.1 690.5 689.5 688.4 691.6 696 701.7 706.7 709.5 714.1 716.4 715.5 715 714.4 712.9 712.9 712.5 712.9 711 711.4 713.3 712.7 712.8 711.9 712 711.1 709.2 707.3 706.9 704.1 701.6 696.8 693.1 686.3 677 670.7 663.1 664.7 674.6 678.7 675.8 663.3 647.2 646.3 637.4 618.5 597.7 588.5 584.2 575.4 571.7 563 552.6 549.6 557.4 559.2 551 544.5 540.2 543.4 546.9 546.6 546 546.7 548.3 549.2 552.6 556.7 560.2 562.1 565.8 569.4 575.8 580.8 589.5 595.5 602.4 609.1 617.3 626.5 634.1 636.2 634.7 633.4 623.9 616.3 608.5 601.3 595.9 594.7 593.3 591.6 587.6 582.8 577.4 572.6 565.4 559.5 554.2 549.4 546.8 545.5 536.8 522.1 525.9 531.5 525.7 527 530.1 533.9 538.2 545.6 551.5 556 557.6 553.5 548.7 566.2 573.2 584 592.6 600.1 608.3 617.7 629.4 642.1 656.7 670.1 683.4
287.5 303.3 315.2 324.5 336.7 347.4 362.1 379.3 396.4 416.1 435.2 453.9 468.9 485.5 505.8 516 530.1 544.7 558.8 572.4 584.6 592.2 602.8 616.4 630.9 637.9 642.1 642.6 644.8 645.7 645.8 650.7 654.6 658.8 653.6 650 644.9 642.5 639.7 636.3 634.5 634 632.7 631.5 631.6 631.6 632.2 633.6 636.5 637.8 636.3 634.9 635.8 642.1 646.4 648.8 648.6 650.8 653.2 655.2 658.5 661.3 663.1 664.1 664.7 663.4 663.5 667.8 672.2 677.1 680.5 682.3 683.2 683.6 687.1 691.1 695.7 700.4 703.6 706.3 709.6 711.1 711.2 709.5 706.4 704.5 703.8 703.5 700 701.2 703.6 704.8 701.1 699 696.7 694.3 692.7 687.3 684.7 684.8 687.5 682.8 681 675.7 672.9 668.7 660.9 656 658.1 669.4 667.8 659.6 650.7 655.6 657.6 638.2 612.9 595.6 584.8 574.6 566.2 559.5 552.3 546.1 541.6 545.4 549.2 544.8 542 535.5 541.7 543.4 542.9 540.8 543.4 544 542.6 544.5 548.8 552.2 554.6 557.7 562.1 565.5 571.7 578.4 585.1 590.2 598 604.1 610.6 615 616.7 615.4 614.6 611.8 608.8 601.8 596.2 591.1 589.5 588.4 589.9 586.8 582.3 577.5 571 564.1 558.5 554.4 550.7 545.5 543.5 540.7 528.7 513.2 520 521.9 519.7 523.4 526.2 531.2 534.8 539.1 533.4 546.2 554.4 567.1 572.4 581.7 588.6 594.4 601.6 610.2 620.3 632.2 644.4 657.1 670.1 683.3
304.6 300.2 315.7 320.7 326.8 337.3 352.1 368.8 389.6 411.9 433.1 451.2 467.6 486.1 497.1 511.1 529.2 549 564.4 576.5 587.3 598.3 609.5 621.9 630 633.1 634.4 635.9 636.7 636.8 640.9 647.4 650.6 650.7 646.5 644 642.2 638.7 634.7 631.4 630.9 630.2 629.3 628.9 629.9 632.4 632.5 634 634.9 635.1 632.3 631.3 634 636.3 638.9 640.7 641.8 644.7 646.8 649.4 653.1 655.2 655.3 658.2 657.4 657 657.4 663.5 668.7 672.9 676.1 676.8 677.2 680 684.9 690.2 695 697.3 699.8 700.6 703.3 704.3 701.5 700.9 698.4 697.5 696.9 694.7 689.7 687.4 691.1 689.7 688.5 684.4 680.4 676.5 673.7 671.8 667.1 669.2 669.9 668.5 667.8 662.9 660.7 656.4 653.6 646.3 653.2 650 651.6 649 646.6 659.2 651.1 630.8 604 591.5 575.6 566.3 556.6 552.3 548.5 544.2 540.6 537.6 539.1 542.5 537 534.5 537.9 540 539.1 537.6 538.5 539.4 537.9 538.5 542.4 544.8 548.7 549.1 553.1 558.4 561.6 569 573.5 581.6 587 593.9 597.6 601.6 602.1 603.7 603.6 600.9 600 596.1 594 590.4 586.2 583.4 587.3 586.1 581 574.6 568.3 563.7 559 553.3 549.4 546.3 543 537.2 533.4 526.8 508.7 513.9 511.7 515.7 522.1 521 532.3 542.5 549.8 555.2 561.1 567.5 574.8 583.4 590.4 595.9 604 613 624.4 637 648.8 660.5 673.5 685.7
313.5 306.1 308.1 315.6 322.9 331.8 345.3 362.8 381.9 400.6 425.5 451 470 466.9 492.4 511.3 532 558.1 575.8 587.9 597.7 606 617.3 626.3 627.7 627 630.2 631.7 631.5 634.9 639.1 644.9 644.8 643.5 640.7 640.5 637 633.5 628.6 625.7 624.5 626.1 626.2 626.2 631.4 632.1 632 632.8 633.6 631.6 627.7 626.9 629 631.6 632.2 632.9 633.9 636.5 639.9 642.8 646.9 647.9 648.2 649.3 650.5 651.7 654.4 659.7 663.9 666.4 669.7 671 673.1 677.8 683.4 688.9 693 694.7 695.6 696.4 695.3 695.7 692.8 693.3 692.5 689.6 689.1 685.5 682.2 678.7 677.3 672.2 668.9 665.9 661.8 659 656.2 655.2 654.8 653.3 652.5 654.7 652.3 650.4 648.4 649.9 642.5 633.1 641.9 646.9 641 637.6 644.1 650.4 638.6 618.8 596.6 579.9 565.3 559.3 551.2 545.5 545.5 544.7 539 538.6 537.2 533.7 532.7 533.3 534 535.9 535.8 530 530.3 531.9 531.1 531.6 535.4 538.5 540.4 542.1 544.6 548.6 553.7 560.2 566.4 573.5 577.7 585.1 589.4 592.6 593.9 594.5 595.9 593.7 592.7 589.6 589.2 588.7 584.5 580.7 583.7 582.4 577.1 571.9 566.8 562.7 557.8 553.8 549.9 545.6 542.2 536.1 530 524 513.8 503.6 505.8 505.4 512.4 524.6 533.4 542 548.7 555.8 564 571.9 579.5 585.1 590.7 598.3 606.7 616.8 628.6 642 653.1 665.3 675.1 686.9
