ncols 200
nrows 83
xllcorner 250000
yllcorner 933500
cellsize 50
175.1 171.1 165.2 158.1 154 152.4 152.5 151.6 150.1 149.3 148.7 149.4 150.3 144.1 140.1 137.7 143.3 149.1 149.2 146.8 147.4 149.7 150.5 150.2 149.4 149.1 149.4 149.6 149.9 150.2 150.7 151.3 152 149.7 149.1 148.3 148.6 146.5 144.6 144.6 145.3 145.4 145.5 144 142.1 145.1 144.6 144.5 142.9 146.1 150.3 151.3 151 152.3 151.4 150.7 148.6 146.8 146.2 144.9 142.8 141.6 140.4 139.5 139.2 139.7 140.2 142.7 144.1 146.6 150.1 150.9 151 150.7 150.5 150.5 150.5 151 151.8 152.8 153.3 153.6 153.8 153.9 153.7 153.4 148.8 146.5 145.4 146.7 145.7 148.1 148.6 144.4 140.5 138.3 133.9 131.7 129.3 131.7 129.9 127.1 126.9 127.2 128.2 135.7 136.8 134.9 131.4 129.9 129.7 129.3 129 124.8 124.8 124.8 125.4 127.8 130.7 133.2 134 137.9 140.1 139.8 139.4 139.2 138.8 138.5 141.3 140.8 140 139.2 138.9 138.3 137.6 137.1 135.4 133.6 132.3 132.3 132.3 135.1 135.3 134.5 135.1 131.2 130.5 130.5 131 131.7 132.5 133.5 134.4 134.2 134.4 135.3 137.6 138.7 140.7 147.2 154.3 160.2 164.3 168.9 172.8 176.5 182.5 184.6 188.7 193.7 197.6 202.4 202.5 202.6 206.1 207.3 204 197 192.7 189.3 183.9 180.1 177 175.2 173.3 169.5 166.1 164.1 159.9 155.2 152 150.6 149.4 150 150.3 151.4 154.6 157.9 160.3 163.3
177.8 174.9 168.1 162.4 156.8 151.6 150.3 151.1 150.5 150.1 148.5 146.2 144.2 142.9 139.8 137.1 139.1 143.1 147.9 147.7 147.2 146.8 147.1 147.3 147 147 147.2 147.4 147.8 148.2 148.6 149.1 148.7 148.2 147.5 147.5 146.9 146.1 145.9 145.5 141.7 144.2 147.3 144.8 140.3 140.8 143.3 144.6 141.1 145.3 148.6 150.2 149 149.2 148.7 148.2 145.5 143.8 142.3 142.1 140.5 139 138.1 137.2 138.6 140.5 141.9 142.8 144.2 147.3 150.1 150.7 150.2 150.1 149.9 149.8 149.8 150.6 151.8 152.1 152.3 152.5 153 153.1 152 150.1 148.5 147.1 145.3 144.1 144.1 143.9 145.8 144.2 141.5 136.6 132.6 130.1 130 130.5 127.9 124.8 124.8 125.1 130.8 138.8 136.2 133.4 129.4 128.6 128.7 128.3 125.3 124.8 124.8 125.3 127.8 129.9 131.8 133.5 135.9 140 139.6 139.2 138.9 138.5 138.1 140.8 141 140.3 140 139.8 139.7 138.5 137.7 136.8 135.5 133.5 132.3 132.3 132.3 134.6 133.4 132.1 134.2 130.3 131.2 130.9 130.9 131.3 132.1 133.2 134.6 134.4 135.1 136.3 138.4 139.8 142.5 150.3 154.7 160.1 165.3 170.1 174 179.7 184.1 187.3 192.6 197.7 201.8 206 205.2 206.8 208.5 209.2 202.2 198 192.8 188 185 183.9 180.7 178 175.4 171.3 166.4 163.4 160.6 157.1 152.9 150.7 149.1 148.1 148.7 148.3 149.8 150.7 152.1 155.3
174.9 172.2 171 165.3 156.4 153.9 150.7 150.6 150.7 150.2 151.6 147.4 145.5 145.6 141.7 138 134 138.7 144.6 145.9 147 146.9 146.3 146.3 145.3 145.8 146.1 146.2 145.4 144.6 144.4 143.8 143.7 145.5 145.3 144.9 143.2 143.1 141.9 139.8 137.9 141.9 144.3 137.1 135.7 137.8 138.1 138.4 140.6 142.9 146.9 147 146.4 145.9 145 143.9 141.9 140.8 140.6 139.2 138.3 137.2 137.8 138.1 139.4 140.6 141.8 142.5 144.9 149.4 150 150.1 149.3 149 147.9 148.7 149.9 151.1 151.6 151.8 152 152.2 152.4 152.4 150.5 149.8 148.3 147 146 144 142.4 141.6 141 140 138.7 136.3 131.5 129.2 128.4 128 124.9 122.4 122.3 124 133.3 135.4 135.8 130 127.9 127.2 128 127.5 125.3 125.4 126.6 127.6 130.4 131.9 133.2 134.7 138.1 139.2 139.4 139 138.6 138 139.1 140.3 140.8 140.9 140.7 140.6 140 138.8 137.9 136.5 134 132.3 132.3 132.3 133.6 133.8 134.6 131.9 131.1 130.6 131.7 131.3 131 131.4 132.1 133.5 134.5 134.5 135.8 137.4 139.3 142.8 145.8 150.4 155.3 160.2 165.6 170.4 176.3 182.7 187.1 190.4 196.1 201.6 205.1 207.4 208.7 209 209.2 206.3 204.1 199.5 193.4 188.9 188.1 187.6 186.1 181.8 176.5 172.2 168 163.2 156.9 153.9 152.7 150.7 150.2 149 148.4 147.4 148.7 147.6 147.5 149
175.4 173.6 170.4 165.7 162.8 160.8 159.1 155.5 152.5 149.6 150.7 149.1 149.3 148 139.9 143 137 133.4 143.9 142.6 142.3 141.9 142.9 145.1 144.4 145.9 145.8 145 144 141.3 140.4 140.3 138.6 138.6 137.9 136.1 133.9 131.8 132.6 134 136 133.2 132.7 134.2 134.3 135 136 137.9 140.9 142.5 144.7 144.1 143.8 144.2 143.3 140.9 139.4 139.4 139 137.6 136.1 135.2 136.5 138.6 139.4 140.5 141.6 142.6 146.1 150 150.2 149.6 148.8 147.9 147.7 149.1 150.5 151.2 151.4 151.5 151.7 151.9 152.5 152.7 151.1 149.5 147.6 145.3 144.8 144.2 142.7 141.1 139 137.6 136 133.5 130.4 128.8 127.5 126.7 122.7 120 120.6 124.6 133.9 138.6 132 127.4 125.4 126.6 127.6 127.2 127.1 128.1 129.1 129.8 132.5 133.7 134.9 137.3 139 139.2 139 138.4 137.7 137.4 139.4 140.2 140.9 141.8 141.5 141.4 140.2 139 138 136.6 133.3 132.3 132.3 133.5 134.3 134.3 133.2 132.4 131.6 130.2 131.4 130.4 131 131.5 132.4 133.9 134.2 135.2 136.7 138.6 141.5 145.2 149 152.8 156.4 160.7 167.2 173.2 180.6 186 190.4 195.6 200.6 204.9 207.5 210.1 211.7 210 209 207 205.6 200.4 194.6 190.6 189.5 187.7 185.5 182 175.7 171.2 167 162.9 157.4 154.6 152.3 150.9 149.9 150 148.1 147.1 146.6 146.4 146.4 146.7
182.2 178.6 173 170.4 167 164.8 164.1 160.9 149.1 145.4 145.2 147.5 144 141 141.3 146.1 139.1 133.9 133.6 136.7 136.7 138.4 143.6 145.5 146.5 145.9 145.2 143.3 139.8 137.9 133.1 139.3 137.8 137 135.6 134.2 132.1 131.7 131.4 136.1 134.9 132.3 130.3 133.3 136.8 135.5 135.5 135.8 137.5 140.3 141.9 141.8 141.5 141.1 139.7 138.6 138.6 138.2 137.5 136.2 134.9 134 135.7 138.4 139.4 140.5 142.1 145.6 147 149.8 150.3 149.1 148.2 146.7 148.3 149.9 150.7 150.9 151.1 151.3 151.4 151.6 153.1 150.1 148.3 146.2 145 144.4 144 143.6 142.7 140.5 137.6 136.1 133.9 131.7 128.5 127.3 126.2 125.1 121.2 117.1 119.4 128.1 142.1 137.1 127.4 123.8 124 125.9 126.4 126.8 128.4 129.4 130.1 131.9 134.3 135.5 137 138 138.7 138.5 138.2 137.7 136.8 137.9 139.6 140.3 140.9 142.5 142.4 141.7 140.4 139.2 137.8 136.4 132.6 132.3 132.3 132.3 133.3 134.5 133.1 132.1 132 131.9 130.4 129.4 128.6 131.3 132.8 132.6 133.5 135.9 138 140.8 143.7 147.4 150.5 153.7 157.1 162.2 168.2 176 183.5 188.9 192.3 200.3 205 208.1 212.1 214.1 213.6 213.4 211.8 211.4 206.6 200.2 195 190.9 189.3 187.1 184.2 181.2 175.6 171.5 167.4 164.5 160.9 156 152.8 151.4 149.5 148.1 147.8 147.7 147.9 147.3 147 146.6
186.9 184.7 180.6 175.4 166.1 162.4 161.7 156.7 155.9 149.3 145.5 144.3 143.5 142.7 142.2 141.9 141.5 140.3 133.9 132.6 140 139.1 144.7 143.1 142.4 141.3 140.3 137 129.9 128.5 128 134.2 137.3 134.9 135.3 133.1 131.8 131 129.9 130.1 130.1 134.3 129.2 132.6 131.6 131.5 132.4 135 136.7 137.1 138.7 138.6 138.8 137.5 137 135.9 136.6 137 136 134.7 133.4 135.1 137 139.3 139.9 141.2 143.2 146.4 147.5 149 149.7 148.7 147.5 146.4 148.4 150.4 150.8 150.7 150.9 151.1 151.3 150.9 150.2 148.9 147.9 145.2 144.1 143.6 143.5 143.4 143.2 139.6 135.8 133.5 132.9 131.1 127 125.9 124.8 123.4 119.4 116.3 119.5 130.2 135 129.3 122.9 120.7 123.7 125.5 126.3 126 128.7 129.9 131.1 134.5 136.2 136.8 138 138 138 137.7 137.4 137 136.1 138.1 139.7 140.4 142.8 143.4 143.5 142.1 140.8 138.8 137.1 136.2 132.3 132.3 133.6 134.6 133.2 134 132.7 131.7 131.8 131.5 129.9 127.9 127.7 129.4 130.7 131.8 132.3 134.3 139 142.2 145.5 148.4 151.3 154.4 158.5 164 170.9 178.5 185.9 190.1 195.8 202.1 204.3 207.3 213.7 215.5 215.2 216 215.6 211.3 206.1 202.2 196.8 192.3 190.2 189.2 186.1 182.5 175.6 171.6 167.8 165.8 162.8 157 155 152.3 150.5 149.1 148.4 148.9 149.3 149 148.4 147.5
186.2 185.7 182.9 176.6 171.3 162.4 160.2 159.6 159.2 153.8 151.1 149.8 149.1 145.2 142.1 144.3 143.8 137.7 134.1 133.2 143.1 139.1 136 135.5 134.2 133.5 133.3 129 127.8 127.7 126.8 126.9 131.5 129.9 132.6 134.8 133.6 131 128.2 127.2 127.5 134.5 123.7 129.3 128.5 128.8 131.3 136.2 135.5 136 136.2 136.1 135.3 135.3 134.4 133.8 134.4 133.5 133.3 134.4 135.2 137 138.9 140.6 141.6 142.5 145.4 146.5 147.7 147.7 147.6 147.3 146.2 148 149.9 150.9 151.2 151 150.8 150.9 150.9 150.3 149.7 148.5 146.5 144.6 143.6 142.9 142.2 142 141 138.3 135.5 130.7 130.6 128.1 125.3 124.4 123.4 121.3 116 115.6 118.5 126.5 124.9 122.5 118.9 119.5 122.1 124 124.9 125.8 128 131.4 134.1 137.3 137.5 138.1 137.5 137.4 137.4 137.1 136.6 136.3 135.6 138.1 139.9 142.4 145.2 144.6 144.3 142.5 140.5 138.1 136.4 135.2 132.3 132.3 135.4 134.7 133 133.8 132.6 131.4 131.3 130.5 128.8 125.4 128.2 129.6 128.7 129.4 131.4 134.6 139.5 142.8 145.7 148.6 151.5 154.8 160.1 165.9 172.6 179.7 186.9 192 197.6 200.6 204.3 208.8 212 215.3 218.2 220.9 218.7 213.6 209 204.7 198.3 194.7 192.2 191.5 188.4 183.1 177.3 172.6 170 167.4 164.2 159.5 155.3 153.3 151.4 150.2 149.3 149.1 149.7 149.5 149 148.1
184.6 183.8 180.9 176.9 173.1 170.8 163.9 157.7 154.2 152.2 151.1 145.1 141.9 141.6 140.7 142.7 139 138.3 135.8 129 134.5 132.2 132.6 130.1 130.2 129.7 128.9 128.5 127.8 128.7 129 125.7 125.3 127 135.4 135.5 134.2 131.9 129.3 126 124.9 125.1 123.2 126.1 126 127 129.9 130.8 131 134.7 134.8 133.9 133.8 134.2 133.5 132.2 131.7 131.4 132.4 134.1 136.5 138.5 140.7 141.5 142.4 143.6 146.8 146.5 146 146.4 146.3 146.5 148.2 149.5 150.4 151.1 151.5 151.4 151.2 151 150.5 150.1 149.1 147.8 145.1 144.2 143.3 142.5 141.8 141.1 139.8 137.8 132.9 129.6 129.4 125.9 123.1 121.3 119.5 117.7 115.4 115.2 118.4 121.5 120.2 118.9 117 117.9 121.7 122.7 124 126.2 129.4 132.6 136.6 138.5 138.2 137.9 137.3 136.8 136.8 136.5 135.9 135.5 136.2 139.1 142.7 145.2 147.2 146.2 143.8 141.7 140 137.1 134.9 133.1 132.3 134.9 135.5 134.8 134 133.6 132.3 130.7 130.6 129 127.3 125.4 127.7 129.1 128.9 129.1 132.5 135.4 139.7 143.1 146 148.8 151.7 154.8 161.8 168 174.4 180.7 187.4 192.8 198.1 203.7 206.7 210.3 213.7 221 223.2 223.2 219.3 216.2 211.8 205.5 201.4 197.9 193.1 190.7 187.3 183.1 179.5 174.4 171.3 168.5 165.8 162.4 158.5 154.1 152.1 150.5 150.7 150.6 150.3 150.2 149.7 148.6
185.6 183.3 180.2 175.6 174.9 171.4 160.4 149.6 146.7 147.7 148.5 142.5 140.8 139.1 138.2 137.7 138.6 142 144.4 131.1 128.7 128.6 128 127.2 127.8 127.4 127 128.2 128.4 130.3 133.5 127.2 125.8 129.4 132.7 131 131.4 131.1 132.5 127.7 121.9 120.8 121.2 122.3 123.4 125.4 127.9 126.4 130 133.1 133.3 132.1 132.1 132.7 132.6 128.9 130.9 131.8 134.6 136.1 138.4 140.3 141.6 142.4 143.3 145.5 147.9 147.5 147.1 146.9 147.8 149.3 150 150.5 151 151.4 151.8 151.8 151.6 151.1 150.4 149.4 147.6 145.9 144.8 143.9 143 142.1 141.2 140.3 139 137.1 132.3 128.2 126.4 122.5 119.8 117.9 116.1 114.8 115 115.6 117.1 117 117.1 115.5 115.2 117.7 121 121.7 123.7 127.3 130.4 134 138.5 138.5 137.6 137.5 137.1 136.5 136.2 135.9 135.3 135.1 136.8 139.7 143.9 148.1 148.3 145.6 142.5 140.9 137.8 137.1 136.7 134.8 133.5 136.9 135 134.5 134 133.1 130.7 129.9 129.7 127.1 125.7 124.6 126.8 128.3 128.9 129.4 133.6 136.5 140.6 143.7 146.6 149.5 152.3 155.4 163.2 170 176.3 182.7 188.9 194.7 200.4 205.1 206.8 211 217.2 222.8 224.8 223.8 220.9 218.3 212.1 205.4 202.1 197.6 194 190.4 186.8 184.6 179.8 176.5 174.7 171.9 167 163.3 160.1 156 152.4 151.9 152.1 152 151.8 153.1 151 150.1
184.7 178.3 172.6 171.3 167.4 161.6 153.2 148.6 147.7 144.7 142.2 140.4 140.7 140.6 140.8 140.9 140.3 135.1 136.5 134.8 133.1 126.7 126.8 125.3 124.7 125.8 126.4 125.9 125.1 125.6 123.3 130.8 128.6 121.1 123.8 124.5 119.2 119.3 119.4 118.9 119.9 119.9 120.5 121.6 122.3 124.8 125.2 125.8 129.7 131.7 131.1 130.1 130.3 131 127.9 129 132.8 134.6 135.6 137.4 139 140.7 142.6 143.4 144.1 146.7 148.7 148.5 148.6 148.3 149.9 150.9 151.3 151.6 151.8 151.9 152.1 152.2 151.7 151 150 148.3 146.6 145.1 143.7 142.3 141.4 140.8 140.2 139.5 138.2 135.3 131.1 126.1 123.2 119.6 117.3 115.3 113.5 113 112.8 113 115.3 115.7 115.2 113.2 113.5 116.3 118.7 120.8 123.7 128 130.9 135.9 138.7 138.3 137.1 135.8 135.9 135.9 135.7 135.2 134.5 135.5 137.6 142 146.3 149.7 147.7 143.8 141.2 138.9 136.7 136.5 135.6 135.3 137.4 136.3 134.1 133.3 132.5 131.7 129.2 128.9 127.6 125.8 124.1 123.3 125.8 127.3 128.5 131.4 134.1 136.9 140.1 144.6 147.6 150.5 153.4 156.6 163.8 170.9 178 184.5 190.3 196.9 203.1 204.9 206.6 210.4 219.4 222.7 224 224.1 223.4 218 211.5 205.7 202.2 199.4 195.6 191.4 186.8 185.1 177.5 177.6 178.4 172.7 166.6 162.1 158.9 156.5 154.1 152.8 153.5 153.5 154.1 155.5 153.4 154.1
190.9 184.3 179 171.2 166.8 163.2 156.5 154.5 152.8 148.4 145.1 144 143.9 142.4 142.2 142.6 140.8 138.3 137.3 140.2 134.6 131.9 128.7 126.7 124.9 124.5 124.4 124 123.9 123.4 122.5 125.1 120.6 119.1 117.9 119.3 120.6 119.6 119.6 120.8 121.5 121.6 121.9 122.2 124.2 127.6 127.3 126 128.8 130.2 129.5 127.7 128.3 128.3 126.5 130.9 134.5 134.2 136.4 137.8 139.3 141.1 143.1 143.7 144.7 147.7 148.9 149 149 149.7 152.2 152.3 152.3 152.3 152.5 152.7 152.8 152.7 153.2 151.4 149.9 147.7 146.1 144.5 143.1 141.7 140.5 140.1 139.5 138.8 137 132.1 129.5 123.4 120.6 118 115.1 113.6 112 111.4 111.7 112.2 112.8 113.2 111.7 111.6 111.8 115.4 117.7 121.2 124.6 128.1 132.7 137.4 137.7 137.1 134.6 134.6 134.6 134.6 134.6 134.4 133.8 136.6 138.6 143.9 148.6 148.7 144.9 142.4 139.5 136.5 135.5 134.8 134.1 136.1 137.9 134.4 131.3 131.6 130.8 129.9 127.8 127 125.7 124.6 123.7 123.4 125.3 127.4 129.2 131.9 134.6 137.4 140.4 144.8 148 151.6 154.5 157.7 164.3 171.5 178.6 185.1 191.5 198.3 202.2 203.7 205.7 212.4 216.2 220.3 223.7 226.8 225.1 217.6 210.8 207.2 203.8 201.9 197.4 191.6 185.8 182.4 174.7 176.6 176.6 169.8 164.9 161.8 161.4 158.3 155.9 154.5 154.6 155.2 156.8 158 159.4 161.7
194.7 189 185 179.2 170.4 165.5 162.9 164.5 158.9 151.9 150 147.6 146.1 144.3 144 143.8 141.1 139.1 137.3 135.9 134.4 132.8 129.5 127.4 125.4 123.5 123.2 122.8 123.4 128.6 127 120 118.7 117.2 120.1 122.1 123.7 123.6 121.6 121.2 121.7 122.2 122.6 124 124.6 124.9 126.2 125.8 126.2 127.5 125.8 125.3 123.9 123.5 126.1 129.4 132.3 134.4 136.9 138.5 139.9 141.9 143.3 144.4 147.4 148.3 149.2 149.6 149.7 153.3 153.6 153.6 153.5 153.2 153.2 153.4 153.3 153.3 153.3 150.3 148.7 147.1 145.8 144.2 142.5 141 139.5 139.5 139.1 138.3 134.2 130.6 127.1 121 117.3 115.5 113.6 112 110.5 111 111.1 110.5 110.5 110.8 110.3 109.1 111.4 115.1 117.3 120.8 124 127.3 132.7 136.4 136.1 134.7 133.2 133.4 133.5 133.5 133.5 133.5 133.8 136.4 140.3 146.2 148.8 146.3 142.8 140.6 138.1 134.7 134.5 132.7 132.9 137.7 135.9 131.6 130.2 129.9 128.8 128 126.7 125.8 125.3 122.8 119.3 122.8 124.8 127 130 132.6 135.3 138.1 141.2 145.5 148.2 151.4 155.3 158.2 164.8 172 178.7 184.8 189.1 194.2 197.9 200.3 206.1 209.6 214.4 218.8 225.3 227.8 223.7 215.8 210.8 207 204.1 200.2 195.6 189.4 183.4 177.7 172.3 171 170.1 166.2 165.3 166.5 164.2 163 158.1 156.6 156.2 156.9 160.8 166.7 171.4 173
200.3 193.7 188.8 182.9 174.8 173.8 173.7 171.8 158.8 153.8 152.8 151.8 148.9 146 145.3 144.6 141.5 140.2 137.2 136.4 134.2 131.9 129.1 127 125.6 124.3 122.1 120.7 124.1 129.3 119.7 116.6 116.8 115.7 120.2 121.7 122.7 122.8 122.9 121.4 121.9 122.4 122.9 123.4 124.5 124.7 125.7 125.7 125.5 125.3 124.9 124.4 122.8 122 124.3 127.5 132.4 134.7 137.2 139.3 141.1 142.9 143.9 145.6 148.1 149.1 150 150.5 154.3 154.6 154.9 155.2 154.7 154.6 154.2 154 154 154 154 150.5 148.2 146.8 145.4 144.1 142.1 139.9 138.6 138.7 138.6 136.7 131.1 128.8 123.5 119.7 116.9 113.7 112.1 110.7 109.3 110.2 108.5 108.2 109.1 109.7 108 107.7 111.4 114.3 116.8 120 123.3 126.1 131.7 134.4 133.5 132 132.1 132.3 132.4 132.3 132.3 132.4 133.4 135.8 142.7 146.5 145.8 143.1 140.4 138.3 135 132.6 131.9 130.6 131.4 133.6 131 127.6 128.1 127.8 126.4 127.6 125.8 124 122.5 120.8 119.9 121.9 124.7 127.5 131.2 133.5 136 138.7 142 145.8 148.1 150.9 154.6 158.5 165.1 171 177.1 183.2 186.2 190.5 192.1 197.2 202.7 208.8 211.6 216 222.3 224 219.5 212.9 209.9 206.5 203.9 197.9 192.3 187 182 176.8 172.4 171.5 169.9 168 169.4 167.6 166.2 164.4 160.6 159 158.6 159.9 166.6 172.5 182.4 188.1
202.4 196.2 192.4 185.7 181.5 178.4 176.8 169.1 158 155.8 157 154.7 151.3 147.1 145.7 144.2 142.4 142 140.7 140 135.9 130.9 128.7 126.9 125.9 124.8 122.7 119.6 118.9 117.9 117.3 117.2 116.3 115.1 124.4 124.1 124.7 124.7 122.9 121.9 122.1 122.7 123.1 122.5 123.7 125 125.6 125.6 125.1 124.5 124 123.4 121.4 122.6 123.8 127.2 133.1 136.4 138.1 139.9 142 143.8 144.8 146 148 149.6 150.8 152.6 155.2 156 156.3 156.6 156.3 155.8 156.8 156.1 155.4 154.7 154 150.1 148 146.6 145.2 144.2 140.6 137.9 137 137.5 137.2 134 128.8 125.5 121.4 118.9 115 111.6 110.3 109.7 108 107.3 106.6 106.2 108 108 105.4 106.7 110.9 112.8 115.2 118.8 122.3 125.1 130.5 130.4 130.4 130.4 130.4 130.3 130.6 131 130.8 130.5 132 137 143 143.5 142.5 139.6 137 133.7 130.9 130.5 129.1 127.5 127.4 126.4 123.2 123.5 125.1 123 123 125.3 124.2 121.6 120.3 118.7 116.8 121.7 125.5 129.2 131.2 134 137.1 139.4 142.6 144.8 147 150.5 154.1 159.5 164.5 170 175.6 181.5 184.7 185 188.6 194.5 199.2 202.3 206.1 211.4 215.3 215.7 210.6 208.4 206.8 205.7 200.8 194.8 189.6 186.5 182.8 177.6 174.6 173 172.5 171.3 170.3 168.9 167.5 165.1 163.4 161.3 161.8 163.9 170.2 182.8 190.9 195.5
203.7 198.2 194 185.5 182.1 177.1 170.1 163.9 158.4 157.9 158.4 155.8 150.6 146.5 145.6 142.9 141.4 144 140.1 141.3 136.4 129.9 128.7 127.9 130.2 128 125.9 122.9 121.1 119.2 118.7 120.7 121.4 114.8 120.9 122.1 122.7 119.6 121.7 121.8 122.5 123.3 122.9 122.2 122.4 124.9 125.4 124.5 123.1 123.3 125.1 123 121.5 121.2 122.9 128.4 135 136.5 138.1 139.9 142.6 144.7 146 147 149.4 150.3 151.7 155 156.7 157.4 157.7 157.9 157.9 157 158.5 157.4 155.1 154 153.3 150.4 147.9 146.4 145.1 144.2 139.5 135.9 135.3 135.7 134.6 131.6 127.2 122.9 120 116.7 112.8 109.5 109 108.5 106.9 105.1 104.6 105.1 107.1 105.6 103.2 106.8 110 111.2 113.6 116.9 119.6 123.7 127.8 125.8 126 127.1 128.4 128.5 128.5 128.6 128.8 128.9 130.6 136.7 140.4 139.8 138.5 135.2 131.5 128.6 127.7 125.9 124.4 123.1 122.4 121.6 120.3 119.3 120.6 119.7 118.8 122.1 121.1 119.3 118.1 115.1 120 122.1 126.2 129.1 130.9 132.5 135.4 138.7 141.4 143.6 145.6 150.3 153.4 159.1 163.5 168.3 174.3 178.6 177.8 178.4 183.7 189.7 193 196.8 199.7 203.9 207.8 201.5 201.8 205.2 204.4 200.3 195.4 190.1 187.4 185.3 180.9 178.5 178.2 178.4 177.6 175.4 170.5 169.1 167.5 165.7 165.1 163.8 165.6 169.6 176.1 185.1 194.2 197.6
201.3 197.7 192.5 190.7 181.4 172.6 164.5 162.1 162.1 162.4 157.4 156.1 154.1 144.9 140.3 140.2 137.8 142.1 136.8 136.3 136 129.5 129.3 128.4 128.3 127.3 126.8 125.9 126.5 122.3 120.9 122.9 122.1 118.7 115.5 117.9 117.5 118 119 120.4 122.7 123.4 122.4 121.4 120.8 123.9 124 121.7 121.2 122.3 124.7 124.7 122.1 120.3 122.5 132.1 135.3 136.8 138.3 139.7 142.5 144.9 146.7 147.3 149.7 151.4 154 157.3 158.6 159.7 159.4 159.7 160.2 160.3 160 159.5 157.1 154.8 152.6 150.6 148.1 146.2 145.5 144.1 138.2 133.5 132.4 132.4 132.4 129.7 125.2 121.2 118.5 114.5 110.6 108.4 107.9 106.9 104.7 104.1 102.8 104 104.9 102.8 102.7 106.3 108.5 109.8 111.7 114.9 116.9 121.8 123.3 123.2 123.6 125 126.1 126 126.1 126.1 126.1 126.6 128.8 132.8 136 135.5 132.8 130.4 127 123.6 121.8 122.4 119.4 119.2 118 117.5 116.2 116.7 116.3 115.5 113.2 117.2 116.8 117.2 117.9 113.5 119.8 124 127.4 128.3 129.7 131.2 134.7 137.4 138.8 140.5 143.5 149.1 152.3 156.8 161.5 165.1 167.6 168.9 171.4 172.3 176.6 182 184.6 195.1 194.8 196.9 196.6 191.5 193.8 198.1 198.6 194.8 190.4 185.1 183.1 182.4 180.6 179.5 180.8 182.4 177.6 174.6 170.1 168.2 167.4 165.9 165.7 165.4 167.6 170.3 173.6 184.1 192.3 195.1
201.8 203 198 191.8 181.5 173.2 169.2 167.6 167 163.8 160.3 160.5 156.2 153.3 141 137.4 136.4 136.7 134.8 133.6 137.6 133.5 130.1 129.3 127.8 126.6 125.8 126 123.9 122.3 121.8 121.8 122.4 121 113.6 114.2 117.5 117.9 119 120 120.8 121.8 121.3 120.4 119.3 123.3 121.7 119.1 119.3 118.6 118.7 120.4 119.1 120.6 126.6 132.7 134 136.6 138.4 139.9 141.6 145.9 146.9 147.9 150.8 152.7 156.6 159.9 161.5 162.9 162.4 161.8 162 161.8 161.4 161.1 159.2 157 153.3 150.9 148.4 146.2 145.8 143.2 135.6 131.4 129.9 130 130.3 128.3 122.5 118.4 115.6 112.5 109.7 106.8 105.8 104.2 103.5 102.8 101.7 102.7 102.7 100.2 102.5 105.1 106.2 108.9 110.4 112.5 114.2 117.2 118.5 119.6 121.7 122.3 123 123.2 123.1 123.1 123.4 124 126.3 129.5 130.4 129.9 126.6 124.5 121.4 119.4 117.4 115.7 114 115 114.8 111.2 111.3 112.7 113.5 109.5 111.3 115.7 113.6 114.8 115.1 112.6 119.2 123.4 125.6 125.6 127.4 129.8 133.1 136.5 137.3 140.2 142.7 147.8 151.2 154.5 158.8 160.9 162.7 164.8 168.2 166.4 166.7 169.2 177.5 184.4 184.2 184.7 185.8 184 187.3 191.3 194.9 191.5 187.2 182.1 181.1 180.5 178.6 179 179 180.3 177.2 174.3 170.3 167.3 166.6 166.1 165.9 165.6 167.2 169.9 174 181.3 186.9 189.2
208.2 201.4 194.1 187.8 182.6 178.2 175.5 173.6 169.7 165.7 164.6 162.6 159.1 151.2 145.7 140.8 137.4 135.2 134.5 131.7 133 132.9 134.3 129.5 127.5 127.5 126.2 124.8 122.1 122.1 119.8 119.4 122.1 119.4 114.9 112.1 118.9 117.7 118.7 119.5 120.9 118.5 117.8 118.5 117.1 118 119.8 118 117.7 117.6 117.9 117.2 119.5 125.3 129.8 131.9 133.4 135.4 137.6 139.7 143.6 145.9 147.2 148.5 152 156.3 160.6 161.6 164.1 164.5 164.4 164 163.5 164.4 163.2 162.5 161.4 158.9 154.7 150.5 147.3 145.3 144.8 139.7 133.7 129.5 128.1 127.8 127.8 126.2 120.1 114.7 112.6 111 108.1 105 103.8 102.3 102 100.9 101.1 101.8 101.2 99.6 103.8 103.6 104.3 105.7 107.7 111.1 111.8 113.3 115 116.8 118.2 119.1 119.5 119.7 120 120.3 120.6 121.6 122.5 123.2 123.9 122.4 120.9 119 117.2 113.7 111.5 108.7 111 108.6 105 101.9 104.6 106 103.4 102.3 107.3 113 109.4 110.9 112.7 114.1 120 122.8 123.7 124.3 125.5 129.5 132.6 135.8 136.1 138.7 141.3 145.8 150.3 152.8 154.8 156.6 159.1 161.4 163.3 162.3 161.6 164.5 167.2 174.2 174.6 174.5 178.9 180.5 180.4 186.7 189.3 186.9 182.9 180.2 179.2 177 175 173 170.4 176.5 176 172.4 166.9 165 163.8 166.5 166.1 165.9 167.3 170.2 174.8 178.8 184.5 184.7
210.6 201.9 196.2 191.7 184.9 182.7 181.5 178.8 174.2 171.1 168.8 165.5 157.2 152.5 152.9 143.4 139.2 133.7 132.8 128.6 127.8 129.8 128.5 125.4 125.6 126 125.2 123 120.5 121.3 118.9 118 117.5 119.4 115.3 110.8 115.1 116.9 118.3 117.3 116.9 116.4 115.6 116.3 115.9 116.1 116.8 118.1 117.8 115.1 114.8 116.4 120.9 125.1 128 130.2 133.2 136.7 138.2 140.2 146.2 147.1 148.1 150.9 156.2 160.4 162.8 164.7 166 166.5 166.7 166.1 166 166.6 164.5 163.2 162.3 157.7 154.9 151.3 147.1 143.9 141.6 135.9 130.7 127.6 126.4 125 124.4 121.4 116.5 112 109 107.6 105.8 103.4 102.5 101.7 100.3 99.9 100.3 100.8 97.6 99.5 102 101.2 102.1 103.5 106.5 107.4 108.8 110.5 111.8 113.7 114.7 115.7 116.5 116.7 116.4 117.1 117.2 117.2 117.7 117.6 117.8 116.4 115.1 112.2 112.1 107.9 104.4 103.5 106.2 105.1 101.5 99.5 100.3 99.7 98.2 99.3 104.2 107.7 108.6 110.8 111.6 114.7 119.8 120.7 121.8 123.2 126 129.8 132.7 135.1 136.9 138.8 140.3 143.8 147.4 151.2 152.3 154.1 156.9 157.3 157.9 159.8 159.4 161.5 163.8 166.4 167.3 173.1 176.3 175.3 174.4 180.7 183.5 181.3 178.7 178.4 177.6 175.3 170.5 167 166.8 168.8 172.7 169.2 164.8 163 161.8 164.6 163.4 163.6 166.5 170.6 173.6 176.7 178.5 179.2
213.3 204.2 197.4 191 189.7 188.2 183.3 180.1 177.9 174.7 169.9 164.1 157.6 155.6 151.1 144.7 138.5 135.5 134 128.1 124.6 124.2 123.8 123.5 122.9 123.7 121.5 120.8 121.2 122 120 117.5 118 117.4 122.3 111.1 111.5 116.5 115.9 116.3 115.8 115 114.3 113.6 114.7 115.2 115.8 118.1 117.2 113.6 115.6 116.6 120.3 124.9 128.1 130.6 133.9 136.4 139.5 143.1 146.5 147.9 150.3 153.7 159 161.3 163.5 165.6 166.9 167.9 168.7 168.3 168.2 167.4 165.7 164.4 160.9 156.4 153.6 151.9 145.6 140.5 136.7 131.9 129.2 126.1 123.9 120.7 119.7 116.3 112.6 109.5 106.5 105.6 103.8 102.1 101.2 100.4 99.5 99.5 99.4 99.3 96.5 99.2 99.8 100.1 101.6 103.1 104.9 105 106.3 107.7 109.5 110.3 111.3 112.3 113.3 113.2 112.4 113.8 113.6 113.1 113.4 113 112.5 111.9 109.9 107.4 105.3 103.8 99.4 99.5 101.3 100 98.2 98.5 101.3 97.7 96.1 98.1 101.2 106.9 107.7 110.6 110.6 113.9 117.8 120 120.8 124 126.7 129.8 132 133.3 134.9 137.4 139.9 142.1 145.5 149.3 150.5 151.7 152.7 154.1 155.7 158 158.4 159.8 161.9 163.6 164.8 170.6 170.3 168.6 169 174.6 177.3 177.5 174.1 174.8 174.4 171.6 166.1 163 164.7 162.4 163.2 163.4 161.8 160.3 158.7 159.7 160.3 159.6 162.8 167.6 171.5 172.6 172.3 173.3
210.8 203.3 196.6 192.4 190.4 188.7 183.8 183.3 179.3 172.2 168.9 167.2 157.1 154.4 147 143.6 139.1 137.8 135.5 131.2 127.6 124.1 122.5 122 120.8 121.1 120.9 120.8 122.7 122.5 120.4 116.4 116.4 116.5 118.2 117.3 108.3 114.7 114.7 114.2 113.7 113.6 113.2 114 114.8 112.6 114.3 115.5 114.6 114.4 116 117 120.5 125.5 127.2 131.2 134.6 138 139.6 143.3 146.2 148.1 152.6 156.8 160.5 164.3 165 166.4 167.8 168.9 169.6 169.6 169.7 167.9 166.2 164.5 160.8 155.5 154.2 151.6 143 136.9 133.5 129.5 126.6 123.7 120.9 117.4 116 113.1 109.5 106.8 104.4 103.7 103.2 101.2 99.8 99 96.7 96.3 96.9 96.7 93.5 98.3 97.7 97.5 100.7 101.7 103 104.5 105.6 105.4 107 107.3 108 108.8 109.7 109 108.9 109.8 109.6 109.5 109 108.1 107.8 107 104.7 103.3 99.6 98.8 94.2 93.1 95.2 95.5 93.9 93.9 95.2 94 95.9 99.8 99.3 103.4 106.9 108.5 109.5 112.1 115.7 118.4 119.7 123.8 126.2 128.7 130.1 131.5 134 136.8 140.2 143.3 146 148.8 150.3 152 153.5 155.5 157.3 159.3 159.8 161.9 164.7 166.5 167 168.1 168.1 167.2 165.4 166.5 171.5 170 167.7 168.3 167.3 167.8 160.4 159.8 162.6 157.9 153 152.3 156.3 155.4 155.3 156.1 157 156.2 155.1 161.8 164.7 165.7 165 166.8
209.3 204.9 196.3 193.7 192.5 189 185.2 181.4 177.5 169.8 167.7 160.6 156.8 148.1 143.6 142.2 139.7 138.7 135.6 134.5 129.7 126.3 124 122.2 119.9 120.1 120.4 120.8 123.9 121.8 120.6 113.6 112.1 112 111.9 117.3 111.4 109.5 109.9 112.9 112.3 112.2 111.2 110.9 109.9 110.7 112.7 113.4 113.4 113 113.8 116.6 120.7 123.1 127.5 129.8 134.9 136.7 139.6 142.7 145.5 148.4 152.7 158.3 163.7 165.6 166.4 167.6 168.8 169.6 170.1 171.5 169.5 167.3 166.4 164.2 159.9 155.2 153.6 148.7 140.5 134.4 132.5 128.6 122.9 120.4 117.7 115.1 113 110.8 108 104.7 102.7 102 101.4 100.6 99.1 97.7 95.3 94.1 93.6 92.7 94.5 95.3 96.8 98.2 97.3 98.6 102 103.2 101.3 102.8 103.8 104.8 105.2 105.4 105.7 104.4 105.4 105 104.4 104.5 103.6 102.7 102.8 101.3 99.3 96.2 93.3 91.8 89.8 90.1 93.1 92.6 91.9 92.3 92.2 91.3 93.5 101.5 96.8 104.4 109.3 108.9 109.3 110.4 113.2 116.9 119 123.6 125.9 128.4 130.9 131.4 135.6 139.1 141.9 144.6 147.1 149.4 151.3 153.2 155.6 158.1 160.2 160.8 162.2 164.3 168.1 168.7 169.1 169.2 169 166.8 164.5 162.2 166 163.4 162.5 160.3 162.8 160.9 157.4 156.5 156.4 152.1 148.9 146.7 146.5 147.8 149.8 150.4 150.7 151.8 150.7 153.3 154.7 158.1 157 159.1
207.8 203.8 197 191.9 184.3 180.1 177 173.9 171.8 167.9 163.7 156 153.9 146.6 143.4 141.2 139.9 138.6 137 134.2 130.5 127.4 123.7 121.5 119.7 119.7 120.8 119.7 118.7 119.8 118.4 110.4 110.2 109.9 110.1 116.5 112.9 106.6 109.4 111.1 108.9 106.6 104.6 105 104.3 107.3 112.9 113.3 111.2 109.4 111.9 115.8 118.9 123.5 125.9 129.4 133.6 136.8 140 142.6 145.9 149.2 154.9 160.2 165.7 164.6 165.9 168.7 168.6 168.2 169.5 168.6 167.5 166.5 165.8 163 158.3 152.6 148 143.5 138.8 131.5 129.1 126 120 117 114 111.4 109.3 106.5 103.8 102.3 100.5 100 99.6 98.9 97.4 95.4 93.9 91.6 92 93.6 92.2 93.7 96.1 96.8 95.1 96 97.6 100.3 100.5 99.6 100.7 101.9 101.3 102.2 101.2 100.6 101.2 100.4 100.7 100.1 98.5 96.8 97 94.2 91.9 90 86.8 86.2 85.8 88.9 90.2 91.1 91.4 91.8 91.3 89.7 90.8 98.1 96.5 104.2 109 106.2 108.7 108.3 113.4 116.8 119.2 123.3 125.9 128 129.6 131.4 136.9 140.3 142.2 145.8 148.9 153.4 154.9 157.3 160.3 163.1 164.2 164.6 165.6 170.1 172.3 174 174.7 173.9 171 165.6 160.3 158.2 161.4 157.9 155.4 154.4 156.7 157 152.2 148.7 151.5 146.8 144.9 143.1 140.9 141 141.8 143.6 144.9 145.8 146.4 143.8 146.7 147.9 151.4 149.4
205.8 200.8 192 185.1 181.1 175.2 171.9 168.1 166.3 164.7 159 154.6 151.8 145.7 143.3 141.5 139.9 138.6 135.9 133.1 129 125.8 122.9 120.4 119.2 118.6 120.1 115.8 111.9 111.4 110.3 109.9 109.8 109.6 109.4 112.6 113.4 105.8 105.5 105.8 104.4 103.4 103.5 102.9 100.7 105.7 109.4 111.9 111.9 107.6 111.1 112.8 117.3 121.7 124.9 128.8 132.1 136.8 139.4 142.1 144.9 148.7 153.4 158.8 162.4 163.3 164.2 166.2 167.5 165.8 166.1 165.5 165.4 165 164.3 161.6 156.4 151 144.8 139.6 135.4 128.3 124.9 123 118 113 110 107.5 105.6 103.1 101.9 101 99.2 97.1 97.1 95.9 94.1 93.9 92.6 89.8 87.4 92 90.2 90.8 96.4 98.6 92.1 92.6 94.2 95.4 98.2 98 97.2 98.2 98.8 98.6 96.5 95.8 96.3 96.4 97.1 97.1 96.4 92.7 91.4 86.2 84.5 82.6 83 84 85.5 88.2 88.5 89.6 91.5 90.9 91.2 88.7 89.7 92.4 93.7 103.3 106.1 104.5 106.4 112.6 115.1 116.7 120.3 124.4 125.6 127.2 129.6 132 136.6 140.6 144.4 148.1 154 158.1 160.5 163.6 166.5 167.6 169 168.9 171.3 176 177.2 179.6 177.7 174.5 169.4 158.4 156.8 155.9 155.2 151.9 149.5 149.6 147.2 148.3 146.9 141.9 141.7 142.3 140.8 137.6 135.7 134.1 136.6 137 139.9 140.5 140.9 137.7 138.5 145.4 143.2 137.9
202.6 195.1 187.9 185.3 180.8 171.1 169.9 166.9 163.5 160.4 155.6 152.9 149.2 144.1 143.4 141.3 139.7 135.8 134.2 131.7 128 126.9 123 121.2 119.4 118.1 118.3 115.1 112.2 111 111.2 111 110.6 110.5 109.8 108.9 107.7 107.1 105 103.8 104.2 108.1 104.4 103.6 102.9 101.7 104.9 108.2 108.8 104.7 108.5 112.7 116.6 121.7 124 128 131.7 134.4 137.6 140.2 142.4 146 150.4 158 159.9 162 162.4 165.1 165.2 163.2 162.6 163.7 163.6 161.9 162.6 157.6 153.3 147.4 140.8 135.9 132 125.8 122.2 119.5 115.4 110.6 106 103.6 103 101.7 100.2 99.3 97.7 95.6 94 93.1 92.4 91.7 91.4 87.4 87.7 89.9 88.1 88 89.8 91.1 90.5 91.1 87.9 90.3 91.9 93.1 93.6 94.3 95 95.8 92.3 92.3 92.8 93.1 91.2 89.9 91.7 86.5 81.3 78.4 78.7 79.6 81.4 87.3 91.4 87 87.6 90.1 91.9 90.4 89.1 87.7 88.3 90.1 92.7 101.4 103.9 103.1 106.1 111.9 114.8 116.6 120.9 124.2 124 127.2 130 132.7 138.1 144.4 149.6 154.4 159.3 163.6 165.9 169.3 172.7 173.3 172.7 174.9 178 181.2 182.5 179.8 176.2 170.3 161.4 152.7 151.6 150.7 146.2 143.9 143.8 144.7 141.9 141.9 140.6 138.4 138 137.1 136 134.7 133.4 132.8 132.3 133.3 133.1 134.6 135.6 136 134.3 131.2 131.5 131.3
196.7 189.3 184 179.6 175.5 171.3 167.1 163.8 161.7 155 152 150 145.3 143 140.9 139.4 137.9 135.1 131.8 128.9 127.4 124.1 122.8 120.8 119.3 118.5 113.7 113.3 114.3 112.6 112.4 112.1 112 111.8 111.4 110.7 111.1 111 108.3 107.2 110.3 107.8 105.1 104.1 103.5 102.4 100.1 106.3 103.3 104.9 107 111.2 116 119.8 122.2 126 130 131 135 137 139.4 142.8 148.1 154.6 156.9 161.6 158.9 160 160.2 159.4 160.2 161.6 160 158.6 157.4 154.4 150.1 143.8 137.3 131.6 127.4 123.3 119.2 115.4 111 106.8 102 99.9 101.3 100.1 99 97.7 95.1 94.3 92.6 91.1 90.9 90 89.5 83.5 86.4 88.6 86 86.1 87.4 87 86.8 90.8 86.9 88 88.7 91 90 86.3 86.8 90 88.1 88.2 84.3 85.4 81 81.6 81.9 78.8 78.1 78 78 78.4 80.2 83.5 84.3 87.6 88.2 88.8 88.6 88.7 88.1 86.7 87.5 89 92 99 98.9 102.5 109 110.7 114.6 116.9 120.1 122.1 123.4 125.8 130.9 137.1 143.8 150.4 156.3 161.4 167 170.5 173.3 177.4 177.9 176.9 177.2 179.5 182.9 181.8 179.3 176.8 170.5 160.9 151.6 147.4 143.7 140.7 141.1 138 138.6 141 141.8 140.9 139.8 138.4 137.2 136.3 134.4 133.8 131.9 131.4 131.1 131.2 131.9 133.9 133.6 132.6 128.2 120.6 119.6 125.2
189.6 182.6 179.5 172.3 169.6 165.3 159.7 158.7 154.9 148.3 147.8 145.6 142.9 143 139.8 138.1 136.3 133.1 129.8 128.7 127.5 123.7 122.4 119.9 119.8 117.9 114.2 113.1 114.5 113.8 115.5 113.1 112.8 112.2 112.2 112.1 112.7 110.5 109.3 111.3 111.1 109.4 106.4 104.5 104 102.3 99.5 101.2 101.2 103.1 105.3 111.2 114.8 118.6 119.9 123 126.9 130.2 132.6 134.9 137.5 140.1 144.8 149.4 151.6 153.2 153.5 153.9 154.3 155.5 157.1 158.5 156.5 154.9 153.4 150.7 145.3 138.5 134.2 127.5 122.7 119 115.1 111.2 106.2 102 97.7 97 99 97.4 95.8 94.8 92.6 91.8 90.3 88.4 88 87.2 85.7 82.7 82.5 84.5 83.9 83.6 88.5 89 84.4 79.9 83 84.2 85.3 85.8 84.7 85 81.1 80.9 79.1 79.3 78.9 78.1 77.2 76.6 76.6 76.8 78 77.7 77.9 79 80.8 81.5 87.1 89.6 86.3 87.2 87.4 87.3 88.1 85.7 87 88.3 91.9 97.9 96.7 104.6 107.8 110.3 114.6 117.3 118.9 120 123.1 128.2 134.4 141.5 148.8 158.4 164.8 169.3 173.3 174.4 180.8 181 179.9 179 180.5 181.4 182.3 178.8 175 170.5 164.1 154.6 146.6 144.1 137.9 136.7 134.8 135.3 137.7 140.2 142.2 141.6 140.3 139 139.9 138.5 137.6 132.4 130.9 130.2 129.9 130.5 130.9 130.5 128.2 128 123.6 117.2 115.2 115.3
182.8 176.2 173.7 167.5 161.2 157.6 156.9 154 144.9 145 143.6 142.3 141.7 140.8 138.4 137.1 134.5 131.3 129.5 127.7 127 125 123 118.7 118.2 115.8 114.2 113.1 114.4 113.3 113.7 113.2 113.4 112.5 112.2 112 113.2 110.4 110.4 111.1 111.8 110.5 106.1 104.9 105.7 102.1 99.9 98.6 100.6 103.5 107.1 109.1 112.4 116.2 118 121.4 125.3 128.2 130.3 131.7 134.7 138.3 141.3 144.3 144.5 145.5 147.9 149.2 151 151.8 153.9 155.4 153 151.1 149 146.1 139.4 133.6 129.4 122.7 119.4 115.2 110.8 107.2 102.2 97.5 95 94.6 96.2 95.9 94.4 92.4 89.8 88.6 87.8 85.4 85 83.1 80.9 80.4 81.8 80.5 86.9 81.9 78.9 78.7 78.6 78.6 78.4 79.8 81.9 80.7 79.8 81.7 81.4 78.4 78.5 78.7 77.9 77.2 77.7 76.6 76.6 76.6 78 77.5 78.3 79.7 79 79.2 81.3 83.9 86.1 86.3 86 86.6 86.8 84.5 86.6 87.9 91.8 96.4 99.2 103.3 106.5 111.3 113.7 115.9 118 120.6 123.3 132.2 138.7 145.6 154.3 164.8 169.3 173.8 175.3 177.9 182.1 180.7 178.7 177.8 179.9 177.8 176.1 171.4 167 161.8 154.7 147.8 142.6 138.7 135 132.9 134.1 135.6 138.4 139.6 141.7 142.2 141.1 142.1 143.1 141.5 136.6 132.8 131 130.4 130 129.9 128.3 125.4 125 123.5 119.1 115.2 106.4 106.4
178.1 171.4 167.7 162.2 157.3 154.8 153.1 146.3 141.9 140.7 138.7 138.4 138.5 138.3 137.8 136.4 132.5 130.5 129.7 128.5 126.2 124.4 122.5 116.3 115.8 114.5 112.6 112.4 115 112.6 112.6 112.4 113 112.3 110.3 110.7 109.7 109.6 110.3 109.8 109.4 108.3 106.2 106.6 106.9 104 99 99.3 103.3 105.9 108.9 107.9 110.3 113.1 116 119.2 123.4 125.5 127.6 129.9 132.6 133.7 136.8 139.3 138.8 139.8 141 143.5 145.8 147.7 148.7 149.7 148.1 146.1 143.4 139.9 133.7 127.5 124.3 118.5 115.6 111.7 106.8 103.4 98.3 93.6 91.6 90.4 93.3 91.1 91.5 90.2 86.8 87.6 85.3 81.7 82.8 83.3 78 78.4 78.8 78.4 78.3 78.5 78.3 78.2 78.4 78.4 78.4 79.2 80 79.6 77.9 77.9 80.3 77.9 77.7 78.2 78.1 77.1 76.6 76.6 76.6 76.6 78.2 77.1 77.6 80.6 79.6 78.2 79.1 82.8 83.7 85.1 83.4 84.9 82.6 87.7 85.9 88.9 92.2 91.2 99.2 104.6 107.4 110.2 112.2 114.3 117.2 120 126.1 135.5 142.8 149.6 160 168 171.8 175.2 175.6 180.2 180.9 179.2 177.8 176.9 174.4 168.7 166.6 160.7 157.2 151.6 146.2 142.5 136.6 134.7 133 131.9 134.2 138.1 139.2 140.3 142.2 144.9 145.4 145.5 147 140.5 136.8 133.6 132.9 131.5 131.7 130.5 127.1 120.6 119.4 117.7 116 110.6 102 100
170.2 167.1 160.2 155.4 151.9 151 149 142.8 140 138.9 137.4 136.8 137.1 137.6 136.4 135 130.6 129 130.1 126.5 126.3 122.9 120 114.9 115.9 112.7 112 111.9 113.2 111.7 110.9 110.3 111 110.7 108.7 108.8 108.7 109.5 110.2 109.5 108.8 107.2 105.8 105.8 105.5 103 101.4 96.7 102 103.2 105 108 111.1 113.6 115.2 116.6 120.1 122.2 122.9 125.9 129 131.2 131.5 133.8 135.1 134.8 135.4 137.9 138.8 139.4 140.5 141.9 142 139.8 136.6 133.2 128.1 122.2 118.6 114.7 110.9 106.8 103.6 99.1 94.1 88.5 85.4 85.8 88.5 88.8 87.8 88.5 85.4 83 81.2 79 78.4 78.1 78.7 77.8 78.5 78.3 78.4 78.3 76.1 78.3 76.8 77.7 78.3 78.4 78.2 77.9 76.8 78 77.6 77.9 78.1 78.1 77.7 77.8 76.5 77.3 77.4 76.9 82 78 77.9 77.8 77.8 77.7 77.7 79.2 81 84.1 81.9 81.6 81.6 85.4 84.6 86.6 89.3 91.6 100 103 107.1 109.7 112.1 114.4 116.2 118.9 127.3 137.6 145.6 152.9 164.8 169.4 172.3 173.3 174.9 179 177.6 174.4 173.7 170 162.3 160.1 155.6 151.3 148.2 144.5 142.3 139 135.3 134 132.5 131.3 135.7 138.8 140.7 142.6 149 152.8 149.8 147.3 147.1 142.3 136.9 134.7 133.8 133 132.7 130.5 128.9 121.9 116.7 114.4 111.7 106.1 100.8 94.1
164.2 161.2 154.9 149.7 147.6 147.3 145.5 141.1 139.2 135.9 135.2 136.4 136.8 135.5 133 130.5 128.6 127.3 125.9 125.3 124.3 119 113.9 114.2 114.1 112.7 111.2 111 112.2 110.8 109.7 108.6 109.3 111 107.9 107.5 107.1 108.9 110.2 109.2 106.9 104.8 105.6 103.9 103.8 103.8 100.6 97 98.7 99.8 103.9 107.6 109.1 109.8 112.5 113.2 116 117.3 117.1 120.4 123.2 123.9 124.9 127 127 128.2 129.7 131.9 133.7 132.8 132.1 132.6 132.2 131.3 128.9 125.2 121.2 117.1 113.1 110.4 107.8 102.5 99.8 93.1 90.3 86 82.8 82.4 84.5 84.7 84.4 81.4 80.5 79.8 78.6 78.7 76.9 78.2 78.1 77.5 76.2 77.8 76.8 78.6 76.7 78.4 78.2 78.1 77.9 78 76 78.1 78.1 77.8 77.9 77.9 78 78 76.7 78.1 76.7 78 78 77.7 78 78.7 78.6 78.2 77.8 77.7 77.4 78.6 78.6 82 83.3 80.8 81.5 82.4 84.2 86 86.4 94.2 98.1 101.1 105 107.4 110.3 112.9 114.5 119.2 129.4 138.7 146.4 155.1 162.9 168.1 169.8 171.2 174.3 173.9 171.1 167.5 163.4 158.7 150.4 149.6 149.7 144.9 141.9 141 138.7 137.2 135.4 133.7 132.8 130.3 135.8 139.1 140.1 141.9 147.1 150.5 150.4 148.6 146.8 143.5 138.6 137.8 139 139 137 133.6 134.1 127.3 120.5 111.1 106.1 103.5 99.8 92.7
160 155.7 151.9 148.4 146.8 145.6 143.6 137.7 136.7 133.3 134.3 135.2 138.6 134.1 131.4 128.9 128.2 126.7 124.9 123.8 121.1 115.3 114.2 115.3 113 110.1 109.7 110.2 111.6 110.3 108.9 107.6 109 109 107.7 106.6 106.2 106.7 108.8 107.8 104.8 103.2 102.7 102.7 102.4 102.9 101.2 97 96.7 95.7 102.9 108 105.4 106.4 108.5 108.9 110.3 111.7 111.8 113 116.3 117.7 118.9 120.5 121.4 122.1 123.7 124.9 126 125.6 125.3 124.5 123.9 120.1 116.2 113.9 112.1 108.9 106.4 105.8 103.3 97.6 95.6 88.7 85.8 85.2 83.7 80.7 79.7 79.3 79 79.3 78.2 78.7 77.1 77.2 78.7 78.3 77.8 77.6 77.6 78.7 78.5 78 78 78.1 78 78.1 77.9 77.8 78.1 77.7 77.7 77.9 77.8 77.9 77.8 77.8 77 77.6 77.6 77.8 79.9 77.9 81.4 79 78.8 77.9 77.7 77.7 77.5 76.5 77.8 80.2 79.7 80.5 81.6 83.3 83.9 83.7 85.9 93.7 96.7 98.8 101.9 104.5 109.3 110.9 111.5 118.4 130.2 138.1 145 153.3 159.5 163.3 164 165 167.1 167 161.5 155.8 154.3 148.1 143.5 142.6 142.1 138.1 137 136.3 136.1 135.4 134.8 133.5 131.7 128.9 134.7 140 141 142.3 146.3 150 152.2 150.5 147.4 143.8 141.8 144.6 145.1 144.4 141.8 136.4 133.8 124.4 114.7 107 99.7 99.7 96.1 91.1
158.2 154.9 151.4 147.4 144.8 142.4 139.3 134.9 133.7 132.5 135 134.4 135.8 132.9 129 127.9 127.3 126.2 123.9 121 115.3 114.1 114.1 114 111.4 108.2 108.5 109.1 110.7 110.3 108.9 108.4 108.5 106.9 107.5 105.7 104.8 106.3 106.9 104.1 104.7 102.6 102.1 101.7 101.1 101.9 103 100.1 99.7 98.2 98.2 102.5 102.3 103.1 104.4 106 108.6 108.2 107.7 107.7 109.4 110.3 111.7 114.4 113.8 115.8 116.8 118.5 120.4 119.5 118.6 117.7 116.7 113.2 107.4 104.1 102.4 101.6 100.7 100.4 97.8 93.6 91.8 87.4 82.8 79.5 78.9 78.7 76.8 77.1 78.7 79 78.5 78.5 77.5 76.4 78.8 78.5 77.6 78.1 77.9 78.5 77.9 77.8 78 77.8 77.8 77.9 77.9 77.8 77.8 77.6 77.7 77.7 77.8 77.7 77.6 77.6 77.5 77.2 77.1 78.1 86 78 78.4 77.2 77.7 77.8 77.6 77.2 76.9 77.7 76.9 79.3 78.9 80.3 79.9 82.2 83 82.4 86.9 92.6 93.9 97 99.8 104.4 107 107.8 109.3 118.6 129.4 135.1 142 148.5 154.8 156.9 156.7 156.3 156 155 150.7 147.9 145.6 143.1 138.1 136.6 137.4 136.3 135.5 134.7 134.5 134.3 133.2 131.5 128.3 127.6 132.8 138.5 140.7 145 149 154.1 153.3 151.8 147.3 145.8 148.6 150.8 149.9 144.9 142.2 135.1 126.4 120.1 109.5 102.8 96 94.6 91.3 87.1
151.7 151.9 148.1 145.4 144 140.9 135.8 133.6 132.4 131.1 132.5 133 134.8 131.5 127.6 127.2 126.7 126.6 121.1 117.6 114.1 113.7 114.3 110.6 107.8 107.3 107.5 109.3 109.7 109.9 109.2 106.5 105.1 105.5 105.5 104.3 103.8 101.9 100.1 100.1 102.1 101.5 100.4 99.7 99.4 96.3 98.2 99.2 97.5 97.1 97.1 100.2 100.7 100.7 102 104.2 105.6 105.1 103 102.1 104.1 104.3 105.8 109.1 108.4 109.7 110.3 113 114.1 113.4 111.8 111.8 108 105.6 98.8 95.9 95 95.6 95.1 95.3 93.5 88.6 88.2 83.4 79.2 78.9 76.6 78.8 78.6 78.5 78.2 76.5 79 79.1 78.4 79.2 77.1 78 78.1 78.5 78.5 78.6 77.3 77.7 77.8 77.8 77.6 77.8 77.9 77.7 78.1 77.3 77.7 77.7 77.7 77.9 78.1 78 77.6 77.8 76.8 77.5 77.4 76.7 76.2 77.1 77.6 77.9 76.7 77.1 77.6 77.6 77.5 78.4 78.3 78.2 80 80.5 83.6 81.2 83.1 90.7 90.8 93.4 95.2 101 102.9 105.4 109.9 116 125.6 131.8 137.9 143.6 149.3 148.2 147.1 147.8 147.2 145.9 141.7 139.1 136.8 136.9 134.2 131.9 133.6 134.3 133.8 133.2 132.9 133.1 131.9 129.6 128 126.9 130 135.4 139 145.1 148.6 152.1 152.3 148.2 148 150.8 153.7 153.4 150.2 143.1 139.4 130.1 120.2 111.1 103.7 96.3 91.9 89.4 85.3 83
155.7 150.1 146.4 141 140.2 139.3 134.2 132.4 131 129.4 128.7 132.6 133 127.4 126.5 125.9 125.7 124 120.3 114.1 113.3 112.7 110.6 107.8 107 106.4 106.4 108 107.6 109.6 108.7 106.1 103.6 102.8 104.1 102.6 102 100.5 99.4 99.9 101.9 97.7 98.3 96 94 93.7 94.9 96 98.5 92.3 96.7 97.6 97.8 98.7 100.5 101.4 103.2 102.8 99.1 98.1 99.3 99.7 101.3 103.6 104.9 105.2 104.8 106 106.7 107.2 106.5 105 101.1 97.3 92.5 88.5 88.3 89.4 90.1 85.6 85.7 84.1 81.2 80.8 77.9 76.7 78.7 78.5 78.2 78 78 78.2 78.5 78.4 78.4 77.2 77.3 78.4 78.4 78.7 78.2 77.6 77.5 77.5 77.6 77.8 78.7 78.6 79.2 81 79.4 79.9 81.8 81.2 79.4 79.1 78.9 79.7 79.4 79.7 77.9 78.1 78 77.9 78.2 78.6 79 77.8 77.5 78 77.7 77.4 77.6 77 77.9 76.9 78.2 80.5 83 80.9 83 85.3 87.8 92.4 92.7 95.8 98.1 102.9 107.8 114.4 121 126.8 130.3 135.5 140.2 139.3 138.4 139 137.7 139.3 136.2 133.1 131.4 131.3 128.4 129.2 131.1 131.2 130.3 130.3 131.4 131.9 130.4 129 127.2 126.4 131.1 132 134.8 139.3 141 147 146.7 148.1 150.6 153.8 154.7 152.4 146.3 139 133 125.3 115.1 106.5 96.6 90 86.3 83 80.6 78.4
156.5 152.3 150.5 141.6 139.2 136.1 132.1 129.1 128.5 125.8 126 131.7 129.8 126.7 125.3 124 122.5 120.9 117.6 113.7 112.9 113.6 109.3 108 107.3 106.4 105.9 106 106.9 109.5 108 105 103.2 102.6 104.2 101.8 100.5 99.6 98.8 98.2 97.9 95.5 93.7 93.1 93 93.4 95.3 96.1 95.2 88.3 95.3 96.5 95.2 96.8 98.2 99 100 97.9 95.7 95.5 96.2 96.6 96.8 97 100.4 100.4 100.5 100.2 100.1 100.7 99.8 97.8 93.2 93.4 89.4 84.5 81 83.9 83.6 80 78.7 78.9 78.4 79.4 77.4 78.8 78.6 78.3 78.1 77.9 78.2 78 78.5 79.1 79 77.6 78.5 79.2 78.5 78.4 78.7 78.1 79.3 79.2 79.3 79.9 82 83.4 84.1 86.5 88.7 96.8 92.4 84.1 81.9 80.5 81 81.6 82.1 82.5 82.8 80.8 81.8 82.4 81.1 80.6 82 81.5 81 80.3 80.3 79.1 78.8 79.7 79.9 78.1 76.7 79.5 81.8 80.3 79.7 82.4 87 88.1 91 90.8 93.1 99.1 106.1 112.5 116.4 120.7 124.1 128.6 132.7 132.2 130.6 129.8 130.7 132 130.8 128 125.9 124.8 124.8 127.8 128 127.5 126.8 129.2 130.5 130.4 128.6 126.4 125.4 127.7 128.2 130.5 132.4 133.6 136.4 140.9 147 149.2 153.8 152.3 152.7 147.6 140.9 133.1 126.2 117.6 110.3 100.3 91.9 86 80.1 79.6 77.4 74.9
154.6 151.9 149.1 141.8 134.7 133.6 138.2 133.5 132.2 130.3 127.2 129 127.3 125.8 123.1 121.4 119.1 116.7 114.1 113.1 112.3 109.1 108.4 109.4 107.6 105.9 106.7 106.8 108 108.5 107.1 104.6 102.9 102.5 104.2 101.5 100.5 99.6 98.5 96.5 95.9 94.7 92.2 92.1 92.7 94.2 94.9 95.3 94.6 88.8 94.9 93.3 94.4 94.1 93.4 94 95.1 93.7 94.2 91.9 93 94.1 94.1 95.2 96.5 94.6 94.3 95.4 96.2 94.6 92.4 90.2 84.7 84.1 84 82.5 79.4 79.5 81.5 78.8 78.8 78.6 78.6 78.8 77 78.7 78.4 78.2 78 78 78.2 78.6 79.5 79.5 79.4 78.5 79.4 79.6 79.2 79.2 79.8 79.3 83.7 85.2 84.3 83.8 85.1 89.4 92.2 92.3 92.7 92.6 92.6 86.6 86.8 84.7 84.5 83.6 86.2 88.1 89.1 87.8 87 86.2 84.6 84 84.3 85.3 83.7 84.4 82.9 81.6 82.6 80.2 80.4 79.4 76.5 79.9 79 80.9 79 84.2 84.6 85.5 90.1 88.2 89.3 93.5 103.1 109.7 112.1 116.3 120.2 123.1 125.5 124.5 123.4 122.8 123.4 124.7 125.3 122.9 120.7 120.6 123.3 124.6 124.7 125.3 125.4 127.6 128.6 128.3 124.4 124.7 124.2 123.5 126.4 128.6 129.8 131.3 134.1 142.3 147.8 148.4 150.3 145.6 145 141.4 132.1 124.7 121.4 109.3 98.4 91.9 87.6 83 76.6 74.9 74.9 74.9
152.6 150.9 146.3 137.6 137.6 141.3 138.8 135.5 133.6 130.6 127.6 124.7 123.8 122.4 116.6 118.2 116 115.4 114.6 112.4 108.6 107.5 107 106.3 105.5 105 106.9 107.9 108.1 108.1 108 105.6 102.2 102.6 105.1 101.3 100.4 99.5 98 95.4 94 93.5 91.5 91.5 92.2 91.8 91.7 93 93 87 88.3 90.5 93.4 92 91.5 91.3 91.7 89.7 88.4 88.5 87.8 89 90.6 90.8 93.2 91.2 89 90.5 90.6 90.6 88.4 85.9 80.6 80.5 79.9 81.3 79 78.4 78 78.4 76.8 77.5 78.9 76.8 78.2 78.6 78.3 78.1 78.1 78.1 78.1 79.3 79.6 79.7 79.8 79.7 79.8 79.9 79.7 81 81.9 81.9 94.8 90.5 89.9 88.7 96.2 95.5 96.1 96.2 94.2 96.4 95.1 94.2 91.8 92.8 90.6 91 92.4 92 93.6 96.2 93.7 89.4 89.7 88.8 89 87.7 87.2 86.9 85.5 85.5 85.9 81.9 79.4 77.5 75.3 78.5 78.5 79.4 79.2 80.9 82.7 83.8 86.3 86.5 87.4 91 99.7 105 108.7 113.3 116.2 118 117.9 117.3 116.5 117.7 119.3 118.5 118.6 116.3 114.8 117.5 119.2 120.2 120 122 122.7 124.1 123.7 123.9 121.8 120.9 121.1 119 126.4 125.4 125.6 131.1 136.5 143.4 146.7 146.1 145.3 138.6 139.3 132.1 120.8 112.8 110.9 106.1 93.3 83 78.5 74.9 74.9 74.9 74.9 74.9
154.5 151.9 146.3 147.9 143.4 143.1 141 139.6 135.7 132.8 130.4 131 129 126.1 118.2 115.9 115.3 116.2 115.4 113.7 111 108.3 105.8 105.1 104.5 105.1 107.1 107.6 108.3 111.1 107.2 104.6 102.1 103 101.4 100.4 100.1 99.5 98.2 94.3 93 90.3 87.8 90.4 88 88.5 88.7 89.4 88.2 84.6 86.2 87.6 88.7 88.1 87.1 87.9 88.4 87.2 84 84.6 83.4 82.9 83.3 83.9 85.6 86 84.6 85.3 84.9 87.7 85.4 84.2 80.6 78.5 78.3 77.3 78.7 78.9 78.4 78.4 77.4 78.4 78.3 78.8 78.6 78.4 78.2 78.2 78.2 78.2 78.2 79.3 79.6 79.7 79.8 79.4 80.8 80.4 82.1 87.2 83.6 87.2 97.4 95.7 94 94.2 101.2 103.4 98.3 99.7 99.3 99.5 100.5 101 99.4 97.1 98.4 100.8 98.4 98.5 97.5 98.6 97.3 97.4 95.5 95.5 93.2 92.1 91.6 88.7 88.4 88.5 86.7 82.1 79.6 77.3 74.9 77.4 76.3 75.6 81.4 77.4 81 82.7 82.8 85.1 85.5 87.1 95.4 100 105.3 109.4 111.6 112.6 112.1 111 111 111.6 113.1 112.8 112.5 110.5 110.1 113.4 115 117.2 115.2 119.4 117 118.4 121.3 120 115.8 114.6 115.3 117.5 122.8 121 125.5 130.4 136.5 142.4 145.1 142.8 134.1 128.9 127.5 118.5 108.2 104.2 100.3 99.7 91.6 84.4 79.9 75.4 74.9 74.9 74.9 74.9
157.1 154.3 150 150.6 145.3 143.2 140.8 138.7 137.8 135.1 133.2 133.2 128.8 122.6 119.3 114.4 112.7 114.5 116.2 117 112.3 110 106.5 105.1 103.8 105.4 106.8 107.8 109.6 109.7 108.4 104 102.5 100.9 99.1 99.3 99.2 99.2 97 92.1 90.2 88.1 86.6 87.3 86.6 86.5 86.5 86.6 85.4 85 84.3 86.2 86.1 85.5 84.6 84.9 86.5 86.4 82 82.1 81.9 81.5 80.4 81.2 80.4 80.7 80.3 81.1 80.9 79.9 79.8 80.2 78.1 78.2 78.8 78.7 78.3 78.7 78.8 77.3 78.2 78.1 78.5 78.7 78.4 78.2 78.8 78.4 78.4 78.4 78.5 78.7 79.7 79.8 80.4 79 80.2 84.5 91.7 92.4 88 90.7 94.5 99 98.3 98.5 106 107.7 103.6 105.7 104.8 105.3 107.9 109.8 109.6 109.4 107.4 106.2 107.1 107.4 107.3 106.9 105.4 103.9 101 99.8 100 97.2 95.5 91.7 91.9 91.4 87.2 82.5 79.7 77.4 77.6 74.8 75.1 75.9 77.9 77.5 79.5 79.3 78.6 81.8 84 84.4 88.7 96.5 99.3 104.6 106.2 107.4 105.9 105.7 105.8 107 107.5 107 107.1 105.5 106.8 110 108.7 111.5 109 111.1 113.6 117.1 116.9 115.7 111.2 112.3 111.1 113.5 114.8 116.7 123.8 127.6 131.4 136.7 140.8 135 122.2 118.8 115.2 109.3 101.7 95.9 93.3 90.6 86.2 79.3 75.2 74.9 74.9 74.9 74.9 74.9
158.9 155.9 152.6 151.1 148.1 143.9 141.1 140.2 139.2 138.3 133.7 131.8 127.8 121.5 117.8 114.6 111.6 113.7 128.7 115.4 112.7 108.4 107.3 106.8 104 104.1 106.6 106.6 107.6 109.1 109.6 105.8 101.5 97.6 97.2 97 98.3 97.6 95 91 88.1 87.1 86.3 85.8 86.5 86.3 85.3 85.3 83.8 83.9 83.7 84.4 84.5 83.3 83.9 83.6 83.3 84.8 82.4 81.1 82.6 83.5 79.9 80.6 79.9 78.9 79.6 79.4 79.3 79.2 78.8 78.3 78.9 79 78.9 78.9 78.9 78.1 78.7 77.8 78.8 78.1 78 78.3 78.3 79 79.7 78.8 78.5 78.5 78.8 79.1 79.4 80 80.8 81.3 84.4 87.5 94.1 95.1 94.3 93.2 97.1 99.6 101 104 112 110.1 111.1 111.2 107.7 109.5 109.4 113.1 116.1 115.3 114.9 116.7 117.2 113.8 114.9 113.5 114.9 112.2 108.9 106.6 106.3 103.5 98.8 95.3 94.1 92.8 86.2 83.2 80.9 79.4 76.5 74.8 75.5 76.1 75.9 76.4 77.9 78 77.1 77.8 78.3 82.6 84.4 90.6 95 100.3 101.1 101.4 101 100.7 100.5 101.9 101.9 103.2 103.3 102.1 102.5 103.5 100.4 103.7 105.3 106.3 107.9 111.9 112.8 111.8 106.8 105.7 107.6 110.8 110.2 114.2 119.4 122.1 126.1 130.1 129.3 123.2 110.7 110.2 106.8 102.5 98.7 92 87.3 84.1 80.6 75.8 74.9 74.9 74.9 74.9 74.9 74.9
160.3 158.1 156.1 153.9 151.1 146.3 142.7 140.9 139.8 136.1 132.9 132.1 126.8 119.7 118.1 114.3 108.6 114 117.6 111.1 109.8 108.6 107.2 106.1 105.2 102.2 106.6 104.5 105.4 106.4 104.5 102 100.4 98.7 97 96.4 96.9 97.3 96.5 91.7 88 86.7 86.7 86.7 86.7 86.1 85.8 85.1 83 82.6 83 83.1 82.7 82.4 83.3 84 82.9 82.3 81.2 81.2 81.4 81.9 81.5 81.1 79.7 79.3 79.4 80 79.9 79.6 79.3 78.8 78.8 79.3 79.2 79.1 79 77.7 78.1 78.6 78.5 78.5 78.2 79 78.5 79.4 79.9 79.4 78.8 78.9 79.2 79.4 79.7 80.2 85.9 87.4 88.6 88.3 95.3 95.6 96.3 97.4 101.4 102.5 106.6 110.7 117.5 115.1 114.3 115.2 110.9 115.4 118 123.5 124.1 123.5 125.5 128.1 128.9 125.8 122.6 121.1 121 119.3 114.6 111 109.2 104.2 102.9 102.3 97.8 93.4 90.7 85.9 83.4 81.6 77.8 75.8 75.5 75.9 75.1 75 75.6 75.8 77.1 78.7 79.4 79.4 82.5 85.3 88.8 93.4 96.8 99 97.2 96.8 96.9 97 98.2 98.8 99.4 98.6 97.8 96.8 97.3 99.6 101.5 103.5 103.9 106.5 106.9 107.1 105.1 103.2 105.5 106.1 108.7 108.8 112.2 117.7 117.7 115.8 115.7 110.5 103.3 103.3 98.5 97.8 91.3 85.1 80.9 81.2 75.8 74.9 74.9 74.9 74.9 74.9 74.9 74.9
163.6 162.9 160.8 156.4 153.8 148.6 145.3 142.2 137.9 133.2 130.6 131.4 124.8 120.5 116.9 113.6 108 110.4 114.7 107.8 109.2 109.9 106.8 105.2 104.2 103.6 102.6 101.3 103.8 104.5 102.4 101.8 101.8 101.9 98.9 96.5 95.4 95.5 95.6 95.2 90.1 87.7 87.9 87.5 87 86.9 86.7 86.1 85 83.1 83 83.2 81.9 82.4 82.2 81 81.8 81.7 81.6 81.7 81.4 80.7 80.8 80.8 80.1 79.7 79.4 80 80.3 80 79.7 79.4 79 79.5 79.4 79.1 78.8 77.2 78.6 78.6 78.5 79.5 79.7 79.4 78.7 80 80.1 79.7 79.2 79.2 79.5 79.7 80 81.4 86.2 94 93.6 89.7 94.4 96.7 97.7 100.7 103 109.5 109.9 114.9 123.3 120.4 121.6 119.3 118 124.6 126.9 133.1 133.6 132.4 134.4 138.4 138.6 135.4 130.2 129.3 124.3 122.9 121.5 118.9 110.3 105.1 104 103.2 99.8 96 92.2 88.5 86 82.3 79.9 77.6 76.2 76.1 75.4 74.9 74.7 75.5 75.5 75.2 77 79.4 77.5 79.8 81.8 84.8 89.4 93.5 93 91.5 93.4 93.5 94.1 95.6 96.4 94.9 93.4 92.3 93.4 96.5 96.9 98.8 100.4 101.2 99.1 101.3 101.7 102.2 100.4 100.8 103.7 103.4 106.9 108.9 109.2 105.5 103.3 103.4 97.8 96.4 92.4 92 86.2 81.1 77 74.9 74.9 74.9 74.9 74.9 74.9 74.9 74.9 74.9
168.3 167.3 163.7 160.4 155.7 151.2 146.7 141.3 134.7 129.2 128.2 131 124.3 121.3 115.4 110.5 108.5 107.1 106.5 105.4 105.4 106.9 106.6 106 105.4 106.3 111.4 102.6 97.9 101.2 95.4 97.5 99 100.4 98.2 97 95.9 95.6 96.5 96 91.6 89.1 88 87.5 87 87.3 86.5 86 87.1 84.2 82.7 82.8 83 82.8 82.4 81.5 80.1 81.5 81.7 80.8 80.6 81 80.4 79.7 80.1 80.1 79.6 80 79.5 80 79.9 79.8 79.4 79 79 78.6 77.8 77.8 78.8 78.7 79.1 79.8 80 79.7 79.1 79.3 80.1 79.7 79.8 79.7 80 80.2 81.7 81.8 88.8 91.1 96.8 99 99.6 99.3 100.1 104.5 109.4 114.9 116.9 124 126.7 126.4 126 124.5 127.2 132.5 134.6 137.8 142.2 145.7 145.7 148.1 145 141.7 138.6 135.2 131.5 128.8 125.8 121.4 114.6 108 106.8 101.3 99.5 97 92.5 90.4 87.3 82.8 80.5 78.5 75.8 76.5 76.2 75.5 75.3 75.6 75.7 75.7 75.4 78.5 79.4 79.4 79.4 78.3 83.5 84.1 85 86.2 90.2 88.8 87.7 90.2 92.4 90.4 88.9 87.9 91 93.7 93.6 94.8 96.8 95.8 96.7 97.3 97.6 99.1 97.9 96.7 99.4 103.9 102.7 101.5 101.8 100.1 95.9 93 91.8 92 88.4 86.2 80.6 74.9 74.9 74.9 74.9 74.9 74.9 74.9 74.9 74.9 74.9 74.9
172.8 172.8 168.8 164.7 156.7 154.8 146.6 141.8 136 130.1 127 129.3 124.1 119.5 117.3 113.1 108.3 108.1 106.6 104.6 103.2 102.8 105.6 106 105.6 104.8 108.3 104.7 97.3 93.7 96 94.6 90.6 102.4 98.6 97.9 96.5 93.5 95.7 93.7 93.4 91.4 88.7 88.5 86.9 87.2 86.3 86.8 88.2 84.3 83.5 83.3 83.4 82.9 82.7 81.5 80.9 81 82 81.6 80.9 80.4 81.2 80.5 80.3 80.1 79.8 79.5 79 79.3 79.8 79.7 79.6 79.3 79.6 78.8 78.2 78.8 78.9 79 80 80 80.4 80 79.7 79.7 81.4 81.3 80.6 80.6 80.7 81 80.8 82.1 85.4 92.5 94.7 102.1 105.6 105.5 107 106.6 114.3 118.8 121.6 130.8 132.6 131.2 132.4 134.1 137.1 138.6 143 147.2 151.6 154.5 154.2 153.5 150.1 144.3 142.2 140 135.5 130.3 127.3 122.1 114.9 115.6 107.6 106.7 101.8 98.2 93.5 90.8 87.7 82.4 79.9 77.9 77.1 76.7 76.2 76.2 75.9 76 75.8 75.7 76.2 76.9 77.5 77 79.4 79.4 77.2 77.8 79.4 80.3 84 82 83 85.8 89.4 86.9 84.6 84.5 88.3 90.5 88.9 90.9 93.3 94.9 95.9 94.2 93.6 97.6 95.5 94.8 100.1 103.1 99.3 99.5 96.9 95.7 92.9 88.4 88.2 86 80.9 76.5 76.9 74.9 74.9 74.9 74.9 74.9 74.9 74.9 74.9 74.9 74.9 74.9
179.5 176.5 173.2 164.8 158.5 153.9 148.3 142.8 139.2 132.1 127.2 124.6 122 120.6 117.6 114.2 113.1 110 106.3 104.3 103.4 102.4 106.7 105.4 102.7 103 101.1 99.5 95.1 94.4 97.2 96.6 93.5 93.6 97.4 96.7 97.1 95 93 90.5 97.4 93.9 88.7 88.4 86.9 87 85.9 85.4 85.1 88.2 84.5 84.2 83.8 86.4 83 82.6 82 82.3 82.4 81.4 81.2 81.1 81.1 79.9 79.4 80 80 79.9 79.3 78.1 79.3 79.3 78.1 78.3 78.2 80 79.9 80.1 79.1 79.5 81.3 81 80.8 81.2 81 85.7 85.8 82.3 81.6 82.8 81.8 83.1 82.2 83.8 90.7 95.3 94.9 98.8 105.9 108.7 111.9 113.4 118.7 125.6 125.5 135.9 136 137 137.6 140.4 145 146.3 152.8 155.2 159.9 163 160.4 156.7 152.7 149.3 146.3 144.3 141.9 134.9 129.8 124 117.2 113.7 108.1 107.8 104.7 98.1 93.8 92.1 87.6 82.3 80 77.6 78.4 77.9 77.4 76.9 76.4 76.1 75.9 75.8 75.7 75.6 75.4 75.3 75.7 76.4 78.9 75.1 74.9 74.9 76.3 76.4 79.1 81.9 84.4 81.9 82.3 81.9 84.2 85.5 85.8 91.6 90.8 91.1 92.2 91.4 91.2 91.5 91.7 92.7 98.4 96.8 95.6 92.8 91.7 89 88.1 85.8 83.7 79.3 74.9 74.9 74.9 74.9 74.9 74.9 74.9 74.9 74.9 74.9 74.9 74.9 74.9 74.9
186.1 181 176.5 169 158.8 152.5 149.5 143.7 139.4 131.3 126.8 126.1 123.3 122.1 117.2 115.7 112.9 109.1 106.4 105.6 103.5 101.6 102.8 100.7 100.1 97.9 97.3 95.2 95.7 95.4 96.9 96 95.1 91.3 92.8 94.5 95.7 97.6 92.1 92.1 90.5 96.4 87.9 88.3 87.4 86.5 85.9 85.8 85.7 85.8 84.2 84.7 84.9 83.9 83.7 83.2 82.9 81.9 81.8 81.9 81.4 80.9 80.7 80.6 80.1 80.2 80.3 79.8 78.8 79.1 78.9 80.6 79.4 79.3 78.8 81.4 80.8 81.2 79.4 80.4 81.8 81.5 81.7 82.9 81.9 85.8 86.2 84.6 86.4 85.5 86 89.7 91.7 92.8 91.9 93.7 98.1 97.8 102.2 110.4 112.4 117.7 125.2 130.1 132.6 140.4 140.4 143.2 145.6 148 148.5 152.5 159.7 163.9 168.1 168.4 164.1 159.2 156.5 153.6 151.7 149.4 144.3 140.1 133.6 125.5 120.3 113.8 110.2 108 104.5 98.8 97.8 94 89.1 83.8 80.9 79.1 78.6 78.8 78.3 77.8 77.2 76.7 76.1 75.9 75.8 75.6 75.5 75.7 75.6 75.4 75.1 74.9 74.9 74.9 74.9 74.9 74.9 78.1 77.5 76.8 79.1 78 80.4 79.5 82.4 88.3 87.2 88.8 88.9 88.1 87.6 86.4 90.9 88.9 90.3 91.2 91.1 87.8 87.4 86.5 84.5 83.1 77.9 74.9 74.9 74.9 74.9 74.9 74.9 74.9 74.9 74.9 74.9 74.9 74.9 74.9 74.9 74.9
191.4 186.4 178.7 170.1 161 153.1 147.5 144.4 137.5 129 127.6 125.6 124.4 121.3 117.5 112.8 111.7 108.6 107 108.2 104.1 104.2 100.9 98.2 97.3 98.4 97.4 96.4 95.7 96.9 101 96.9 96.3 96.3 89.1 92.4 94 99.1 90.8 91.8 90 89 89.9 87.5 87.7 86.2 85.6 85.3 85.8 85 84.6 84.4 83.8 83.4 82.6 82.4 83 82.6 82 81.7 81.1 81.9 80.1 80.5 80.5 80.5 78.9 82 79.9 79.3 79.6 80.5 79.5 79 79.2 80.6 81.6 80.4 79.8 81.9 83.4 84 83.9 82.4 83.4 85.5 87.8 88.9 88.8 86.7 90.8 92.8 96.3 99.4 99.3 97.8 99.9 102.1 101.9 109.9 115.5 124.7 129.3 134.1 140.4 143.8 144.8 150.4 151.8 152.8 156 160.7 164.2 171.3 174.6 172.8 167.8 163.7 159.6 156.4 156.4 152.5 145.2 140.7 136 128.2 120.3 115.1 111.9 109.4 103.6 100.4 99.7 97.8 90.1 85.6 83.8 79.1 79.6 79.4 78.9 78.4 78 77.5 76.9 76.4 75.8 75.7 75.7 75.5 75.4 75.2 75 74.9 74.9 75.1 74.9 74.9 74.9 74.9 74.9 74.9 74.9 74.9 74.9 74.9 78.1 82.1 83.8 84.3 85.4 83.5 80.9 83.8 85.3 87.3 86.2 88.4 87.6 85.8 84.5 78.9 77.3 74.9 74.9 74.9 74.9 74.9 74.9 74.9 74.9 74.9 74.9 74.9 74.9 74.9 74.9 74.9 74.9 74.9
196.1 191 179.7 170.9 162.9 153.4 148.4 144 137 128 128.7 126.7 125.2 122.4 114.4 110.7 110.5 108.6 108.8 106.9 103.9 103.5 103 102.8 102.1 103.7 100.8 97.4 97.2 96.9 99.4 102.6 97.4 101.9 95.6 89 91.4 91.8 92 90 89.2 88.5 87.4 86.9 86.6 86 85.9 85.9 85.8 84.2 84.2 84.3 83.2 83.5 83.7 84.3 83.7 83.8 82.6 81.6 82.3 81.5 80.6 80.4 79.7 79.5 80.4 85.1 81.4 78.9 83.9 80.7 80 79.5 79.7 83.2 82.6 83.3 81.9 84.9 83.7 84.5 83.6 83.5 87 90.8 93.3 92.8 91.1 92.9 96.8 100 100 102.7 100.7 101.2 104.7 108.4 108.9 114.7 119.3 127.8 134 137.6 144.6 147.2 151.3 155.7 157.4 159 162.2 166.9 171.8 176 178.2 174.7 171.2 166.7 162 158.6 158.5 153.4 145.7 141.9 136.4 127.3 122 118.8 116.4 110 104.2 102.8 101.7 96.2 89.9 88.2 82.6 80.8 80 79.5 79.1 78 77.6 77.2 76.9 76.5 76.1 75.9 75.7 75.6 75.4 75.2 75.1 74.9 74.9 75 74.9 74.9 74.9 74.9 74.9 74.9 74.9 74.9 74.9 74.9 74.9 74.9 76.6 80.1 82 75.4 74.9 80.3 82.4 84.8 83.5 83 82 79.9 74.9 74.9 74.9 74.9 74.9 74.9 74.9 74.9 74.9 74.9 74.9 74.9 74.9 74.9 74.9 74.9 74.9 74.9 74.9 74.9
201 191.5 180.9 173.8 165.2 156.1 149.5 145.8 137.4 127.8 128.3 128.3 125.5 122.7 113.8 111.2 111.9 110.2 109.7 107.4 105 103.9 103.3 101.8 100.3 99.7 99.1 98.8 97.6 97.4 104.9 101 98.7 97.5 98.9 91.5 88.7 90.1 91.3 89.9 89.1 88.7 87.5 86.4 85.5 85.1 85.8 85.4 85.3 85.2 84.2 84.5 84 86.5 87.9 86.1 85.1 85.3 84.8 83 83.6 83.9 82.7 80.3 79.8 79.6 83.4 85.9 87.4 82.4 84.9 84.3 81.1 80.8 80.6 84.8 85.5 87.7 83.9 84.3 84.8 85.3 86.4 89.9 91.2 96.3 95.6 95.7 93.7 99 100.1 102.2 102 102.8 102 104.3 109.1 113.4 115.4 120.1 127.1 133.7 137 143.4 148.8 150.8 156 159.7 161.8 163.9 167.7 172.4 177.8 180.9 181.6 177.8 173.8 169 164.5 161.2 158.6 153.3 147.4 142.9 135.1 129.8 124.6 121.1 117.7 111.4 107.3 103.5 101.4 95 89.6 88.7 81.5 82 80.7 79.8 79.2 77.8 77.4 77.2 77 76.8 76.5 76.4 76.1 75.9 75.7 75.6 75.8 75.9 74.9 74.9 74.9 74.9 74.9 74.9 74.9 74.9 74.9 74.9 74.9 74.9 74.9 74.9 74.9 74.9 74.9 74.9 74.9 74.9 77.2 77.6 77.7 74.9 74.9 74.9 74.9 74.9 74.9 74.9 74.9 74.9 74.9 74.9 74.9 74.9 74.9 74.9 74.9 74.9 74.9 74.9 74.9 74.9 74.9 74.9
202.6 191.7 183.7 176.1 166.4 156.9 149.1 145.5 137.2 128.6 130.7 128.8 124.9 119.3 114.5 113.5 113.4 110.6 110 107.8 105.2 101.9 101 100.6 100.1 98.9 99 99 99.1 99.8 107.6 110 101.3 103.7 94.5 92.2 90.7 88.2 89 89.9 89 88.4 87.2 86.8 86.6 86.8 86.9 88.4 88.6 87 87.2 86.9 89.3 89.8 90.3 86.7 89 86.8 86.3 86.2 85.1 85.3 89.2 80.8 80.5 79.9 82.1 87.3 87.2 86.1 84.2 84.1 85.3 84.1 83.5 87.9 89.1 90.4 87.9 84.9 87.5 91.2 92.8 94.4 96.3 97.3 96.8 97.1 98.1 101 102.6 103.6 104.2 106.7 109.1 111.3 115.3 119.8 120.7 126.4 134.1 138.3 142.5 148 152 156.2 159.6 162.2 164.8 168.9 171.9 176.6 181.1 183.8 182.7 179.6 175.6 171.3 166.7 162.9 159.9 153.2 147.9 142.9 137.8 132.2 126.3 121.9 118 112.6 107.6 105.8 102.8 92.4 91.8 86.1 83 82.8 80.8 80 80.5 79.3 78 77.2 77 76.7 76.8 76.7 76.5 76.2 76.1 76.3 76.6 76.6 75.7 75.4 74.9 74.9 74.9 74.9 74.9 74.9 74.9 74.9 74.9 74.9 74.9 74.9 74.9 74.9 74.9 74.9 74.9 74.9 74.9 74.9 74.9 74.9 74.9 74.9 74.9 74.9 74.9 74.9 74.9 74.9 74.9 74.9 74.9 74.9 74.9 74.9 74.9 74.9 74.9 74.9 74.9 74.9 74.9 74.9
203.3 192.5 186.8 178.4 168.9 158.7 147.7 144.1 134.8 131 132.2 130 124.3 118 116.3 115.2 113 111 110.2 109 105.2 102.8 101.9 101.5 100.6 99.7 99.8 99.6 100.1 99 98.8 100.5 101.7 99.2 93.5 92.6 92.2 90.5 90.3 87.5 87.4 87 91.3 92.1 90 89.6 89.1 89.4 94.1 89.4 90.4 93.9 94.2 92.3 89.6 89.3 90.9 92.7 91 87.7 86.2 86 83.5 81.9 81.2 83.5 87.2 87.3 89.2 86.1 85.5 87.4 89.1 87.5 92.3 91.5 90 89.3 86.3 86 88.5 94.8 99.3 97.8 98.5 98.9 100.2 101.3 102.7 104.4 103.7 106.9 108.3 111.1 112.7 118.7 126.4 128.3 128.4 134.8 140 143.1 147.8 152.4 155.5 160.1 162.4 165 167.7 172.4 175.1 179.6 183.6 184.8 183.1 179.6 176.2 172.7 168.2 162.9 159.3 153.2 147.7 143.4 138.8 134.7 129.6 124.8 120.1 114.7 108 106.7 99.2 92.4 89.6 84.4 82 84 81.3 81.2 83.8 81.1 81 79.1 77.6 77.5 77.5 79.3 77.8 76.7 76.9 77.2 77.3 77 76.5 76 75.3 74.9 74.9 74.9 74.9 74.9 74.9 74.9 74.9 74.9 74.9 74.9 74.9 74.9 74.9 74.9 74.9 74.9 74.9 74.9 74.9 74.9 74.9 74.9 74.9 74.9 74.9 74.9 74.9 74.9 74.9 74.9 74.9 74.9 74.9 74.9 74.9 74.9 74.9 74.9 74.9 74.9 74.9 74.9
203.6 194 186.9 177.3 170.6 157.6 148.6 145.5 136.3 132 133 131.3 125.4 118.6 116.9 115.7 113.9 110.7 109.8 109.1 107.3 101.8 102.7 102 101.2 102.3 101.1 100.2 99.4 98.6 97.8 96.9 96.2 97.3 93.7 93.1 92.5 91.8 90.3 90.6 92.6 92.8 93.3 96.7 93.2 92.5 92.6 94 93.6 93.6 94.5 97.3 98.5 94.8 91.2 91.4 91.9 94 92.8 91.7 88.9 88.5 85.3 86.3 83.6 88.5 90.7 90.5 88.9 87.8 89.2 89.7 88.3 89.4 92 90.4 95.2 93.4 90 91.5 95.9 101.2 99.5 102.6 100.5 101.9 103.7 106.1 107.5 106.9 109.6 111.9 113 115.1 119.4 127 131.5 132.8 134.9 140.2 145.1 148.4 152 155.9 159.3 163.5 165.6 167.9 171 175.4 177.4 181.7 183.4 184.1 183.2 180.8 177.4 173.7 169.2 163.5 159.3 153.3 148.1 143.9 139.4 139.5 134.6 128.1 121 114.2 109 110.7 101.7 92.5 87.2 86.4 87.6 85.8 85.3 86.1 85.7 85.3 85.2 85.4 83.4 81.9 84.3 81.6 78.7 77.5 77.8 77.9 77.6 77.3 76.4 75.6 75.1 74.9 74.9 74.9 74.9 74.9 74.9 74.9 74.9 74.9 74.9 74.9 74.9 74.9 74.9 74.9 74.9 74.9 74.9 74.9 74.9 74.9 74.9 74.9 74.9 74.9 74.9 74.9 74.9 74.9 74.9 74.9 74.9 74.9 74.9 74.9 74.9 74.9 74.9 74.9 74.9 74.9 74.9 74.9
203.5 195.4 187.1 179.5 169 156.6 148.8 145.1 136.3 133.7 133.4 131.5 125.3 120.7 118.4 117.1 117 112.8 109.5 108.6 103 102.6 103.7 103.3 103.4 102.9 101.6 101 99.4 98.6 97.7 96.8 95.9 95.1 93.7 93.3 92.7 92.3 93.3 92.6 93.7 95.7 95.4 96.3 97.9 97.4 95.9 95.2 96.2 96.3 99.6 99.8 98.8 97 96.8 95.1 93.2 97.6 94.3 95.3 90 88.2 88 91.3 86.8 90.6 95.4 96 90.3 89.3 92.4 89.9 88.7 88.9 91.7 96.6 98.1 97.1 95.2 94.8 98 101.7 102.6 101.8 101.2 104.2 106.3 112.2 113.8 113.3 113.5 116.4 119.1 123.2 131 131.8 135.3 136.1 139.5 145.6 152.7 154.7 156.7 160.2 162.7 166.9 169 171.1 173.5 176.7 179.2 180.3 181.4 182.6 182.7 181.8 178.7 174.5 170.3 164.7 158.4 153.4 149.4 145.7 142.6 140.7 136.2 126.6 119.9 112.1 108.5 105.1 100.8 93.2 93.9 92.9 90.5 88.9 89.2 90.1 89.8 88.7 89.1 88.5 87.7 86.4 91.2 87.4 80.4 78 78.5 78 77.6 77.1 76.1 75.5 74.9 74.9 74.9 74.9 74.9 74.9 74.9 74.9 74.9 74.9 74.9 74.9 74.9 74.9 74.9 74.9 74.9 74.9 74.9 74.9 74.9 74.9 74.9 74.9 74.9 74.9 74.9 74.9 74.9 74.9 74.9 74.9 74.9 74.9 74.9 74.9 74.9 74.9 74.9 74.9 74.9 74.9 74.9 74.9
204.8 198.8 185.9 178.1 166.8 158.6 150.1 143.7 135 137.7 135.4 131.8 126 121.9 120 119.2 115.7 111.4 109.2 104.2 104.1 104.4 112.9 105.2 107.4 104.8 102.4 104.5 99.3 98.4 97.5 96.6 95.7 95.1 93.9 94.1 96.5 98.9 97.3 96 94.6 96 97.7 98.6 98.4 99.1 100 97.6 99.4 98.6 105.3 103.6 103.4 103 102.3 100.3 96.5 100 96.2 95.9 92.8 92 96 93.1 93.4 96.9 98.6 95.6 93 92.9 95.2 90.1 89.7 92.9 94.3 99.8 99.7 99.1 98.5 98.1 97.4 102.3 104.5 104.2 106.2 108.5 111.4 114.5 115.6 115.3 120.9 122.8 126.8 132.7 135 139.6 141.8 144.1 148.6 151.3 156.4 159 162 163.2 165.7 169.6 171.8 173.7 175.3 176.7 178.4 179.8 180.9 182.9 184.4 183 177.9 174.3 171 165.3 158.6 154.8 149.3 145.8 144.1 141.1 133 123.3 116.6 111.1 106.6 103.9 99.8 99.2 99.4 98.6 94.5 93.4 94.8 94 94.6 93.2 93.7 93.2 92.1 91 96.8 90.7 84.3 80.7 77.8 77.9 76.6 76.5 76.5 75.3 75.2 74.9 74.9 74.9 74.9 74.9 74.9 74.9 74.9 74.9 74.9 74.9 74.9 74.9 74.9 74.9 74.9 74.9 74.9 74.9 74.9 74.9 74.9 74.9 74.9 74.9 74.9 74.9 74.9 74.9 74.9 74.9 74.9 74.9 74.9 74.9 74.9 74.9 74.9 74.9 74.9 74.9 74.9 74.9
205.9 196.2 184.2 173.3 166.9 162.2 148.9 141.5 135.3 141.7 135 131.8 125 120.8 118.8 116.9 113.8 109.2 108.5 105.5 104.4 113.8 111.7 109.8 105.9 105.2 102.7 102.2 99.2 98.2 97.4 96.3 95.4 95.4 98 98.2 103.3 100.9 100.5 97.7 97.2 98.4 102.6 101.3 100.8 101.2 100.8 102.7 103.5 103.9 106.2 105.3 105.3 103.9 103 102.2 103.5 100.8 97.1 95.5 93.3 98.7 97.6 96.1 97 98.1 100.5 98.7 97.8 97.7 95.9 92.2 98.5 95.6 100.2 101.4 100.1 102.7 104 102.6 108.4 107.1 111.8 112.8 115 114.6 117.1 116.1 117.6 121.9 125.4 128.4 134 138.1 139.1 144 146.6 149.9 153.6 155.3 159.2 162.6 165.1 166.9 169 171.8 173.3 174.6 176.1 177.3 178.1 179.1 180.6 183.6 185 181.5 177.2 174.4 170.9 164.3 158.5 154.6 149.1 146.9 143.5 138.1 130.2 120.2 114.8 111 105.4 100.9 101.4 104.7 105.3 104.1 101.6 98.3 98.1 97.1 96.2 97.6 97.7 97.3 96.2 98.9 98.1 92.5 87.1 83.1 78.3 77 77.5 78.6 76.6 75.6 75.2 74.9 74.9 74.9 74.9 74.9 74.9 74.9 74.9 74.9 74.9 74.9 74.9 74.9 74.9 74.9 74.9 74.9 74.9 74.9 74.9 74.9 74.9 74.9 74.9 74.9 74.9 74.9 74.9 74.9 74.9 74.9 74.9 74.9 74.9 74.9 74.9 74.9 74.9 74.9 74.9 74.9 74.9 74.9
206.7 191.9 183.6 174.1 168.2 161.3 148.2 142.2 138 140.9 134.7 131.8 124 121.9 116.7 115 111.2 109.6 107.7 105.7 105.6 107.6 108.1 106.4 104.7 104.1 101.8 100.8 99.3 98.5 97.5 98.9 97.6 96.9 98.9 103.3 104.7 103 102.4 101 100.7 100.7 105.2 104.1 103.6 105.1 106.2 107.1 106.7 108 109.3 109.6 111.6 109.2 108.2 109.7 104.1 100.1 97.9 96.9 95.5 97 99.8 98.8 99 101.2 103.2 100.3 102.4 101.3 99.8 98.4 99.8 98.9 103.1 102.3 104.7 107.8 108.5 108.8 110.3 116.3 118.4 118.9 120.6 121.2 123.4 124.4 125.2 132.7 133.6 135.7 139.7 142.4 146.3 150 154.5 154 157.5 159.2 162.4 165.1 168.1 168.8 171.5 173.3 174.5 175.7 176.6 177.7 178.4 179 180 183.1 183.3 179.8 177.3 174 168.4 162.1 157.8 153.7 147.9 144.4 140.9 134.2 124.9 115.4 111.5 109 105.3 105.7 105.8 108.5 110.2 109.3 106.2 104.7 102.6 100.1 99.7 98.7 101.5 99.2 98.9 101.6 98.1 91.4 88.5 84.9 79.3 78.7 81 81.4 77.9 76.4 75.2 74.9 74.9 74.9 74.9 74.9 74.9 74.9 74.9 74.9 74.9 74.9 74.9 74.9 74.9 74.9 74.9 74.9 74.9 74.9 74.9 74.9 74.9 74.9 74.9 74.9 74.9 74.9 74.9 74.9 74.9 74.9 74.9 74.9 74.9 74.9 74.9 74.9 74.9 74.9 74.9 74.9 74.9 74.9
201.9 191 182.4 174.7 167.2 159.5 144.7 140.3 141.4 139.5 135.2 132.3 123.2 119 115.3 113.1 112.5 109.8 109.1 107.8 105.8 108.4 110.8 106.8 104.9 104.5 103.4 100.6 100.6 99.8 97.6 98.3 98.4 98.4 101.5 102.7 105.3 105.1 104.9 105.5 105.4 105 106.9 110 109.1 110 111.8 110.5 113.2 114.8 115.6 115.8 114.8 114.8 114.8 114.8 111.8 107.1 102.4 101.3 102.4 103.3 105.5 102.6 104.7 107.9 105.2 101.8 102.9 103.9 103 99.6 100.4 101.5 106.6 105.4 109.4 112 111.3 112.3 116.6 119.5 120.3 122.8 122.4 123.2 126.7 131.4 136.5 138.1 140.6 143 144.8 146.3 151.3 156.7 158.8 158.3 161.7 164.7 166.1 167.7 170.3 171.7 173 174.5 175.7 176.3 177.3 177.6 178.1 178.5 178.5 180.8 179.7 178.5 175.5 171.3 165.3 160.3 157.1 150.3 144.8 141 134.8 129.4 119 113 108.6 107 110.2 111.5 111.1 113.6 114.6 113.2 110.5 108.3 108.8 106.9 106.6 103.5 101.9 103.2 104.3 101.1 96.3 92.8 88.9 86.1 78.1 80.3 81.1 79.9 77.7 76.3 75 74.9 74.9 74.9 74.9 74.9 74.9 74.9 74.9 74.9 74.9 74.9 74.9 74.9 74.9 74.9 74.9 74.9 74.9 74.9 74.9 74.9 74.9 74.9 74.9 74.9 74.9 74.9 74.9 74.9 74.9 74.9 74.9 74.9 74.9 74.9 74.9 74.9 74.9 76 76.9 74.9 74.9 74.9
199.2 190.2 181.7 174.6 163.9 156.7 144.6 140.8 140.5 140.5 132.7 129.9 124.2 116.3 113.7 113.5 111.2 110.6 112.5 109 107.2 109.7 108 106.4 106.4 103.7 101.9 100.6 100.4 99.4 99.5 99.4 100.6 100.4 103.9 104.5 107.2 107.6 107.2 110 110.9 111.6 112.1 114.7 113.7 115.7 115.7 114.4 116.9 119 119.2 120.8 119.9 119.9 121.1 119.3 117.4 108.9 109.5 107.2 103.5 110.2 110.3 106.1 107.4 110.7 108.6 107.3 107.4 105.1 104.5 102.9 103.1 105.8 110.1 113.2 115 115.6 114.2 118.9 122.6 123.9 125.3 124 124.8 131 133 140.3 142.6 143.4 146.4 149.3 151.1 151.7 156.6 162.1 162.1 162.7 165.4 167.3 169.1 170.8 172.4 173.3 174.6 175.7 176.4 177 177.3 177.5 177.7 177.8 177.8 177.4 176.7 175.1 172 167.5 162.4 158.2 153 143.9 139.3 135.7 127.7 118.2 112.7 109.1 107.3 111.5 114.7 115.7 115.8 119.7 118.8 117.4 114 113.6 113.6 110.4 110.5 109.9 108.1 108.4 108.9 104.6 97.8 94.5 88.3 83.4 77.8 82.3 83.7 79.5 76 74.9 74.9 74.9 74.9 74.9 74.9 74.9 74.9 74.9 74.9 74.9 74.9 74.9 74.9 74.9 74.9 74.9 74.9 74.9 74.9 74.9 74.9 74.9 74.9 74.9 74.9 74.9 74.9 74.9 74.9 74.9 74.9 74.9 74.9 74.9 74.9 74.9 74.9 75.1 75.2 79.3 82.4 80.8 77.5 80.6
198.4 187.4 177.9 170.2 161.2 152.7 141 138.2 137.8 136.4 132.5 128.5 124.4 117.5 116.6 114.5 112.3 112.6 118.4 110.6 108.1 110.2 108.9 108.1 105.2 115.3 104.3 101.9 99.3 103.4 103.4 103.5 106.1 105.9 106.5 106.5 107.9 112.2 111.2 113.7 115.2 119.2 120.6 122.2 122.5 120.1 118.9 118.1 122.4 127.1 129.3 129.5 125.9 126.9 125.4 121.6 115.4 112.8 112.7 109.2 108.8 112.8 113.1 107.1 110.3 112.9 108.9 108.8 109.1 106.8 106.3 107.4 106.7 110.9 115.8 116.3 122.1 120 120.9 125.6 126.8 127.3 128.4 129 132.8 136.7 142.3 146.8 148.7 149 153.6 153.8 154.8 157.4 161.3 164.7 165.3 165.4 168.6 170.4 171.5 172.5 174 175 176.2 177.2 177.1 176.6 176.5 176.7 176.3 176.3 176.3 174.1 172.2 168.8 164.9 160.9 157.1 151.4 147.3 140.1 132.1 124.9 119.4 113.9 111.4 111.7 112.7 115.2 119.7 119.8 121.7 123.4 121.7 119.8 117.9 117.4 115.2 114.5 114.4 113.9 115 118.5 115.1 103.5 98 95.1 89.2 83.2 80.2 82.8 81.3 79.3 74.9 74.9 74.9 74.9 74.9 74.9 74.9 74.9 74.9 74.9 74.9 74.9 74.9 74.9 74.9 74.9 74.9 74.9 74.9 74.9 74.9 74.9 74.9 74.9 74.9 74.9 74.9 74.9 74.9 74.9 74.9 74.9 74.9 74.9 74.9 74.9 74.9 74.9 74.9 75.1 74.9 75.2 78.7 82.1 81.9 82.1
194.1 183.7 173.9 167.1 160.6 150.6 139 136.3 135.4 135.2 131.3 128.1 124.8 120.3 116.6 114 113.8 113.9 117.6 111.2 109.6 111.8 110.8 109.3 107.4 115.3 110 109.7 103.1 105.7 111 112.9 112.2 111.2 113 109.5 110.8 118.5 116.6 122.5 126.7 126.7 126 128.6 125.6 123 122.9 124.6 132.6 137.7 138.1 138.1 135.5 132.9 129.6 122.9 121.1 120.2 118.6 115.5 114.1 114.4 110.3 109 114.3 115.9 111 112.6 111.1 109.8 109.9 114.8 113.8 117.1 121.8 126.2 126.1 125.5 127.5 131.8 130.2 130.7 134.8 135.7 141 143 149 152.3 152.1 154.3 157.3 157.4 159.3 163 164.7 166.1 166.9 169.3 171.5 172.1 173.2 174.5 175.5 176.7 177.1 177.3 176.5 175.8 175.7 175.3 175 174.7 173 170.7 167.2 163.7 158.9 154.2 151.2 143.5 137.4 131.5 125.6 119.9 116.3 113.6 112.2 114 116.6 122.3 124.2 127.4 127.8 125.9 124.7 123.3 122.3 119.8 120.4 119.7 119.4 120.9 124.3 127.8 112.7 102.6 98.2 94.3 86.8 81.1 81.2 82.8 81.4 79.3 75.2 74.9 74.9 74.9 74.9 74.9 74.9 74.9 74.9 74.9 74.9 74.9 74.9 74.9 74.9 74.9 74.9 74.9 74.9 74.9 74.9 74.9 74.9 74.9 74.9 74.9 74.9 74.9 74.9 74.9 74.9 74.9 74.9 74.9 74.9 74.9 74.9 74.9 74.9 74.9 74.9 75.2 76 76.8 76.9 79.7
189.8 178 170.2 163.6 154.6 147 135.2 136.5 134.6 133.2 131.7 129.8 126 118.6 116.6 115.4 115.2 114.2 113.8 110.8 112.8 112.7 111.3 109.7 109.8 114 115.8 113.2 109 113.6 114.4 116.9 117.7 117.2 118.6 118.5 120.2 123.6 129.3 132 131.9 133.3 132.1 132.6 129.3 127.7 127.1 134.5 145.8 146.6 146.2 146.1 140.6 137.5 130.2 130.7 130.4 125.4 121.3 121.9 116.1 112.9 112.6 112.6 113.1 115.8 113.1 113.1 115.5 113.2 116.1 116.8 119.8 124.8 126.3 132.5 131.1 132.1 133.8 136.1 135.5 140.5 141.4 146.7 150 149.3 154.6 156.2 157.8 159.7 161.1 162.6 166.4 166.6 169.9 169.7 169.7 171.6 173.1 173.5 174.5 175.7 176.8 176.7 176.8 176.6 175.9 175.2 174.6 174.2 173 171.9 169.4 166.1 162.5 158.8 154 150.4 145.6 138 132.7 127.2 120.4 116.6 116.5 115.5 118.4 118.3 126.4 129.9 130.3 130.9 129.4 128.6 127.5 126.7 125.3 123.6 124.7 122.1 123.5 123.3 128.5 126.7 108.9 102.5 96.1 91.7 86.1 81.9 82.1 83.1 84.3 81.5 76.7 75.3 76.5 79.2 81.1 76.6 76.1 74.9 74.9 76.3 74.9 74.9 74.9 74.9 76.6 74.9 74.9 74.9 74.9 74.9 74.9 74.9 74.9 74.9 74.9 74.9 74.9 74.9 74.9 74.9 74.9 74.9 74.9 74.9 74.9 74.9 74.9 74.9 76.7 77.1 75.1 74.9 77.3 78 81 81.8
183.2 173.7 166.5 158 151.2 142.7 134.4 136.7 135.5 133 131.2 130.2 123.8 119.9 118.1 115.4 114.7 113.7 111.1 113.3 114 112.9 111.2 109.5 114.2 115.4 115.8 118.5 119 118 119 119 121.8 126.9 126.2 126.7 128.8 130.7 135.1 134.3 135.2 136.7 137.7 136 134.4 135.3 137.8 148.5 158.4 160.4 158.5 153.9 148.8 143.2 139.5 137.4 134.2 131.3 124.8 123.3 117.4 117.3 117.9 119.6 116 118.2 116.8 118.2 117.9 118.3 120.5 121.3 124 129 133.6 136.9 137 137.8 140.4 143.8 146.5 148.1 148.2 151.7 153.3 160.5 160.5 161.6 162.5 166.7 165.3 165.5 168.7 170.7 172.6 172.7 172.5 173.3 174.5 175 175.7 176.8 176.3 176.3 176.4 175.7 175 174.3 173 172 170.4 168.3 165.1 162.2 157.8 153.8 149.8 146.6 142 137 128.6 122.5 118.8 117.2 119.4 119.3 121.8 126.8 132.6 133.3 132.3 132.3 132.8 132.3 131 131 128.7 128.7 127.7 128.3 126.1 125.2 126.5 120 104.6 100.3 97 89.8 81.6 85 82 82.6 83.9 82.1 79.9 78.5 82.3 79.9 80.2 80.6 80.1 75.2 77.8 82.9 81.1 78 78.7 83.2 87.1 80.4 77.4 78.2 79.6 77.9 82.6 77.6 74.9 75.2 74.9 74.9 74.9 74.9 74.9 74.9 74.9 74.9 74.9 74.9 74.9 74.9 74.9 75 79.9 79.7 76.9 79.3 82.4 83.3 85.9 86.9
178 167.7 163 156.4 148.2 139.5 133.7 140.3 135.6 132.8 129 127.4 122.4 120.3 119.5 115.8 114.5 113.5 112.5 114.1 114.6 114.2 113.1 114.7 117.4 120.6 119.3 120.6 122.2 120 121.1 122 126.4 129 131.2 132.1 134 136.6 138.3 139.9 141.8 141.8 140 138.8 141.9 145.6 151.2 163.8 171 173.1 169.7 163.8 156.7 148.9 144.3 140.5 136.7 131.6 129.7 126.8 124.7 123.9 123 121.7 121.2 121.4 119.8 122.5 121.9 124.2 127.1 127.9 129.2 137 139.5 141.2 142.7 144.1 147.2 151.4 153.3 152.2 157.2 156 159.5 164.9 164.8 166.8 166.9 171.6 169.1 170.8 171.4 173.6 174.5 174.7 174.7 174.4 175.7 176.3 176.7 176.3 175.9 175.8 175.6 174.7 174 173.1 171.3 169.6 167.7 165.1 161.8 158 153.5 149.3 146.1 143.5 140.2 133 126.1 119.9 119.7 122 124 123 127.9 133.4 137.7 135.6 134.5 135.7 135.7 136 134.7 134.7 131.5 131.4 131.7 130 127 124 119.5 110.7 103.3 98.5 97.8 82.8 89.2 86.9 83 84.8 85.8 83.5 80.9 82.9 82.2 83.6 81.6 84.1 80.6 78.8 81.4 83.5 82.2 82.3 83.5 89.4 91.1 87.2 81.4 82 83.6 83.5 83.2 81.3 78.9 77.7 77.4 74.9 74.9 74.9 75.1 75.6 74.9 74.9 75.6 76.1 76.4 74.9 74.9 76 81.5 82.1 83.6 83 85.1 87.2 90.2 91.5
170.1 162.5 159.6 155.5 147.2 137.8 133.5 137.4 131.8 128.2 127.9 125.8 122.3 120.2 117.9 115.6 113 115.4 114.2 115.8 116.1 114.5 114.1 114.8 123.4 122.1 125.8 124 123.8 123.7 127.2 129.8 136.2 135.3 137.5 139 139.5 139.8 143.6 144.7 146.6 145 147 144.8 153.3 158.9 164.7 176.8 182.5 183.9 179.4 173.5 162.4 153.8 149.5 147.5 146.3 142.2 140.3 138.2 134.3 132.4 130.7 124.9 128.8 125 123.3 125.4 128 129.1 132.6 133 136.3 143 146.2 146.6 148 151.6 157.1 158 159.7 160.3 165.3 162.8 169.5 172.5 170.5 171.4 173.8 174.6 172.4 172.7 173.8 175.9 176.1 176.2 176.3 176.4 176.8 177.5 177.1 175.9 175.5 175.4 174.7 173.8 173.1 171.4 169.4 167.1 165.1 161.4 158.8 155.1 150.6 146.6 144.5 141.7 136.3 129.7 123.6 121.1 125.1 124 125.1 125.4 130.5 135.3 136.9 137 136.7 138.7 137.8 137.4 137.4 136.6 135.5 135.3 132.5 128.2 124 120.3 112.7 105.2 100.1 95 92.8 92.2 91.4 89.9 84.7 83.8 85.2 84.7 84 84.9 85.3 85.7 85.1 87.8 83.2 82.7 88.5 86.8 86.8 87.7 90.3 92.4 94.5 92.5 86.9 87.6 89.7 87.8 90 82.9 80.6 79.2 81 78.9 77.5 79.1 75.8 75.1 75.9 76.2 77.1 77.4 76.3 75 74.9 77.2 80.3 83.6 84.7 84.3 86.4 88.3 91.9 91.8
164.1 157 152.3 149.5 145.9 137.1 131.3 131.4 126.6 125.6 125.5 124.4 121.6 118.7 116.1 116.9 119.8 117.3 118.1 118.5 123.3 121.7 120.4 117.8 119.1 126.5 129.2 130.4 128.6 132.2 134.2 136 139.6 141.4 143.2 142.8 142.3 144.7 147.8 149 150.2 153.3 154.1 158.7 165.7 168.9 174.5 188.9 191.7 191.9 187.6 181.5 172.9 166.2 159.8 159.7 156.1 152.2 152.5 148.1 142.2 140.7 135.8 132.6 132.1 129.3 126.7 130.4 131.3 134.6 138.1 138 144.2 148.5 151.7 153.8 156.6 159.2 162.8 166.2 167 170.4 170.6 171.2 175.6 176 176.4 174.9 178 176.8 175.3 175.7 176.5 177.5 177.9 177.7 177.7 177.9 178 178.4 177.1 176.2 175 174.6 173.7 172.8 171.4 169.2 166.9 164.7 162.4 158.6 156.2 153.3 149.1 145.2 140.4 138.1 132.1 125.4 123.3 123.7 128.3 127.3 129.9 129.7 132.8 136.2 138.2 138.7 138.6 139.4 140.8 140.7 140 138.3 137.2 135.1 132.1 125.7 120.7 116.2 108.9 102.3 98.2 91 92 95.2 97 89.9 87.6 87.5 88 87.6 87.2 89.2 89.6 88.2 86.3 88.2 86.4 87.8 93.4 92.2 92.6 93.1 95.2 96.2 97.9 96.3 94.5 94.5 93.4 90 89.6 85 81.4 82.2 84.4 77.7 79.7 81.3 77.8 77 77.3 78.8 77.6 78.3 78.5 76.7 75.9 80.6 80 84.3 85.4 85.3 86.2 87.3 89.9 91.1
161.9 150.7 146.3 143.9 141.3 135.4 129.6 124.3 123.7 122.7 123.3 122.8 120.2 118.2 118.8 119.1 119.9 119.4 121.5 121.6 122.3 123.7 122.6 121.8 124.6 127.3 129.8 130.9 135.3 137.8 139.3 142.5 144.3 148.5 148.7 148 145.9 148 153.7 156.8 161.4 162.4 167.6 173.8 176.5 180.2 184.8 196.3 203.1 199.5 195.9 188.1 183.5 176.4 171.4 168 167.5 163.4 160.9 152.7 150.5 147 143.6 139.8 137.9 135.1 132.7 133.1 136.3 141.4 142.6 149 152.5 156.1 158.3 160.4 162.5 166.7 171.9 172.2 174.3 176.1 177.3 178.8 179.6 179.5 180 181.2 180.3 179.4 177.5 178.1 178.6 179.3 179.3 179.1 179.2 179.4 179.5 177.9 176.4 175.5 174.7 173.8 172.9 171.8 169.3 167 164.8 162.6 160.3 156.9 154.2 151.1 146.4 141.2 137.5 131.1 126.5 125.3 125.4 129.1 130.2 131.5 133.2 134.7 135.8 137.5 138.8 139.7 139.7 140.3 142 140.9 138.5 138.6 136 133.8 128.2 121.2 115.5 109.8 104 99.8 95.4 84.8 95.6 95.3 96 89.5 90.7 90.4 90 92.6 89.4 91.1 92.4 92.9 91.9 92.9 91.1 95.4 100.1 98.3 98 97.8 99.1 101.5 101.5 97.4 96.4 98.6 95.1 91.7 87.4 84.5 84.7 84.5 82.1 80.1 80.8 82.2 80 79.7 78.6 81.1 80.5 80.9 82.1 77.8 81.1 81.4 82.1 83.9 85.5 86.6 87.4 89.8 90.7 93.3
154.5 148.9 141.4 136.3 132.6 127.6 125.8 126.1 124 122.5 121.6 123.5 119.5 117.8 120.9 121.7 122 122.5 123.4 123.6 127.5 127.6 127 126.7 124.5 127 130.6 136.8 140.2 142.4 145.6 148.4 151.3 150.6 152 152.7 153.1 156.9 160.2 164.3 170 175.2 182.6 187.6 190.5 193.5 199.8 209.6 212.6 209.2 206.2 199.9 193.8 187.6 185.8 183.3 179.9 174.6 168.5 163.3 158.7 152.2 147.8 145.9 142.6 139.1 137.7 139.2 143.6 146.8 150.7 156.9 160.8 161.3 163.2 166.6 168.2 173.9 176.7 179.3 182.6 181.7 183 182.2 183.6 184.6 186.1 186 183.2 182 181.8 180.7 180.2 181 180.8 180.6 180.6 180.7 179.2 177.5 176 175 174.1 173.3 171.9 170.3 168.5 166 163.5 160.9 158 155 151.6 147.8 146.2 139.9 128.3 126.4 126.4 131.9 134.9 133.9 132.8 135.3 138.7 140 141.5 141 140.1 140 140.2 141.6 142.1 138.4 137.1 137 132.6 129.4 125.3 114.8 108.3 103.3 96.5 93.7 87.9 93.3 96.2 96.6 96.8 90.6 92.3 92.3 92.3 93.2 91.3 92.5 94.3 97.1 96.8 95.4 95.7 101.6 102.6 102.9 102.3 102.1 103.4 103.6 102.7 99.2 97.8 99.2 94.6 90 87.6 86.3 84.9 83.2 81.5 80.9 82 81.1 80.2 79.1 81.7 85.4 82.3 81.3 80.7 79.7 81.3 82.5 82.5 84.8 86.2 88.1 92 94.5 93 94.1
145.8 142.9 133.7 128.5 127.3 126.9 127.4 128.2 128.5 125.5 124.8 123.8 121.6 121.2 122.7 124.8 125.3 126.3 125.4 126.3 129.5 131.7 133.1 133.5 132.4 131.6 138.6 142.6 146.9 146.9 151.7 152.4 155.8 156.7 156.9 157.2 159.4 163.2 166.7 176.2 182.5 193.2 196.7 199 203.8 204.2 210.4 217.9 218.5 218.1 214.3 210.5 206.2 202.2 200.6 195.9 190 186.1 179.1 173 167.7 159.8 155.8 152.7 145.9 142.6 144.9 145.9 149.3 151.5 157.6 163.9 169.6 169.7 170.2 172 175.6 180.5 183.5 187.2 187.9 188.2 189.2 189.4 190.9 190 189.7 188.6 186.7 187 187.2 185.9 184.4 182.8 182 182 181.9 180.4 178.9 177.4 176 174.7 173.9 172.9 170.2 167.8 166.2 164.5 162.7 160.2 156.4 152.6 149.9 145.3 140.6 134.4 131.4 137.5 135.2 134.2 134.7 136 138.1 139.3 141.6 143.8 145.3 145.9 141.9 140.3 139.8 139 138 135.3 134.5 131 126 119.9 116.4 106.6 101.5 98 92.4 89.8 94.5 96.3 96.6 96.9 98.6 92.3 93.8 94.7 93.5 93 93.5 95.5 97.7 99.2 99.2 99.9 102.4 107.9 107.9 106.7 109.2 108 107.5 104.8 105 101.3 98.3 96.4 95.2 91.6 86.3 84.7 83.7 82.3 83.3 83.8 83.5 82.2 81.2 79.9 80.8 85.9 86.8 83 83.2 84.8 85 83.2 83.8 83.9 85.4 88.9 96.6 97.4 95.1 96.3
136.9 132.7 130.2 128.8 128.9 128.5 128.7 129.4 130.1 128.9 128.1 126.2 122.9 122.4 126.4 127.6 128.3 130.6 131.3 129.6 131.4 134.1 138.7 133.9 138.9 140.2 145.1 150.4 151.2 154.1 155.3 158.1 160.5 161.7 162.8 164.9 166.8 170.9 181.6 191.5 199.6 203.6 206.1 210.9 215.7 212.9 219.6 225.9 229.5 229.7 223.8 220.5 218.3 217.5 209.9 206.2 202 195.4 187.1 182.7 174.2 167.4 160.5 153.1 151.2 153.1 154.8 156.7 155.6 157.4 165.9 171.5 175 176.3 177.1 180.2 183.6 185.7 189.6 191.9 192.9 195.4 195.9 196 195.1 193.8 192.2 191.5 191.5 193.8 193.6 191.1 188.8 184.5 183.4 183.2 181.9 180.5 178.7 177.3 175.9 174.5 173.6 171.4 168.7 166 164.3 162.7 161.7 159.9 155.9 149.7 146.4 146.9 142.9 135 131.6 134.8 139 137.8 136.5 139.3 143.8 143.1 145.9 149.1 149.1 147.6 143.4 141.7 141.1 137.2 132.9 132.6 130.5 127.1 121.5 110 103.3 96 89.6 88.4 87.7 91.5 93.7 96 97.1 97.5 96.2 94.5 96.1 98 95.8 96.4 99.7 98.4 101.7 101.7 102.5 103.8 107.8 112.1 111 111.3 112.8 113.2 113.2 107.5 106.4 104.7 100.5 101.1 98.5 94.8 86.7 89 90.1 84.9 85.4 86.4 85.7 85.8 82.8 81.4 80.7 84 87.4 85.5 86 89.4 86.9 84.3 84.8 83.9 85.2 88.8 93.1 96.5 97.6 99
133.6 131.6 130.3 129.9 130.5 130.4 134.7 134.1 133.8 131.2 132.9 133.8 124.9 124.2 128.4 128.7 129.8 129.9 132 133.4 134.3 139.3 143.2 143.9 144.5 145.5 147.6 155.6 158.8 159.8 161.9 162.3 164.9 166.8 171.1 173.2 178.7 187.5 199.2 204.5 208.3 214.2 215.9 219.9 221.6 222.1 230 241.2 242.6 239.2 233.4 233 231.5 226.3 218.4 216.1 210.7 201.8 194.6 186.1 180.2 174.5 168.3 165.3 159.9 162.1 163.1 163.4 164.9 166.6 172.4 178.8 181.2 181.9 183.8 186.9 190 191.3 195.7 196.7 197.9 200.2 200.3 200 199.6 198.6 198 198 198.5 200.6 197.7 195.4 191.5 186.4 184.9 183.2 182.2 180.9 178.6 177 175.6 174 172.6 169.8 167 164.8 162.6 161.6 160.9 159.4 155.5 150.5 146.6 143.1 140.9 136.1 133.1 135.1 136.3 137.2 138.7 146.6 147.4 146.4 150.1 153.3 150.7 147.9 146 145.2 141.5 137 129.4 125.1 121.9 118.1 109.9 101.1 96.1 91 90.6 92.7 92.6 93.9 94.7 99.2 99 100.8 99.5 100.4 98.4 100.3 99.5 99.2 100.7 104.6 105.3 105 107.2 109 111.9 114.9 114 113.9 114.6 114.9 116.1 109.8 106.8 105.2 102.9 103.7 100.8 95.9 93.9 97.1 96.3 89.7 88.8 87.5 87.3 86.6 85.6 85.2 82.1 83.4 84.4 85 85.9 86.6 87.2 85.7 84.7 85.1 85.1 87.4 91.8 95.2 97 99.9
133.3 131.3 134.8 136.2 134.1 135.6 137.5 135.5 134.7 133 131.5 128.8 126.2 127.1 129.8 131.1 131.5 132.9 136.6 137.1 139.6 142.4 144.6 146.2 147 154.2 154.1 158.9 163.8 164.8 165.3 167.9 169.8 171.4 177.6 184 194.1 206.2 208.1 215.7 218.5 220 224 226 229.3 233.8 246.9 255.1 254.1 246.5 243.8 243.9 242.2 235.2 231.6 225.6 215.5 207.8 199.4 191.6 186 180.4 173.7 171.4 167.6 166.2 169.7 171.3 171.6 176.1 179.6 185.5 188.4 189.6 190.8 193.9 196.7 197.8 200 201.4 203.1 204.3 205.2 205.6 206 205.1 204.3 204.9 205.8 204.3 200.2 196.4 192.3 187.6 185.1 183.3 182.3 181.2 178.9 175.2 173.9 173.2 171.1 168.3 165.7 164 162 161.1 160.1 159.1 157.4 149.4 145.9 142.3 139.4 137.4 134.7 135.9 139.2 140.2 145.3 149.1 150.2 149.9 154.1 154.3 151.5 148.6 145.9 145.3 135.8 134.6 127.1 119.3 115.7 106.1 98.3 94.1 91.5 91.2 90.7 92.1 94.1 97.8 95.8 98.4 100.3 103.2 102.2 103.2 101.1 103 105.8 101.9 105.8 109.7 109.9 110.2 112.5 113.8 115.5 118.2 117.4 116.4 116.6 117.7 117.3 112.6 107.5 105 102.9 102.6 100.7 97.3 94 96.5 95.9 94.9 91.5 90.7 89.5 89.5 87 86.2 85.7 86.4 88.2 86.9 87.6 87.5 87.5 86 84.7 88.1 92 93 94.1 98.7 100.1 101.4
132.6 138.7 137.9 140.9 140.4 140.3 139.9 138.8 137.8 135 130.8 130.1 129.1 129.5 136 134.2 136.1 138.3 141.7 139.8 143.8 146.1 146.8 147.4 149.6 153.9 158 162.6 168.6 168.9 170.5 172.2 173.6 179.5 189.7 198.8 210.1 215.7 218.5 224.1 225 229.7 232.2 236.5 237.7 246.5 257.3 260 259.5 255.3 256.6 256 248.4 246.3 240.4 232.3 220 213.5 203.5 195.7 190.9 186.4 180.1 178 176.1 172.7 176.6 179 181.5 183.9 187.1 191 194 194.6 197 199.5 201.4 204.4 206.1 207.8 210.9 210.7 210.6 211.3 212.4 212.2 211.8 212.9 211.6 208.1 202.7 198.7 193.1 189.1 185.7 183.4 182.4 181.4 178.5 173.5 172.3 171.7 171.2 168.6 165.3 163.2 160.8 158.6 157.6 156.8 155.7 150.5 144.9 141.5 136.8 135.5 139.3 139.4 141.9 144.5 149.9 151.5 152.1 152.1 155.3 155.1 153.3 150.5 146.3 143.2 133.4 128.3 124.1 119.3 111.3 104.8 98.3 95.1 91.5 90.7 91.2 93.9 95.6 96.9 97.3 100.4 101 101.5 102.5 103.3 103 107.7 109.7 105.4 112.4 115.8 115.9 115.5 116.4 117.8 122.4 122.7 122.3 121.4 118.3 119.1 117.5 114.3 109.4 107.9 105.2 102.4 99.1 96.6 95 95.3 95.3 96.5 94.5 93.4 92.6 91.8 90.5 89.6 87.4 87.5 87.6 88.5 89.3 90.2 90.3 91.7 90.8 99.2 101.6 102.9 101.5 101.6 103.8 105.9
139.5 145.4 143.8 146.6 147.3 144.1 141.6 139.8 137.8 136.4 133.2 132.2 131.1 131.1 134.6 134.4 137.1 143.9 146.8 150.2 150.4 150 149.7 150 154.4 159.5 160.4 165.9 170.5 173.4 174.5 175.9 180.3 192.6 202.2 212.7 219.6 222.1 231 231.7 233.8 238.7 242.1 242.9 246.3 254.4 263.5 267.1 265.1 264.9 265.7 263.8 257.7 254.2 246.9 235 225.8 217.7 210.2 203.3 196.8 190.5 184.3 183.8 181.5 182.6 185 188.1 190.5 193.1 195.7 194.8 197.3 200 202.2 206.1 209.1 210.8 213.3 213.8 216.2 217.5 217.9 218.7 219.9 220.5 219.1 217.6 213.7 209.7 204.2 198.9 193.7 190.8 187.6 183.5 182.7 180.6 176.1 171.9 170.7 170.2 169.7 168.1 166.4 164 158.9 157.3 155.1 153.6 153.7 151.7 144.8 140.3 137.7 140.8 146.9 145.5 147.9 150.5 151.8 153.1 153.8 154.8 155.6 155.6 151.5 148.1 145.6 143.5 133.8 132.8 120.6 116.8 113.8 105.1 94.8 92.8 92.5 92.6 95.2 95.5 97.6 99.8 103.9 105.9 104.3 107.6 105 104.7 105.7 112 111.4 111.4 116.9 119.3 118.5 120.6 122.7 125.7 129 126.2 125.2 122.6 120.5 120.7 119.1 115.8 113.1 112.9 109.2 105.1 101.8 100.2 96.6 95.6 96.2 96.8 97.6 96.2 95.2 94.9 94.1 92.9 91.7 89.2 88.6 88.5 91.4 93.5 94.7 94.3 94.9 100.5 104.9 108.3 111.8 110.1 109.2 110.3
150.1 150.3 149 148.9 148.4 146.4 144.8 142.4 141.4 137 136.5 135 132.8 135.6 140.2 136.9 138.6 143.2 149.2 152.5 155.6 152.9 151.3 153 156.7 160.7 166.2 167.3 172.3 176.5 178.3 182.6 192.2 201 211.5 220.7 222.1 224.9 235.6 239.1 243.7 247.3 250.2 248.3 258 266.3 272.6 273 272.3 276.9 275 270.6 266 261 250 239.9 229.8 222.3 216.8 208.9 201.7 196.3 193.4 187.8 190.5 189.6 193.7 197.3 199.3 201.7 202.4 203.8 203.3 205.2 209 213.8 215.9 217.4 219.4 220.3 221.5 224.3 225.2 226.3 226.6 225.8 224.3 221.9 217.5 211.1 206 200.5 195.8 193.3 190 184.8 183.6 180.6 176.2 172.1 170.5 168.9 168.1 166.2 164 162.3 157.8 154.3 152.9 151.8 152.4 150 144.7 139.9 139.6 141 145.9 146.3 151.5 152.1 153.6 155 156.9 156.4 155.3 155.1 151.4 146.9 144.4 141.6 132.3 130.4 115.9 113.7 109.5 101.5 92.6 93.3 93 93.3 96.4 99.2 99 105.1 105.5 108.6 107.8 112.6 109.7 110.3 111.2 116.1 114.7 119.6 123.5 123.2 123.4 127 129 129.2 129.3 128.2 127.3 127.2 125.4 121.5 120.6 117.8 115.3 113.7 109.8 106.3 103.5 102.9 101.9 97.4 97.8 99.4 100.7 100.9 97.9 97.4 95.8 93.5 90.2 93.3 92.2 89.5 93.9 96.1 94.6 95.1 96.6 99.8 105.4 111 113.5 113.7 113.4 112.8
154.8 156.7 156.7 154.9 152.4 150.2 148.7 150.9 143.3 145.1 143.7 139.4 133.9 140.5 145.7 145.3 142.8 148.8 153.9 157.2 157.8 156.7 153.6 155.2 161.6 168.2 172.7 175 181.3 180.9 183.2 192.1 203.6 213.6 220.9 229.3 230.9 234.2 242.5 246.4 249.6 254.2 255.4 254.8 264.5 272.7 277.5 279.4 278.8 281.7 279 273 269.4 263 252.3 243.5 234.5 227.9 221.7 213.6 207.6 203.4 197.2 198.8 197.8 197.4 199.8 203.3 206.3 209.2 210.4 210.2 209.8 210.8 217.1 220.1 222.2 224.6 225.6 225.8 227.3 230.6 232.6 232.8 231.9 231.2 229.8 225.8 220.2 213.9 208 203.3 199 196.6 192.1 186.1 183.7 180.2 177 173.8 171.7 169.5 167.9 164.7 161.8 159.5 154.3 151.6 151.2 150.2 151.2 151.3 141.6 141.6 145.7 149.2 150.9 150 153.3 154.1 155.3 157.8 157.7 157.4 154.4 153.1 151.7 146.3 142.7 137 127.9 125.2 112.2 113.2 103.7 96.7 94.1 94 93.8 94.9 98.4 100.8 104.1 106.1 107.4 112 108.7 112.6 112.3 113.8 116.7 120.6 120.1 125.9 127 128.2 130.4 133.1 133.8 134.5 134.7 132.2 130.6 127.5 123.4 122.4 121.8 119.9 117.1 115.4 112.5 108.7 105.9 106 107.1 101.8 103.8 104.7 105.1 102.1 100.8 100.9 98.3 95.3 94.1 96.7 96.5 95.2 101.8 103.3 105.6 108.9 108.1 110.8 112.6 114.9 115.8 118 118.7 116.4
162.5 165.7 161.8 159.6 158.1 155.9 152.6 149.1 147 152.1 147.4 144.2 131.6 141.8 150.2 153.8 153.4 155.6 159.3 161.4 159.4 158.8 156.6 160.2 168.9 175 180.3 182.1 184.1 186.4 189.6 201.3 215.5 223.6 230 235.8 237.3 245 250.6 250.3 255 259.4 260.2 260.8 268 277.7 282.1 283.9 283.1 281.7 279.8 276.2 272.9 265.4 257.3 248 239.3 234.9 227.4 218.2 211.9 208.4 204.8 205.9 205.4 205.8 207.3 209.7 212.3 214.2 214.8 215.8 216.4 218.3 222.4 225.1 227.6 230.1 229.6 231.4 235.6 238.4 242.3 241.4 238.3 235.9 234 228.5 222.5 216.4 210.9 206.9 203.9 200.4 192 187.2 182.5 181.2 177.8 175.7 173.5 172.6 169.7 165.7 161.7 157.5 153.8 151.5 149.2 149.5 150.4 142.7 142.6 146 147 150 154.2 153.9 155.1 156 156.8 158.7 158 156.7 153.6 152.4 151.4 146.4 140.9 133 126.1 116.6 109.6 104.8 99.2 96.5 93.7 94.9 94.6 96.6 101.4 104.9 107.6 109.9 111.4 112.9 114 116.4 115.4 118.5 123.3 126.7 127 128.9 131 133.5 136.9 139.2 138.9 141.3 141.1 138.1 134 128 124.8 125.8 124.1 120.9 119.2 118.7 118.3 115.1 114.4 111.2 114.4 110.5 105.1 109.8 106.5 103.5 102.8 102.5 101.2 97.2 97.6 99.2 102.6 107.7 117.4 119.4 119.6 117.5 115.9 115.7 116.7 117.4 119 121.5 122.6 118.8
171.9 173.4 167.2 165.9 160.7 158.4 156.2 150.1 151.7 153.9 149.5 145.3 134.7 148 154.7 158.2 159.9 161.4 162 162.3 161.9 160.5 158.8 166.1 174 179.3 183.8 190 189.7 192 199.7 209.6 223.1 231.6 241.8 241.8 244.3 250.3 254.9 256.9 259.9 262.8 263 265.3 276.1 284.7 284.4 287 285 282.2 280.1 277.3 275.1 270.1 260.6 251 241.8 238.9 229.9 222.4 216.4 212.8 210.1 211.8 211.1 213.3 214.2 216 217.8 219.5 220.3 220.7 223.3 226.4 229.4 231.7 233.9 235.8 235.9 239.9 244.2 246.9 250.5 246.3 242.6 239.4 236.5 230 224.5 219.5 214.1 210.9 206.7 201.1 192.7 186 184.1 182.5 178.2 176.8 175.8 176.2 170.8 169.6 164 159.5 154.8 152.3 149.8 150.4 144.7 144.1 145.2 147.2 150.3 152.2 154.3 157.9 157.4 158.6 159.7 159.3 157.6 155.2 153.2 152.3 150.6 145.6 138.8 128.7 122 113.3 106.3 101.9 98 96.1 95.3 94.5 96.5 99 105.4 108.4 109.6 113 114.5 117.2 118.2 116.3 119.6 120.7 124.6 131.5 131.1 134 136.3 138.9 142.8 143.5 144.2 146.3 143 142.9 138.3 131.7 127.6 127.7 126.6 125.1 123.5 123.4 123.5 118.1 116.9 116.3 119.3 114.1 107.8 111.3 107.2 105.1 104 102.7 101.3 99.8 106 109.2 114.4 131.4 132.6 127.9 126.2 125.3 124.8 122.3 121.6 121.3 122 122.6 121.9 121.7
179.1 177.2 171 167 163.4 160.4 153.7 150.6 154 154.2 151.8 147.5 139.1 148.3 157.3 161 160.8 161.8 163.4 163.9 161.6 161.6 168.9 173.9 177.1 183.3 186.8 191.7 197.2 199.9 209.2 221.5 230 239.4 246.3 246.6 252.5 258.6 261.7 266.2 267.3 265.9 266.2 271.1 284.3 286.3 285.1 285.6 285.7 282.9 280.5 278.9 277.3 271.2 263 253.5 243.5 240.5 233.7 228.8 222.9 217.5 214.8 218.1 218.9 221 220.8 221 222.7 225.4 226.6 228 230.9 236.3 236.4 238.8 240.9 242.5 243.9 247.8 251.4 255.6 254.3 251.2 247.2 243.7 238.2 232.3 227.4 222.3 218.2 214.4 208.1 200.3 192.1 188.9 187.1 183.4 179.6 178.6 179 177.1 171.8 171.3 166.7 159.7 156.4 152.8 152 152.7 147.8 143.9 147.4 149.6 152.2 154.5 157.8 158.9 159.6 160.9 160 159.4 156.8 154.8 152.9 152.3 148.7 144 137.2 126.1 120 109.8 104.7 99.3 97.8 97 95.6 95.4 99.1 105.4 111.3 111.6 112.3 115.6 118 120.8 122 124.7 128.1 121.6 126.2 132.3 136.8 138.7 141.8 144.6 149 147.4 147.6 147.9 145.2 143.1 141.2 136.4 130.7 130.6 130.7 131.5 129.4 128.8 125.2 122.2 119.7 119.9 121.7 118.4 111.2 109.8 110.5 106.7 106.3 105.7 106.2 110.5 117 119.1 128 133.8 135.5 133 130.1 128.5 126.2 125.3 123.8 123.8 123.2 123.4 124.4 123.7
182 177 173.7 169.9 164.9 164 157 152.4 158.1 157.8 153.1 150 144.1 150.8 157.9 161.1 162.4 163.7 166.5 164.4 163.5 170.3 173.2 177.6 182.9 187.5 191.3 197.3 202 205.3 217.4 228.7 237.9 243.9 247.7 253.3 258.2 264 266.3 270.5 270.1 268.7 273.5 276.9 282.7 282.9 281.4 284.7 284.1 282.9 280.3 280.5 279 271.3 264.5 254.5 245.6 241.6 236.1 232.4 227.4 222.5 222.6 224.1 227.1 226.8 226.4 229.2 231.4 233.8 236.3 238.2 241 242.8 243.9 245.8 247.8 249.4 252.3 256.3 259.1 258.8 257.3 253.9 251 246.5 239.6 234.9 230.2 224.4 220.1 216.5 207.9 200.1 192.6 191.4 188.8 183.1 180.5 180.5 180.4 178.2 172.4 172.7 166.5 160.9 158.3 154.3 154.4 153.5 148.6 148.2 151.9 153.8 154.4 157.3 160.9 160.9 161.2 162.6 160 159.2 157.6 155.7 152.6 151.4 147.5 143.7 133.9 123.8 115.3 108.6 100.7 98.6 98.8 98.1 96.5 97.3 101.9 110.3 112.4 113.4 115.6 117.4 121.5 124.2 125.1 128 129.8 131.5 131.8 138.2 142.9 143.5 147.1 150.2 151.3 149.9 149.4 148 145 142.7 140.4 137.6 134.2 135.3 136.3 135.7 135.4 128.5 126.7 124.9 124.8 121.7 121.7 119.3 113.9 110.3 113.5 111.4 112.6 114.1 116.1 116.8 122.8 129 136.9 139.8 141.2 136.8 132.5 130.3 129.6 128.8 126.4 125.8 125.1 125.3 126.7 125.1
183.2 178.3 175.6 171.9 166.6 162.2 162.8 156.5 165.2 159.4 154.9 153.1 148.5 152.9 159 164.2 164.9 166.4 169.8 165.6 166.8 173.1 178.3 181.8 185.5 191.7 196.8 200.3 204.4 213.6 223.5 234.6 244.3 247.1 251.7 260.3 264.4 266.6 267.4 272.8 271.1 270.9 274.8 276.3 278.9 280.8 276.2 280 279.9 279.5 277.5 277.1 274.8 271.2 264.8 255.5 248 243 238.5 235.1 231.5 228.7 231.3 231.6 232.6 233.9 233.9 237.2 239.2 240.8 243.2 245.7 248.2 250.2 252 253.8 254.8 257.9 261.8 264.5 264.3 263.6 261.5 257.9 253.8 248.7 242.2 237.8 232.3 225.5 222 217.4 208.2 199.3 193.5 192.3 188.6 184.8 182.9 182 181.3 178.6 172.3 171.9 168.1 162.7 158.7 155.9 154.4 151.8 149.2 151.2 155.7 157 156.7 161.7 164.3 163 162.9 162.6 160.6 159.2 159 155.9 152.4 149.8 146.9 142 131.7 120.5 112.4 103.9 98.6 99.4 98.3 97.9 96.7 101.2 110.1 110.2 112.8 117.2 118.2 119.3 122.7 127.5 128 132.3 136.3 137.1 141.7 145.4 145.9 151.8 154.8 152.7 154.6 153.1 151.6 148.9 146.6 145.5 142.7 140.9 140.1 141.9 139.5 138.2 136.8 130.8 126.9 125.5 123.6 122.7 121.2 120.8 114.7 114.9 118.1 118.9 119.4 120.1 124 124.1 129.9 142.8 146.5 147 142.3 137.4 134.8 133.8 132.4 132.4 130.7 129.1 129.8 130.1 127.8 127.2
184.7 179.6 176.9 173 171.2 168.6 165.5 162 167.4 162.8 157.1 156.4 150.9 154.9 161.2 164.9 166.5 169.9 170.3 169.6 170.4 178.8 182.3 184.5 189.4 194.8 199.7 203.2 208.4 217.3 228.7 238.6 246.6 249.6 254.4 260.7 265.6 267.2 267.4 268 268.9 270.5 273 272.9 271.8 272.7 271.6 272.8 273.8 275.4 274.4 273.6 273 271.2 263.9 255.4 250.3 245.5 241.9 238.2 233.2 234.1 235.8 238.1 240 241.3 240.9 243.4 245 247 249.9 251.6 253.8 255.1 257.6 259.5 262.1 266.1 268.6 269 268.4 267.3 264.2 260.7 256.5 249.9 244.4 240.2 233.8 227.5 221.9 216.5 207.5 197.7 194.3 192.9 189 186.8 186 183 180.1 176.2 172.1 166.8 165.2 161 159.8 161 154.9 150.5 152.8 154.4 159.4 160.7 162.7 166.6 166.5 166.5 165.4 165.3 163.6 162.5 160.1 156.8 151.4 147.9 144.4 136.7 129.3 118.8 111.3 100.3 99.8 98.9 98.3 98.2 95.3 104.8 108 109.8 113.3 118.5 120.6 122.9 126.7 128.1 132.6 137.8 141.5 142.3 147 152.4 152.9 157.2 159.3 157.1 159.9 158.5 155.2 153.4 151.2 148.6 148 147.2 146.3 147.6 142.8 139 136.9 133.2 127.6 125 124 123.9 121.7 116.3 117.7 121.4 120.3 123.8 126.4 129.6 132.7 131 129.5 143.6 147.9 146.8 144.3 138.5 137.7 141.9 135.9 135.8 134.2 135.3 134 132.2 130.1 131.4
184.9 181.5 178.5 175.2 174.1 171.9 168.4 163.7 170.3 165.2 163.3 159.8 153 160 163.3 166 168.6 171 174.6 173 176.9 181.7 186 188.4 193.5 199.3 202.3 206.9 210.6 219.3 230.3 239.4 246.2 249.3 257 264.8 267.2 267.3 266.7 264.7 263.3 263.4 265.5 265.5 264.1 265 266.7 268.4 269.9 270.5 271.2 270.3 269.3 268.3 261.8 257.1 254.5 247.3 243 240.6 235.2 238.8 240.6 242.2 244 243.5 246.8 248.8 250.8 253.3 256.1 257.8 259.2 261.4 262.7 264.5 269 271.5 272.7 272.1 270.8 269.4 266.5 263 256.7 252.3 247.2 241.7 234.2 227.5 219.7 214.8 205.5 199.6 195.4 193.6 190 188.9 187.2 185.2 180.3 175.5 171.7 165.8 163.2 161.9 158.3 154.6 153.5 154.1 156.6 158.6 162 165.1 166.3 170.9 170.2 170.1 168.6 167.4 166.5 165 162.2 156.1 152.1 148.2 140.9 132.8 122.2 118.3 105.6 100.8 100.7 98.4 98.2 97.5 106 104.2 107.9 110.9 114.4 120.1 123 126.8 127.7 129.1 137.1 141.3 145 148.3 155.2 157.7 159.3 162.1 162.6 162.5 163.6 160.5 160.2 160.1 157.4 153.7 152 151.3 150.6 150.7 143.8 139.5 136.9 135.2 131.7 125.4 124.1 124.8 123.2 117.6 127.1 127.7 128.6 129.6 131.8 136.3 137.5 137.7 138.1 139.6 144 144.3 143.7 142.8 148.5 143.5 140.4 139.1 139.6 136.9 134.6 132.7 133.5 137.7
