ncols 200
nrows 82
xllcorner 270000
yllcorner 580750
cellsize 50
213.8 219.5 217.5 221.8 217.8 215.5 217.2 218.2 222.7 226.6 227.7 230.8 229.2 229.5 230.7 232.1 234.8 236.5 237.3 238.9 241.1 245.8 252.6 258.6 266.1 274 281.1 288.2 294.4 300.6 309.5 323.2 333.1 340.7 348.6 360.5 372 375.4 381 379.8 380.6 382.7 382.3 373.4 368.7 368.8 359.2 353.6 337.3 326.4 316.7 307 296.5 293.6 288.2 278.5 270.4 260.7 259 256.7 254.5 252.5 248.1 253.5 256.2 256.8 256.7 252.1 248.7 248.8 249.2 246.5 244.1 241.8 240.9 239.6 236.6 232 225.2 223.2 221.9 220.9 219.8 218.7 216.8 215.5 215.3 215.9 215.1 218.4 223.8 224 220.9 217.6 215.1 211.6 210.7 211.9 212.1 212.8 212.2 211.7 210.8 210.6 209.7 208.1 207.3 205.5 203.8 202.3 198.4 194.4 191.3 190.3 190.3 190.3 190.3 190.3 190.3 190.3 190.3 190.3 190.3 193.6 190.3 190.6 190.3 191.3 190.3 193.9 195.9 192.9 191.6 194.2 194.4 196.4 198.6 202.4 203.1 209.9 208.8 207.7 208.3 207.4 205.7 205.9 204.9 205.5 205.8 206.9 210.8 215 218.2 219 219.8 224 228.1 228.2 229.7 234.1 235.5 238.7 242.5 248.2 250.7 257.5 259.4 261.5 262.7 261.6 256.3 257.6 258.9 258.8 260.1 268.2 267.1 272.3 269.3 270.5 272.4 278.9 283.9 287.9 289.7 291.9 292.7 295.8 292.6 292.3 288 281.1 275.8 270 264.9 258.2 252.2 247.9 243.5 242.4
218.4 214.8 219.4 219.5 220.5 217.3 221.6 218.8 224.2 230.1 229.8 231.6 231.5 230.8 231.6 232.9 235.9 237.3 238.3 241.2 248 252.6 259.5 263.5 268.8 275.8 283.4 290.3 295.4 302.4 311.4 323.4 337.4 344.3 356.1 361.4 367.7 375.6 383.1 384.2 388.9 393.7 384 379.4 378.5 376.2 370.1 358.2 342.2 327.7 317.9 309.9 300 289.2 283.2 279.1 272 266.3 261.9 257.1 253.4 250.4 245.5 249.6 249.9 253.6 255.8 254.6 250.3 248.3 247.8 249.4 246.3 241.2 236.7 234 229.6 227.9 231.9 228.1 226.1 227.5 226.4 223 219.4 217 214.8 212.2 213.7 215.7 220.4 222.4 219.4 215.6 213 211 210.8 211.4 212 212.6 212.4 212 210.8 210.3 209.3 208 206.9 205.2 203.8 201.1 196.6 192.9 190.3 190.3 190.3 190.3 190.3 190.3 190.3 190.3 190.3 190.3 190.3 190.3 190.3 190.3 190.3 190.3 190.3 193.6 198.9 201.7 196.4 191.3 192.9 195.9 195.3 197.5 197.8 200.3 204.4 204.1 206.6 205 203.6 204.1 203.1 203.2 202.8 204.2 209.2 213.8 212.6 214.4 215.6 217.1 220.6 217.9 220.8 223.1 228.2 231.2 234.1 236.4 245 252.4 251 251.6 255.3 253.5 249.4 247.5 249.2 249.4 253.7 258.9 260.7 263.1 263.3 263.5 263.3 266 271.1 276.3 279.6 280.6 279.9 278.1 277.1 276.1 272.3 271 269.1 262.7 257.1 252.5 248.1 243 239.9 237.3
218.1 215.7 217.6 220.3 225.8 222 219.5 221.2 220.8 225 228.3 229.5 231.3 232.1 232.8 234.8 236.4 238.8 239.9 243.1 248.8 255.3 262 267.8 271.9 277.5 286.6 295.7 299.2 306.9 313.4 326.8 340.6 352.5 357.2 359.6 368.5 374.6 381.4 390.6 392.4 391.8 384.5 390.8 393.6 387.1 373.5 361.7 345.2 330.1 318 311.2 301.1 292.7 279.8 270.3 264.9 263.2 260.3 256.2 253.4 250.1 245.9 244.3 244.5 247.1 247.6 250.8 249.8 247.5 245.3 243.5 241 237.6 234.4 230.4 233.8 235.5 233.8 230.2 229.6 230.7 228.9 224.5 221 220.1 217.9 211.9 211.2 213.4 216 216.2 215.6 212 210.2 208.5 210.3 211.3 211.8 212.3 212.8 211.8 211.2 210.5 209.5 208 205.8 203.8 202.6 200.3 195.5 190.6 190.3 190.3 190.3 190.3 190.3 190.3 190.3 190.3 190.3 190.3 190.3 190.3 190.3 190.3 190.3 190.3 190.3 192.6 198.7 197.1 196.1 193.4 191.3 194.1 193.9 194.4 195.8 196.2 196.2 199.9 203.9 198.8 202 205.1 203.1 201.4 201 201.6 203.1 205.4 209.1 210.1 211.8 212.4 212.5 213.9 213.5 215.9 218.8 220.8 225.9 232.1 233.8 237.2 242.1 242.8 243.5 240.5 245.8 238.5 239.3 241.4 244.8 246.2 251.4 252.5 253.4 256 254.5 253.9 262.5 267 269.1 270.4 267 267 266.9 262.9 261.6 259.2 255.6 252.1 247.2 243 238 236.1 233.9 231.6
217.4 218 217.9 220.3 224.3 222.4 220.6 225.6 225.4 229 230.6 227.4 230.6 232.6 234.1 236 238.7 241.3 244.8 246.5 247.4 253.3 259.5 265.1 272 277.6 290.8 298.9 303.8 308.3 315.5 329.9 341.4 346 352.8 358.3 362.6 373.2 382.1 389.2 395.1 387.8 393.5 398.5 399.6 389.1 380.7 363.5 348.3 333.6 317.5 305.8 300.6 291.7 280.7 269.1 261.3 257.7 255.1 252.1 249.8 248 244.9 244.3 243.2 242.8 242.5 242.7 241.3 241.5 242.2 240.4 238.3 235.1 232.1 235 237 237.9 236.1 233.3 234.4 233 229.5 224.8 222.1 222.4 221.1 216.4 210.6 212.2 212.9 209.9 208.5 209.8 209.7 207.8 209.8 211.8 212.6 213 213.1 213.2 211.1 210.5 210 208.6 206.5 203.1 201.6 197.9 194.6 193.7 194.8 194.6 190.3 190.3 190.3 190.3 190.3 190.3 190.3 190.3 190.3 190.3 190.3 190.3 190.3 190.3 192.8 193.8 195 197 196.5 198.9 191.4 192.8 191.8 193.6 193.6 193.8 193.7 195.7 196.2 196.5 198.7 199.1 198.7 201.4 201.1 202.6 202.1 202.7 204.4 206.4 208 210.7 210.8 214.1 212.4 215 215.9 217.7 221.8 227.1 230.9 229.9 236.6 237.9 236.3 231.2 229.8 231.4 230.9 235.3 236.4 234.8 238.6 243.3 245.1 246.1 248.8 254.9 255.9 260.6 261.9 262.9 262.6 257.3 254.7 253.7 254.6 250.7 243.7 238 238.9 232.6 230.3 228.2 227.9 226.8
218.1 218.1 220 219.9 221.5 221.3 221.8 225.4 228 229.4 231.5 232.9 232.3 233.1 233.3 235.7 238.2 241.9 246.2 251.5 253.6 255 255.1 260 268.6 277.2 287.5 296.8 304.7 308.4 315.5 326.4 333.9 338.5 345.3 350.6 356.6 366.6 373.2 383.3 384.8 389.9 401 399.2 398.5 396.2 387.8 367.2 358.2 345 325.5 311.3 299.6 289.7 276.2 269.4 267.4 263.9 257.7 251.8 248.8 246.6 245.6 245.2 244.2 245.4 248.3 249.3 248.5 244.2 237.8 237 236.5 234.6 234.6 236.8 238.3 238.9 237.7 235.2 231 229 229.7 226.7 223.6 222 220.4 216.8 214.7 211 216.5 214.3 208.4 208.3 208.6 207 209.8 211.1 212.4 213.4 213.6 212.3 211.5 210.6 209.8 207.6 205.5 202.9 200.1 197.9 195.8 195.3 196.2 196 194.8 191.8 190.3 190.3 190.3 190.3 190.3 190.3 190.3 190.3 190.3 190.3 190.3 190.3 190.6 195 195.6 198.2 197.6 197.7 193.8 196.2 195.1 193.1 194.1 193.6 193.7 194.7 195.4 195.4 195.9 197.5 201.1 201.4 203.2 201.4 201.7 202.3 202.6 204.1 206.6 207.5 210.7 212.4 216.5 218.8 218.6 221.3 221.9 227.1 228.5 228 228.5 228.7 226.6 223.3 219 221.6 223.4 225 231 227.7 229.9 235.2 235.2 236.8 241.5 248.1 245.2 249.4 251 254.4 252.9 248.8 246.3 242.6 244.1 240.6 235.7 231.2 227.7 225.9 225 223 224.4 224.3
219 220.2 220.2 220.7 221.1 221.7 222.1 225.4 228.4 229.8 232.5 233.8 234.8 234.6 236.2 236.9 238.8 241.3 244.4 252 254.8 255.9 257.4 257.8 263.5 274.8 286.2 293.2 299.4 304.2 310.7 320.3 329.5 335 337.4 340.7 348 356.5 365.4 371.7 382.2 395.8 403.3 401.6 404.6 401.7 385 377.2 369.4 355.2 332.9 317.7 305.2 293.4 281.2 269.4 265.7 261.9 258.2 255.3 250.5 247.2 246.3 245.2 244.4 249.6 255 255.5 253 249.7 241.5 236.2 235.2 234.1 235.3 237.5 239 239.3 238.4 236.6 233.2 228.1 228.5 228.5 225.5 223.3 221.1 218.9 216.5 209 213.7 213.9 209.2 205.7 205.2 205.4 208.3 209.6 211.4 212.9 213.8 213.3 211.4 209.9 207.7 206.9 205 202.5 200.8 200 197.4 195 195.5 195.4 195 191.8 190.3 190.3 190.3 190.3 190.3 190.3 190.3 190.3 190.3 190.3 190.3 190.3 193.2 195.2 198.7 198.4 198.6 197 195.7 199.3 196.4 193.7 195 193.9 193.8 194.5 194.3 196.4 197.9 199.9 200.7 201.9 202.2 203.7 203.4 203.5 205.3 205.7 207.8 210.2 211.4 213.4 219.9 223.4 226.3 226 226.6 228.5 230.2 228.9 226.6 223.4 220.9 218.1 213.6 215.4 216.3 218 221.9 222.3 223.1 224.3 225.7 229.1 231.7 234.4 239.1 244.3 246.3 246.4 242.3 241.2 238.3 236 231.2 232.6 228.4 225.2 218.6 219.2 216.9 217.7 216.9 217.9
221.4 223.1 224 225.5 223 224.1 222.2 226.6 228.4 229.7 232.7 235 234.4 235.6 237.8 236.8 238.4 241 242.4 248.6 252.5 255.2 258.3 260.4 261.8 268.7 280.4 288.7 292.8 297.5 304.7 315.4 322 328.1 330.7 337.1 343 349.2 358.8 365.9 380.7 398 401.9 410.7 412.4 402.3 392.1 386.5 375.6 353 337.5 328.6 313.3 300.7 288.1 275.9 266.9 263.4 260.7 257.7 253.5 250 248.2 246.8 246 250.7 256 262.7 262.1 254.3 244.6 239.3 239.2 238.3 237.4 240.9 243.5 243.2 240.8 236.5 231.5 227.2 225.6 226.7 226.3 224.2 222.1 219.4 216.8 211.2 206.8 205.4 204 203.9 203.4 204 206.4 208.9 210.8 213.2 214.2 214 212.2 209.4 206.7 204.6 204.2 201.4 200.4 200.4 196.9 194.3 194.9 195.3 194.6 192.4 190.3 190.3 190.3 190.3 190.3 190.3 190.3 190.3 190.3 190.3 190.3 190.3 195 197.2 199.6 199.5 198.7 197.2 198.5 201.2 196.7 195 195.5 203.8 197.8 196.3 194.4 197.5 196.8 198.6 201.6 203.3 204.3 206.6 208.2 209.6 208.8 209.5 209.6 210.9 212.4 219.1 222.3 225.3 230.1 232.2 235.2 232.4 236.7 239.1 231 228.6 227.1 223 213.6 212.1 212.2 217 212.9 215 217.1 216.9 218.2 220.7 225.1 230.2 228.9 235.7 236.4 235.3 233.3 233.2 232 225.8 222.8 221 218.3 218.3 214 213.4 210.1 207.6 211.5 210
222.4 225.6 226.9 227.5 224.1 225.9 224.8 226.8 227.1 230.7 233.1 235.4 235.8 237.7 237.1 240.1 242.4 245.1 245.9 243.7 246 249.5 256.1 259.5 262.2 266.8 272.3 280.6 286.4 290.5 298.3 307.8 315.1 323.5 326.9 331.8 340 347.5 356.6 368.7 379.4 390.4 405.4 415.5 411.7 402.5 398.3 384.9 374.7 354 345.7 334.3 320.3 307 293 281.2 273.3 266.7 261.5 260.2 256.1 252.3 250.3 249.5 247.7 250.9 256.4 261.3 262.5 257.2 248.8 244 240.7 239.8 240.7 240.9 245.1 246.9 242.2 235.9 230.3 226.4 224.5 222.7 222.9 222.7 221 218.7 215.9 210.3 212.6 213.5 209.8 203.1 202.5 202.1 203.4 206.1 209 211.8 213 212.6 211.7 209.7 205.6 204 202.8 201.2 197.5 199.6 195.9 193.6 194.3 194.6 193.4 190.3 190.3 190.3 190.3 190.3 190.3 190.3 190.3 190.3 190.3 190.3 190.3 194.8 196.6 202.4 201.6 203 200.2 200 200.6 200.9 198.5 201.3 203.5 207.2 206.5 201.2 197.2 199 201 201.1 203.5 204.7 208.7 211.7 213.1 209.7 214.3 211.2 210.9 211.7 213.2 219.5 226.3 230.6 234.9 238.3 238.5 240.2 240 239.6 233 232.9 230 224.6 212.6 212.1 210.9 211.4 212.4 209.7 209.9 212.3 213.2 217.1 220.1 227.2 224.7 226.9 227.2 224.9 226.5 227.8 218.8 217.7 213.1 213.7 211.8 211.7 208.7 205.7 204.4 200.2 200.1 200.8
222.9 227.9 229 228.2 225 226.1 228.6 228.6 228.4 230.3 233.2 234.7 236.3 238.6 240.1 242.5 243.5 247.9 249.8 248.3 246.6 244.7 249.6 253.7 259.9 264 266.5 275.7 280.4 285.6 294.9 302 310.4 318.1 323 329.7 340.6 350.7 357.7 366.9 375.9 386.5 402.8 411.9 411.4 404.2 396.5 383.1 364.8 352.9 341.2 333.7 330.8 311.5 298.1 285.5 278.3 272.9 267.8 264.2 259.1 256.2 253.8 251.6 249.3 254.4 257.8 259.9 259.7 257 250.6 243.7 239.9 236.6 236.6 236.5 238.4 241.3 238.6 234 229 225.4 223.3 221.7 219.2 218.3 218.8 219.3 216 210.5 207.9 207.7 205.1 202.2 201.9 201.6 202.7 203.5 204.6 207.6 209.2 209.2 209.1 208.8 204.3 203.1 202.4 200.6 195 193 193.1 192.4 192.9 190.3 190.3 190.3 190.3 190.3 190.3 190.3 190.3 190.3 190.3 190.3 190.3 190.3 194 196.8 197.6 202.9 202.7 203.2 203.5 202.2 202.5 203.3 205.2 205.4 208.5 209.1 210.6 208.1 200 202.3 202.8 203.6 205.6 208.2 214.5 211.9 212.9 211.1 211.6 212.1 212.4 217.1 219.8 222.8 230.3 234.1 240.1 243 243.6 245.7 241.2 238.6 232.7 229.2 225.2 219.2 212.3 215 212.5 209.1 210.7 208.6 206.9 209.2 209.7 213.4 213.1 216.9 220.4 218.6 220.9 219.4 216.4 214.9 209.4 207.6 208.1 205.4 204.8 203 198.8 197.4 196.7 193.8 191.4 191.2
228.1 229.2 229.4 228.7 225.6 225.9 229.6 230 231.2 230.2 231.5 234.1 234.8 236.8 238.9 243.8 245.1 248.3 251.8 250.7 253.4 252.6 247 249.9 252.7 260.3 267.3 271.7 276.9 283.3 291.7 297.8 301.2 313.1 324.1 335 345.4 355.1 362.6 366.4 371.2 383.3 394.9 408.6 404.9 404.3 395.5 376.1 359 347.5 341 333.3 326.3 311.7 298.8 289.3 284.6 279.6 273.5 267.9 264.3 262.3 259.5 254 250 253.2 256.3 260.9 261.9 258.8 250 242.5 236.6 235.1 234.2 232.2 230.3 228.8 229.2 227.6 225.9 223.3 221.2 219.3 214.8 218.1 218.7 216.1 213.4 210.1 207 203.6 202.3 201.1 200.8 200.7 202.3 200.8 201.3 202.7 204.4 205.2 205.1 206 202.5 202.6 205.5 204 196.6 191.5 191.8 191.1 190.3 190.3 190.3 190.3 190.3 190.7 194 190.3 190.3 190.3 190.3 190.3 190.3 190.7 198.1 200.4 200 202.3 204.2 203.9 203.7 203.7 205.5 206.8 209.8 210 209.8 212.8 213.9 212.3 204.7 206 209.7 209.8 208.2 210.7 213.2 214.4 215.8 214 215.1 216.8 217.9 218.8 222.6 229.2 233.8 238.1 241.2 245.9 249.5 248.7 244.3 241.9 231.8 230.1 222 215.3 213.4 222.4 215.3 208 207.1 207 206.2 205.4 206.9 207.8 209 211.6 210.2 210.5 211.8 207.1 205.8 201.7 201.7 200.8 201.1 198.6 194.4 194.7 192 192.9 188.9 185.4 184.8 181.6
230.3 230.8 231.5 229.1 225.7 227.2 231 233.4 234.2 234.8 235.4 235.8 236.3 238.9 238.2 241 244.2 248.7 251.9 252.6 253.3 254.8 254.9 254 250.8 258.9 265.8 273.2 275.5 280.7 287.1 293.1 303.5 312.9 322 338.1 349.5 360.7 364.4 366.3 372.2 384.6 389.5 401.6 403.6 398.9 386.9 372.6 358.5 347.5 337.8 328.3 317.3 307.2 296.3 294 290.6 285.3 278.2 270.1 267.3 264.3 262.7 259.9 254.7 252.8 254.8 260.6 262.8 260.8 253.4 243.5 236.6 234.5 232.5 231 228.8 233 234.8 230.5 221.1 219.2 218.5 215.4 211.9 212.8 213.9 212.2 208.9 204.8 201.7 201.8 201.2 201 200.5 200.2 201.1 201.5 199.4 199.5 201.9 202.4 201.1 203 202.2 198.4 199.9 199.6 194.6 192.1 190.4 190.7 190.3 190.3 190.3 190.3 191.1 196.1 197.2 192.1 190.3 190.3 190.3 190.3 190.3 192 197.7 202.2 205 202.2 204.8 207.8 205.6 206.2 211.7 214.8 215.5 214.7 212.1 214.4 216.1 216.8 209.1 208.5 209.5 213.1 213.4 215.8 216.1 218.9 223.8 222.8 219 218.9 220.8 223.5 227.7 232.4 235.7 239.3 242.6 247 249.4 245.6 240.4 235.9 231.7 226.6 219.3 216.4 220.6 219.9 216.9 211.7 207.6 206.5 207 202.5 201.1 199.9 199.8 202.2 201.1 201.4 202.4 199 196.6 194.2 192.3 190.6 188.2 186.9 183 180.9 184 181.2 179.8 177.5 172.9 173.5
231.2 231.3 231.7 230.4 226.1 228.6 231.5 232.4 235.8 240.4 241.6 243.3 244.3 242.9 241.5 242.2 244.1 247.5 251.9 253.6 254.9 255.9 256.7 257.6 251.8 257.5 263.5 269.5 276 277.1 283.7 294.2 300.6 310.6 327 340.3 351.3 357.5 364.3 365.3 370.3 380.2 389.3 387.7 390.4 385.6 378.2 369.8 364.3 347.8 335.3 326.7 316.6 304.1 297.1 293.3 289.2 284.3 277.9 272.8 269.6 269.8 266.7 265.4 260.2 255 254 256.4 261.6 261.1 256.7 249.1 239.5 234.5 231.9 230.3 230.5 233.4 236.1 232.8 224.6 218.2 214.6 213 211.3 209.1 209.5 206.5 204.1 202.4 202.1 201.1 200.6 200.5 199.7 199.2 199 200.3 198.5 199.3 200.8 199.6 198.4 195.7 194 194.2 194.2 192.7 191.4 191.2 190.7 192.3 193.5 192.2 190.3 190.3 194.2 195.9 197 190.3 190.3 190.3 190.3 190.3 192.3 196.4 198.5 201 202.5 205.4 210.9 212.7 212.4 212.9 216.3 217.3 219.4 220.2 218.3 217.7 219.3 220.8 218.2 211.6 213.5 214.9 215.6 216.6 221.8 224 228.7 225.7 224.6 227.6 226.7 226 228 232.5 235.6 241.2 244.2 249.8 248.9 246 241.4 235.8 229.9 225 219.2 222.5 223 215 213.7 212.6 208.8 205.3 205.8 202.5 198.7 196.2 194.7 195.3 195.3 194.4 192.7 190 186.5 184.7 183.1 180.6 178 176.9 174.8 173.5 170.8 172.3 169.3 168.2 168.3 164.3
231.9 232.4 232.3 230.7 228.6 227.2 229.5 231.3 234.3 237.8 242.3 246.2 246.7 246.1 242.6 242.8 243.5 246.3 251.3 256.9 258.8 257.2 256.7 255.1 252.3 253.9 260 265.4 270.8 273.7 282.7 291.4 302.6 317.7 328 337.6 347.7 352.9 362.9 365.7 370.6 380.8 388.3 379.4 375.4 374.7 372.4 365.2 358.6 348.9 335.5 325.5 315.2 305.7 299.8 294.7 287.9 281.3 277.2 276.1 276.7 275.9 271 266.6 262.2 255.2 254.3 255.6 256.7 260.7 259.1 253.4 244.8 235.4 232.4 230.8 231.6 233.4 236 231.8 221.7 217 214.3 212.7 212.3 213.3 212.3 211.7 212.1 209 202.4 201.3 201.1 200.3 199.9 199.4 199.3 199.2 199.9 200.7 201.7 201.6 201.9 200.5 198.7 194 193.8 192.2 191.4 191.1 191.1 193.7 194.6 195.2 194.6 194 193.4 194 196.2 190.3 190.3 190.3 193.5 197.7 201.2 199.4 198.3 200.6 204 209.4 215.4 217.7 217.7 217.6 219 221.2 223.9 223.4 223.5 224.4 226.7 228 228.5 218.8 215.9 216.9 222 221.2 226.3 227.5 230.5 228.5 228.3 229.7 230.5 231.7 233.3 233.2 239.2 241.9 246.4 251.7 249.1 250.4 244.6 237.2 231.1 226.9 221.9 221 222.8 216.9 214 213.4 209 206.1 203.9 200.6 198.2 194.6 192.8 192.5 190 189 185 182.9 180.5 179.3 177.3 174 170.1 168.4 165.8 163.3 160.8 159.1 156.9 155.1 154.7 154.9
233.6 233.6 232.9 232.9 232 228.4 227 228.8 231.1 234 234.5 238.9 240.7 243.8 243.8 244 244.7 247.1 252.9 258.9 264 262 257 254.6 251.5 252.3 254.5 258.2 267.8 269.8 282 294.6 307.1 317.3 326.5 335.5 342.3 352.4 358.9 367.9 373.8 375.2 376.3 375.8 368 366.5 361 354.7 352.1 346.7 335.6 328.4 316.4 309.1 301.6 295.4 288.7 284.3 280.5 279.7 280.1 277.8 273.3 268.9 265.2 257.7 263.6 258.4 254.2 255.3 259 256.4 248.6 239.5 233.7 231.8 233.2 234.2 235.2 232.2 222.8 222.7 221.8 219 215.6 214.6 213.7 213.3 215.6 216 210.3 203 201.5 201.1 201.2 199.8 199.2 198.8 200.6 201.8 201.8 203.3 205.7 203.3 198.4 195.8 193.3 191.8 190.6 190.8 192.3 193.8 195.3 195.2 194.8 192.9 192.4 192 190.3 190.3 190.3 190.8 195.5 200.3 204.1 199.9 200.3 202.9 205.6 208.9 217.3 219.4 221.1 221.2 223.9 225.8 226.6 227.6 227.4 227.8 230 232.5 236.1 232.7 223.8 224 229.3 228 228.4 229.5 230.5 231.5 231.5 233.3 232.8 234.3 236.8 238.8 242.5 245 247.4 248.5 250.7 248.4 243.1 239.2 234.6 232.4 224.5 220.8 222.5 221 215.9 215.7 209.3 208.5 204.5 201.7 199.1 197 194 190.4 186.9 185.6 179.7 177 175.4 172.6 169.2 165.8 164.3 162.8 159.4 156 154.5 152.2 155.5 151.7 152.2 150.1
233.5 233.8 234.4 233.8 235.3 232.6 230.7 229.9 229.3 228.8 232.7 234.9 237.5 239.7 242.9 243 245.3 249 254.8 261.1 267.5 266.8 259.1 252.8 252.1 254.5 254.3 259.8 264.5 272.1 284.1 294.7 306 317.2 324.2 333 342.8 349.6 359.1 367.5 373.4 373.1 372.9 367.5 364.5 357.9 352.1 346.5 342.5 343.5 334.3 326.9 320 314.7 306.5 300.7 294.1 289.9 286.7 284.2 282.2 278 273.5 269.2 269.9 267.4 265.5 261.9 257.6 252.8 250.5 251.3 248.2 241.7 235.9 232.8 233.4 234.6 235.1 232.9 224.7 227.8 226.3 221.8 218.5 216.5 215.6 214.1 212.5 213.2 212.5 208.7 205.9 204.4 201.8 200.9 200.6 200.8 200.8 202.5 202.6 205.3 207 205.5 200.9 196.1 192.6 191.1 193.5 194.6 196.1 196.8 195.9 195.6 193.6 192.1 192.1 190.6 190.3 190.3 190.3 191.4 198.5 202.5 204 203.6 203.2 209.2 209.4 213.1 218.8 221.3 222.8 224.9 225.3 227.1 229.3 230 230 230.4 232.4 236.7 239.7 240.5 231.7 230.7 235 233.9 232.5 233.1 233.7 234.2 237.4 238.3 238.3 240.2 247.1 245.3 245.3 248.3 252.2 252.4 254.2 255.1 250.9 242.8 237.6 232.9 227.5 224.4 222.4 220.6 217.3 213.7 211 210.5 207.9 205.5 203.2 199.9 198.4 194.5 189.1 187.3 181.7 175.9 168.4 164.6 164.3 163.4 162.2 158.6 157.4 153.9 154.4 152.5 151 149.7 147.4 145.3
236.7 237.6 237.3 237 235.5 234.5 234.4 234.7 232.9 229.4 231.6 235.7 237.9 241.4 245.1 245.8 248 250.7 257.7 265.2 268.8 268 261.5 253.7 253.2 254.2 256.7 261.5 266.4 275 283.6 292.5 306.7 313.9 322.4 331.4 339.7 347.2 359.9 366.7 370.4 369.8 363.2 358.4 359.6 353.9 349.9 345.7 338.6 334 330.5 325.9 324.4 318.6 313.8 307.3 306.8 300.8 295.5 294.7 288.6 283.1 280.2 276.3 274.7 274.3 269.6 265.3 259.7 254.4 250.4 247 244.1 239.7 237.7 234.8 234.5 235.2 235.3 232.7 225.9 224.9 224.6 219.3 216.5 214.4 213.7 212.8 211.6 210.1 208.9 206.3 204.4 203.2 203.1 202.1 200.7 201.5 200.8 202.8 203.3 203.2 205.4 205.2 201.8 196.4 190.8 195.1 197.3 197.8 198.6 198.4 198 196.9 194.3 192.5 192.9 194.4 192.4 190.3 192 198.7 201.9 205.9 208.5 210.2 211.9 214.7 217.1 218.6 221 223 224.7 226.7 229.3 231 232.4 233.4 233.4 233.9 236.4 239.4 243.2 244.5 240.3 235.5 236.2 239.5 240 240.7 243 241.5 240.3 240.8 241.5 245.5 251.9 256.3 253.2 256.6 259.4 261.2 263.7 259.6 253.7 249.6 245.7 238.6 232.8 229.3 226.8 229.4 222.4 220.5 218 215.7 215 209.6 209.6 207 202.5 198.6 196.4 190.7 186.6 179.6 178 170.5 155.5 156 157 153.2 153.5 153.6 153.2 152.5 149.9 148.7 146.9 143.8
245 243.6 241.1 239 236.6 235.2 236.4 237.1 234.8 230.4 233.1 236.3 239.2 247 249.4 251.4 255.2 255.6 261.7 266.4 265.5 265.7 261 259.8 255.5 257.7 259.8 262.8 266.2 275.3 281.4 291.1 300.6 310.4 319.1 326.6 335.3 343.8 355.1 363.6 369.6 364.7 352.5 347.8 348.5 346.7 342.7 341.4 340.5 337.7 334.7 331.3 328.8 323.8 323.6 320 319.4 315 306.3 299.5 296.1 289.2 288.5 285.9 284.1 279.5 275.3 269.8 263.6 259.4 254.3 250.5 247.5 246.4 243.1 238.6 237.5 241 239.7 233.5 227.3 222 220.5 218.3 216 214.9 213.2 212.6 211.7 209.4 206.9 204.9 204.4 203.6 203 203.1 203.6 202.9 202.1 203.7 203.5 203.5 202.7 202.4 200.2 197.5 190.2 194.9 198.5 199.1 198.7 199.2 198.9 198.3 198.7 199.2 200.3 201.8 200.9 199.9 195.5 201.1 204.7 209.1 211.8 213.2 216 218 219.6 221.9 223.8 225.2 227.1 229.7 233.1 234.7 237.8 237.5 236.8 237.4 239.1 242.2 244.1 247.5 247.5 242.5 241.2 241.5 244.2 247.5 249.2 247.9 248.5 244.9 247.4 250.4 256.2 261.1 260.6 262.9 269.7 267.1 270.6 266.7 266.3 261.1 254.3 250.6 241.1 240.6 236.1 236.1 232.2 228.8 225.8 222.2 222.6 216.7 212.3 209 205.9 201 201 196.2 189.9 183 180.5 173.6 167.2 164.4 157.6 151.2 149.6 154.1 150.5 148.7 145.7 143.7 141.7 141.7
250.5 249.1 245.4 241.7 238.7 235.9 233.6 232.2 230.5 230.2 234.6 235.8 245.1 250.8 255.3 257.9 261 262.7 266.7 267.7 266.1 261.7 262.9 264.8 261.5 263.3 264.5 265 266.4 272.4 276.6 288.3 297.3 305 312.8 321.4 329.9 338.6 348.9 360.3 358.6 347.8 342.5 341 341.2 342.1 339.3 342.6 342 342 341.9 341.1 330.5 329.6 331.8 332.4 327.9 322.4 317.2 308.3 304.3 299.8 297.1 294.7 290.3 286.2 282.3 275.8 266.7 263 259.7 256.5 255.1 253.7 252 249.3 247.2 246 240.9 231.5 225.4 221.8 220.3 218.8 216.3 217.1 216.3 215.2 213.5 209.7 206.2 205.5 206.2 207.9 206 205.6 205.9 205.3 204.3 207.5 207.4 205.4 202.5 200.1 199.2 198.4 190.8 197 199 199.7 199.6 199.8 199.5 199.7 200.2 201.6 202.7 203.1 201.9 199.9 200.6 205.3 209.1 212.4 215 217.5 218.2 221.5 223.4 224.7 227 229.6 231.6 235 238.5 240.7 242 240.9 242.2 242.2 243.8 244.6 248.1 251.2 254.8 252.9 249.3 248.4 249.2 252.5 253.7 257.9 255.3 256.1 256.3 262.4 267.1 269.1 271.5 276.9 279.9 279.8 279.5 277.2 274.9 271.9 266.2 260.2 252.9 249.6 246.9 246.4 242.9 239.5 236.4 232.6 228.8 224.1 221 213.6 209.7 206.8 205.1 199.4 191 187.6 181 171.4 171.1 165.6 159.7 154.4 148 146.9 145.8 145.8 145.3 143.6 141.6 140.9
247.5 246 243.3 239.8 236.7 234.6 231.9 229.8 229.7 232.5 234.2 236.4 244.8 251.3 256.8 262 265 268.2 269.3 268.4 266.3 264.3 267.3 266.7 266.2 266.6 266.8 268.5 268.8 271.9 276.6 283 286.6 305.8 309.1 316.6 324.1 331.4 339.8 349 343.8 337.5 333.8 333.7 336.3 334.6 338.8 341.7 340.7 347.2 351 343.6 337.3 332.8 333 335.5 330.7 325.3 321.2 314.9 308.5 307.4 307.6 298.7 295.2 292.5 289.4 284.2 273.4 265.7 262.3 258.8 258.8 259.3 258.1 254.6 249.8 244 236.9 229.6 223.7 220.5 219.6 219 218.8 218.6 218 217.7 217.4 212 208.2 211.1 212.3 214.1 213.5 210.8 210 209.9 209.1 208 207.5 204.6 202.1 199.2 198 196.5 190.2 192.7 197.7 199.2 199.8 199.6 199.8 200.6 200.8 203.3 203.5 203.3 201.5 202.6 206.1 208.7 212.1 216 218.3 221.2 222.7 225.8 226.8 227.7 230.6 233.9 235 239.4 241.6 243.3 244.6 245.5 246.7 247.4 247.1 248.3 250.7 252.8 257.5 258.4 257.7 254.8 255.6 258.1 260.9 266.3 265.8 266.6 268.1 273 274.8 278.2 282.8 287.4 290.1 291.1 291.7 288.3 285.7 286 278 275.6 268.6 263.5 254 253 246.1 244.5 242.2 239.2 233.5 230.2 222.9 218.3 212.1 206.6 201.5 197 189.6 185.1 177 176.3 170.2 164.3 161.5 153.2 149.2 148.4 147.6 146.7 146.8 145.9 144.8 145.4
243.4 240.2 238.3 235.3 233.6 232.5 230.4 229.9 230.8 232.4 234.1 236.1 242.4 251.1 256.1 262.8 268.5 268.9 269 265.4 264.1 267.7 267.4 267.8 266.1 266.6 268.1 268.9 273.5 274.3 279.8 284.8 289.4 302 306.6 312.8 319.6 325.5 327.3 328.5 330.5 328.4 322.2 325.5 328.5 332.7 335.5 336.5 340.3 347.9 350.3 340.1 338.2 333.2 331.9 329.2 327.5 323.9 320.7 319.8 318.7 311.5 306.6 302.4 298.2 299.1 294.6 286.7 278.9 272.4 262.7 259 258.3 260.1 259 255.2 249.7 240.4 231.7 222.9 220.4 219.1 218.2 218.2 220.1 220.2 222.7 224.2 220.9 215.8 213 214 213 212.7 213.3 212.8 213.4 213.9 213.5 211.4 208 203.7 199.4 196.6 196.3 194.8 192 189.6 195.6 197.3 199 199.1 199.7 200.4 200.4 202.9 203.7 203.5 203 204.5 209.6 212.5 215.9 218.9 221.3 223.5 226 228.6 230 231.7 234.6 237.8 240.6 242.5 244.2 246.3 249.7 251.7 252.3 252 252.1 252.2 253.3 256.1 258.3 261.1 262.4 261.3 260.7 264.8 266.7 271.4 272.4 274.1 278 279.3 283 287.5 292.9 300 302.8 305 305.8 302 303 302.1 293.2 296 291.3 280.7 277.4 271.6 259.6 251.1 246.2 243.4 236.9 229.6 226.6 221.3 215.3 208 201.8 197.6 189.5 185.6 180.3 174.4 169.9 163 157.8 153.1 152.9 150.7 151.7 154.5 152.6 150.8 151 151.5
242.2 237.4 236 233.2 231.7 230.8 230.7 231 231.9 233.7 235.6 237.8 243.5 251.9 257.4 264.2 270.3 270.1 264.8 264.1 264.1 264.1 264.4 266.5 267.7 269.6 271.2 273.3 275.3 278.4 282.8 291.4 295.9 301.5 305 310.1 315.8 320.5 320.9 322.7 324.8 320.5 319.2 323.4 326.4 329.2 329.4 330.9 337.3 345.7 342.2 338.5 337.7 331.8 326.7 325.3 322.9 322.7 322.5 323.9 319.5 314 308 305.2 307.6 302.7 295.5 288.5 284.3 277 267.5 260.6 256.1 255.4 254.7 252.4 247.2 239.7 229.3 221.8 218.4 217.5 217.1 217.6 219.4 222 224.7 226.2 223.5 218.1 214.5 212.1 209.7 209.2 209.5 209.6 211.8 210.8 210.4 208.6 205.5 200.4 197.4 193.4 194.5 196.3 195.9 191.9 190.2 195.5 198.1 199.9 200 200.4 201.3 203.3 205.5 203.9 204.1 206.2 210.6 214.6 218.3 219.6 223.5 226.9 229.5 231.4 233.2 234.9 236.6 241.4 242.2 243.8 246.6 250.2 254.6 254.9 255.2 256.7 256.6 256.7 256.3 258.4 260.5 262.8 264.4 264.8 264.5 269.4 274.6 277.2 278.1 282 283.8 291.5 289.7 294.9 303.8 310.8 315.3 320.2 324.8 321.7 324 315.8 307.9 307.5 305.5 292.9 290.4 281 271.7 263 255.1 244 239.5 233.9 228.7 220.1 214.8 210.3 204.3 198.3 189.9 185.6 179.2 174.1 167.2 158.4 155.7 157.4 156.1 155.3 159.1 158.3 158.4 157.7 158.9 155.9
239 234.6 234.6 233.8 231.9 230.5 231.3 232 233.1 235 236.6 238.7 247.6 252 259.8 266.7 271.2 268.4 264.1 264.1 264.1 264.1 264.1 264.1 268.2 274.4 282.8 284 284.7 285.7 287 291.4 299.1 301.7 304.7 308.4 312.1 314.1 316.3 317.2 316.4 315.9 320.1 322 322.6 325.5 321.3 327.2 333 338.8 337.4 335.8 334.2 329.5 323.7 322.5 323.4 321.5 321.1 322.6 319.8 314.6 310.8 309.7 307.5 301.8 295.2 288.9 288.7 280.2 272.2 264.4 256 250.6 248.4 246.4 243.2 237.4 227.3 220.1 219.5 217.7 216.1 218.5 218.4 222.1 225 226.1 223 216.5 211.1 208.2 209.4 209.4 209.2 208.3 205.7 205.5 204.6 203.5 198.9 192 189.8 189.4 189.4 188.8 189 188.4 192.9 198.2 199.9 200.6 201.4 201.8 202.9 204.8 206 205.5 205.8 207.8 213.3 216.6 218.9 221.8 225.1 229.7 230.7 233.8 235 237.4 238.3 242.3 243.7 244.8 248.5 252.1 255.1 255.7 257 258.6 259.1 258.8 257.9 259.5 261.7 263.3 265.7 267.1 269.5 274.8 279.1 282.5 282.9 286 288.2 295.2 298.9 307.2 314.6 322.1 328.7 334.7 334.9 335.5 336 324.5 313.7 311.5 302 292.8 285.8 280.6 274.7 266.9 259.2 247.8 242.3 239.2 226.7 221.9 217.3 210.9 204.1 193.9 192.1 185.2 180.6 168 162.1 159.8 159 160.8 159.7 166.3 168.2 167.6 166.3 165.2 164.3 163.3
235.2 233.2 233.4 234.6 232.1 231.9 232.4 232.8 234.4 236.3 238.6 242.3 249.8 254.3 261.9 268.4 271.3 265.4 264.1 264.1 264.1 264.1 264.1 265.4 272.9 276.1 284.6 294.4 298.7 299 294.2 296.7 300.7 302.7 303.6 308.3 310.8 313.3 316.6 314.8 311.5 313 315 316.5 317.9 316.2 317.1 322.5 327.7 332 329.9 329.2 327 325.4 321.5 319.7 319.8 318.5 318.4 320.6 318.5 319.2 312.9 310.3 304.9 300.9 292.3 287.3 281.8 275 270.7 265.3 258.8 251.5 245.1 239.3 237.7 232.4 223.9 222.9 222.6 218.7 215.1 215.3 215.5 220.5 224.5 224.8 221.7 215.1 208.3 206.9 208.3 208.6 209.1 207.7 205.7 201.3 200 198 190.9 188.7 188.3 188.5 190.7 192.8 193.1 197.8 199.5 201.6 205.2 205.2 205.2 204.8 204.8 205.3 205.5 205 207 208.9 213.6 217.5 220.6 223.4 227.7 230.6 232.7 234.4 237.2 238.9 240.1 243.9 245.3 247 249.5 253 255.1 255.3 256.6 258.6 260.7 259.6 259.4 260.4 262.9 264.6 266.5 269.3 272.4 276.9 282.1 285.4 288.1 290.2 292.5 300 304.4 312.1 321.7 330.4 339.7 341.6 342.2 348 344.2 329.6 318.6 311.2 302.5 291.9 285.3 282.2 274.2 266.9 259.4 248.9 241.7 233 225 219.6 213.8 210.9 200.2 190 185.8 180.5 171.5 166.3 164.7 160.9 165.3 168.4 171.9 175.4 174.5 179.4 175.3 174.5 171.9 173.1
231.4 231.4 231.4 231.4 232.5 233.7 233.3 233.9 235.3 236.5 239.5 244.4 250.1 257.2 264.3 270 272.4 264.1 264.1 264.1 264.1 264.1 264.1 271.7 278.8 284.9 288.1 302.2 307.7 310.2 314.8 303.2 305.4 309 304.6 308.7 312.9 313.6 315.1 311.9 309.9 311.6 314.3 315.6 314.1 314.5 315.9 318.9 320.1 324.4 322.1 325.3 323.3 317.2 317 318.5 316.8 316.6 317.5 318 318.5 324.6 317.8 310.4 307 298.8 287.8 287.1 279.5 272.5 267 261.9 257.3 250.3 244.9 238.1 234.1 227.9 225 226.9 225.4 221.2 217 213.9 215.2 218.3 222.8 223.7 221.5 214.6 206.5 206.8 208.1 208.6 210.2 209.8 205 200.7 194.5 188.8 186.3 186.7 189.1 193.1 196.5 198.1 198.5 200.6 201 203.7 208.6 210.2 209.9 207.3 206.3 205.9 205.5 206 206.8 209.7 213.4 217.8 220.4 222.6 225.7 230.4 236.5 235.8 238.4 240.1 240 243.4 244.7 246.9 249.9 252.7 254.2 254 256.4 257.1 259.2 259.8 261 261.5 263.3 266.3 268.5 272.2 277.5 281.3 283.9 287.9 291 294.6 298 304.6 315.9 320 331 337.2 341.7 345 346 352.6 347.2 328.6 318.3 307.6 299.8 287.3 282.6 279.3 271.8 267 259.8 249.1 240.8 232 223.6 215.6 209.4 204.6 195.8 184.4 180.5 171.1 169.3 168.9 169.4 169.4 175.4 181.3 181.7 186 185 187.7 181.9 179.5 180.1 179.2
231.4 231.4 231.4 231.4 233.2 233.6 234.6 235.2 237.1 240.8 242.9 246 252.1 259.1 266.4 272.5 272.5 263.9 264.1 264.1 264.1 264.1 266.2 277.7 282.8 290.4 292.1 299 309.8 315.2 318.5 313 313.1 311.1 307.2 309.1 310.8 311.7 311.9 309.6 309.9 310 310.7 311.5 310.4 310.7 309.8 309.9 315.3 319 317.1 314.5 315.2 314.1 316.6 318.9 315.1 315.5 317.2 317.7 317.1 320.3 315.2 309.5 305.6 299.2 288.2 280.4 272.9 268.3 263.2 258.3 252.5 246.9 237.5 234.5 232.3 227.8 227.2 225.7 223.2 222 217 214.4 214.3 215.4 219.9 222.8 221.9 216 207.6 205.9 207.4 212.4 215.9 215.2 210 202.9 194 186.6 185.3 188.7 194.3 199.1 202.1 199.6 199.6 201.2 201.1 202.7 208.2 210.8 211.1 209.3 206.4 205.4 205.1 205.5 205.9 209.1 213 218.5 219.5 221.9 224.5 225.8 230.5 231.4 237.8 241.2 241.3 242 242.6 245.5 248.6 250.8 251.5 252.7 254 255.2 258 259.5 261.3 263.5 266.4 270.4 274.4 278.3 281 283.9 285.9 290.4 295.4 298.2 301.5 310.5 318.3 323.8 336.4 338.9 344.1 346.8 352.9 357.5 349.7 323.6 312.2 300.9 290.1 282.2 277.2 272.2 266.7 263.4 255.2 245.1 237 229 220.9 215.1 208.2 200.1 189.4 176.6 171.4 170.9 173 178.5 178 181.7 185.8 192.5 192.5 195.6 193.2 191 188 188.9 187.2 186.2
231.4 231.4 231.4 231.9 232.2 235.1 236 238.6 243.7 247.8 249.7 249.7 252.8 260.9 268.7 274.2 272.3 265.9 264.1 264.1 264.1 264.1 274.4 281.8 286.8 297.6 301.6 302.6 309.3 315 318.6 316.6 318 319.8 311.1 310 311 310.1 310.9 308.8 309 307.5 308.8 308.5 306.5 307.5 303.8 304.2 306.3 308.6 308.8 310.1 310.8 311.8 313.3 314.3 313.5 319.3 318 321 317.3 312.9 310.1 302.9 298.2 292.3 283.8 275.8 269 264.7 258.9 253.1 250.1 243.8 236.3 232.4 233.9 230.2 226.8 222.4 223.5 222.7 218 212.2 215.3 213.1 216.9 220.3 221.9 219.5 211.8 206 206 209.9 214 216.6 213.8 206.8 197.8 190.2 184.7 190.9 194.2 199.8 203.3 201.8 200.6 201.3 201.8 202.6 205.7 208 208.5 206.9 205.2 204.4 203.7 204.7 205 205 211.7 215.5 217.8 218.8 223.2 224 226.7 233.4 237 243.6 242.2 241.9 243.3 246.3 247.6 248.8 249.8 250.6 252.9 255.2 258.1 259.9 263.7 266.6 269.1 272.1 275.6 281.3 284.5 286.8 288.8 293 297.3 301 305 313.5 318.4 325.3 341.6 346.7 349.9 349.9 353.5 347.5 340.3 316.4 298.4 288.3 280 274.6 270.5 267.4 264.2 255.4 246.9 238.9 231 222.8 214.8 207.8 200.5 189.8 183.3 172.7 172.2 179.3 183.8 184.9 185.9 189.9 194.6 196.8 200.2 200.3 200.7 195.7 198 196.4 194.6 193.1
231.4 231.4 231.4 234 236.8 236.4 238 243.8 249.8 254.8 258.4 256.9 255.3 263.7 270.5 272.7 271.9 267.2 264.1 264.1 264.5 265.4 275.1 282.8 291.3 300.7 307.6 308.8 316.4 320.1 321.7 323.3 327.8 324.7 319.6 311.8 310.5 312.2 305.8 305.1 302.7 305 304.8 307 302.3 302.5 298.4 296.9 300.8 301.4 304.1 305.8 307.5 311.1 310.3 312.5 313.5 317.3 323.6 322.2 320.6 312.9 304.3 297.1 292.6 285.7 275.6 270.5 267.3 264.9 259.3 248.5 241.9 239.8 234 225.5 228.4 228.5 224.9 220.6 225.4 224.8 218.7 211.4 211.3 211.4 211.2 216.9 218.9 219.6 216.4 208.6 205.8 206.4 209.7 211.6 209.7 206.2 197.2 191.6 184.6 191.4 194.7 198 202.1 202.9 201.6 203.7 202.4 203 202.7 203.9 203.7 203.9 203.4 203.3 203.4 204 203.1 203.4 209.7 212.3 214 216.7 220.1 223.8 228.1 235.5 237 242.1 242.4 242 244.4 247.1 248.3 248.5 248.3 249.1 252.2 254.5 259.7 263.4 265.8 268.9 271.8 273.9 276.7 281 285 288.2 290.3 295.2 300.5 304.2 308.2 314.3 318.9 325.4 339.8 351.2 349.6 348.7 346.8 329.6 311.8 294.8 283.9 274.4 268.5 262.6 260.7 260.2 255.9 247.3 238.7 232.7 223.4 215.8 207.2 198.7 191.4 183.2 176.2 176.3 184.1 187 190.9 191.9 193.1 198.9 202.7 204.8 207.8 207.6 208.4 206 205.7 202.4 200 198.8
232.4 233.5 237.1 240.6 243.8 244.6 241.4 244.4 254.1 257.9 258.8 258.5 263.5 268.6 271.9 273.2 271.2 268 266.9 265.9 267.6 268.5 279.5 286.9 291.9 299.1 305.6 308.4 315.3 321.4 326.3 330.8 331.7 333.1 327.5 318.7 320.3 310.1 307.8 303.3 299.5 299.7 303.1 300.2 298.9 296.5 294.9 294 296.4 296.8 299.2 301.5 302.8 302.2 309.2 310 314.2 319.1 324.2 322.8 320 311.9 304 294.8 286.5 277.5 269.6 265 263 261.1 256.2 245 235.5 232.2 229.7 223.3 219.5 224.8 223.7 216.8 218.8 218.9 216.3 211.8 209.5 209.7 209.7 214.2 216.1 215.5 214.5 210.8 206.7 206 205.7 206.8 206 202.8 194.4 192.9 191 186.1 191.1 196 199.8 201.3 201.9 204.5 204.4 203.1 201.9 201.6 200 200.9 202 201.4 202 202.7 202.6 203.2 209.2 211.5 212.5 217.4 220.4 224.7 230.5 236.6 239.5 242.2 240.9 245.6 246.4 247 247.4 247.6 247.4 247.8 251.1 253.4 260 262.9 267.1 269.3 272.6 275.2 278.1 281.7 285 287.9 290.5 294.4 301 307.8 313.7 315.5 318.7 327.6 338.1 343.3 341.2 336.6 333 313.9 295.2 282.7 274.4 261.7 251.7 248.4 247.5 245 243.5 237.8 230.8 225.4 215.9 211.3 202.7 195.4 188.4 180.4 179.8 184.8 191.7 197.4 198.5 196.1 202 207.3 210.7 212.1 213.9 214.4 214.3 212.4 212.8 209.3 206.7 200.3
235.8 237.7 240.4 245.6 251.2 253.5 252.8 250 248.2 252.7 254.7 258.6 267.1 271.3 271.8 271.7 271.6 270.2 271.9 272.2 272.1 274.6 278.6 284.7 288.6 294.4 305.1 310.1 314.4 321.7 328.2 334.7 342.7 345.6 335.8 330.2 323.1 316.2 306.2 302.9 297.4 296.9 298.7 296.9 294.2 290.7 289.7 291.9 289.5 291.6 294.1 295.5 297.4 300.4 304.9 309.5 315.5 318.8 320.9 317.8 312.5 305.8 299 291.6 284 276.1 267.7 258.3 257 255.3 249.9 242 232.1 228.8 228 222.1 216 222 221.6 217.7 212.5 210 209.6 210.4 210 208.3 208.5 211.1 213.1 213 210.5 208.7 206.8 206.1 205.4 203.4 202 201.3 196 190.8 188.9 182.1 184.9 192.6 197 200.7 202 204.2 204.3 202.6 200.6 200 196.9 199.8 201.7 202.6 202.7 201.4 201.2 202.4 207.8 211 211.4 217.1 217.5 222.9 230.2 235.7 239.2 238.9 239.8 244.8 245.1 245.5 246.1 246.8 247 247.5 248.7 252 258.2 262.2 265.7 269.1 272 274.9 278.2 283.3 285.3 289.2 292.2 297.9 303.9 314 317.6 319.1 319.6 326.2 334.1 335.6 331.9 329.7 323.6 296.2 281.5 271.1 259.1 250.7 242 238.1 236.3 233.3 230.1 227.5 224.1 217.9 213.7 207.2 197.2 195.3 185 180.7 186.3 193.6 199.2 207.4 201.3 204.1 209.5 213 216.6 220.8 220.8 219.8 219.9 219.3 216.4 213 208.4 203.9
245.2 248.6 250.3 251.9 257 258.7 257.7 253.8 245.6 254.1 259.3 264.1 269.5 271.1 270.8 272.7 275.3 277.5 278.1 281.1 277.1 276.8 279.8 284.4 291.1 293.8 305.4 311.8 320.2 326.5 334.7 340.5 355 355.1 340.3 333.4 330.8 319.7 314.1 305.3 299.6 295.2 291.4 291.9 290 286.3 286.5 283.8 279.2 284.7 283.7 288.7 291.5 295 299.8 306.2 312 311.8 312 309.8 305 299.7 293.4 285.2 279.7 275 268.5 259 251 250.5 245.5 237.4 227.9 222.1 222.2 216.1 212.3 218.3 217.4 212.9 208.3 204.6 204.8 206.3 207.4 207.7 206.7 207.5 210.1 210.4 208.2 205.8 206.2 207.1 206.7 202.9 197.1 199 198.6 194.2 187.1 182.9 183 186.4 193.1 196.1 200.4 201.9 201.7 200.6 199.4 196.5 195.9 200.1 201.3 202.4 203.8 203.5 204.2 203.5 204.4 210.7 211.6 214.9 216.1 220.3 226.8 232.9 236.2 237.3 237.6 239.7 241.3 242.4 244 246.4 247 248.7 250 252.9 257.4 261.1 264.8 268.5 271.6 274.9 279.2 283.4 285.6 289.6 293.5 299.7 304.1 314.7 320.7 318.4 318.3 322.6 329.7 330.2 330.8 320.2 303.8 283.3 267.1 257.3 246.2 241.5 237.4 233.8 231.2 226.2 224.1 222.6 220.1 214.3 207.9 203.1 193.1 187.6 183.1 189.3 194.9 196.9 203 206.9 206.7 212.3 216.9 220 223.5 226.8 226.2 224.4 225.8 226.1 220.6 218.7 211 208.2
253 256.9 259.4 258.6 259.6 260.2 257.6 252.1 250.8 259.6 265.7 270.5 274.9 279 271.5 274.1 278.7 282.8 293.3 288.8 283.6 280.7 281.9 286.7 294.9 303.1 308.3 317.2 324.5 327.5 336.5 343.4 347.6 351.7 343.6 342.4 336.2 324.7 315.8 310.9 305.2 293.7 288.4 284.5 282.1 281.6 275.8 277.5 276.7 277.2 278 285 284.5 292.1 294.3 297.5 302.1 303.1 301.2 301.5 296 294.6 289.7 281.5 274.6 269 263.3 256.2 242.7 243.5 239.1 231.9 224.8 219.3 216.3 214.2 208.4 212 209.5 206.2 202.1 201 201 208.1 206.8 206.4 205.9 205 205.3 205.9 205.1 204.7 205.2 205.2 205.5 202.9 196.1 194.9 195.3 193.3 191.6 184.6 181.9 182.4 187.8 191.3 194.7 198.5 198 199.2 199 195.8 193.8 195.9 198.2 201.2 204.1 204.1 204.2 203.9 204.8 209.3 211.6 208.9 216.7 216.6 226.3 229 234.5 235 235 235.7 238.7 239.7 241.7 244 247.2 249.5 251.7 254.2 257.7 261.2 264.5 267.8 271.5 275.7 279.6 285 287 289.6 293.6 298.8 303.2 310 317 318 313.1 318 321.9 326.5 325.3 305.9 289.8 269.7 253.3 243.7 239.9 237.8 234.4 230.8 226.9 225.5 226.1 223 218.9 212.5 208.1 202.5 194.3 186.3 190.1 196.2 198.2 201 206.5 211.5 213 219.1 222.1 229.9 232 231.5 231 229.8 229.6 225.6 223.3 221.6 213 212.8
260.8 264.6 264.5 264.7 262.6 260.2 256.8 252.5 257.1 264.9 271.3 276.7 281.4 282.7 275.6 277.7 286 299.7 300.5 296.1 290.4 288.9 290.6 293.1 298.4 311.2 317.1 318.2 322.9 326.6 337 339.5 343.5 345.6 344.8 345.1 342.7 328.7 318.8 310.9 305.2 300.4 288 281 276.5 274.4 269.9 270.2 271.9 270 274 276.6 279.7 286.5 290 290.3 294.1 295.3 295.9 293.3 290.8 291 285.8 278.8 270.2 262.7 256.3 249.9 242.7 237.2 233.6 226.5 219.6 215.2 207.7 206.7 205.4 203.7 200.5 197.7 200.8 199.5 201 201.4 201.2 204.4 203.3 202.3 201.2 201.4 200.7 203.5 205.4 204.9 203.7 201.8 195.9 192.4 189.9 186.3 189.4 187.7 180.6 183.4 192.6 189.2 187.9 190.8 193.9 196.5 196.5 195.4 193.9 194.5 195.7 199.8 202.7 202.9 204.8 206 204.9 209.7 211.6 208.6 210.1 219 222.7 229.6 232 232.4 232.9 235.3 236.2 238.6 241.6 244.6 248.3 250 251.6 254.6 258.1 261.1 264.2 267.4 270.2 275.7 279.7 283.8 286.4 289 292.5 295.6 300.2 306.2 314.8 314.6 311.7 316.4 316.7 318.9 307.2 292.8 270.1 255.5 240.9 234.7 233.6 232.4 231.1 228.9 227 228.4 224.7 223.7 218.9 212.7 206.2 198 196.4 189.4 195.5 198.4 204 206.8 211.5 217.6 221.8 225.9 231 235.5 236.4 235.7 235.9 234.3 233.8 230.9 228.7 224.8 220.2 218.9
269.9 271.5 272.1 270.9 266.3 260.2 257.5 251.9 263.6 270.4 276.7 282.6 285.9 283.2 275.8 282 292.8 306 305.6 304.3 297.5 295 295.4 300.1 305 313.3 319.3 319.5 321 328.4 332.4 335.8 343.7 343.6 338.4 338.8 335.3 327.7 317.8 307.6 302 298.6 290.5 282.7 273.9 266.2 264.9 266.3 270.2 269.3 265.5 271.8 275.8 280.6 283.9 283.7 284.7 290.4 290.6 288 288.2 289.3 282 274.8 264.8 256.4 250.5 245 239.4 234.3 225.9 223.3 217.6 213 205.3 206.1 204.6 202.7 199.2 194.5 197.7 197.6 196.3 196.3 196.8 203.6 203.6 201.4 200 199.2 197.6 198.3 200 201.5 201.5 200.1 198.6 192.6 186.4 184.8 184.9 186.4 185.5 179.8 184.3 185.6 185.5 186.3 189.3 193.6 195.2 195 194.2 193.9 196 197.2 199.1 199.5 203 206.3 205.5 204.3 208.8 208.1 210.6 214.8 220.7 226.5 226.6 230.1 232.1 235.1 237.5 240.2 242.2 245.3 248.3 250 251.6 254.7 257.5 260.5 263.5 265.6 268.1 274 280.3 283.1 285.7 288.1 290.4 292.6 297.4 303.8 307.7 309.4 312 318.6 310.7 303.3 296.9 271.7 256.5 241.3 232.3 228.8 227.8 227.3 227.4 229.4 226 223.6 224.3 223.1 216.6 211.4 207.8 202.2 195.5 193 202.4 201.6 207 211.8 221 220.7 229.3 233.7 237.9 240.1 240.6 240.5 239.4 239.6 240.8 237 233.7 230.7 225.9 225.8
274.4 278.3 279.5 279 274.8 266.8 257.2 255.1 267.1 274.6 281.7 288.6 290.8 284.2 279.7 289.3 300 308.1 308.9 309.8 305.2 301 301.6 306.2 309.2 315.4 320.8 317.1 322.4 324.2 325.2 326.5 334.9 333.2 331.6 327.5 322.7 319.8 314.9 309.3 298.5 292.5 286.7 281.6 271.8 265 263 262.5 264.9 264.7 261.2 265.1 263.6 272.2 275.5 277 279.3 283 282.5 279.8 281.3 281 277.3 270.8 261.4 251.8 247.4 244.4 237.2 227.4 223.7 219 213 207.3 204 204.2 203.3 202.2 200 193.6 192.8 194.3 193.8 194.1 195.1 198.5 199.8 199.9 198.6 197.1 195.9 196.8 197.9 198.1 198.3 200.2 199.5 200.3 191.3 184.6 183.3 183.6 184 182.3 181.4 183.5 182.8 183 184.8 190.1 194.8 195.1 193.7 195.4 195.6 197.3 198.3 198.7 201.6 203.4 204.6 202.5 202.4 207 208.8 212.5 216.2 222.3 226.2 226.7 231.7 237 237.7 240.6 242.9 245.1 247.8 249.6 251.6 254 256.4 259.3 261.9 264.6 268.4 273.8 278.5 281.6 285.4 287.4 288.6 290 292.2 295.8 301.7 306.1 307.8 312.6 303.5 291.3 275.2 258.8 246.4 231.7 227.9 225 222.9 223.7 225 225.9 221.5 219.6 220.5 215.6 213.2 207.8 204.7 204.5 193.7 198.6 204 207 212.3 217 222.7 226.8 233 239.1 242.4 246.3 246.7 246 244.8 246.3 244.7 242.2 236.1 233.4 230.7 231
283.6 285.6 286.4 286.2 281.5 275.1 263.7 257.2 267.9 275.4 283.5 291.4 291.4 286.2 287.5 296.1 307.3 312 312.8 316.5 316.9 309 309 311.8 313.8 314.6 315.7 317.2 317.5 315.3 314.4 314.8 317.6 321.2 321.9 320.6 316.7 312.1 312 304.7 295.2 286.6 282.5 277 268.9 262.3 259.8 258.9 257.1 259 257.8 254.8 256.9 262.5 266.5 266 272.2 272.9 270.6 271.5 273.6 271.9 270.2 263.4 255.9 249.8 248 244.6 237.1 228.2 222.1 216.8 214.1 210.1 204 202.2 203.4 202 198.4 194.2 192.3 190.9 190.8 194.1 195.6 196.1 195.9 196 197.9 195.7 195.7 197.1 197.4 198.7 199.1 198.3 198.5 198.7 195.6 187.9 181.2 179.1 179 179.6 180 183.2 182.7 181.4 182.5 187.1 191.9 193.6 196.2 197.7 198 198 198.4 199.5 201.5 201.7 203.1 201.8 202.5 203.7 205.6 208 212.4 219.2 223.5 225.1 230.8 236.4 238.7 240.2 242.9 244.8 246.6 248.8 251.5 252.7 255.8 256.9 259.1 263.2 266.5 272.1 274.6 279.2 283.1 284.7 286 287.9 291.1 294.4 298.3 298.9 301.2 297.2 287.7 276.3 261.5 248.3 237.4 226.9 224.1 222.3 221.5 223.2 222.6 220.9 217.8 217.9 215.1 213.9 210.3 207.8 206.8 200.3 202.5 204.8 209.2 211.8 217.3 222.5 225.1 232.4 238.9 244.2 248.5 251.1 251.6 251.5 250.6 251 249.8 245.1 238 238.5 235.1 235.9
286.5 294.2 295.9 292.9 287.9 280.9 271.1 266 264.8 274.6 282.1 288.2 291.5 292.1 297 305.3 313.2 317.3 322.1 325.1 320.9 319.4 316.6 317.3 313.2 309.2 307.7 309.8 312.1 308 303.8 305.2 305.1 308.8 313.5 314.8 307.3 299.7 299.2 295.7 287.6 281.9 277.4 271.8 264.4 260.1 257.1 256.5 254.7 249.9 248.3 249.5 250.3 256.5 257.9 258.6 260.8 261.9 261.6 261.6 261.4 260.7 260 256.9 250.8 248 245.6 240.4 231.7 223.5 217.6 213.9 210.9 208.4 202.8 201.7 203.8 200 196.8 194 193.2 190.1 189.6 194.3 197.6 198.2 196.5 193.1 193.4 193.4 195.7 195.3 197.6 197.8 197.7 197.1 197.5 195.8 194.3 188.9 180 177.7 178.8 178.7 178.5 181.6 180.5 180 182.2 186.1 190.6 195.1 197.5 197.5 198.1 199 199.6 199 200.9 201.8 203.9 200.8 201.1 204.3 205.4 208.4 216.6 221 223.7 225.3 229.2 234.8 238.7 240.8 242 244.9 247.6 249.5 251.1 251.7 253.9 256 256.2 259.7 263.7 267 271.4 276 279 280.6 282.1 283.4 293.5 299.1 295.4 297.1 291.5 286.1 275.2 266.1 252.7 240.1 231.5 223.6 221.1 219.4 219 220.8 219.1 217.3 216.8 214.2 214.5 211.6 209.1 207.4 202.3 203.8 207.8 210.7 213.4 216.3 223.7 227.4 229.5 235.7 241 246.1 250.9 252.9 255.2 254.3 254.2 252.3 247.2 245.2 242.2 242.5 239.4 240.8
294 297.7 301.2 297.3 290.8 281.8 274.1 270 264.5 269.6 278.9 282.5 289.9 296 303.4 310.8 316.1 325.1 334.8 332.6 328.8 326.7 324.2 324.3 312 306.7 309.2 300.6 302.8 300.9 296.5 295.5 296.1 299 305.6 302 297.6 298 293.1 286.5 279.9 275.4 273 268.7 262.8 257.2 254.3 251.7 250 246.3 243 244.3 246 249.8 253.1 252.6 252.6 254.5 252.9 253 254.7 254.5 253.8 249.5 245.3 242.5 240.9 236.4 227 220.8 215.9 213.3 210.1 205.8 202.4 201.4 201.6 197.5 195.3 195.7 194.8 190.6 188.7 193.6 195.3 195.8 193.9 191.2 191.4 190.9 192.8 194.7 194.9 196.7 197.2 196.9 196 195.7 194.6 190.1 180.3 177.4 179.1 178.6 178 176.8 181.2 184.9 187.6 188.9 191.3 193.2 195 195.5 196.5 199.2 201 201.1 200.9 200.6 201.1 198.2 202.8 204.4 205.7 210.9 213.6 220.8 223.5 226.8 230.7 234.7 237.9 240.6 242.7 245.4 247.8 249.6 249.6 251.6 252.8 254.1 254.7 256.4 259.1 263 267 270.1 273.3 276.2 279.1 283.8 290.7 295.3 293.8 294.7 286.6 281.6 279.1 254.7 243.8 233.1 226.3 221.2 220.2 218 217.6 218.6 217.1 216.2 215.3 212.8 212.3 211.2 208 207.4 208.2 208.3 213.2 215 217.4 221.4 225.6 229.6 231.5 238.6 242.3 247.7 250.7 254.6 256.5 255.7 253.6 249.6 246.9 245.3 243.6 244 241.6 243.7
302.9 302.5 304.1 301.6 294.8 284.6 274.5 269.6 269.8 271 278 284.9 294.3 300.7 308 315.4 321.7 331.2 335.9 337.7 340.5 334.6 335.2 321.2 313.9 304.4 300.5 297.1 293 292.1 287.2 285.9 287.2 287 288.9 290.2 291.2 295.8 291.5 283.9 274.4 269.8 266 262.4 258.8 254.4 252.6 250.3 247.1 241.3 239 240.8 240.8 245.7 245.7 244.9 244.4 245.2 243.2 244.2 246.3 247 246.8 244.9 242.8 238.4 234.2 231.5 226 220.2 217.4 218.1 216.3 210.2 203.5 202.4 202 197.6 197.4 193 192.9 188.8 190.8 193.6 193.6 192.7 190.9 188.9 188.8 189.3 192.1 194.1 194.8 195.1 195.6 195.7 195.5 194.9 193.6 189.7 183.5 177.3 176.5 177.5 176.8 176.9 180.5 185.6 189 189.5 190.1 190.9 192 194.3 195.4 197 200.5 201.3 201.2 201.7 199.2 197.3 202 202.7 204.8 208.1 210.1 217.5 221.1 226.2 230.5 234.2 236.9 239.6 242.5 245.3 247.4 248.6 250.6 251.5 252.5 252.5 253.9 254.6 256.3 258.6 261.9 266.7 269.5 272.8 276.8 279.3 283.4 285.9 281.8 287 278.4 272.2 277.5 248.3 233 228.8 222.4 220.4 218.6 216.9 215.5 214.9 214.5 214.1 213.1 211.9 210.6 208.4 209.5 210.1 215 216 215.9 217.8 220.4 224.2 227.9 230.7 234.6 241.5 246.7 250.1 253.4 255.3 255.9 254.5 252.5 249.8 247.6 246.2 245.1 246.4 244.1 245.8
313.1 312.4 310 305 298.9 287.5 276.1 274.7 275.8 275.1 280 293.1 300.3 305.5 311.1 317.7 324.5 329.4 339.8 345.3 342.6 344.6 339.4 326.3 313.5 304.6 294.8 292.6 286.1 285.9 283.7 281 278.2 278.7 279.3 282.5 283.7 285.8 285.3 279 273.6 265.7 261.8 256.7 255.2 252.1 252 251.5 248.7 240 236.2 239.9 237.4 235.1 236.8 239 239 240.4 236.5 234.4 239.6 242.3 240.9 241.5 240.6 237.4 233.9 232.2 226.3 223 221.2 219.9 217.6 211.8 204 204.2 200.4 200.2 196 191 189.5 188.4 193.5 192.7 191.2 189.5 187.6 186 186.7 188.1 191 191.5 192.7 193.2 193.2 193.3 194.3 195 194.3 193.7 187.4 177.5 176.5 176.4 175.9 177.2 179.7 183.8 186.6 189.8 190.1 190.8 191.6 192 192.7 193.9 197.2 200.5 201.5 201.5 200 196.7 197.2 203.8 203.2 207 210.1 213.2 218.8 224.1 228.5 232.6 236.8 238.7 240.8 244.1 245.9 248.2 250.9 252.3 252.3 251.7 252.2 252.7 253.7 254.8 257.6 262.4 266.3 269.1 275.8 276.2 275.1 276.4 275.4 269.3 266.2 265.4 255.6 238.1 228.6 222.1 216.6 218.1 216.2 215 213.9 212.5 213.1 212.7 212.3 210.9 212.6 215 215 214.8 217.7 217 217.3 221.1 222.9 227.3 230.7 234 238.5 245.7 250.9 255 259.1 259.6 258.9 257.1 254.9 251 249 247.9 247 250 247.3 248.3
323.8 322.4 316.3 312.6 302.8 291.9 284.7 284.3 285.6 285.4 283.9 294.9 304.8 311.6 317.1 321.6 327.5 335.3 343.3 347.2 350 351.7 340.4 331.8 315.5 301.7 292.7 284.2 279.3 279.1 278.2 275.1 272.9 273.3 271.4 274.7 275.4 277 274.8 272.2 268.4 264.6 257.4 254.3 253 248.7 246 246 244.7 242.7 234.6 236.2 233.7 230.1 230.7 232 232.3 236.3 233.4 231 229.4 235.3 237.5 237.8 235.2 233.9 231.9 228.9 226.3 225.8 224.6 222.2 216.2 208.8 202.9 202.4 199.3 198.6 195.7 190.8 188.2 187.5 190.3 190.3 188.8 187.7 186.2 184.6 184.5 186 187.2 190 191.2 191.7 191.9 190.8 192.2 194.5 195.2 195.5 187.9 183 179.7 175.6 175.4 176.9 179 181.2 183.8 187.3 188.7 190.6 191.5 190.6 191.3 191 194 197.7 201 200.3 196.3 191.7 193.7 198.8 203.4 207.2 208.5 212.1 218.3 220.1 225.8 229.9 234.4 239.4 241.2 245.5 246.5 248.8 251.6 252 251.5 251.1 250.2 250.2 251.4 252.4 257.7 259.2 263.2 265.7 271.1 271.7 266.3 264.8 260 252.5 250.4 253.4 244.7 226.6 220.2 215.9 214.4 213.8 214.7 213.2 210.8 210.6 211.6 212.9 213 214.5 218.1 216.4 216.8 217.5 221.4 219.7 219 222.6 226.2 230.5 234 238.2 244.4 251.3 255.9 259.8 262.5 264 263.3 260.5 256.8 254.6 251.9 250 253.3 254 249.6 252.5
340.4 331.2 324.2 322.5 313.9 307 300.4 295.3 294.6 294.8 301.9 304 307.6 315.6 321.1 325.4 330 339.3 345 349.9 357.2 350 347.5 333.8 317.6 302.9 294.4 286.5 279.6 274.9 276.5 271.9 272.2 269.3 265.9 264.2 269.5 270.1 269.8 266 261.8 258.9 256.2 251.8 249.8 245.2 240.8 238.1 237.1 235 233.1 232 229.4 225.6 224.8 226.3 227.6 228 229.1 228.2 226.8 230.6 233.7 232.5 232.2 231.2 228.9 225.7 224 224.1 223.5 220.8 212.2 204 201.2 199.7 197.4 195.9 193.3 188.7 188.7 186.5 189.4 189.1 187.4 186.4 185.1 183.4 182.6 183.2 183.6 186.4 188.4 189.3 189.6 189.5 190.4 192.3 192.8 191.6 188 184.2 180.8 175.5 175.2 175.7 177 179.7 181.5 184.4 187.4 188.3 189.5 190.1 189.2 190 192 195.2 197.5 194.1 189.5 192.1 196.5 198.2 202.3 205.9 207.7 209.6 216 217.3 224.5 230.6 234.4 240.3 242.7 246.1 248.8 248.5 249.4 249.7 249.8 249.5 248.5 247.9 247.8 247 252.8 255.6 256.5 261.1 263.4 261.4 256 254.8 250.4 241.8 239.6 239.2 230.6 221 216.6 213.6 213.7 212.5 210.7 210.3 210.1 211.3 212.9 213.7 214.8 216.4 218.2 218.2 219.1 220.3 223.5 223.2 223.6 223.9 228.4 232.2 235.2 242.2 249.6 255.6 260.9 266 269.6 271 270 267.2 264.8 261.5 259.8 254.6 256 256.3 254.6 252.7
356 344.4 341.2 336.9 327.4 319.8 315.2 310.6 310.8 310.8 311.7 313.9 315.6 320.1 326 330.8 334.7 341.7 348.3 355.4 359.2 353.2 350.2 335.8 316 303.4 296.2 289.1 282.2 276.2 271.9 268.7 268.2 263.7 263.5 261.3 258.2 261 259 257.1 252.8 248.8 251 248.9 244.7 243.6 238.4 237.8 236.8 236.7 234.6 232.8 227.5 225.4 223.4 222.8 222.5 223.4 225 225.2 226.7 227.8 228.2 229.7 230.9 229.2 227.5 224.8 221.8 220.3 218.5 216.6 211.1 202.8 201.7 204.1 200.6 195.3 189.6 188.3 187.5 186.5 186.9 192 189.8 187.4 186.4 185.4 182.6 181.3 179.9 182.4 184.5 185.3 187 187.6 189.1 190.2 190.4 190.7 185.8 182.1 179.2 174.4 175 176 177.1 179 180.9 183.6 187 187.9 188.6 189.1 188.9 189.2 189.2 192 195 192.3 188 195.3 199.9 200.3 201.1 205 210.2 208.8 212.1 218.1 223.6 229.6 232.6 239.6 241.7 246.7 249 248.3 247.7 247 246 246.4 246.1 243.9 244.9 244 245.4 252.2 250.5 254.8 255.1 254.1 246.6 248.5 239.3 235.6 232.9 231 224.2 216.5 214.9 212.2 211.4 210.3 210.2 210.5 211.1 213 214.4 214.8 218.3 219.7 221.7 221.4 222.2 224.6 225.9 225.5 225.7 226 231.1 236.2 239.5 246.1 253.8 261.6 268.5 274.2 277.3 279.6 279.6 277 272.4 270.1 269 263.6 261.7 260.3 254.7 252.5
368.4 361 351 346.7 342.1 330.3 326.5 322.6 321.1 319.8 321.4 322 326.8 331.2 332.8 336.2 341.3 344.6 351.2 357.8 360.1 356 350.2 333.3 320.1 307 299.5 293.7 287 280.6 273.7 267.2 264.1 261 257.8 259.3 257.4 249.3 248.7 248.3 245.3 241.7 241.4 242 241 238.5 236.2 239.5 239.2 237.9 234.9 230.5 226.5 225.3 223.9 222 219.8 219.8 222.6 222.7 224.3 225.5 225.5 227 229.4 228.8 227.5 225.6 221.8 217.8 213.6 211.5 207.6 203.6 203.2 201.1 199.1 196.7 191.6 189.5 188.7 187.2 186.2 191.2 190.5 187.7 185.7 184.7 183 181.2 178.8 180.5 183.4 185.4 185.8 187.5 189.1 189.8 188.5 185.1 181 178.8 176.9 173.8 174.4 174.1 177.2 177.5 182.8 185.7 187.2 187.6 188.2 188.4 188.1 188.4 188.1 188.5 190.6 188 187.3 192.6 198.5 199 198.9 202.5 210.3 207.8 207.9 216.2 224.8 226 231.7 237.6 242.7 247.7 247.8 247.3 247 245.4 244.1 244.3 242.2 241.7 240.3 241.8 243.9 245.9 245.9 247.7 248.1 241.3 240 240 232.9 228.1 227.8 224.1 218 215 213.6 211.3 210.2 209.4 209.7 209.7 211.9 214.6 216.1 218 221.1 225 227.7 229.5 229.9 230.4 229 230.4 231.6 232 235.7 240.1 246.8 254.1 259.8 267.8 275.1 281.3 284.2 285.6 285.8 286.2 285.6 281.1 277.1 271.3 268.8 265.1 265.8 256.3
375.1 375.4 370.3 359.5 354 346.2 340.6 333.9 329.5 329.6 329.1 333.8 338.9 343.2 343 348.4 345 348 354.4 359 355.4 355.5 347.2 337.4 322.8 305.1 300.7 294.7 287.6 284 276.6 268.8 263.6 258.3 254.4 255.8 253.3 248 241.2 240.7 243.7 240.3 234.8 232.6 232.9 232.7 234.6 237.1 237.9 236.2 233.7 229.4 226.4 225.2 225.2 224 222.5 218.8 218.5 220.9 221 221.7 223.1 222.9 224.4 224.7 224.8 224 222.5 219.3 213.3 207.9 204.6 203.6 201.7 203.5 205.4 202.5 194.2 189.6 189.2 187.1 186.7 185.7 187.6 186.7 184.9 183 182.6 180.5 178.4 179.9 181.6 183.3 185 185.8 187.1 187.7 186.1 180.4 179.4 178.8 177.1 176.1 173.4 173.8 173.5 176.5 181 185 187 187.4 187.7 187.1 186.7 187.6 187.6 187.3 187 186.3 187.7 192 193.5 195.6 196.9 198.7 209.4 206.7 206.1 212.6 220.6 225.8 229.6 235.9 240 243.5 243.4 245 244.4 243 242 241.3 240.1 239.1 238.9 239.7 239.5 238.5 239.5 242.2 242.3 235.3 235.2 231.1 226.6 226.6 218.2 218.8 214.1 216.5 211.6 210.8 208.9 210.2 210.5 212.3 214.2 217.7 221.8 224.3 229 230.5 233.6 235.1 236.5 235.2 232.9 236.3 238.7 239.9 239.7 245.7 251.5 258.2 264.3 273.5 281.5 288.4 290.2 290.3 290.4 291.3 291.7 287.7 282.6 277.2 273.5 268.1 267.3 261.1
385.6 387.1 379.4 368.2 365.8 361.7 349.4 348 341.5 342.4 344.1 343.6 347.7 353 355.5 356.1 351.3 352.7 354.9 354.8 354.3 349.8 344.5 334.6 321.2 308.2 297.5 296.2 289.8 284.9 278.4 268.9 261.4 255.1 250.1 247.8 249.7 245.2 239.1 236.9 238.6 241.3 235.7 230.3 229.3 230.8 232.6 235 235.4 233.3 230.2 228.5 228.6 226.6 224.4 222.2 220.8 219.9 215.7 217 218.3 219.9 223 221.5 221.3 220.4 219.7 219.8 220 218.9 213.8 207.3 204.7 202.8 201.5 202.9 205 202.5 196.1 189.4 188.6 187.5 187.8 188.3 184.8 183.7 183.2 182.4 181 179.9 178.7 178.8 180.3 182 183.2 184.1 185 185.5 183.4 182 180.3 178.3 177.9 176 173 171.6 172.9 173.5 176.8 180.8 185.8 187.2 187.4 186.4 185.9 185.2 184.6 185.7 185.5 186.5 190.2 192.7 193.5 194.1 196.4 197.4 203.4 207.7 205.9 210.1 218.4 224.8 227.7 228.6 235.6 238.1 239.2 240.7 240.8 240.7 240.6 239.9 238.7 236.3 237.5 234.7 234.1 233 233.4 235.7 233.7 234 236.3 225.7 225.4 221.6 213.9 212.1 212.7 211.6 210.4 209.6 210 210.8 214.9 216.5 219.8 224.2 229.5 234.6 236.6 239.2 241 242.2 241.4 241.3 241 241.8 242 243.7 242.7 248.7 254.7 261.1 267.1 277.3 287.7 293.2 293.8 293.8 294 294.6 292.3 288.1 285.7 280.4 275.8 271.4 268.5 265.2
388.1 389.8 389.9 385.6 374.3 368.4 361.5 358 354.1 356.3 354.5 353.3 356.1 359.3 363.2 360.3 361.7 361 359.3 353.2 350.8 347.9 340.4 330.4 321.1 310.8 299.4 298.4 293.6 286.9 279.2 268.6 260.8 251.9 249.2 245.4 243.1 240.7 238.3 236.1 234.1 236 234 229.8 227 229.8 228.9 230.1 232.3 230.9 228.5 228.1 228.4 228.8 226.2 222.5 220.2 216.3 214.5 218.4 218.3 219.7 220.2 219.2 219.2 219.2 218.2 217 216.1 215.6 212.5 208 205.4 204.9 202 199.7 199.1 197.5 196 191.3 189.4 188.2 186.5 186.3 184.3 182.8 180.5 180.6 179.7 179.3 178.8 178.1 178.7 179.9 181.7 181 182 183.3 183.8 182.1 180.3 178.4 177.5 175.1 173.4 171.9 173.6 173.7 175.6 178 181 183.2 185.7 185.6 183.5 183 183 184.9 185.4 187.4 191.3 192.7 192.7 193.4 193.7 195.3 199.5 204.1 206.5 210.7 214.2 221.8 224.5 226.4 230.8 232.3 233.8 236.3 233.5 236 236.9 236 235.2 233.1 232.9 230.3 229.9 228.5 229.4 231.5 229.1 230.8 228.3 220.6 216.4 213.1 209.9 212.6 213.1 209.6 209.4 209.9 211 212.2 218.7 221 224.3 230.3 237 239.7 243.8 246.3 247.4 248.8 248.6 247.2 246.8 247 246.6 246.3 244.3 251.9 256.4 263.6 271.7 281.9 289.2 292.4 295.4 297.9 297.7 294.3 291.5 287.3 283.6 280.7 275.3 273.2 270 267.1
399.3 393 393.2 388.9 376.3 377.7 376.6 369.6 365.8 366.6 363.4 364.9 364.7 366.4 367.8 372.9 369.4 362.9 358.3 354.3 346.1 338.2 334.2 326.1 322.4 309.2 301.3 296.2 291.4 288.7 278.8 267.3 259.3 250.3 246.7 244.1 243 241.2 239 235.2 232.4 229.3 229 226.1 223.1 223.8 224.7 226.1 228.8 228.9 227 227.2 227 226.8 224.6 219.5 217.1 212.6 216 216.9 217.3 216.8 216.2 215.8 215.1 215.3 216.3 216.1 215.6 213.6 211.6 212.8 213.3 211.6 208 202 195.9 197.5 194.4 195.2 192.9 188.2 186.2 185.8 183.8 182.4 180 178.4 178.8 178.3 177.5 178.5 179.2 179.7 180.3 179.8 180 181.6 183.7 182.2 180.1 178 177 174.6 172.7 171.1 173.4 174 175.3 178.3 179.7 180.7 179.6 181.5 181.6 181 181.8 183.4 185.3 187.7 189.9 191.7 191.6 191.7 193.8 194.6 199.6 205.1 208.2 208.4 213.2 221.1 223.9 222.8 223 227.9 232.2 232.5 229.1 231.4 231.9 231.8 231.2 230.2 228.3 227 226.8 227.3 224.4 225.1 225.6 225.7 221.5 218 211.6 206 208.1 208.5 206.8 204.5 210 210.6 213 215.6 221.4 224.8 228.3 235.4 238 241.5 247.3 249.3 251.5 251.7 252.9 252.2 251.6 250.3 251.2 251 245.6 252.8 259.1 265.4 272 279.7 285.8 287.7 292.4 296.7 294.6 290.7 285.4 279.5 284.7 284.1 277.3 271.2 269.5 268.6
401.3 395.3 393.5 391.2 380.3 380.5 385.5 378.4 374.7 373.2 369.4 370.4 372.2 370.9 373.7 375.1 370.7 366.1 356.6 348.8 342.4 335.3 327.7 321.7 315.1 310.7 303.6 296 292.2 286.9 276.5 268.2 261.6 255.9 248.1 244.7 242.1 240 238 233.1 229.7 227 224.5 223.9 222.1 219.6 221 223 225.7 227.3 225.4 224.6 223.5 222.9 220.7 217.5 214.4 210.4 211.7 213.7 214.6 213.4 212.3 211.4 211.2 211 211.1 212.6 214.1 214.5 216.4 218.3 216.8 211.2 202.5 194.9 188.2 188.5 194.8 193 193.7 190.4 186.7 183.8 182.2 181 179.1 177.5 177.6 177.4 178.3 177.4 176.8 178.6 179.2 178.9 179.1 179.9 179.7 179.7 179.8 178.5 176.4 175.4 173.9 171.7 171.7 175.1 176.6 178.3 182.1 184 182.2 181.8 181.8 183.2 183.3 184.4 185.8 188.1 189.4 189.3 189.3 189.5 189.6 191.9 194 201.2 208.9 207.9 209.7 214.5 218.6 218.9 221 225.3 224.9 223.5 225.2 226.7 226.9 227.9 224.7 224.3 224.9 224.7 221.6 221.7 220.6 220.4 224.3 220.9 216.2 210.4 205.7 202.8 205 207.1 205.6 205.8 209 211.8 217.1 221.1 227.6 232 236.3 241.5 243.9 247.8 252.1 255.6 256.5 258.8 259.1 257.7 256.3 255.4 255.1 254.9 252.4 251.3 259.2 264.6 269.9 276.6 279.1 282 285.7 291.8 285 281.5 276.4 271.9 275.4 276.8 275.5 270.2 268.4 270.9
404.9 400.7 398.1 395.4 385.8 387.2 392.3 382 379.7 377.2 374.5 373.8 373.6 373.3 372.6 366.5 366.3 364.2 358.9 348.1 341.2 338.6 333.8 326.2 312.2 307.8 299.2 295.4 294.1 288.7 276.2 268.6 263.2 257.3 252.6 244.6 243.7 238.7 231.2 228.6 229 227.9 225.1 223.3 221.6 218.1 216.5 217.6 217.8 219.7 223.3 221.2 220.6 219.1 216.7 215.6 212.8 209.8 209.2 212.2 210.5 208.8 208.6 208.2 208.1 208.1 208.1 208.3 210.3 213.7 215.3 216.6 213.9 206.9 199.4 190.9 186.7 187 189.3 195.4 193.5 189.1 186.2 184.8 183.9 181 179.8 177.1 176.1 177.7 178.2 175.8 177.5 177.3 178.4 178.8 178.3 177.3 177.4 178.2 179.3 179 176.6 175.8 175.5 175.4 174.6 171 175.1 178.3 183.8 183.7 183.2 184.1 184.4 184.1 184.2 184.8 185.9 188.8 188.4 187.3 187.1 187.2 187.2 187.7 191.5 199.2 205.5 207.1 209 210.8 211.7 214.1 217 220.1 219 220.7 219.9 221.7 222.8 224 221.9 220 219.5 218.9 216.4 216 216.8 215.3 220.6 216.5 209.6 206 203.1 202.2 202.9 203 204.7 207.9 210.5 213.7 222.4 225.7 233.1 239.5 244.2 248.7 252.7 256.4 259.2 261.9 264.1 263.7 263.4 262.7 261.4 259.7 258.3 257.4 257.7 253.9 257.4 260.6 265.4 270.2 274 274.4 275.5 273 271.8 271.2 267 263.3 262.6 268.5 272 267.4 268.4 268.1
403.5 403.2 402.1 397.6 395.4 395.8 385.8 380.9 383.6 383.1 373.9 367.6 369 371.8 367.8 364.5 359.3 362.4 357.9 346.3 337 333.7 331.1 331.1 315.1 302.8 298.4 296.3 293.8 288.1 274.8 266.8 260.6 256.7 250 243.1 239.7 233.6 229.8 226.4 226.7 227.7 224.7 221 218.3 217.4 215.1 212.6 212.4 213.9 215 216.6 216.9 217.3 215.6 213.8 213.1 211.6 209.1 205.4 203.6 203.2 205.7 206.5 204.7 205.6 205.7 205.6 207.4 213.1 217.1 216.2 209.7 199.5 194.8 191.3 186.4 189.2 192.7 192.8 189.1 186.4 185.2 184.8 184.5 182.6 179.7 178 177.5 176.1 176.7 175.3 174.7 174.8 175.6 176.8 177.7 177.6 177.4 177.4 178.2 178.9 177.2 176.5 176.1 175.4 175.3 172.6 174.6 177.5 180.2 181.7 183.3 185.9 185.8 184.3 184.5 184.2 186.1 186.9 187.1 185.4 184.7 184.6 184.6 185.3 189.3 194.7 200.2 201.6 204.9 207.4 209.5 209.3 209 211.8 215.9 217.9 216 216.1 218.8 219.8 214.9 217.9 218.2 217.9 214.2 214.9 211.4 212.3 216.5 212 204.1 202.8 201.6 201.5 201.1 202.5 208.3 209.2 210.7 216.7 222.3 229.3 233.2 239.6 246.4 252.7 256.2 259.5 262.8 265.1 267.2 268.5 267.1 266.3 263.7 262.1 260.8 259.2 257.4 255.3 256.9 257.8 261.9 264.2 265.5 265.2 266 264.9 260.7 259.5 256.5 255.4 257.8 264.6 266.6 262.7 265.5 265.4
399.3 405.7 401.8 401.5 392.8 388.6 382.9 380.7 376 375 367.8 364.8 364.2 368.3 363 364.3 355.9 357 353.6 343.4 331.9 333.2 327.1 319.5 316 308 295 294.6 293.1 283.8 271.3 264.3 262.7 257.1 249.6 241.5 236 230.4 229.1 225.7 222.7 224 221.6 218.6 217.6 215.5 213.7 211.6 210.2 211.9 212.2 213.7 214.7 214.6 214.2 213.8 213.2 211.9 211.4 209.9 207.3 203.5 199.3 202.1 201.8 202.7 202.1 202.3 202.6 209.5 214.7 214.7 206.8 198.5 198.8 192.3 182.9 184.8 185.3 185.7 183.6 182.9 183 182.7 181 180.4 179.1 179.1 177.6 176.1 175 174.7 174 173.9 175.8 175.8 175.8 176.2 176.8 177.3 177.7 177.7 178.3 177.8 177.8 176.1 175.1 172.6 174.5 176.6 177 177.3 181.4 183 184.2 182.3 182.5 182.4 182.7 183.4 183.2 182.6 182.3 181.9 181.9 182.6 187.7 193 197.4 199.3 201.6 203.8 205.1 206 206.8 208.2 213 212.6 213.3 210.9 212.9 211.8 212 213.5 212.8 212.4 211.7 210.6 208.2 208.9 209.7 207.1 202.5 201.1 201.1 200.8 202.3 202.9 205.4 210.7 215 222.8 224.4 229.7 232.1 238.3 246.8 254.2 256.1 260.4 264.6 266.7 270.2 270.9 268.7 265.8 264.4 263.5 262 259.6 257.1 255.8 256.5 253.9 253.9 256.6 256.2 257.3 257.1 256.1 253.1 251.1 250.2 248.3 252.9 257 260.5 261.1 259.9 266.5
400 403.2 402.8 400.8 385.5 380.4 375.4 373.7 372.4 366.3 366.2 364 358.6 358.4 356.4 356.8 353.6 343.5 339.4 333.3 326.8 324.8 321.1 315.3 310.4 304.5 298 289.9 284.9 279.1 269.9 265 262.9 257 252.3 242.9 234.9 229 227.6 226.1 221.3 217.7 216.9 217 216.4 214.4 213.7 212.9 211.8 210.1 210.7 211.4 212.5 214.6 213.5 213.2 211.8 212.5 211.7 209.4 206.7 203.2 200 196 197.5 200.5 200.4 199.6 200.6 206.1 211.3 211.7 207.1 199 197.9 189.6 181.2 180.9 181 180.1 179.5 179.8 180.4 180.7 180 179.2 179.6 179.1 177.9 178.5 177.3 176.9 175.1 174.1 173.7 174.8 175.2 176.4 177 176 176 175.6 175.4 175.6 177.4 176.9 175.4 173.2 168.6 170.5 172.4 172.9 174 176.3 177.7 179.4 180.9 181.4 181.8 181.7 181.2 181.2 180.9 180.6 179.5 180.7 183.7 188.2 195.7 197.9 197.3 200.1 202.7 204.3 205.3 205.9 210.5 210.3 210 208 210.3 208.8 209.8 207 208.1 206.2 206.6 204.7 205.1 206.3 203.3 201.1 200.1 199 200.2 203.5 203.8 203.2 208.9 216.2 220.3 226 231.7 231.9 235 239.9 245.6 252.2 257.2 260.9 264.5 266.6 269.1 269.5 268 266 264.8 263.3 261.7 259.3 256.6 255 255.5 250.1 248.7 248.7 249.6 249.6 249.2 247.5 247.8 244.5 243.5 244.9 243.7 247.5 248.9 253.6 259.4 267.8
398.6 399.8 398.1 391.8 379.8 378.4 371.1 365.7 367.2 364.4 363.9 358.7 352.9 349.5 348.3 348.4 345.4 337.8 330.5 325.1 320.6 314.6 312.7 307.1 302.9 300 291.5 287.5 279.3 268.4 262.7 262.1 261.7 259.6 252.4 246.6 235 230.6 227.9 227.8 223 218.4 214.7 216.7 215.9 214 210.5 209.7 211.3 210.3 209 212.5 213.3 212.5 211.9 211.5 210.7 210.3 211.2 209.2 206 202.9 202.4 199.9 193.5 195.9 197.3 196.7 198 201.7 205.9 207.1 205.8 201.4 195.2 186.9 178.3 176.6 177.6 178.7 178.8 178.4 178.8 179.5 178 178.4 179.8 179.4 178.1 177.4 177.6 177.3 176.8 175.3 173.7 173.1 175.1 175.3 176.6 175.6 175.4 174.7 174.5 173.6 174.4 175.7 174.6 173.2 168.9 168.4 169.4 169.2 169.7 170.9 174.3 178.5 181.5 181.7 181.8 181 179.6 178.8 178.6 177.9 177.4 179 181.1 184.4 193 194.1 193.1 195.9 199.5 202.2 204.5 204.9 205.9 206.6 208.7 207.6 206.9 205 206.2 205.4 204.3 202.1 201.7 200.6 201.4 203.6 200.4 199.5 198.4 200.9 203 206.4 207.3 208.2 211.7 219.7 225 229.8 234.1 237.7 239.2 242.8 248.1 253.1 257.7 261.1 263.8 266.1 267.9 267.7 265 263.3 262.8 260.4 258.6 256.9 254.5 252.5 250.6 246.7 248.1 249.2 248.5 247.5 246.5 246 242.5 240.7 241 242 241.3 242.9 248.5 254.2 262.3 270
399.1 396.7 395 381.8 377.2 376.7 367 366.5 363.3 361.7 355.3 351.3 346.3 341.2 339 338 334.3 328.6 321.5 316 310.7 305.2 302 299.5 298.5 294.5 286.4 287 276.2 269.8 259.3 260.6 256.9 255.7 252.2 245.5 244.6 239.5 231 230.2 225.7 219.1 214.2 211.8 210.6 209.9 208.4 208 209.6 210 209.5 208.6 210 210.3 209.3 209.3 208.9 207.3 207.3 208.1 206.2 202.9 198.7 196.6 194.2 191.5 189.2 191.5 193.2 196.1 201.4 202.9 204.3 201 196.6 187.3 179.9 176.2 175.7 176.2 177.3 177.4 176.2 176.1 176.7 177.3 178.8 178 176.9 176.4 177.1 177.4 176.5 175.5 174.4 172.2 174.5 174.9 173.9 174.7 174.5 174.6 173.2 172.2 172.5 173.1 174.4 171.7 169.6 167.9 168.6 166.7 166 168.8 174.1 178.5 181.3 181.9 181.4 180.3 178.8 177.6 176.7 176 176.1 175.8 176.9 179.7 188.3 188 189.4 193.7 200.4 204.4 204.2 204.9 204.9 204.7 205.4 205.2 202.3 202.1 204 201.7 200.9 198.8 197.9 198.3 199.7 199.4 199.1 199.4 201.1 202.8 205.6 208.4 210.3 213.5 218.7 224.5 229.7 232.4 235.9 240.2 242.8 246.2 249.2 252.3 256.7 258.7 262.1 265.7 266.4 264.6 262.5 260.3 260.2 257.7 256.6 254.6 252.6 252.6 248.7 244.3 244.4 244.4 244.3 243.8 242.8 240.6 238.5 238.3 237.8 238.4 240.8 244.9 253.9 259.1 265.2 270.9
395.8 388.9 381 372.1 370.8 370.1 367.4 367.4 359.4 357 353.3 344.9 341 336.4 334 329.7 325.5 318.9 311.4 306.9 304.1 297.5 291.9 293.1 291.2 282.6 282 282.1 275.3 270.2 259.6 255.5 254.2 255.6 253.7 246.8 244.7 241.8 234 228.7 224.9 219.2 215.3 210.1 208.8 208.4 207.8 207.7 209.7 213.5 214.2 213.6 210.2 207.6 206.3 206.1 205.8 205.3 204.2 203.1 203.9 202.9 198.5 196.3 199.3 199.7 196.7 186.5 187.4 189.8 198 200.3 199.1 194.7 194.5 189.7 181 177.1 175.6 174.6 177.5 177.1 172.2 174.4 175.1 176.5 177.2 177 177.7 175.4 175.6 177.1 177.6 175.6 173.8 172.6 174.3 174.9 173.1 171.5 172 172 171.3 171.6 171.7 171.4 171.4 170.9 169.5 169.1 168.3 166.8 166.8 167.6 172.8 176.7 178.5 180.9 180.9 180.2 178.5 177.3 175.6 175.3 178.2 177.8 178.7 180 184.3 185.4 186.3 191.9 195 205.2 206 203.8 203.6 203.4 203.5 202.5 201.1 199.6 199.5 198.5 197.5 195.7 195.5 195.8 197.2 197.5 195.7 199.6 202.8 205.5 208 212 215.9 220.7 225.5 230.6 233.8 236.7 238.8 242.4 245.3 247.7 249.1 252.5 253.6 256.4 260 262.7 261.7 259.5 257.9 257.7 256.5 255.3 252.5 250.7 250.2 247.3 244.3 242.5 241.7 240.4 240.7 241 240.1 238.2 237.8 237.3 237.2 238.8 242.4 250.6 256 262.3 268.3 273.1
385.1 379.6 368.9 365.2 363.2 366.5 363.4 363.5 361 352.7 351.3 342.9 335.5 331.9 325.7 322 314.9 310.2 302.4 302 297 292.8 285.4 286.5 283.3 277 280.4 278.7 273 263.6 259.8 256.6 255 252.9 252.7 246.1 243.4 238.4 235.6 235.2 230.7 222.8 218 213.9 208.9 207 206.3 206.2 208.6 211.9 212.8 213.6 213.4 212.5 209.4 204.9 199.5 199.7 201.9 202.3 202.3 201.5 199.3 196.5 196.1 197.4 195.3 189.1 182.4 188 194.2 198.8 198 191.5 186.8 185.1 178.2 174 173.4 176.4 174.2 169.8 170.7 176.7 174.6 175.3 177.9 177.2 174.5 174.4 173.3 174.8 176.1 175.8 173.6 172.4 172.9 172.6 171.4 173.5 171 170.2 169.5 169.1 170 171.3 170.8 170.6 170.7 172 168.8 166.9 165.6 167.7 170.8 174.4 178.3 180.6 181.7 182.5 180 177.6 174.6 175.5 177.8 179.2 178.5 180.8 181.8 182.7 184.5 187.3 191.4 200.1 203.5 204.1 201.9 203.4 203.3 202.1 199.4 196.5 194.9 194.6 195.5 193 197.8 194.5 195.4 195.2 198.3 201.5 205.2 208.7 213.5 218.9 222.5 227.8 231 234.4 237.5 239.9 241.9 244.4 246.4 249.5 251 251 252.8 254.6 256.4 257.7 256.8 254.8 253.5 253.3 252 250 248.3 246.3 245.4 243.4 241.3 244 242.8 238.2 239.5 240.6 241.1 238.8 237.6 236.7 238.1 241.4 246.9 254.3 260.3 264.4 269.8 274.9
381.2 371.3 360.1 357.9 360.5 363.9 363.6 361.9 356.5 349 342.1 338.1 332.3 323.7 315.5 313.6 308.7 300.6 297.1 295.7 289.7 288.7 282.9 281.1 277.5 275.6 278.8 276.4 269.4 263.3 262.6 257.4 256.3 251.6 250.3 245.1 246.6 241.6 234.9 231.1 227.8 222.7 214.9 211.3 208.3 207.5 206.5 205.4 207.3 207 207.9 209.2 209.8 209.8 208.4 203.7 199 196.6 197.4 199.8 200.2 199.1 197.5 195.4 194.5 193.6 191.8 188.1 181.9 183.3 188.5 193.3 196.2 192.4 185 177.4 173.2 172.5 170.8 169.5 170 169.3 170.2 171.6 174 176.2 176.3 173.8 171.5 172.7 172.4 172.8 175.3 175.2 175.2 173.8 172.9 173.2 173.9 176.4 173 169.6 168.5 168 167.6 168.8 170.7 170.9 170.7 171.1 169.8 167.4 166.6 166.9 168.7 171.3 178.7 180.4 181.4 182.3 179.6 175.5 174.4 174.8 176.4 177.4 177.8 178.1 178.4 179.6 182.7 185.9 190.3 189.6 195.1 197.9 198.5 200.5 199.2 199.4 199.6 194.4 191.8 192 193.6 192.5 194 193.5 195.1 198.4 201.8 206.4 210.9 215.6 220 224.3 227.1 231.8 235.4 237.9 240.9 243 245.2 246.2 248.6 250.6 250.7 251.2 251.8 252.6 252.7 252.3 251.5 250.6 248.7 247.6 246 245 242.8 240.2 238.5 237.2 240.3 241.7 236.5 235.2 236.2 236.6 237.3 237.8 235.8 236.7 238.6 243.4 253.6 257.8 264.9 268.9 271.8 279.9
368.6 362.2 351.4 360.6 356.6 360 362.5 358.7 349 345.8 338.8 330.7 324.6 318.5 313.6 307.2 302.6 297.1 292.8 291.2 286.1 283.9 283 281.4 276.2 273 274.1 275.3 269.3 269 266.7 264.2 259.3 252.3 248.4 247.6 246.9 241.6 237 230.1 224.1 221 217.3 213.8 212.4 209.9 207.1 205.9 203.5 203.2 205 204.4 204.1 204.2 203.2 201.8 198.8 197 194.7 193.8 194.6 194.9 195.1 195.2 194.6 195.3 193.1 187 182.2 179.4 184.2 189.1 194 194.4 187.7 185.4 182.6 176.6 169.8 168.7 167.7 168.2 169.8 170.3 171.3 173.1 173.4 171.8 170.5 171.2 171.4 171.9 173.2 174 175 173.5 173 172.1 177 179.3 175.5 173.3 171.2 169.1 167.5 168.8 170.1 170.8 169.6 169.7 169 166.5 168.8 167.9 167.7 169 176 177.5 178.5 179.9 178.3 174.2 171.3 173.5 175.1 175.7 176.1 176.5 176.2 176.3 179.4 184.6 188.2 188.8 189.7 191 191.9 192 194.1 196.2 196.8 194.2 189.5 190.8 189.7 193.5 191.6 194.8 204.6 208 210.9 212.9 215.3 220.4 224.3 228 231.7 235.7 238.9 241.2 243 245.7 247.7 249.9 251.1 251.4 251.6 251.2 250.6 249.8 248.7 248.3 247.8 246.7 244.8 243.5 241.6 239.8 237.8 235.1 232.3 234.1 235.9 236.9 231.6 230.4 233 236.4 238.6 236.7 237.1 238.2 241.2 248.7 255.4 262.5 268.2 273.1 276.8 282.4
360.7 345.9 352.9 353.7 353.3 354.1 359.3 351.7 347.9 341.1 339.2 326.2 319.7 313.9 309.1 299.8 290.7 288.3 287.3 285.2 284.8 282.3 281.7 280.3 278.4 272.4 274.7 271.8 270.1 269.8 267.9 266.3 262.1 255.9 249.7 248.8 247.5 242.7 238.5 232.7 226.5 224.6 219.6 217.3 213.7 210 206.4 204 203.1 203.8 201.2 203.8 201 201.5 200.6 199.5 197.3 196 194.9 194.1 193.4 193.1 194.3 195 196.2 196.2 194.7 190.9 185.4 183.2 178.1 184.1 187.9 191.9 192.1 188.9 184.6 175.1 169.1 167.8 168 169.7 172.5 171.1 170.3 170.7 170.2 169.7 168.8 169.5 171.2 169.4 170.7 171.7 171.9 172.7 172.8 171.9 173.1 173.1 172.9 173 173.7 170.6 168 167.8 168.4 169.3 169.1 169.3 166.4 170.6 174.9 173.5 170 167.5 170.5 172.4 174.9 176.4 174.8 171.9 171.2 172.2 173.7 174.3 174.6 175 175.5 176.9 181.2 184 188.1 188.8 189.2 190.1 190.2 189.6 190.1 189.6 192.9 191.4 187.1 188.5 189.4 192.4 191.5 195.4 201.3 210.5 215.1 218 219.9 223.6 227.4 231.5 234.8 237.2 239.8 241.8 245.8 248.1 250.5 251.7 253.5 252.8 252 250.4 249.3 248.3 245.9 245.9 245 244 242 239.5 238.2 237 235.6 232.5 231.2 231.1 234.7 234.6 230.1 227.7 232.7 234.3 236.2 233.5 237.1 243.8 248.7 251.9 258.5 267.1 270.8 275.1 282 288.6
341.3 340.5 349.2 347.1 351.4 346.5 344.5 346.3 345.9 338.8 331.6 324.8 318 309.6 302.5 294.6 287.7 286 283.1 281.7 284.7 280.9 279.4 276.3 273.6 271.3 271.3 272.2 271.4 271.3 268.8 267.2 265.2 259.4 254.1 249.6 248.7 244.5 240 234.3 228.1 226.4 221.4 218.7 214.6 209.7 205.5 204 206.8 206.3 203 200.4 199.4 199.7 199 200.3 196.9 196.4 195 194.5 194.1 192.8 193.2 194 194.5 193.8 192.5 190.2 186.4 181.9 180.1 176.1 180.9 184.7 185.4 186.6 180.1 170.1 167.9 167.1 171.2 171.9 177.8 173.7 171 169.6 168.6 168.1 166.3 167.6 168.3 167.6 167 167.8 169 170.4 171.3 171.8 172.1 172.4 172.4 173 172.3 170.1 169.6 169.3 167.3 167.8 167.7 166.9 165.7 169.7 175.2 176.7 172.7 169.5 167.1 169.1 171.7 172.5 171.4 170.6 170.4 171.2 171.8 172.7 173.6 173.6 176.7 188.6 189 190 190.1 190.2 190 190.6 190.3 189.1 188.2 186.8 187.3 186 188.9 189.6 191.9 191.8 192.9 195.8 201 209.4 215.3 219.6 222.4 226.4 229.8 233.5 237.2 239.3 241.6 243.8 247.7 249.8 251.6 253.5 255.8 254.3 252.7 250.6 249.5 247.5 245.5 244.2 242.7 241.7 239.7 238.9 236.7 235.6 234.8 231.9 231.2 230.1 229.3 228.3 227.4 227 227.2 228.5 230 235 239.4 243.7 251.3 255.4 264.1 270 275.3 280.5 288.6 296
336.5 337.1 342.9 347.5 339.3 341.9 340.4 343.2 339.3 333.1 323 318.9 314.4 307.4 297.4 291.1 288.5 289.8 282.6 280.2 283.8 279.6 277.8 274.3 271.8 271.8 271.6 274.3 272.1 272.6 271.7 268.8 267 263.5 261.4 256.7 248.6 244 240.7 235.3 228.8 226.5 222.3 219.3 214.5 209.5 206 212.4 213.5 209.7 203.7 201.3 200.3 197.4 196.4 195.7 194.8 195.9 196.2 196.4 195.6 194.4 193.2 190.4 191.1 191.3 190.2 187.3 183.8 179.8 177.5 174.9 173.3 173.4 180.7 182 178.6 168.7 167.5 168.4 171.7 171.9 171.1 168.7 170.3 169.8 168.9 167 166 164.9 165 164.8 165.5 167.5 169.1 170.3 171 171.5 171.7 172.1 172.4 171.9 172.4 171.9 169.3 169.5 168 166.7 166.9 167.4 166.7 167.9 172.5 175.8 175.7 171.7 169 168 168.2 169.4 168.9 170.4 169.9 170.2 170.3 172.3 173.3 173.7 177.7 186.7 192.2 195.6 195.4 193.5 191.5 191.2 190.6 189.7 188.8 185.3 187.6 188.6 189.2 190.8 191.7 193.9 196 199.8 204.5 212.4 216 221.1 225 229.6 231.8 235.4 238.6 241.5 243.7 245.9 249.4 251.8 252.9 255.2 255.6 254 252.3 250.1 249.2 247 245 243.2 240.7 239.4 239 237.6 236.3 234.7 233.2 231.6 230.8 229.7 227.9 227.2 227.8 226.9 226.8 226.9 235 241.8 243.6 247.9 251.8 259.4 268.1 275 282.2 288.2 294.2 300
334.9 338.9 340 335.8 334.2 336.7 337 331.8 327.8 322.2 316.5 316 315.7 308.3 298.2 293.3 291.5 292.9 284.1 279.6 278.7 278.2 275 270.7 269.2 267.2 272 272.1 272.9 272.7 272.4 271.6 269.7 267.3 269 262.4 255.2 246.5 241.3 235.9 231.8 226.5 222.6 218.7 214.7 210.7 207.2 209.5 211 208.6 204.2 201.2 199.7 198 196.4 194.7 194.5 196 196.8 197 196.9 194.6 193 193 190.7 185.9 188.5 186 182 179.3 177.9 173.5 172.5 172 172.4 177.7 178.5 172.4 167 168.5 169.4 169.3 167.5 166.9 169.6 169.5 168.9 166.3 164 164.9 163.8 164.3 164.6 166.9 168.4 169.9 170.5 171.2 171.6 171.8 172 172.7 170.9 170.3 170.3 168.7 168.5 167.7 166.6 165.9 164.9 168.4 173.6 178 176.8 173.2 170.3 169 168.5 167 169.2 170.5 168.7 167.9 170.3 173.2 174.2 173.1 173.9 178.1 185.8 192.2 195 194.8 192.6 193 190.4 188.9 185.8 186 189.9 188.9 190.1 195.1 205.8 209.3 209.6 210.6 211.9 215.7 220 224.4 228 231.9 235 237.6 240.7 243.9 246.2 248.1 250.9 253.6 254.4 257.4 256.2 253.2 250.9 249.8 248.5 246.3 243.9 241.8 239.7 237.8 236.9 236.9 236.5 234.1 233.8 232.9 230.4 228.7 226.5 226.8 227.9 226.5 226 230 240.2 241.9 246.3 250.8 254.4 261 270.8 277.9 284.9 291.2 297.2 303.9
338.2 335.3 335.3 332.1 323.5 327.7 328.8 322.8 321.3 318 315.7 315.4 312.3 306.5 298.5 291.6 295.6 292.6 283.8 278.7 274.6 274.3 271.5 266.3 264.1 266 268.8 272.7 272.8 272.8 273.1 272.8 274.4 270.3 269.2 263.9 256.8 248.8 242.3 239.7 233.3 228 223.3 218.9 214 211.4 207.8 208.6 210.4 209.4 205.2 201.1 198.9 197.9 196.6 195.4 194.2 194.8 195.3 196.8 196.3 195.4 194 191.7 188.3 187.6 183.1 182.6 183 182.6 181 176.7 171.7 170.7 171.2 175.1 176.6 171.9 167.1 165.7 167.9 166 165.5 164 167.8 169.1 167.4 167.3 163.9 163.4 164.8 163.3 163.6 165.3 168.3 169.7 170.3 171.5 171.7 171.1 172.4 172.3 173.5 171.2 169.5 168.5 168.6 169.1 166.7 164.9 165.4 168.7 172.1 176.5 178.3 173.9 171.1 169.2 168 168.4 169.3 169.3 167.9 169.6 169.2 172.6 173.6 173.7 173.3 177.4 177.6 179.2 185.9 190.9 190 189.8 194.4 189.8 185.2 184.1 186 188.5 193 200.7 209.2 214.6 217.6 218.6 219.4 220 224 226.8 230.3 234.3 237 240 243 245.6 247.9 250.3 252.2 253.7 254.8 257.1 254.5 253.1 251.1 248.8 248.1 245.8 243.3 241.2 239.1 237 235.4 235.3 234.1 230.8 234 236.7 235 230.6 226.2 225.6 226.6 226.3 225.9 231.9 239.5 243.1 247.3 252.4 258 267.7 273.9 280.1 285.7 292.1 299 307.4
327.8 334.3 328 322.2 317.4 321.3 322 320.5 317.8 313 317.9 312.1 306.6 300.8 297.3 290.1 293.3 289.9 281.1 276.7 274.3 270.3 266.4 262.2 265.1 265.3 269.7 270 271.9 273 276.4 277.9 274.7 270 266.2 262.7 256.1 248.8 244 240.9 233.8 228 223.3 218.2 216.6 214.6 209.3 208.2 208.6 207.1 205.4 203 199.7 198 196.7 194.9 194.1 193.7 194.3 196.6 196.1 194.9 193.2 188.1 187 184.8 181.6 180.8 179.1 181.7 182.8 178.5 174 168.9 169 172.3 174.5 172 168 165.4 165.1 165.4 164.6 162.7 162.7 163.3 164.4 164.3 162.5 162.7 162.7 162.4 163.2 164.6 167.2 169.5 169 170.4 170.8 172 171.6 172 173.8 173.5 171.1 170.4 169.5 167.8 167.5 166.5 163.9 165.9 170 172.9 174.6 174.8 173 171.4 167.6 168.3 168.5 167.5 170.3 171 172.7 171.8 172.5 172.3 173.8 175.4 176 178.1 179.2 180.5 185.3 187 190.4 186.4 184.4 185.3 187.9 191.5 200.4 203.8 208.5 213.6 219.7 223.1 224.1 224.5 226.9 230.6 233.3 236.5 239.4 242 244.4 246.9 249.2 251.4 253.5 255.3 256.5 256.9 254.9 252.6 250.4 248.9 247.1 244.8 242.4 240.3 238.2 236 233.9 232.9 231.2 228.9 229.9 234.6 234.4 228 225.2 225.3 225.1 225.6 226.7 235 240.5 244.4 251.1 258.2 265.3 271.7 276 282 287.6 293.4 300.9 311.1
323.6 323.6 318.5 316.4 311.4 315.8 315.5 315.7 312.1 312.3 316.6 313.3 298.6 301.8 293 287.5 286.4 282.8 279.8 275.6 271.5 268 260.7 259.9 260.6 262.2 265.5 269.1 270.7 271.6 278.1 279.3 274 268.6 264.4 261.6 255.9 250.2 246.4 241 233.8 227.4 223.1 219.1 218.2 215.5 211.7 209.6 208.3 205.4 203.5 201.5 199.6 198.4 196.3 194.2 193.6 193.6 194 194.8 194.4 192.1 190.3 192.3 190.6 187.7 184 182.5 183.5 179.5 174.8 174 172.5 170.2 169.1 166.5 167.4 166.7 166.1 164.6 166 165.6 164.7 162.6 161.9 160.1 162.1 161.4 161.2 161.4 162.2 161.7 162.1 165.7 167.2 168.4 169.9 170.9 170.5 170.4 171.5 171.4 172.7 173.5 171.9 170.4 169.3 167.3 166.8 166.8 165.2 164 165.7 170.4 173 173.3 172.1 171.3 169.6 168.8 167.8 169.1 169.9 174.8 173.6 172.3 172.8 172.9 174 174.5 178.9 180.6 180.4 180.4 180.8 182.1 183.3 182.3 187.3 187.7 192.2 199 206.8 211.7 211.6 212.5 218.4 224.1 225.1 226.4 229 231.7 234.6 238.5 241.1 243.6 246.1 248.5 250.6 252.8 255 257.1 257.5 256.7 254.5 252.7 250.5 248.4 246 243.7 241.2 239.6 238.3 235.6 233.5 230.9 227.6 227 227.5 230.3 230.5 226.9 225.2 225.4 225.9 226.6 228.4 233.7 241.4 248.1 253.2 263.6 269.2 273.8 278.8 284 289.6 296.2 303.6 311.8
311.6 312.8 307.6 305.2 303.1 304.9 306.8 305.4 308.6 313.5 316.6 311.4 297.3 299.8 292.2 283.7 281.5 278.6 277 271.7 269.7 266.1 260.4 255.1 257.1 257.6 263.2 267 269.1 274.5 274.7 274.9 270.6 268.5 263.5 259 255.2 251.2 246.4 240.5 233.4 228.6 225.9 224.3 220.8 216.3 213.1 209.8 207.4 206 203 201.5 199.4 198.3 196.4 194.5 194.3 194.9 194.2 193.1 191.9 193.9 194.5 194.8 191.9 189 186.1 187.1 184.9 179.7 175.7 172.2 170.4 170.2 168.9 167.5 166.4 165.8 165.3 164.7 165.7 165.3 166.2 164.5 163.1 161.5 160.6 160.4 160.5 160.9 160.9 160.9 162.9 164.2 166.1 167.8 169.2 170.7 171 170.8 171.1 170.5 171.3 172.1 172.4 170.6 168 167.4 166.4 165.4 163.9 161.9 165.1 168.9 172.4 172.6 172.1 171.5 170.3 169 168.9 170 171.4 173.1 175.1 173.4 173.1 172.9 174.9 175.4 183.8 187 185.8 185.8 183.9 181.1 185.1 184.9 193.1 197.7 203.9 208.9 214.4 216 216.7 220.7 222.7 225.5 227.5 232 235.5 234.9 237.2 240 243.2 245.3 247.8 250.1 252.2 254.7 257.3 257.8 257.7 257.2 255.5 253.3 251.3 248.3 245.2 243.5 241.7 238.5 236.5 234.5 232.4 229.5 228.4 226.4 225.5 226.4 226.9 225.3 224.6 224.7 227.6 229.3 230.5 239.6 245.5 251.5 255.8 265.3 271.2 275.1 279.5 284.8 290.1 295.5 303.3 311.4
309.8 303.8 299.7 296.8 293.5 295.2 298.3 302 305.2 309.9 309.1 309.1 298.9 291.6 288.5 281.9 278 275.1 270.8 268.7 264.7 260.8 256.2 253.8 254.9 255.5 261.1 264.9 268.4 272.2 273.4 269.6 267.6 267.8 261.4 258 253.9 249.4 245.7 240.3 234.5 230.2 227.1 227.1 223.3 219.3 216.1 211.3 207.8 205.8 203.9 201.4 200.1 199.1 198.1 200 200.1 200 197.6 192.9 192.7 194.4 194.8 193.5 192.3 188.5 186.6 186.3 183.5 179.2 174.9 173.1 171.2 170.8 173.1 171.6 169.8 167.6 167.3 165.4 164.2 163.8 162.7 163.6 163.7 161.9 162 159.9 158.5 160.4 160 160 161.4 163.6 165.1 167.2 168.6 169.8 170.6 170 170.4 170.6 169.9 170.3 170.8 169.6 168.2 167.8 167.6 166.2 164.8 161.8 164.3 167.7 172 174.7 174.6 172.2 170.4 168.8 168.6 168.9 172.8 173.6 174.1 174.5 173.7 174.8 175.6 177.8 187.4 192.1 190 192 193.2 190 192.6 194.3 201.3 207.9 211.4 217.8 219.8 220.4 220.3 221.4 225.8 228.1 231.6 237.1 239.9 241.7 241.7 243.4 245.2 247.1 248.9 251.5 254.5 257.2 258.7 258.4 258.7 257.5 257.6 255 252.8 250.6 247.5 245.2 243.1 240.8 238.4 234.8 232 229.3 228 226.7 226.7 226.5 225.5 225.3 224.4 225.6 227.7 230.1 238.2 245 248.8 250.8 258 266.4 273.1 277.1 281.1 286.4 291.4 296.5 303 312.2
297.8 293.2 289.6 291.3 283 286.9 291.6 292.8 297.8 299.5 305.4 305 296.3 289.3 282.3 277.4 273.8 270.8 267.4 265.3 260.6 255 251.1 250.6 246.7 252.6 257.9 260.6 268.2 268.9 267.8 266.2 266.4 264.6 259.7 257 253.3 246.6 244.7 239.6 234.9 231.1 228.4 227.1 225.9 223.1 219.6 212.8 207.7 205.3 204.4 202.9 200.6 199.3 199.1 199 198.1 198.1 195.4 192.6 195.1 195.9 195.6 194.7 192.8 190.3 187.5 185.6 182.3 180.8 180.1 179.6 174.2 171.7 170 172.6 172.6 171.2 170.7 169.2 167.2 164.4 162.9 163.2 162.6 162.4 163.5 163.5 159.7 159.2 159.6 160.8 160.8 162.2 164.1 165.9 168.3 169 169.8 170.1 170.5 170.7 170 169.3 168.4 168.2 168 167.1 167.4 167.1 160.8 160.5 163.1 163.1 166.4 171.3 173.7 174.4 172.6 170.2 169.9 169 170.3 173.3 173.6 174.5 174.2 173.6 175.4 179.7 189.2 191.9 192 193.8 197.3 199.1 200.9 201.5 206 211 217.5 223 224.8 225.9 225 224.8 228.7 233.2 237.4 241 242.9 243.7 243.9 245.6 247.4 249.4 251.4 253 255.2 258.5 259.8 259 259 258.3 258.5 258 256.3 253.4 250.5 247.8 245.4 242.3 239 237.1 234 229.8 228.6 228 227.7 227.1 231.2 230.6 226.8 224.9 225.9 230 240.1 247.5 249.1 251.6 258.6 267.2 274.5 279.3 282.8 287.8 291.9 296.5 302 312
282 281.5 282.8 279.8 280.2 285.3 282.7 281 281.9 292.2 297.4 299.1 292.5 285.3 277.9 272.5 268.7 264.4 263.4 260.9 256.1 251 250 246.1 244.5 243.5 251.3 259.6 261.8 263.9 263.6 262.6 263.7 261.9 260 257.3 252.3 245.9 243.3 238.4 234.1 230.4 228.2 227.8 226.7 225 222.3 217.3 207.4 204.9 203.3 201.4 200 199.4 199.7 201.3 199.7 195.5 193.4 195.4 198.2 198.3 197.3 196.7 194.4 191.5 189 187 184.9 184.8 185.4 183.4 177.4 172.2 169.5 169 172.2 173.3 172.3 169.4 167.2 164.7 162 162.1 161.6 161.2 160.6 161.3 160.1 159.5 159.4 159.4 158.9 160 163 166.1 167.7 168.2 169.1 169.6 170.1 171.1 171.1 169.8 167.2 168.6 167.1 165.5 164.5 162.4 164.9 168.8 169.1 168 165.1 165.4 169.1 174.1 174 172.2 170.9 170.6 170 172.6 173.4 173.5 173.4 173.5 174.1 181.5 186.2 191.6 194.7 196.6 198.3 202 204.8 208.3 210.6 213 219.5 225.9 230.5 230.6 230.6 231.3 229.8 234.2 239.6 242.6 244.5 245.5 245.9 247.7 249 250.8 252.8 254.7 257.6 259 259.1 260.4 260.7 259.3 259.3 258.9 257.4 255.1 252.7 250.6 247.4 244.5 241.6 238.7 236.7 232 230.1 228.5 227.8 228.2 228.1 225.8 224.6 224 226.8 230.9 237.8 241.5 245.4 255.9 262.7 268.4 275.5 281.5 285.4 288.4 291.5 295.6 299.9 309.2
264.7 273.2 275.4 274.3 276.8 279.9 277.7 270.7 278.1 283.5 289.9 291 286.4 280.2 275.3 269.2 262.7 259.1 256.7 255.3 252.8 246.8 248 243.8 240.8 241.9 248.2 254.4 256.8 257.8 259.6 262.9 266.3 262.1 258.3 254.7 251.4 247.3 241.9 235.3 230.9 228.5 227.3 226.6 226.7 225.7 223 220 209.7 205.3 203.5 201.1 199.7 197.6 198.3 197.5 198.5 195.9 192.8 195.5 198.8 199.2 199.9 198.9 196.3 193.3 190 187.9 186.4 185.3 183.9 181 175.7 170.1 167.3 167.1 167.6 170.9 174.5 172 166.7 163.2 162.5 163.1 161.2 160.9 160.8 160.5 159.6 160.1 158.5 158.8 157.9 158.8 160.8 164.3 167.5 168.3 168.7 169.6 169.9 169.6 169.1 167.8 166.5 164.9 165.6 165.7 163.5 160.6 167.2 170.3 171.6 169.2 167.2 166.9 167.2 169.2 175.2 175.3 173.3 172.8 170.4 170.7 171.6 171.3 172.1 172.8 176.9 184.4 187.8 191.6 195.1 198.4 201.7 205.2 208.4 211.4 215 218.1 219.6 225.2 231.5 235.3 236.2 236.1 233.8 233.6 237.8 242.4 245 247.2 248.4 249.7 250.8 252 254.2 256.2 257.9 257.8 258.1 260.4 261.2 261.1 259.7 259.5 258.4 256.3 254.1 251.9 248.9 246 243.6 241.4 237.5 234 231.8 229.1 228.3 228.2 225.6 223 222.5 223.9 228.4 233.1 236 240.9 249.7 260.2 267.9 273.9 279.4 284.4 288.3 291.9 293.6 294.8 298.2 305.7
258.3 264.7 269.5 266.5 270.8 273.6 270.2 263.9 278.1 277.4 277.4 281 278.1 274.5 269 265.3 259 253.4 252.3 248.3 248.8 244.1 243.3 242.5 238.3 243.4 244.4 247.6 251 252.4 257.1 264.1 269 264.7 258.2 252.7 250.6 246.4 240 235.8 230 228.1 224.9 226.5 227.1 228.3 224.3 217.5 208.5 204.7 202.6 201.3 199.5 197.6 195.4 194.6 193.8 193.3 194.5 195.4 196.9 199.6 201 200 197.5 194.4 190.4 189.9 187.4 184.3 182.3 178.3 174.1 169.3 166.7 167.3 166.5 166.1 167.8 168.7 165.5 164.7 165 164.3 161.7 160.6 159.9 159.9 160.1 160.5 160.2 160 159.7 157.6 158.8 160.8 164.7 167.4 169.8 170.6 169.5 167.6 166.4 165.9 164.6 164.1 163.7 164 162 160.9 166.3 169.1 171.1 169.7 167.9 167.7 166.9 165.8 168 171.3 172.6 174.6 171.4 170.7 170.7 172 173.5 177 183 187.6 190.1 193.8 196.7 199.6 202.8 207.8 210.5 214.2 218 220.7 223 225.5 231.3 235.7 239 239.7 237.9 238.9 241 244 245.6 248.3 250.1 251.5 252.5 252.9 253.4 256.2 256.9 257.1 257.1 258.5 259.5 258.3 257.3 256.5 255.7 256 254.4 252 249.3 246.4 243.6 242.4 237.8 234.5 232.5 231 228.4 227.3 225.1 222.8 222.2 224.3 229.3 230.8 237.4 245.7 254.7 263.4 269.4 277.4 280.6 288.5 291.8 293.2 294.5 296.1 298 301.5
253.3 256.6 260.3 256.1 263.1 264 265.8 263.2 266.7 269.8 268.9 268 266.9 263.7 261 257.5 253.6 249.6 246.8 244.4 242.2 240 238.5 237.8 236.4 240.7 241.3 241.1 243.3 248.5 253.6 259.7 266.1 265 260 253.1 248 238.9 238.2 234.6 230 226.5 224.2 224.4 230 230.9 227.2 217.7 208.7 204.8 203 201.6 199.1 196.5 194.7 194.1 194.2 193.5 194.6 195.7 196.8 199.9 202.8 201.4 199 194.6 194.1 194.1 188.8 181.6 176.8 173.1 169.2 167.5 167 166.1 168.5 167.4 165.7 165.4 165.1 165.6 165.4 163.6 161.3 161.7 164.8 164.8 162.3 161.6 161.3 160.8 160.4 159 159 159.2 160.9 164.7 167.6 169.6 169.3 166.8 166.1 165.6 165 163.1 163.4 160.9 160.3 159.3 163.3 167.6 169.3 168.9 168.7 169.5 169.6 166.9 167.7 170.5 171.4 172.1 172.7 171.3 172.4 175.7 178.1 182.8 187.7 191.3 194 197.2 200.1 203.1 206.5 210.2 214.4 217.3 220.7 224.5 226.1 231 235.6 239.5 241.8 244.3 243.4 244.6 246.9 250.2 249.6 248.5 250.3 251.4 252.3 252.4 252.6 254.1 255.8 256 255.3 256 257.1 256.4 255.9 254.4 253.3 252.3 252.6 251.2 248.3 244.6 241.3 237.4 236.9 235.5 235.6 237.5 236.8 231.7 227.2 222.7 223.5 222.4 227.5 235 243 252 257.5 264.2 272.3 277.3 282.9 288 290.8 292.8 294.5 296.4 298.1 299.9
254.6 249 248.5 254.1 254.6 253 259 257 260.5 260.3 261.4 261 259.9 256.2 251.7 248.6 248.3 247 241.9 239.7 240.7 240.2 235.6 233.1 231.3 234.1 237.3 238.1 239.7 244.2 250.2 250.9 257 260.2 258.3 251.9 246.5 238.4 237.3 236.7 229.3 226 223 219.3 222.7 226 223.9 216.6 208.1 202.8 201.7 201 199.4 196 194.7 195.1 196.8 194.9 194.5 195.9 198.2 200.2 201.9 202.8 200 197.6 196.7 193.8 186.7 179.3 176 173.4 169.8 167.7 166.7 166.5 169.7 172.7 174.8 174.6 170.5 166.6 166.6 164.8 164.5 162.7 166.3 167.1 166.7 165 164.3 162.5 160.7 159.8 158.8 159.6 159.3 160.3 164 165.9 167.2 166.5 167.3 167.6 165.6 162.2 159.7 156.5 158.3 159.7 162.6 164.9 168.2 170.2 172 173.8 174.9 175.5 174.3 172.1 172.3 172.4 173.3 171.4 174.9 178 182.7 188.3 191.9 194.8 197.3 200.5 203.8 206 210 213.6 218 221.6 224.6 228 232 235.5 239.1 242.6 245.7 248.5 248.6 251.2 253.7 255.6 254.8 251.4 251.8 252.8 252.8 251.3 250.8 251.2 252.1 252.5 253.5 252.1 253.3 253.4 251.9 251.1 250.6 250.8 250.9 250.3 248.6 243.5 235.6 235.5 238.5 242.6 244.9 243 240.9 235.2 227.9 223.9 221.7 223.4 228.9 240.8 247.5 254.6 258.9 265.9 270.4 276.7 283.3 293.7 298.8 297.8 296.6 298.5 299.5 300.6
251.5 246.8 239.7 241.2 246.6 247.8 249.8 250 251.4 252.5 256.4 252.3 252.8 249.3 242.8 242.1 240.5 238.3 237.1 238.2 245.7 249.6 244.6 234.7 228.6 228.7 232.7 235 238.3 240.2 241 242.1 249.6 251.5 248.2 244.2 240.5 237.6 236.4 234.6 230 225.9 223.6 219.4 216.3 215.1 213.3 212 208.8 204.3 203.3 201.8 199.1 199.6 199.1 199.1 198.6 196.4 194.9 195.6 197.9 199.8 201.5 202.9 203.4 201.1 197.7 191.3 182.7 176.7 176.7 174.2 171.1 168.8 168.3 168.5 168.7 173.7 176.9 177.5 176.5 172.8 169.8 168.7 168.3 168.2 168 167.2 166.6 165.6 165.6 164.6 162.7 162.7 159.3 159 158.5 159 160.3 162.2 164.1 165.3 165.8 165.8 163.2 157.9 155.8 158.1 159.3 161.3 162.7 164.8 168.1 171.4 172.9 174 174.5 174.7 175.2 174.2 173 173.2 173.3 172.9 178.7 182.8 190 193.9 195.8 197.9 200.4 203.6 206.3 209.5 213.3 217.6 221.4 224.8 230.1 232.9 237 239.5 243.2 245.1 248.2 252.4 253.1 254.7 257.7 258.9 257.4 256.7 253.2 253.4 252.4 251.6 250.1 249.4 250.1 250.7 250.3 249.3 248.9 248.8 247.8 247.5 247.4 247.4 247.2 247.5 246 241.6 235.3 233.2 234.7 240.7 244.7 243.3 241.2 237.3 228.8 223 222.2 224.7 232.3 239.6 244.6 252.7 260 266.4 270.6 278.6 289.1 295.9 300.7 300 299.3 299.6 300.2 300.1
243.7 243.7 237.3 237.4 243.7 244 242.1 242.1 243.7 247.5 247.8 244.9 245.3 241.5 236.5 234.4 234.1 232.4 231.9 235.3 239.8 246 242.7 233.3 229.2 227.1 227.2 227.7 230.4 235.9 237.1 238.9 241 240 242.5 238.8 234.7 233.4 232.5 229.3 227.1 225.2 222.4 218.4 215.4 212.1 210 209.6 208.5 206.5 204.9 205.2 202.9 202.8 202.2 201.5 200.8 199.1 197.3 195.2 198 199.9 201.1 202.4 203.1 201.1 196.2 189.1 180.8 177.2 176.6 173.6 172.9 175.5 174.3 173.7 172.5 175.8 178.9 179.9 179.1 175.6 173 172.3 172.1 170.6 169 168.7 169 167.5 166 166.4 163.9 163 162.2 159.1 158.5 159.1 160.3 159.1 158.1 162.1 162.5 163.4 159.9 155.3 156.7 158.1 160 161.5 166.8 170.9 170.2 172 172.2 173.3 174.3 174.5 174.7 174.9 175.3 174.5 174.7 179 184.2 188.7 193.3 196.3 200.6 202.6 204.3 206.8 209.6 213.3 216.6 221.3 224.2 227.8 231.8 236.1 240.1 243 245.8 248 250.2 254.7 256.7 258.6 259.2 259.4 258.5 258.6 257.5 256.2 253 250.8 250.4 249.4 247.8 247.1 246.3 245.6 245 245.6 244.5 245 245.1 244.7 244.2 243.7 241.3 236 232.9 231.8 233.2 240.9 244.6 243.1 241.9 238.9 232.7 223.7 222.8 228.2 231.8 237 243.8 251.3 257.1 264.5 272.9 284.3 294.5 303.5 305.3 303.1 300.9 300.7 300.6 299.9
241.3 238.4 234.9 238.2 243.6 241.4 236.8 239.1 242.2 242.5 240.5 237.1 234.9 235.7 234.7 230.4 230.1 228 226.4 229.7 232.4 236.4 239.4 233 227.3 225.1 225.6 222.8 223.5 227.7 233.5 231.2 232.2 233.4 234.9 231 229.3 228.2 228.3 225 227.8 231.2 228.9 222.3 216.9 210.7 208.9 208.9 206 205.7 205.1 204.4 205.1 204.3 204.5 204.3 202.4 201.1 198.4 196.2 197.6 199.3 200.9 202.8 202.3 198.9 193.9 187.9 182.6 178.8 176.7 175.6 179.6 182.5 181.1 179.7 177.9 180.5 181.9 182.1 181.5 177.7 177.3 177.1 174.9 172.2 170.3 171.7 171.4 170.3 169 167.3 166.4 164.6 163.7 162 161.4 161.8 163.1 162.3 161.3 157.5 157.5 156.2 155.4 156.9 157.5 157.9 158.9 160.2 166.3 172 177 175.4 174.1 174.4 174.5 174.9 175.3 178.3 179.2 177.6 179.2 182.8 188 192.8 199 203 206.1 211.6 214.6 215.8 216.4 218.3 221.3 224.5 227.7 229.8 234.2 238 241.8 245.3 247.8 248.7 251.1 255.9 259.5 260.9 262.5 260.8 260.7 259.6 258.2 255 252.6 250.9 248.8 247.6 244.8 243.1 241.9 240.7 239.9 241.9 241.7 239.6 241.3 241 239.9 239.6 237.5 233.3 231.4 230.5 232 239 243.5 241.9 240 235.7 229.7 222.5 222.3 228.1 228.7 233.2 245.3 249.5 260.3 270 277.4 287.8 299.9 309.1 307.3 304.6 302.4 301 299.9 300
235.9 237 234.2 230.5 234.9 234 232.2 234.9 238.6 236.9 235.8 232.3 232.5 230.5 228.6 227.7 225.3 222.4 219.9 222.5 226.7 229.1 232.6 230.8 224 221.5 223.5 221 221.3 224.2 223 226.7 225.5 226 224.4 226.2 225.3 223.1 222.2 220.8 225.7 232.3 235.3 230.3 219.7 213.1 207.6 205.9 205.1 204.4 204.5 208.9 211.5 212.4 208.5 205.6 203.3 201.9 198.3 196.8 197.7 199.2 200.8 202.8 202.9 199.9 198.8 192.2 182.6 181.2 178.6 181.5 183.8 186.4 185.7 184.5 182.2 181.1 183 182.7 183.1 180 183.2 181.3 176.2 176.1 176.3 176 175.3 180.1 181.4 176.6 173.3 172.1 169.6 167.6 166.2 164.8 163.9 163.3 161.3 158 157 155.9 155.2 157.3 158 158.3 159.1 160.1 164.2 167.8 173.6 179.3 177.5 176.4 176.7 178.6 179 179.3 178.8 176.8 180.6 186.1 190.1 195.1 200.4 206.4 214.7 220.2 223.9 225.1 225.7 225.9 227.3 227.6 229.7 231.8 234.8 239.1 243.3 246.1 248.1 249.6 251.7 255.4 258.6 262 261.7 263.1 262.2 260.5 258.7 255.4 252.3 250.9 247.8 245.5 242.6 240 239.1 237.4 236.5 237.9 237.8 236.7 235.1 236.5 236.9 237 234.6 230.3 229 228.9 230.4 235.7 239.7 239.7 237.2 231.3 226.5 223.7 221.3 226.1 233.7 232.7 243.5 253.5 261.8 269.5 276.5 290 299.2 308.6 307.8 304.3 302.3 301 300 299.1
231 230.8 230.9 229.2 226.1 226.6 229.4 230.2 232.5 230.2 233 232.1 228.4 227.1 224.7 225.4 221.6 218.9 214.7 216 219.4 224.3 227.5 227.8 221.3 218.6 218.6 220.1 217.8 218.8 216.9 219.4 219.8 219.6 220 218.4 219.8 218.5 215.4 215.3 221.3 226.3 230.3 229.3 222.5 216.2 210.1 206.2 205.5 204.9 208 208.1 209.5 213 213.3 209.8 206 202.6 198.8 197.2 198.9 200.9 202.2 204.5 206.8 208.1 206.1 201.6 191.3 186.9 183.8 183.4 184.7 188 188.3 186.4 183.9 182.6 182.4 183.8 185.4 185.3 189.6 183.6 180.3 180.8 179.3 179.5 179.7 183.9 184.5 181.9 177.8 175 172.4 170.7 168.3 165.8 163.9 163.1 160.6 158.8 156.8 155.5 154.7 155.4 157.7 158.4 158.5 159.6 161.2 165.3 169.1 175.2 177.3 177.3 175.9 177.5 177.1 177.6 172.7 173.2 179.8 185.8 191 198.3 204.6 211.3 217.9 226.2 229.5 230.1 230.6 232.1 230.9 230.6 231.5 232.4 235.7 238.7 243.6 245.2 247.5 249.8 251.7 255.2 256.1 259.1 260.4 260.8 260.6 259.2 257.1 254.6 253.4 251.3 249 244.7 240.8 238.3 237.4 234.5 233.1 233.4 233.2 232.3 231.7 234.1 235 237.3 234.4 229.5 227.5 228 230.6 232.4 235 235.9 235.1 234.7 229.8 223.9 221.4 222.9 229.9 237.2 246.9 254.9 260.1 267.7 279.4 284.2 294.5 302.6 304.6 302.4 302.6 302.2 299.7 298.9
227.6 226.9 227.3 224.3 221.9 222.7 225.7 229.9 227.5 226.1 227.5 226.1 226.4 223.7 223.5 223.1 219.4 213.9 211.8 214.3 223.4 229.2 230.4 228.1 223.9 217.6 214 217.2 214.8 213.6 215.5 216.5 215.8 216 214.7 214.7 214.6 210.6 212 213.6 214.8 220.9 224.1 224.8 221.9 219.9 216.5 210.2 205.4 205.6 206.6 207.1 208.4 208.9 209.5 208.1 206.8 204.4 201.7 197.6 199.1 202.6 204.9 206.9 208.8 208.4 204.2 197.8 191.4 189 187.5 186 187 188 188.5 187.4 183.7 185.1 184.5 185.4 192.4 189.3 188.2 188 187.8 185.6 182.1 180.7 179.6 183.2 186 185.4 181.2 177.3 174.5 171.4 169.4 167.1 165.9 164.8 162 158.8 158.5 154.6 156.9 159.9 158.2 158.2 158.2 159.3 160.1 160.9 166 170.3 171.6 171 170.5 171.4 171.5 168.9 171.3 178.1 180.4 186.8 191.2 199.6 205.8 212.9 219.1 227.2 230.7 231.9 233.4 233.1 232.8 232.5 232.4 234.4 236.6 239.1 243.7 246.7 249.1 252.3 253.5 253.3 253 255.1 257.6 257.5 256.7 256.3 253 251.9 252.6 250.6 247.2 242.7 239.2 236.9 235.5 233.3 230.9 228.9 228.5 229.5 229.8 232.5 233.3 234.2 234.1 230.4 226.1 224.6 227.9 232.8 234.5 233.6 232.1 227.7 226.5 223.4 221.4 222.4 230.7 240.7 248.2 254.1 258.6 265.5 273 279.2 284.2 290.4 293.2 297.4 299 299.2 297.4 296.3
225.6 223.7 222.2 220.4 220.8 220.4 224.1 225.7 225.6 223.6 222.1 221.9 221.8 222.6 221.2 217.8 214.5 210.9 209.6 214.9 222.3 228.2 232.9 228.4 217.3 211 209.6 209.4 208.9 210.4 213.8 213.1 213.6 211 209.5 208.7 207.5 208.6 211.5 212.7 214.4 217.6 219.5 219.8 220.2 220.9 219 214.4 208.3 206.9 205.7 206.5 207.7 210.5 209.2 207.9 207.4 205.5 204.2 199.8 200 203.8 206.6 210.5 212.6 210.4 204.9 196.4 193.4 190.3 188.2 187.7 186.8 186.4 187 185.5 183.5 185.6 188.8 189.8 193.1 191.1 190.5 189.1 188.5 187.2 184.3 182.2 182 181.6 183.4 184.9 181.9 178.5 175.1 170.8 168.4 166.5 165 163.6 162.3 158.9 156.1 155.1 155.5 157.1 157.6 158.6 158 159 160.1 160.5 161.9 165.1 165.6 162.9 161.2 164 165.3 169 176.3 177.3 182.6 185.4 195.4 202.6 205.9 210.7 219.8 226.8 230.2 232.6 233.4 234.6 235 234.3 233.5 234.3 237.4 240.9 244.4 248.3 251.2 252.8 251.9 250.4 249.8 250.3 253.2 253.9 252.4 251.5 250.3 249.4 249.6 247.5 244.3 240.4 239.3 237.3 233.9 232.3 230 226.7 226.1 227.1 229.3 228.8 228.4 227.1 228.1 227.2 224.8 222.2 227.9 234.7 234.3 231.6 230.2 226.1 223.4 222.8 221 224.2 231 240.6 245.9 250.4 256.6 262.1 265.9 274.7 280.3 282.1 286.7 293.4 297 297.8 295.5 293.9
221.6 220.4 220.5 219.3 218.1 217.5 218.6 220.7 220 218.6 218.6 218.1 217.8 219 218.2 214.5 210 209.2 207.1 212.9 217.7 221.3 225.9 224 213.4 206.9 205.6 205.2 206.3 209.4 210.5 211.2 209.7 206.6 203.6 202.4 207.3 210 211 212.6 217.6 222.9 222.9 219.9 216.2 214.4 213.2 210.9 206.4 205.1 205.2 206.1 207.7 209.5 209.5 208.6 207.1 206.4 204.9 201.4 201.8 204.4 208.3 213.1 214.9 213.4 208.3 199.6 196.6 193.8 189 188.1 187.3 186.9 186 184 185.4 187.8 189.5 190.4 193.1 192.1 190.9 189.9 190.2 191 186.9 184.5 182.4 182.9 181.4 182.8 182.4 179.2 173.6 170.7 168.1 166 164.2 163.4 161.6 158.6 154.5 154.5 154.8 155.3 157.2 157.6 157 158.5 161.7 162.1 160.7 161.1 160.5 160.5 162.4 166.4 167.7 168.6 177.5 180 181.9 186.3 197.5 203.6 207.2 211.2 218.8 225.7 229.9 233 234.8 235.3 235.4 235.6 235.6 237.7 241.6 244.4 246.7 250.4 251.2 249.3 248.7 247 245.9 245.8 246.6 248.4 247.5 246.8 245.8 246.2 245.6 244.4 240.2 239.1 237.7 234.7 231.6 230.5 228.9 227.1 225.1 226 226.1 225.6 222.6 221 221.6 220.1 219.4 220.6 228.5 234.5 233.1 231.5 228.6 226.9 222.3 221.8 223.1 225.2 229.1 237.3 242.4 247.8 252.4 255 258 266.1 272.9 278 283 287.9 291.2 291.9 290.9 290.1
219.1 217.8 216.3 214.6 214.5 214.7 214.1 215.4 215.6 214.2 216.2 218 215 215 214.5 211 208.8 206.9 204.7 208.3 211.3 214.2 215 216.7 212.4 205.9 200.3 201.5 201.2 206.9 205 204.5 204 204.2 200.7 200.1 204.4 207.4 209.7 213.8 221.2 226.3 225.5 222.9 219 214.5 211.3 209.3 206.7 205.1 205 206.4 208 209.6 209.5 208.8 207.9 206.1 205.4 203.6 203.1 205.2 207.3 211.5 214.9 215 211 204.1 202.4 198.6 191.6 188.6 188.1 187.2 184.6 186.2 188.1 189.6 190.7 191.2 191.7 191.6 191.1 189.8 192.9 193.3 189.4 186.5 185.5 183.3 180.7 180.6 181.6 181.4 177.5 176.8 174.3 170.2 164.1 164 167.3 164.5 158.7 153.5 153.5 153.4 154.7 156.8 156.5 157.6 159.9 157.5 158.8 158.4 160 162.3 163.6 165.4 168.6 171.8 176.1 180.4 183.2 188.5 197.6 203.5 207.2 212 217.5 223.7 229.2 232.3 233.8 235.1 235.9 236.3 237.2 242.6 244.8 247.2 248.7 250.6 248.5 246.4 244.7 243.4 242 240.9 240.7 241.3 241.5 242.1 241.1 241.5 240.6 240.7 236.4 233.8 233.7 230.1 228.1 227.5 226.7 225.7 223.1 223.3 223.1 220.3 219.7 219.1 218.3 216.5 216 219.5 226.3 232.6 234.2 232 229 226.6 221.3 224.6 226 227.7 230.3 233.5 239.6 243.9 247.1 249.3 257.4 263.9 270.2 274 276.9 280.2 282.8 284 284.2 284.3
