ncols 200
nrows 83
xllcorner 270000
yllcorner 902950
cellsize 50
153.1 158.9 159.5 160.7 160.6 164.5 161.9 160.7 159.8 159.1 158.4 158.2 158.1 157.5 157 156.2 157.3 158.2 160.5 160.1 158.8 158.3 157.9 159.5 161 162.1 162.9 164 165.1 168.2 169.8 171.5 173.7 176 178.4 182.6 183 185.7 188.8 189.9 189.7 192.7 194.4 195.5 196.6 194.8 193.7 194.4 193.1 192.2 193.3 192.9 192.3 191.4 189.5 189.3 189 188.5 187.6 185.7 181 178.3 175.9 174 172.6 170.5 168.8 168.4 168 167.3 166.9 167.3 167.9 168.1 169.3 166.3 162.4 159.9 158.4 157.7 157.2 156.8 156.7 156.7 156.8 157.3 158.4 164 166.9 175.6 178.5 184.3 190.5 195.4 205.7 214.6 222.5 229.6 239 248.4 256 261.3 265.6 264.4 257.1 248.9 237.2 226.3 215.1 206.7 203.8 198.3 193.2 192.6 193.7 189.5 185.8 185.7 192.6 199.5 202.9 205.8 209.6 212.5 213.1 211.9 204.6 200.6 199.4 197.5 195.9 194.1 193.1 192.6 192.6 193.5 193.2 195.3 197 196.2 199.4 204 207.5 214 218.5 221.6 224.4 231.4 234.5 238.8 244.4 248 250.1 252.4 255.7 264.6 269.8 271.2 271.3 273 274.7 276.7 277.6 275.9 275 273.3 271.7 271 270.3 269.7 268.4 265.5 265.9 264.5 263 264.2 264.7 264 265 265.7 266.7 268.2 269.2 268.7 267.7 267.7 270 271 272.4 273.3 275.8 279.1 282.7 285.5 290.7 295.9 301.1 307.4 313.1 322.2
144.9 151.5 156.1 157.8 157.4 159.4 159.4 159 159.8 159.1 158.3 158.2 158.1 157.8 157.3 156.2 156.6 157.2 158.5 159.4 158.2 157.5 157.8 159.8 159.7 160.7 162.9 163 163.3 164.9 167.6 168.9 170.9 173.3 175.9 178.2 180.5 181.9 183.9 184.9 185.5 189.5 188.6 190.3 192.2 193.5 194.9 194.5 194.1 193.5 193.5 193 192.5 192.2 190.5 190.1 189.6 188.9 188.4 188.9 184.5 180.3 177.5 174.1 171.7 169.9 168.4 167.9 167.3 166.7 166.4 166.3 166.8 168.4 171.1 170.2 164.1 161 159.3 157.7 157.3 156.9 156.8 156.8 157.2 159.5 161.8 166.2 167.7 174.4 183 190.6 193.8 200 209.8 218 224.4 230.9 238 247.8 254.7 259.5 264.1 265.6 261.7 250.5 241.8 230.2 220.3 213.7 211.9 203.4 196.1 192.4 189.5 189.4 185.9 184.6 189.7 199.2 201.8 201.5 205.8 210.7 209.8 206 201.1 199.3 197.9 196.7 195.6 194.3 193.5 192.9 193.4 192.8 192.9 193.6 194.7 195.5 199.9 201.9 210.9 219.3 224.7 226.2 227 232.9 238.1 241.4 246.4 251 253.5 255.4 258.4 264.5 269.7 273.4 274.9 275.9 277.3 278.9 278.9 278.8 276.4 274.8 273.2 271.8 270.7 270.1 268.5 268.9 268.2 266.8 266.7 267.5 267.6 267.3 268.1 269.1 270.4 272.5 274 273.2 273.2 272.7 275.2 277.3 277.4 279.8 282.2 285.6 289.7 292.7 298.8 303.8 309.9 318.3 329.2 338.8
147.3 143.6 148.2 151.8 154 155.1 155.4 156 158 157.8 157 157.7 157.4 157 157.2 156.6 156.5 156.7 157 157.9 157.4 157.2 157.4 159.2 159.1 159.4 160.6 161 162.1 163.6 164.8 166.2 168.5 170.9 174.1 175.6 176.5 178.6 180.8 183.3 182.4 185.1 185.3 186.6 188.1 190.2 193.1 194.7 194.8 194.6 194.1 193.6 193.1 192.9 191.6 190.7 190.3 190 189.6 190.2 189.3 182.9 176.9 173.8 171.2 169.3 168.1 167.3 166.7 166.2 165.9 165.8 165.8 166.9 169.7 170.7 167.2 162.8 159.8 158.1 157.4 157 156.9 157.2 157.7 159.1 161.7 166.7 171.5 177.9 183.9 189.3 195.7 204.7 212.9 221.8 226.6 229.8 234.7 239.3 248.8 257.7 262.5 264.1 259.3 252.2 243.4 233.8 226.9 223.8 221.3 211.4 201 192.8 189.7 187.7 185.8 184.2 184.8 192.9 198.6 198.8 201.9 206.1 206.5 203.8 199.3 197.9 197.8 198.3 197.4 195.2 194.4 193.6 194.2 193.8 193.2 195.2 197.3 196.7 199.9 212.2 215.3 220.5 226.1 229.5 231 235.4 240.4 243.6 248.6 252.3 254.9 258.2 262.7 265.9 272.1 276.6 278.6 279.7 281.6 283.3 283.7 282.6 279.6 276.4 274.7 273.3 272 270.6 270.9 270.9 270.8 270 269.2 270 270.4 270.7 271.4 273 275.2 277.2 277.1 277.7 279.4 280.6 281.7 282.2 281.5 285.9 288.4 294.2 298.8 302.8 307.9 312.6 322.2 334.3 343.4 351.5
149.7 148.7 141.4 147.4 149.3 151 151.8 150.6 153.3 154.6 155.6 154.6 155.5 155.7 156.2 156.7 157.8 156.5 156.7 156.7 156.8 156.9 157.1 158.5 158.2 158.4 158.8 159.8 161 162.2 163.3 165.9 166 168.9 171.1 171.8 174.1 176.3 177.7 180.7 181.1 182.1 184.1 186.1 187 189.2 191.7 193.4 194.7 194.6 194.5 194.1 194.1 193.6 193 192 191.6 191.2 189.6 188.6 187.7 184.2 179.2 174.2 171 169 167.8 166.7 166.2 165.7 165.4 165.4 165.5 166.2 167.2 168.7 167.5 162.2 160.1 158.6 157.5 157 157.2 157.6 158.1 161 164.7 167.7 173.5 179.4 185.6 190 194.8 203.3 211.4 220 226.1 228.6 230.5 234.3 239.4 249.3 261 264.6 260.6 254.7 245.2 238.6 234.3 232.6 231.9 219.2 207.4 195.8 189.9 188.1 186.5 184.8 184.1 186.4 192.9 196.9 200.8 204.2 202.6 200.9 197.6 195.7 196 196.5 197.6 197.7 196 195.2 193.9 192.9 193.2 195.9 198.5 200.3 203.3 212.4 217.8 222.7 226.3 228.7 232.8 237 240.6 244.5 249.5 253.8 257.8 261.5 264.8 270.7 277.1 281.2 282.7 285.4 288 287.8 287.7 287.6 284.5 280.7 276.9 274.8 273.2 271.3 272.4 272.5 272.2 272.7 272.5 273.8 273.6 274.3 276.5 278.3 280.5 281.8 283 284.1 285.3 286 285.4 287.9 288.7 291.1 295.7 302.9 307.4 312.2 316.4 322.2 335.8 345 356 366.9
146.7 145.4 145.1 139.6 142 140.8 140.8 146.8 146 149.6 151.5 154.9 157.2 157.2 157.6 157.9 158.5 157.5 157.7 157.8 157.4 157.4 157.3 157.7 158.1 158.5 158.9 159.5 160.4 161.1 162.1 162.9 164.3 166.4 167.3 168.4 170.4 172.6 174.8 177.2 179.7 183.6 187.2 188 188.3 189.6 192.5 195.1 194.7 194.2 194.1 194.9 200.9 197.7 196.8 197.1 195.1 192.4 190.6 186.9 185.4 181.1 178.1 174.5 170.5 168.6 167.4 166.1 165.6 165.1 164.8 165.1 165.4 165.8 166 166.8 167 164.6 160.7 159.2 157.7 157.1 157.8 158.4 159 160.8 165.7 168.1 172.6 178 183.8 190.1 194.4 200.3 207.3 215.4 221.3 224.4 225.6 228.5 231.9 237.5 247.7 256.9 260.2 256 248.4 244.3 238.4 235 233.9 226.2 215.5 202.4 191.7 189.1 187.4 185.8 183.9 184.2 185.6 191.3 195 199.6 198.6 196.9 194.5 193.9 194.3 195.1 197.8 197.4 196.6 195.3 193.7 192.3 195.5 195.2 195.3 204.3 207.2 211.6 219.4 222.7 226.4 229.5 231.7 235.9 239.8 243.7 249.5 253.9 259.7 263.9 269.2 274.3 279.3 283.4 285.7 289.7 290.7 290 290 289.6 287 283.1 280 277.3 274.2 273.7 274.3 273.7 274.4 275.1 275.4 277.6 279 280 280.2 282.8 285.9 286.7 287.8 289 290.2 290.3 290.9 293.9 295.4 299.3 304.4 310.3 316 321.3 326.4 335.8 349.1 360.8 374.5 386.8
146.6 143.8 142.6 141.3 137.9 138.6 141.8 142.9 143.7 149.6 155.4 157.5 158.8 160 159.5 159.2 159.1 159 159.6 159.9 158.2 158.1 157.8 158 160.3 159 159.5 160 160.4 160.7 161.7 163.2 162.9 163.4 165.9 167.2 168.2 170.1 171.8 174.1 178.2 184.7 188.2 191.8 191.9 191.5 193.1 195.9 196.3 194 193.8 194.6 205.2 202.4 199.4 199.2 198.4 194.7 190.7 186.7 182.4 179.8 176.9 173.5 170.9 168.2 166.9 165.6 164.9 164.6 164.3 164 164.3 165.4 165.8 166.6 166.8 165.5 164.2 160.4 159.6 157.3 158 159 159.8 161.3 165.6 168.5 170.9 176.5 181.6 187.6 193.9 198.7 203.1 208.9 214.2 218.6 221.9 221.9 224.5 229.1 238.9 247 252.1 254.2 249.4 247.9 242.1 237.6 233.8 225.9 218.7 209.4 198.1 189.8 187.8 186.9 186.2 183.4 183.5 185.1 191.1 194.8 193.5 190.9 192 192.4 193 194.2 197.8 197.1 196.4 194.7 193.2 191.5 195.7 194.8 196 205.2 208.9 212.8 220.3 222.7 225.5 229.3 232.6 235.2 238.9 242.8 248.1 252.9 258.7 265 271.2 277.1 280.5 284.9 286.7 289.7 290.8 290.8 290.2 289.6 288.2 285.5 282.3 278.5 275.6 275.1 276.2 275.8 277.1 277.8 278.9 280.3 282 282.4 284.5 287.8 291.5 292.7 293.9 294.8 295.7 297.5 297.7 299.4 302.5 307.4 314.2 318.7 323.7 330.8 337.1 347.9 363.8 378.7 394.1 411.1
144.7 143.6 141.1 138.3 137.2 136.6 138 142.8 145.8 149.1 152.9 155 157.3 160.6 161.2 161.1 160.9 160.6 161.2 161.9 164 159.9 158.6 158.3 159.5 159.7 160.2 160.6 161 161.3 161.7 161.5 161.6 162.1 163.4 163.3 165.7 167 169.3 171.4 175.8 180.5 184.9 189.4 192 191.4 192.3 192.4 193.5 193.5 193.5 193.6 202.4 203 201.4 199 196.6 193 190.5 185.4 182.9 178.8 175.3 173 170.9 167.9 166.4 165.1 164.3 164.1 163.8 163.5 163.2 164.2 165.5 166.4 167.5 166.8 165 162.2 161.6 159.2 158.7 160.1 161.7 165.4 166.9 169.4 171.4 176.2 181.4 185.1 190.8 196.7 201.1 204.1 206.6 212.6 214 215.7 215.6 220.4 231.2 238.9 242.2 246 245.3 246.4 245.2 237.5 232.2 224.1 215.9 210.7 202 190.6 188.3 187.5 188.6 186.7 183.7 183.1 184.4 185.9 188.7 187 188.3 190.6 191.7 194.6 196.5 196.5 196.1 195.4 192.6 190.9 193.6 199.9 204.6 207.7 209.5 212.5 218.9 222.3 225.1 227.7 231.8 235.4 238.3 241.5 246.7 252.5 259.5 265.1 270.9 276.7 281.1 284.9 288 289.1 290.6 290.8 290.2 289.5 288.2 286.2 283.9 280.3 278.7 277.1 277.9 278.3 280.7 282.3 282.5 283.8 285.5 287.6 289.3 292.9 296.8 299.6 300.4 301.1 301.9 302.5 304.2 308.1 312.4 317.1 323.5 330.7 337 342.8 351.6 362.3 377.2 395.6 416.5 437.9
141.2 140.5 139.4 138.4 136.5 136.4 135.8 139 141.8 146.4 150.2 152 155.3 159.9 165.2 162 163.2 161.9 161.9 162.3 166.9 163.4 160.7 159.8 159.6 160.3 160.9 161.2 161.6 161.9 161.9 161 160.1 160.6 162.4 162 162.1 162.8 165.2 167.7 172.4 176.9 180.3 184 188.4 189.2 190.6 191.6 191.3 192 191.3 190.6 198 200.3 201.4 198.5 195.3 192.5 188.5 183.8 179.5 176.7 174.9 172.6 170.6 167.9 166.3 164.8 163.5 162.8 162.5 162.1 162.4 163 164.7 166.8 171.2 172 167.6 164.5 163.5 161.4 161.1 162.9 162.3 165.3 168.4 169.6 171.1 173.5 179.6 183.4 187 193.4 198.2 200.1 201.2 203.9 209.2 211.6 210.8 211 219.4 228 233.6 235.5 237.7 237.5 240.6 235.6 227 220.6 213.1 208 199.2 193.8 188.3 187 185.7 188 186.7 183.4 181.4 180.7 182.4 182.3 185.1 187.5 187.7 192.6 194 194 194.5 193.3 192.4 190.5 189.9 194.4 200.4 204 207.7 213.7 217.7 220.4 223.7 227.1 232.1 234.9 237.2 240.7 246.1 253.3 259.4 264.5 269.7 275.5 279.8 283.7 287.6 290 291 290.8 290.1 289.5 288.1 286.6 285 281.4 280 278.9 280.5 282.8 284.8 285.7 287.1 287.3 289.7 291.8 294 296.1 300.8 306.2 306.4 307.4 307.7 311.9 315.9 320.7 326.8 331.3 337.8 347.1 352.1 356.6 367.6 377.6 393 411.8 438 459.7
142 140.9 138.9 138.2 137.5 137.5 136.7 136.4 137.5 140.2 145.8 149.5 153.8 158.3 160.2 163.8 164.9 163.6 163.4 163.8 163.9 164.6 162.7 161.3 160.6 160.9 161.5 161.8 162.2 162.3 161.4 160.5 159.4 159.3 160 161.2 159.8 159.1 160.8 162.4 167 172.1 176.5 180.3 183.9 185.9 187.6 189.4 189.3 190.4 190.2 189.7 192 197.2 197.7 198.5 195.4 190.6 186.2 182.1 178.7 175.9 174.6 172.1 170.3 167.5 166 164.4 162.9 162 161.1 161.3 161.9 162.4 163.5 171.6 174.8 175.1 171.2 166.8 164 165.1 164 164.1 163.9 163.6 165.5 168.6 169.7 170.8 176.1 181 184.6 188.8 194 197.3 198.3 199.2 201.9 205.3 207 206.2 210 218.7 221.5 224.4 225.6 227.4 228.1 224.3 219.2 211.8 207 203.6 197.6 194.5 188.9 186.2 185.3 184.6 184.1 184.1 181.9 179 178.7 178.9 180.1 182.7 183.6 187.7 190.7 191.7 193.1 192.3 190.9 190.5 189 191.4 196.8 201.6 208.5 213.2 215.9 217.9 221.8 225.3 231.8 233.2 236.4 240.9 246.5 253.4 259.3 264.8 270.1 274.1 278.5 282.6 286.7 289.4 290.8 290.9 290.1 289.4 288.4 287.1 285.4 283 281.7 281.7 283.2 285.8 289.9 289.2 290.5 290.2 292.1 295.6 297.7 300.6 306.5 312.8 314.7 315.3 318.5 328 334.8 338.3 343.7 351.8 357.5 364 368.2 371.7 379.8 396.3 410.9 432.5 455 467.5
146.1 144.2 143.6 140.7 138.7 136.7 135.8 135.7 137.4 139 140.3 143.5 147.9 154.7 159.2 161.7 163.2 164.4 163.2 163.1 163.9 164.4 163.5 162.4 162.6 162.4 162.1 162.4 162.7 161.8 160.9 160 158.8 156.7 156.1 155.1 157.5 156.8 156.3 156.4 160 165.5 171 175.4 179 181.5 184.7 186.2 186.5 186.9 187.1 186.8 186.9 191.1 193.1 193 192.6 190.2 185.7 181.4 177.7 174.7 174 172.4 170.2 167.1 165.5 164 162.4 161.5 160.5 160.4 161.8 162.6 163.2 171.2 175 174.5 172.8 169.1 166.9 168 166.5 164.4 164.2 164.4 164.7 167 169.2 170.5 172.2 176.6 181.2 184.9 188.7 192.3 195 196.1 197.3 200 202 203.8 203.3 204.1 208.1 215 216.1 218.3 216.5 213.7 210.5 206.9 202.3 198.8 194.1 191.1 188.8 185.6 185 184.1 183 181.9 179.8 178.8 177.8 178.2 178.5 179.7 181.9 183.9 185.8 189 191.7 191.2 192.9 189 187.2 198.1 201.4 203.8 208 212.5 215.2 217.7 220.3 224.9 230.3 231.9 235.6 240.8 246.9 253.4 259.6 265.1 270.4 274.4 278.5 282.9 286.8 290.2 291.8 291.8 291 290.2 289.1 287.4 286.3 284.6 283.8 285.3 287.7 290.5 293.8 292.6 294.1 294 294.3 298 301.1 305.8 311.2 317.6 322.6 327.1 332.9 344 353.2 361 366.3 372.1 377.4 383.3 382 386 395.1 409.8 432.6 448.7 460.4 466.9
153.4 151.7 148.4 145.9 142 137.5 134.7 136.1 138.6 139.8 140.5 141.3 144.3 147.6 153.1 156.3 160.2 161.1 162.1 162.8 163.1 164.2 164.6 165.2 165.4 166.9 166.9 164 163.6 162.6 161.6 160.8 158.1 155.9 153.4 151.4 150.6 151 152.3 152.8 155.4 159.1 164.6 170 173.8 177.5 180.6 182.8 183.9 184 184.5 186 185.4 186.5 189.8 192.9 192.3 190.7 185.5 181.1 176.7 173.2 172.4 171.6 170 166.7 165.1 163.5 161.9 160.9 160 159.2 160.9 162.2 163.4 169.1 175.8 174.9 173.4 170.2 169.1 169.6 169.8 167.9 165.5 165.2 165.3 165.6 167.9 169.4 171.3 173.2 175.8 179.7 184.2 187.6 190.2 193.2 194.8 195.5 196.9 199.5 200 199.6 200.6 204.3 207.7 209.4 208.6 207.3 204 201.3 197.8 195.2 192.7 188.5 186.9 184.6 184.3 183.8 182.9 179.9 179.2 178.7 178 177.7 178.1 178.5 181.2 184.4 181.4 180.9 190 189.2 191.5 189.5 188 199.2 203.6 204.7 208.2 211.8 215.5 219.1 222.8 224.2 227.9 232 234.7 240.9 247.2 253.7 259.6 264.9 270.6 276.6 280.6 283.8 287.7 291.4 292.9 293.2 292.2 291.2 291 291.1 289.4 288.5 289.1 291.3 293.8 298 298.4 298.6 298.6 298.4 298.8 300.8 304.5 309.9 315.2 322.4 331.2 340.5 349.2 369.8 379.3 385.9 393.9 399.3 402.7 401.9 400.1 403.8 414.7 431 445.6 453.5 457.3 461.6
155.7 153.2 148.9 145.6 142 137.9 134.3 136 139.8 140.6 141.2 141.4 143.8 144.9 146.9 148.9 151.3 157.1 160 160.6 161.9 163.6 166.8 168.4 168.2 170.8 174.7 171.1 168.8 165.6 164.3 162 159.2 156.8 152.7 149.2 146.9 147.6 149 149.3 151.9 156.1 159.9 162.9 170 174.5 176.4 178.7 181.1 182.2 181.5 183.5 183.3 184.5 187.2 191.3 192.3 191.3 186.7 180.9 175.3 172 171.3 174.1 168.4 165.8 164.5 163.1 161.5 160.4 159.6 158.7 160.1 161.3 162.2 166.5 172.7 174.8 173.4 171 169.9 171.1 172 170.8 167.4 167.1 166.8 166.3 165.5 167.6 169.9 172.1 174.6 176.7 181.4 184.9 188.1 190.9 193.4 194 194.5 194.4 196.2 196 196.5 197.3 198.4 198 197.5 196.4 196.5 195.7 194.6 192.5 190.3 186.7 185 183.7 183.6 182.9 181 179.9 178.7 178.1 177.6 177.4 177.8 178.2 178.9 179.3 179.2 180.7 186 186.5 189.8 186.3 187.1 194.4 203.6 205.6 210.6 213.4 215.4 218.6 223.2 225.6 227.4 230.4 234.4 239.7 247.2 253.9 259.8 264.6 270.4 276.3 281.9 286.5 289.7 293.3 294.9 296.3 297 295.4 295.8 295.8 295.8 297.1 299 299.4 303.7 304.3 304.4 304.4 305.1 306.2 305.2 306.4 309.7 314.5 322.5 333.3 345 355.1 374.2 391.7 404.1 413.4 417.7 421 419 419.6 421.9 423.1 429.8 436 443.2 448 451.9 454.2
153.7 151.1 148.1 143.8 139.1 135.9 130.9 136.2 139.9 141.3 141.9 142.2 142.5 144.2 146.1 149.5 151.8 153.4 155 158.5 163.1 167 167.9 169 169.3 170.1 173.7 175.8 174.1 172.1 168.8 166.1 161.5 157.4 154 150.3 149.2 146.3 144.5 145.5 146.7 152.2 155.3 159.8 163.8 169.9 172.8 175.4 177.8 179.4 179 180 182.9 184 184.9 187.5 187.8 191 187.1 180.4 175.5 171 169.8 171.6 168.6 165.1 162.9 161.9 160.9 159.9 159.1 158.3 159 160.2 161.3 164 170.4 173.5 173.1 171.6 170.7 172.2 172.7 171.5 168.2 167.3 166.4 165.4 164.6 165 166.3 168 171 174.4 178.1 181.9 185.7 188.7 190.5 191.3 192.3 192.3 191.7 193.4 193.7 192.6 191.3 190.8 188.8 187.9 189.2 190.2 190.3 189.6 187.4 184.8 182.8 182.4 182.6 181.9 180.4 179.4 178.4 178.1 178.2 177.5 177.9 178.3 178.9 178.9 179.2 183.7 187.2 184.2 184.8 186.3 187.9 192.7 200.7 203.1 209.6 213.1 215.8 218.7 222.3 225.2 227.5 229.9 233.5 238.5 246.4 254.3 259.7 264.9 270.2 275.8 281.3 286.9 292.4 296.4 300 302.4 303 302.7 304.3 306.4 304.3 304 306.5 307 309.6 311.9 311.2 311.4 312.3 314.7 313.6 314.2 317.6 321.5 330.5 344.8 361.9 375.4 391.2 410.3 422.1 428 427.5 425.8 421.9 420.1 421.9 420.7 422.3 421.8 426 434.6 438.7 441.3
160.3 156.2 149.4 142.7 135.9 133.3 131 134.6 136.7 139.1 141.9 143.1 143.6 143.8 145.5 147.1 151.3 153.4 156.1 160.7 164.9 165.9 167.5 168.4 169 169.7 171.9 175.2 175.2 174.1 171.3 167.1 161.7 158.6 156.2 154.3 150.4 148.3 147 143.1 143 145.3 148.8 152.5 157.2 161.8 167.6 172.2 174.5 175.9 176.2 177.7 181.4 184.1 183.1 183.6 184.1 184.5 183.9 180.7 175.1 170.4 167.4 168.8 168.1 164 161.8 160.9 159.4 158.5 158.2 159.2 157.6 158.3 160.7 164.2 167.8 171.5 172.3 171.1 171.7 174.6 176.2 171.9 169.7 168.5 167.1 165.6 164 163.2 163.3 164.8 168.2 171.4 175.2 178.7 182.8 185.1 186 186.8 188.5 189.5 188.2 188 188.3 187 186.9 185.6 183.3 183.6 184.3 184.7 185.3 185.6 184.8 181.9 180.2 182.3 182.1 181.3 180.1 179.1 179.9 180.1 178.6 177.6 178 178.4 178.9 179.3 180 185.2 184 183.5 186.7 187.9 189.7 195.6 200.3 204.3 206.7 213.3 216.1 219.8 221 224.3 227.2 229.2 233.1 238 245.7 253.5 260.5 266.5 271.1 275.5 281.1 287.4 292.9 297.6 301.5 304.9 308.4 310.6 312.6 313.2 311.3 310.6 313.2 316 317.2 318.8 318.7 319.9 321.3 324.8 324.1 325.3 327.9 331.8 340.7 354.3 368.4 381.2 399.6 417.5 427.1 427.2 422.6 419.5 417.6 412.1 406.7 402.6 398.8 400.8 406.3 414 417.9 419.6
155.2 149 145 140 134.6 130.6 129 130.1 130.9 138.3 142.4 142.9 143.4 142.9 143.4 146.4 149.8 152.9 158.9 159.7 161.8 165.3 167 167.8 168.6 169.5 171.6 175.4 178.4 181 182.2 175.9 162.5 161.6 160.2 158.5 156.3 150 147.9 144.4 141.6 142.4 145.5 146.5 150.1 154.8 160.4 165.5 169.8 171.3 172.2 173.2 180 185 183.1 182 181.5 181.8 179.2 176.4 171.6 169.6 165.2 164.1 164 162.8 160.3 159 158.1 157.4 156.5 156.8 156.4 156.5 159.9 163 166.8 170.1 172.3 171.5 171.5 174.5 177.4 174.6 170.3 169.3 167.4 165.6 164.4 163.3 162.7 163.1 165.7 168.5 172.9 175.5 179.7 181.2 181.8 182.4 183.4 184.4 184.2 184.6 182.3 183.4 183.8 182.1 180.6 181.3 181.7 180.1 180.9 180.4 180.3 178.8 178.7 180.2 182.6 180.6 179.8 180.2 180.8 179.1 178.2 177.9 177.7 178.4 179.4 180.4 180.5 182.2 183.1 184.9 188.2 190.2 193.5 196.2 199.9 203.9 209 210 215.2 216.2 221.4 222.6 225.8 230.3 233.5 238.1 244.9 252.5 260 267.4 271.5 276.2 280.6 285.7 292.3 299 303 308.1 313.3 317.6 317.2 316.5 316.9 318.4 320.2 322 323.3 325.2 325.6 330.7 334.3 332.9 334.3 339 339 342.8 345.2 355.2 367.2 382.3 398 414.7 421.5 418.7 412.4 408.9 402.2 391.6 382.7 377.8 375.7 378.1 388.1 390.7 392.4 390.7
145.3 143.7 141.6 137.2 136.8 135.9 130.8 125.7 127.9 139.8 144.3 142 140.1 142 141.9 144.9 149.3 151.5 155.7 160.5 163.2 165.1 166.6 167.8 168.8 169.3 172.8 177.1 180.4 181.5 182.1 178.7 169.4 167.1 165.2 162.6 161.4 158.7 152 144.8 141.6 139.8 141.6 143.1 150.2 154.5 155.1 160.3 164 168.4 169.4 170.8 174 178.7 181.5 181 179.9 179.3 176.5 173 168.5 166.3 163.5 161.4 159.8 159.3 158.5 158 157.4 156.6 155.8 154.9 154.8 156.3 159.7 160.5 164.9 168.3 170.6 170.5 171.3 172.3 174.4 172.7 171.6 170.8 169.4 166.7 165 163.3 161.7 162.6 162.8 165.1 168.6 171.6 176.1 177.8 178.7 179.8 180.3 180.6 179.9 180.2 180.2 180.5 180.8 179.2 178.3 178.4 178.6 178.3 178 178.5 178.2 177.8 177.6 179.3 180.7 180.1 179.7 180.9 181.2 180.2 178.5 178.6 177.4 180.4 181.3 183.1 182.1 184.1 183.5 188.2 190.6 192.2 195 199.7 203.3 205.1 208.2 211.8 212 218.1 219.8 223.7 228.3 231.7 235.3 240.7 246 253.3 261.2 268 272.1 276.1 280.5 285.2 291.7 299.2 307.1 312.7 319 322.3 321.6 320.5 321 323 326.3 329.4 332.3 333.7 340.4 346 348.5 349.6 346.8 354.1 358.9 354.8 356 360.7 365.6 378.6 387.4 397.2 403.7 396.4 393.6 391.3 382.1 373.3 364.1 359.4 355.8 356.5 365.8 370.3 372.2 371.3
130.4 130 132.6 137.8 140.1 141 141.3 129.3 122.3 130.7 130.2 133.9 140.9 142.2 141.2 144.9 149.8 149.8 153.1 157.4 160.6 162.8 165.6 167.2 168.7 169.4 170.5 173 175.9 176.8 178.7 177.9 175.9 175 173.6 169 167.4 161.5 155 149.6 142.8 139.2 138.7 139.2 144.1 148.9 151.9 158.9 165.1 168.6 169 168.9 172.6 176.4 177.5 177.5 177.6 177.2 174 170.7 166.8 163.8 161 158.8 157.9 157.6 157.2 156.8 156.5 156 155.2 154.3 153.7 154.2 155.5 158.5 163 165.2 168.7 170.9 171.7 172.5 172.5 171.4 171.1 170.8 169.5 167.3 164.8 163.3 161.7 161.3 161.3 161.9 164.8 167.7 171.5 176 176.4 176.6 176.9 176.7 177.6 178.2 178 179.2 178.5 178.3 176.8 176.1 176.4 176.7 177.1 178.2 177.8 177.2 176.7 177.7 178.7 177.5 177.7 179.6 180.1 177.7 177.8 179.3 177.3 182.5 185.2 183.8 184.7 186.3 185.2 186.4 188.1 192.7 196.3 200.7 201.7 204 207 210.7 214.6 217.6 220.9 224.8 229.8 232.5 236.5 242.8 247.7 254.4 262.1 268.6 272.7 276.7 280.8 285.1 292 299.7 307.6 316.2 324.4 327.3 325.9 324.4 325.6 329.7 333.8 336.8 339.3 342.4 352.5 363.8 366.5 368 364.3 365.9 371.5 370.7 369.6 372 372.5 377.3 379.5 377.7 377.1 376.5 377.1 372.9 365.8 357 350.3 350.3 350.3 350.3 350.3 350.4 355 355.8
125.5 127.3 126.6 128.2 131.9 136.3 141.8 135.7 116.9 117.6 122.8 134.6 142.5 141.5 139.6 142 144.9 147.3 149.9 152.5 155.8 157.1 162 163.8 167.2 168.6 169.2 169.5 169.9 174.6 176.7 178.3 178.5 177.9 179.6 178.4 171.7 166.7 159.2 152.4 146.7 142.3 138.5 136.4 139.3 142.9 146.1 154.7 163.8 168.7 168.4 167.9 170.5 175.1 176.5 175.7 175.1 175.3 172.5 169.7 165.9 161.7 158.7 157.6 156.9 156.8 156.4 156 156.1 156.3 155.8 154.5 152.8 151.6 152.7 157 159.4 164.4 168.4 170.7 171.3 172.3 172.4 171.3 170.6 168.1 166.5 166.7 165.3 163.7 162.2 160.4 159 159.6 161.8 163.6 168 172.2 174 173.2 174.1 174.9 175.7 176.1 176.5 177.2 177.7 177.3 176.3 176 176.4 176.4 176.2 175.8 175.6 176.5 176.4 175.8 176.6 176.5 176.6 177.1 177 177 177.1 176.8 178.4 178.8 183.4 185.8 191.3 186.8 186.7 187.1 189 191.8 197.3 201.1 203.6 206.5 212.3 213.6 217.5 219.9 222.1 227.5 231.1 233.5 238.3 242.5 248.9 254.5 261.3 268.4 272.9 277 281.1 286.5 293 300.8 311.7 322.4 329.9 332.2 331.2 329.5 332 336.1 339.7 344.5 348.7 352.6 360.1 375.5 383 385.2 380.4 376.5 377.9 380.6 381.4 380.7 381.4 383.3 381 373.5 370 366.2 364.4 357 350.4 350.3 350.3 350.3 350.3 350.3 350.3 350.3 350.3 350.3
126.8 124.9 122.4 124.7 127.4 126.9 133 137.7 131.4 119.2 121.8 131.9 140.2 138.6 140.3 139.9 138.5 140.1 143.5 147.2 151.4 155.4 158.1 161.6 164.7 167.1 167.8 168.5 170.4 173 176.1 177.9 179.3 178.2 179.1 178 174.8 164.6 160.5 155.5 149.3 143.1 138.8 136.8 136.5 141.1 143.3 149.1 155.7 163.2 166.2 167.3 169.1 174.5 175.2 174.8 174.2 173.4 170.6 167.9 164.6 160.5 157.9 156.7 155.5 156 155.6 155.5 156 156.3 155.9 155.1 154.2 153.8 151 158.9 162.4 162.9 168.4 170.5 169.3 169.5 169.6 169.3 168.9 167.4 165.2 164.6 162.8 161.7 161 159.3 158 158.3 161.2 162.4 163.6 167.6 169.8 169.8 170.9 172.5 173.8 173.5 174.2 175.8 176.7 176.1 175.6 176.5 176.6 178.2 178.2 177.7 176.8 177.2 177.1 176.8 176.7 177 177.4 177.9 179.1 184 179.9 179.7 180.9 181.8 182.2 186.3 191.7 188.6 188.8 188.3 192.8 195.1 199.8 204.5 206.3 210.6 215.8 216 220 222.3 225.1 229.6 232.2 235 240.1 244 249.7 254.7 260.5 267.9 272.9 277.2 283.1 287.7 295.2 303.5 319.2 327.5 334.1 336.1 336.1 334.9 338.5 341.4 343.9 349.8 355.7 361.3 370.4 383.4 394 394 388.2 376.9 373.3 379.7 384.6 385.2 385 384 378.2 371.4 364.5 358.6 353.9 350.3 350.3 350.3 350.3 350.3 350.3 350.3 350.3 350.3 350.3 350.3
132 126.2 124.2 118.4 119.8 119.4 121.4 127.6 131.3 122.3 111.6 121.6 129.1 135.6 139.4 137.1 134.3 136.4 142.4 147.9 152 154.7 156.7 159.3 163.4 165.8 167.4 168.5 170.6 174.6 175.2 176.7 178.7 178.5 176.2 174 171.5 168.8 162.2 153.5 148.9 144.1 140.1 137.1 135 138.9 139.2 144.2 148.7 155.2 161.9 165.2 167.5 171.7 173.6 173.3 173.1 171.2 168.6 164.5 160.7 158.7 157 155.5 154.4 154.7 154.9 155.4 156 156.2 155.7 155.2 154.6 153.8 150.7 156.5 158 160.8 166.7 168.9 170.5 168.8 167.8 167.6 167.5 165.4 163.7 162 161.4 158.8 158.1 157.4 157.7 158 158.3 160.1 161.7 165.1 167.2 167.1 168.9 170.6 170.6 171.8 172.8 174.4 174.4 174.1 173.9 176.4 177.6 179 178.7 178.5 178.2 177.9 177.6 177.3 178.3 179.3 181.8 182.4 181.5 181.9 181.6 181.7 181.6 182.5 181.4 183.6 189.4 192.4 195.5 197.2 197.5 199.1 203 207.1 210.3 213.5 216.5 218.4 220.7 224.4 227.4 231.1 233.7 237.5 242.7 246.1 249.8 254.8 259.8 267 272.9 278.6 284.6 289 296.7 307.3 322.9 330.9 339.4 341.1 341 341.3 344 346.7 348.7 352.8 361.4 369.9 379.3 392.5 399.1 397.8 392.1 380.7 369.4 368.8 376.7 379.9 382.3 380 373.9 367.9 361 354.1 350.3 350.3 350.3 350.3 350.3 350.3 350.3 350.3 350.3 350.3 350.3 350.3
135.5 135.9 131.1 125.4 120.5 115.6 114.1 114.6 115.4 120.3 113.1 116.4 124.2 130.5 133 133.6 131.6 131.4 140.5 145.5 149.8 152.6 153.4 157.4 162.8 166.1 170.5 171.9 170.6 172.3 175.6 177.7 175.8 175.9 176.6 172.5 168.5 165.5 159.9 155.5 147.1 142.4 139.4 136.5 134.3 136 137.3 140.7 143.3 148.2 154.8 161.1 165.1 169.1 171.5 172.1 171.4 169.3 166.9 163.7 160.7 158.1 156.6 154.5 153.1 154 155 155.5 156.1 156.1 155.8 155.2 154.5 154.2 150.9 155.2 155.2 161.3 165.7 166 167.8 167.2 166.9 166.9 166.6 165.9 163.3 160.4 159.7 158.4 157.2 156.5 157.4 158 158.1 159.8 160.7 161.8 164.1 166.2 167.6 167 167.5 171.3 171.9 171.2 174.9 176.9 178.4 178.9 178.7 179.6 179.5 179.4 179.7 178.8 180.3 178.6 180.7 181.7 182.9 184.9 184.7 184.1 185.6 187.6 184.4 184.5 183 182.9 184.9 188.7 192.6 194.7 197.5 200.8 205.6 209.8 212.6 214.5 215.9 219.5 221.3 223.9 227.9 233 236.9 242.6 246.7 248.1 250.7 255.3 260 266.9 272.8 278.9 284.4 290.5 298.2 312.2 325.2 334.4 343.3 347.3 347.7 348 349.3 350.2 351.9 355.8 363.7 373.8 386.9 400.5 404 398.1 389.7 379.3 368.4 361.4 363.9 369.3 374.6 371.3 367.7 364.3 358 351.4 350.3 350.3 350.3 350.3 350.3 350.3 350.3 350.3 350.3 350.3 350.3 350.3
138.8 142.5 138.6 129.3 122.8 120.1 118 116.4 114 110.2 109.8 107.8 112.2 118.8 125.4 127.8 126.7 129.1 133.6 138 137.8 141.7 148.3 158.9 171.1 171.6 172.8 174.2 172.6 172.1 170.7 172.3 176.7 172.5 169.9 167.5 165.2 162.1 156.8 153.1 147.3 142.2 139.1 137.4 134.7 134.3 135.6 137.3 140 142.7 148.3 154.7 160.7 165.5 171.2 170.9 170 168 165.4 162.3 159.5 157.4 155.9 154.5 151.9 153.4 155.4 155.9 156.4 156.4 156.1 155.2 154 153.1 151.2 151.1 152.4 158.9 161.6 164 164.2 166.3 166.6 165.9 165 164.1 160.5 159.5 158.6 157.8 156.7 155.6 156.8 157.5 157.7 159.4 160.7 160.9 164.5 166 164.6 168.8 168.4 169.8 170.5 173 176.4 178.3 181.5 182.6 180.5 180.7 182 183 182.5 180.7 181.2 181.4 181.1 182.1 183.7 185.6 186.4 188.6 191.6 189.4 191.6 190.1 191.3 193.3 192.9 190.3 192.2 193.4 194.9 201.5 207.4 209.6 213.5 213.7 216.9 222.2 223.7 226.5 230.7 234.3 240.3 243.7 247.6 249.7 252.5 256.6 261.2 269 273.1 278.8 284.2 290.6 300.6 315.6 327.4 335.3 342.3 346.1 351.9 354.7 353.6 352 350.4 355.7 367.2 377.3 386.9 401.4 400.9 393.5 378.3 366.4 358.9 353.8 354.9 356.2 359 360.7 361.4 360 355.8 350.3 350.3 350.3 350.3 350.3 350.3 350.3 350.3 350.3 350.3 350.3 350.3 350.3
146.1 139.2 135.7 132.3 127 121.1 117.2 115.9 115.1 112.9 110.2 106.1 106.7 109.1 115.3 119.7 121.6 123.5 127.6 128.6 129 137.1 148.7 166.3 172.7 174 174.5 176 175.3 171.6 170.3 169.8 168.3 170.7 166.6 163.7 161.6 159.4 156 151.3 148.7 145.4 143.1 137.8 135.7 134 133.9 135 137.8 141.3 143.9 148.3 153.8 161.3 169.8 170.9 169.3 166.5 163.9 161.3 159.4 157.5 156.1 154.1 151.7 153.3 155.7 156.3 156.5 156.5 156.3 155.2 155 153.3 151.1 149.1 149.1 156.1 157 162.6 163 165.9 166.8 166.2 164.6 162.4 162 160 159.4 157.7 156.3 156.1 156.1 156.2 156.4 157.3 158.4 160.3 165 164.9 163.7 168.1 171.1 172.7 174.2 175.4 177.7 180.2 184 185.3 186.2 184.8 186 184.8 185.5 184.7 184.4 185.2 183.8 184.5 186.5 188.9 190.1 193.7 195.1 193.4 193.6 198.4 196.7 197.4 194.6 188.7 189.2 191.9 195.9 202.4 208.3 209.7 212.3 216 218.9 221.5 224.6 228 233 237.5 243.9 246.7 248.3 251.3 255.1 258.7 264.9 269.8 274.8 278.9 285.9 292.6 303 317.5 327.5 334.7 338.6 342.8 347.4 349.2 348.3 344.8 342.8 348.4 362.4 375.6 387.2 398.3 393.8 384.7 369.1 359.1 349.6 349.9 351.3 355.2 358 358.2 358.5 355.8 351.5 350.3 350.3 350.3 350.3 350.3 350.3 350.3 350.3 350.3 350.3 350.3 350.3 350.3
150.6 144.6 140.6 133.4 128.5 122.7 116.9 115.6 113.9 114.1 113.8 112.1 104.7 105.4 107.6 110.6 114.3 118.9 119.9 122.9 127.6 139.1 154.2 161.5 167 172.8 174.2 174 174.5 171.8 171.4 169.5 167 163.7 162.9 161.8 158.9 154.8 154 153.3 154.3 152 146.5 138.9 136.5 136 134.2 133.5 134.5 137.5 139.1 141.3 146.2 153.9 169 171.2 168 165.3 162.7 161.2 159.6 157.7 155.7 153.4 151.1 152.6 155.9 157.2 157 157 156.5 155.9 156 155.8 151.9 149.7 148.5 153.8 155.2 161.7 161.9 164.7 166 166.4 161.7 164 161.6 158.6 157.4 157.2 155.7 155.6 155.6 155.7 156.1 156.6 159.6 160.6 160.6 160.3 166.6 168.7 172.5 175.1 176.6 177.9 180.9 183.3 184.7 186.8 189.5 189.3 190.1 190.4 188.6 187.2 186.8 187.6 187.4 188.3 189.7 193.4 194.5 195 197.3 196.1 198 200.5 199.8 201.2 196.6 193.2 190.8 193.4 197.8 201 207.3 211 213.7 215.3 217.2 220.6 223.3 226.7 233 239.5 244.9 248.6 251.2 252.5 256 261.4 267.1 271.2 276.8 282.5 289.1 296.2 305.1 317.1 326.7 331.7 335 338.3 340.1 340 337 334.1 336.6 342.3 355.7 369.3 385.3 391.1 385.4 374.5 361.4 349.7 348.4 348.6 350.9 357.2 361 361.4 358.9 356.5 350.3 350.3 350.3 350.3 350.3 350.3 350.3 350.3 350.3 350.3 350.3 350.3 350.3 350.3
157.4 148.8 140.4 136.4 130.3 123.1 116.9 113.5 113.6 111.5 111.4 110.9 106.1 102.8 105.5 106.9 107.9 111.4 116.2 122 125.9 140.9 150.1 156.9 163.7 168.6 170.1 173.5 172.5 171.1 171.4 170.9 168.1 164.8 159.9 158 157 152.3 150.5 151.9 152.2 149.9 147.6 142.9 138.6 134.1 133.6 131.4 132.6 134.4 135.3 137.5 140.3 145.8 156.8 167.8 166.8 164.1 161.8 160.6 159.6 157.6 155.7 153.5 151.4 152.6 162.2 159.4 158.7 156.9 156.3 155.8 155 154.2 150.9 149 148.3 152 154.7 156.4 157.7 160.8 162.2 162.9 160.2 160.6 158.4 157.6 157.6 157.4 155.2 155 155.2 155.2 155.3 155.1 156.8 157.5 162.5 165.4 168 171.4 173.6 175.7 177.6 180.5 183 184 187.4 188.7 190.6 193 193.4 193 192.6 191.6 190.3 190.8 191.1 189.6 191.1 194.2 197.5 199.5 199.9 201.2 203.4 203.3 201.9 202.5 198.5 198 194.6 192.7 195 197.4 201 206.2 209.6 212.2 217.2 220.6 222.3 226.1 234.1 241.1 246.5 250.3 253.4 256.1 261 264.8 268 273.8 281.2 284.8 291.5 299.1 307.6 317.2 322.9 327.9 329.6 330.4 330.7 329.1 326.5 327.8 331 338.6 348.7 362.2 377.1 381.9 376.5 367.2 355.1 347.3 346.9 348.7 353.4 360.8 366.4 369.1 368.9 360.5 353 350.3 350.3 350.3 350.3 350.3 350.3 350.3 350.3 350.3 350.3 350.3 350.3 350.3
159.2 157 151.6 143.5 138.1 126.5 116.6 111.6 111.5 109.3 108.9 107.7 105.1 102.6 105.8 109.6 112.8 113.9 115.5 119.6 124.3 130.4 146.8 151.4 154.2 157.8 161.4 167.4 169.7 169.6 168.2 169.1 166.3 164.2 160.2 155.6 152.3 151.1 146.8 148.5 146.5 144.9 143 141.7 138 133.5 131.3 130.4 131.3 132.1 134.1 136 137.8 139.7 144 152.5 161.4 162.9 160.8 159.7 159 157.4 155.5 154 152.2 151 160.4 163.4 160.5 158.1 156.3 155.8 154.8 152.9 150 149.4 148.2 151.3 155.2 153.4 156.2 159.5 161.5 161.3 157.8 158 157.7 157.4 156.6 155.6 154.7 154.3 153.7 154 154.9 156.1 156.4 160.3 162.5 164.9 168.4 172.1 174.3 176.1 178.2 182.2 183.9 185.1 187.3 190.6 193.8 196.2 197.3 196.6 195.3 195.6 193.5 192.4 192.7 193.2 193.6 196.7 199.4 201.1 202 203.1 204.8 205.3 203.1 205.3 200.6 198.5 193.5 193.2 195 197.7 202.9 205.8 206.8 214.5 218.9 220.4 222.6 227.4 236.9 242.8 247.5 252.2 258 261.3 266.2 268.9 272.1 275.1 280.6 285.3 293.3 301.3 311 318.7 321.3 322.9 325.6 323.2 323.6 323.3 321.1 322.3 328.1 335.8 342.4 354 365.2 372.5 368.3 359.1 347.9 345.9 346.6 350.9 356.6 361.4 369.1 374.7 378.5 377.8 372.5 360.7 356 358.4 359.4 362.5 360.8 358.8 355.5 350.3 350.3 350.3 350.3 350.3
148.3 152.2 152.9 147.4 134 124.2 116.9 111 109.1 107.7 106.2 105.6 105.2 104.9 106 111 111.8 115.8 116.8 117.3 120.6 123.1 126.3 135.3 142.9 151.5 159.5 159.7 163.1 165.8 166.8 165.3 164.4 162.5 158.9 152.7 150.6 148.3 144.7 142.1 142.9 142.1 140.5 137.1 135.9 132.4 131.2 129.4 130.1 130.9 132.1 134 136.5 137.4 138.7 142.1 149.3 155.6 158.3 155.4 156.7 155.9 154.7 153.6 151.3 148.9 154.3 158.5 159.5 159.2 157.5 155.7 154.5 152.3 150.4 149.6 148.2 149 154.6 151.7 152.3 151.5 152.9 153.3 155.4 156.9 156.4 155.9 155.4 155 154.1 153.7 153.1 153.8 154.7 155.9 158.2 161 162.5 165.6 169.9 173.3 175.6 177.8 179.8 183.4 184.6 186.7 188.5 191.4 195.5 199 200.8 199 199.1 198.3 197.8 196.1 195.1 195.9 196.2 197.4 198.7 201.9 203.1 203.2 205.5 206.5 205.1 206.5 201.2 200.6 195.7 197 199.3 197.5 197.6 199.1 207.2 214.5 215.6 219.9 222.3 227.2 234.5 241.6 249.1 255.6 259.9 267.3 271.3 274.1 277.4 279.2 281.3 285.6 292.2 303.5 312.2 320.2 320.9 318.3 317.9 318.3 318.6 319.1 319.5 320.2 325.3 332.1 338.6 349.4 362.2 364.2 360.6 353.3 346.3 343.9 345.7 351.4 358.4 364.5 371.2 379.9 386.7 386 382.4 377.8 373.5 372.1 372.5 374.5 376.7 373.4 366.8 360.6 355.3 350.3 350.3 350.3
137 134.3 131.7 130.5 124.9 121 116.6 113 109.1 106.9 105.3 104.6 103.9 103 103.9 108.4 111.5 115.7 118.3 119.8 120.1 122.2 124.2 127.4 135.2 145.9 155.8 157.7 156.2 158.2 160.2 163.6 165.9 159.1 153.3 151.5 148.3 147 144.7 141.1 139.2 137.7 137.9 135.8 133.1 131.6 130.9 129 130.8 130.4 132.5 134.7 136.7 135.9 135.8 136.7 139 143 147 148.5 150.3 150.3 152 151.3 150.1 147.4 150.1 152 155.7 157.1 156.7 155.5 154.1 152.8 149.4 148.9 147.7 146.6 148.1 147.4 147.7 148.6 149.9 151.7 154.5 157.2 156.3 154.9 154.6 156.1 154.4 153.5 152.8 153.6 154.5 155.5 158.2 160.7 162 166.5 170.6 174 176.8 180.8 182.7 183.5 186.4 189.6 191.9 193.1 196.4 200.1 203.6 203.8 203.5 201.7 200.3 199.4 198.5 198.1 198 198.4 200.1 202.1 202.7 203.3 205.1 206.4 206.4 205.3 203.9 200.6 196.2 195.6 194.8 195.9 196 199 204.2 207.3 212.6 219.2 221.7 227.2 232.6 241.1 249.7 254.8 261.8 268.5 275.2 278.2 281.9 283.7 285.2 287.3 294.8 303.1 309.9 314.4 316.6 316.5 316.5 317.6 318.5 319 319.7 320.8 324.8 329.8 338.6 346.9 356.9 360.2 357.7 353.8 347.1 338.9 344.9 353.2 360.2 367.6 376.2 385.8 392 389.6 385.4 380.9 379 379.2 378.3 379 379.9 379.7 375.4 368.5 363.1 357.7 352.7 350.3
139.2 134.8 130.1 128.5 126 122.5 121.5 117.4 112.7 106.9 104.7 103.1 102.3 99.4 100.5 103 107.8 113.4 118 120 122.6 122.8 121.8 125.8 129.5 133.9 139.8 148 148.7 147.7 147.4 152.3 154.1 153.8 148.9 144.5 146.1 144.9 142.2 139.3 136.3 134.2 133.5 133.9 132.6 130.4 131.2 129.5 128.8 129.7 131.4 133 134.5 131.5 132.7 134.9 135.8 137.1 140.1 142.5 144.3 145.5 146.3 146.3 146.4 144.4 147.7 147.4 149.9 153.3 154.2 153.5 153.1 150.7 146.8 144.4 145.4 147.4 146.3 147.2 150 153.1 153.2 152.8 152.8 152.7 153.1 152.9 154.9 154.7 153 153.3 153.2 153.4 154.1 155.2 157.9 159.9 162.1 167.5 170.6 173.8 177.3 181.8 185 187.3 189.1 191.4 193.6 194.5 196.2 198.4 203 205.3 206.1 205.4 203.3 202.4 201.8 201.2 201 201.7 203.2 204.2 205.1 205.3 206.5 205.5 205.5 203.8 202.9 200.2 198.3 195 194.1 194.8 195.4 197.2 200.1 204.8 210.9 217 221.1 226.1 232.2 242.1 249.7 256.8 262.6 271.4 276.8 281.5 285.6 288.9 291.4 292.9 300.2 304.1 309.7 311.7 313.8 314.9 316 317.4 318.3 319 319.8 322.8 326.4 330.2 336.2 341.8 350.2 357.2 356 351.2 336.9 335.3 342.1 352.3 360.7 371.6 382.1 389.1 390.6 390.1 385.6 379.7 376.6 377.4 378.1 378.4 378.5 376.9 376.1 373.2 367.7 361.7 356.2 353.5
143.6 139.9 128.5 123.9 122.6 121.4 122.5 126.9 119.5 108.5 102.7 101.9 99.9 97.7 96.7 99.3 103.3 109.2 116 121.8 122.7 122.9 122.4 122.6 124.6 130.9 135.4 135 135.4 136.9 138.8 141 142.1 143.5 142.9 141.7 142.2 141.7 141 138.4 136.8 133.2 131.5 130.3 129.6 128.3 127.7 127.2 128.2 128.3 129.4 131 131.7 130.4 131 133.3 134.8 133.9 136.9 135.8 142 143.5 145.1 145.3 144.2 143.4 144.1 145 145.2 146.2 147.8 148.2 150.9 149.1 146.4 147.4 148 147.4 147.9 149.1 149.3 151.3 152.9 154.4 152.7 153.7 153.8 152.6 152.9 152.4 152.7 153.1 153.3 153.6 153.8 155.4 159.2 159.8 162.1 168.1 171.1 174.1 176.6 181.6 185.6 186.8 191.3 192.7 193.9 195.9 197.9 198.9 201.6 204.6 205.4 206.5 206.7 205.7 205 204.4 203.8 204.4 205 205.1 205.6 205.5 205.8 204.3 203.9 202.8 201.5 200.1 200.3 195.5 194.4 195.1 195.7 197.5 201.7 206 212.6 216.3 220.5 225 232.4 240.6 248.6 256.8 263.7 271.1 277.7 283.2 287.4 291.3 293.2 296 303.5 308.3 310 311 312.4 314.4 315.8 317.1 318 318.8 322 325.8 329.3 332 333.4 336.8 342.9 349.1 348.3 340.2 320.7 327.2 339.2 351 362.7 374.8 382.2 384.9 385.2 384.8 383.2 378.6 373.2 370.4 371.3 374.3 374.6 372.5 370.8 369.8 368 364.7 360.3 357
155.8 153.3 148.1 134.9 120.7 118.4 118.5 122.1 125.7 113.6 106.5 100.3 98.6 96.9 95.6 96.7 97.9 103.5 108.6 116.2 120.4 122.1 124.3 125.6 126.4 125 128.4 128.9 129.6 132.7 133.7 135.2 136.8 136.9 139.2 141.5 140.7 142.2 141.8 139.2 136 132.3 129.9 129 128.3 127.6 127.4 127.3 127.7 127.6 128 129 129.2 129.1 128.5 129.8 131.9 136.4 138.4 141.3 140.4 140.3 143.8 144.1 142.3 142.1 142.3 143.8 143.3 143.8 144.7 144.8 146 146 145.6 146.9 147.6 148.8 149.5 149.9 150.3 151.6 154.2 154.5 155.3 155.8 154.7 153.9 153.2 152.4 152.7 152.9 153 153.3 153.4 154.2 158.3 158.5 161.1 168.4 171.8 172.8 177.6 180.8 185.5 188.9 191.1 193.3 195.2 197.3 199.4 201.4 202.2 203.7 205 206.2 208.3 209.1 208.2 207.3 207.7 207.2 208 206.5 205.6 205.6 205.1 205.6 204.1 201.9 200.7 199.7 197.2 196 194.6 196.1 197.1 199 202.6 205.8 209.5 212.4 219.4 225.8 232.5 239.2 247.5 255.1 263.4 269.5 275.8 282.1 287.9 293.4 294.7 298.1 306.7 312.6 312.5 313.2 314 314.8 315.8 317 317.6 318.8 325.2 331.1 333.1 333.9 334.3 334.4 335.2 337.3 332.6 311.9 304 318.1 332.6 348 361.4 371.3 375.2 377 377.7 378.6 378.4 375.2 370.2 365.4 363.4 368 370.2 370.3 368.1 366.1 364.1 361.6 359.1 356.4
162.4 160.3 166.5 158.2 138.6 127 117.3 116.2 118.4 117.4 112.5 105.8 100.8 97.2 95 91.8 95 98.1 104.6 109.9 116 121 124.3 125.1 126.1 124.1 125.2 125.9 127.4 130.3 131.9 133 134.7 139.8 140.3 139.4 140.4 140.5 139.4 137.4 135.4 133.6 129.8 128.3 127.8 127.5 127.2 126.6 127.8 127.4 127.1 127.7 128.1 128.1 128.1 131.5 133.5 137.2 140.8 142.5 142.9 141.3 141.4 141.7 143.9 144 143.3 142.5 142.3 142.5 144.4 143.9 143.5 144.3 144.8 146.9 147.6 147.9 149.4 149.6 149.7 151.9 155.8 156.9 159.1 159.2 158.2 156.7 156.2 154 153.4 153.4 153.9 152.9 153.1 154.2 155.4 157.4 161.4 169.2 171.6 172.9 177.8 180.2 184.1 188.6 190.5 195.1 197.7 199.3 200.1 202.7 204.4 205.7 206.6 207.8 208.4 209.2 209.6 210 212.1 212.2 210 208.9 207.7 205.8 204.9 203.7 202.9 201.1 200.8 199.1 196.8 195.5 194.7 196.3 200.1 201.8 201.3 203.9 207.2 214.8 218.5 225.3 232.2 239.1 245.1 253.2 261.7 267.6 273.3 280.1 288.2 293.7 295.9 298.9 307.3 314.1 314.5 314.7 314.3 314 314.3 315.8 317.1 319.4 326.1 331.1 336.8 339 336.5 333.1 329.6 324 301.6 292.2 296.7 308.2 321.5 336.3 349.3 357.1 362.2 365.9 368 368.8 368.9 369.4 366.7 363.6 358.1 356.7 359.4 363.9 362.4 362.3 359.5 357.3 355.5 353.6
163.4 161 160.2 157.1 147 140.5 127.2 118.3 111.6 109.4 107.8 106.4 100.8 98.1 94.2 89.3 91.1 94.4 99.3 106 110.8 117.9 122.9 125.3 124.6 122.7 124.1 124.1 126.1 130.6 132.3 134.1 140.3 141.4 142.7 144.4 142.9 142.4 141.4 140.7 138.9 138.9 135.6 129.7 127.7 127.4 127 127 127.6 127.9 127.6 126.9 126.4 127.6 128.4 129.7 133.1 135.1 138.7 142.2 144.7 143.8 143.5 144.3 144.8 144.7 144.6 143.8 143.1 143.6 145 145 143.7 143.4 143.7 144.7 147.2 147.3 148.8 148.9 149 154.4 158.2 159.9 161.8 163.8 164.1 162.2 160.2 156.9 155 155.8 153.9 153.1 153.2 153.8 155.3 158.6 162.8 170 171 172.4 178.3 180.7 185.6 187.7 191.4 194.8 198.6 200.1 200.9 203.6 206.2 207.3 207.5 209.3 210.2 210.3 210.9 211.5 212.9 213.4 212.6 212 210.9 208.1 205.5 203.1 201.3 200.3 199.9 198.5 196.2 195.5 194.9 195.8 197.2 201.9 202.8 207.2 207.7 210.8 216.5 223.6 231.5 238.5 244.9 251.2 257.9 264.5 269.8 276.7 286.1 292.8 296.4 301 307.3 313.6 314.7 314.4 314.1 313.4 312.2 313.4 314.7 318 324.4 328.9 332.5 335.7 335.3 331.3 318.9 301.2 282.2 278.9 284.4 291.3 304.7 319.9 330.9 339.3 345.2 349.9 353.2 356 356.7 360.1 359.8 358.4 356.6 352.2 350.9 353.3 356.2 356.3 355 352.3 350 348.9
164.2 160.8 158.7 152.4 147.4 147.5 145.1 136.9 121 109.1 102.5 100.8 98 95.4 91.3 88.5 89.5 90.9 94.8 101.6 108.8 111.9 117.9 121.7 121.3 120.8 123.7 123.5 125.5 126.4 130.9 136.9 140.4 142.7 145.6 148.7 147.6 147.2 146.7 149.3 150.9 147.6 141.7 133.1 131.2 126.4 125.6 126.2 126.9 127.1 126.7 126.9 125.7 127.4 128.2 129.8 132.9 133.2 136.4 140.1 144.3 146.1 146.6 145.4 145.8 145.3 145.3 145.1 144.3 144.7 145.7 145.8 145.7 145.4 144.4 144.9 146.7 146.7 146.4 146.6 147.9 153.6 158.7 159 163 167.3 169.2 169.2 166.2 161 156.6 155.4 154.7 153.9 153.4 153.9 156.6 160.1 165.1 168.6 171.7 172.6 177.9 181.1 185.1 187.5 190.8 195.9 199.2 201.6 203.4 205.4 206.7 209.3 209.9 211.4 212.6 212.3 212.2 212.8 213.6 215.4 215.8 214.8 213.5 211.1 208.1 205.6 201.8 200.1 199.3 197.1 195.9 195.6 195.2 195.8 196.8 203.8 203.7 205.5 207.7 210.2 215.8 222.1 230.4 237.6 241.2 247 254.4 260.1 264.5 273.7 285.7 292.7 298.6 301.7 307.8 312.6 313.9 314.5 313 311.4 309.5 309.7 310.5 313.5 322 326 328 331.9 330 327.1 316.4 287.3 265.7 271.5 270.8 275 285.7 298.2 309.3 318 325.9 331 335 338.8 342.6 344.3 349.4 350.4 351 350.9 347.7 345.1 345.3 347 347.8 345.9 343.8 342.4
161.4 161.3 158.3 149.5 149 154.9 154.6 147.4 134.9 120.7 104.5 98.2 95.1 90.8 88.1 89 88.5 88.9 91.1 94.5 101.2 106.5 112.4 116 118.3 122.9 126 130.3 131.1 129.3 131.1 138.1 139.4 143 146.4 148.3 151.1 153.6 156.4 156.7 153 146.8 144.1 138 130.7 130.7 128.2 125.8 126.8 125.8 126.8 127.3 126.1 127.2 128.2 129.3 130.4 131.7 134.7 139 143.3 146.9 147.9 147.5 146.4 146 146 145.9 145.6 145.7 147 146.6 146.3 146.2 145.9 145.2 146.6 146.7 145.4 146 147 148.6 156.2 159.4 164.2 171.6 175.2 173.9 170.2 165.1 160.2 157 155.5 154.7 154 154.1 156.4 160.4 160.6 162.8 169.7 172.1 178.4 183.2 184.7 186.5 191.9 195.9 199.9 202.6 205.8 208 209.9 211.3 213.4 215.9 215.8 214.7 213.7 214.9 216.5 217.8 218.1 217.1 215.9 214.2 211.7 208.4 203.6 201.5 197.9 199 201.6 196.8 195.4 195.9 197.6 203.3 203.9 207.3 208.7 211.4 213.4 219.7 227.4 233.2 239.3 245.5 251.1 257.4 263.5 271.4 283 291.4 300.4 304.7 307.9 311.1 312.8 312.9 310.7 307.7 304.6 300 302.7 304.8 312.9 321.1 320.3 326.2 322.9 317.4 300.8 279.5 249.2 261.1 258.9 261.1 267.2 276.4 286.7 296.5 305.1 311.6 315.9 319.7 323.3 328.8 334.3 339.4 343.1 344.3 344 341.9 340.5 339.6 340 339.7 337.9 335.1
158.2 159.5 156.8 150.7 154.5 161.9 159.8 155 144 130.8 115 103.9 97.6 93.6 87 86.2 87.5 88.4 89.6 93.1 97.7 105.7 109 114.3 121 125.5 131.1 136.2 134.1 130.3 131.7 133.5 137.1 140 143.1 143.7 148.6 151 151.7 155.8 154.8 147.5 143.4 136.6 135.4 134.8 132.3 126 128.9 126.7 124.2 125.9 126.8 127.3 127.9 128.9 129.8 130.8 133.9 138.4 142.5 146.2 147.4 148.7 147.8 146.6 146.6 146.6 146.5 146.9 148.4 147.6 146.7 146.3 146.1 146 146 146.5 145.2 145.1 145.9 146.8 149.3 153.8 162 171.7 179.5 177.9 172.1 168.2 164.6 160.4 156.9 155.8 154.4 154.5 156.2 159.1 160 161.5 166.5 172.4 177.7 182.9 182.8 186.1 189.6 195 199.2 204.1 208 211 213 214.3 216.3 218.8 219.7 217.6 215.3 215.1 217.8 219.3 219.1 217.8 216.8 216.4 215.4 211.3 207.2 202 199.6 200.4 204.5 196.5 195.9 196.2 199.6 202.3 204.1 209.1 208 213.4 212.8 217 220.8 227.3 234.9 240.7 248.3 254.9 263.4 271.4 279.9 288.6 299.3 304.8 308.5 308.7 309 309.1 307.3 304.7 300.9 293.2 292.3 291.1 303 309.7 312.6 313.3 313.4 308.3 286.4 269.8 255.3 244.9 248.5 249 251.5 255.5 264.2 274.9 285.1 291.5 295.5 299.2 304.2 310.1 315.6 322.2 328.3 331.3 332.3 332.9 333.8 332.9 332.7 331.9 331.1 328.4
154.8 157.2 156.3 152.1 161.1 163.9 160.8 157.4 149.3 137.8 122.6 112.4 99.9 93.8 88.1 86 86.7 88 87.5 92 95.5 101.8 108.5 112.8 117.5 122.6 127.7 131.3 135.7 132.5 132 131.1 131.3 132.9 137.3 139.1 142.9 144.8 146.3 148.4 147 146.8 140.3 137.9 139.7 137 135.3 131.9 124.1 123.1 128.1 126.1 126.8 127.9 127.7 128.6 129.4 130.3 132.3 136.7 140 142 146.5 148.8 148.7 148 147.9 148.6 149.7 148.7 149.3 148.5 147.3 145.9 145.7 146.3 145.7 146.2 144.3 144.1 144.9 145.6 146.8 148.3 154.5 164.6 178.5 180.6 174.7 169.9 166.6 161.3 158.1 157.1 156.2 154.8 155.2 156.7 158.4 160.5 167.6 173.2 176.8 181.8 181.6 185.6 188 193.2 197.2 203.1 208.1 211.8 214.5 217.1 219 219.9 220.4 218.9 217.8 216.8 219 219.8 219.8 219.4 217.7 216.6 215.8 213.8 207.8 206.6 205.9 202.2 200.4 198.8 198.6 197.3 203.6 203.8 208 208.2 207.7 212.1 212.4 213.6 216.4 221.8 229.2 237.5 245.1 251.5 261.1 271.1 276 284.4 293.8 300 304.4 305.7 306.9 306.3 302.6 301.7 297.6 288.2 284.6 275.4 283.5 295 297 294.9 286.8 286.9 267.5 255.5 246.4 235 241.1 240.7 240.5 241.4 247.5 258.1 267.5 273.5 279.9 284.8 287.9 291.8 297.2 303.8 310.7 316.1 320.2 322.7 324.1 325.1 324.3 323.1 322.4 319.9
152.8 151.7 153.2 155.7 157 157.1 153.2 146.5 146 140.7 125.8 114.6 102.5 93.1 89.5 86.5 85.9 86.2 85.5 89.3 95.5 104.5 110.2 113.6 115.3 118.2 120.6 124.1 128.5 132.1 131.3 130.2 130.2 131.4 131.3 133.3 134.7 136.3 138.3 138.9 138.5 142.4 138.3 138.7 137 135.7 135.3 132 125.9 123 124.8 126.8 128 128.4 128.3 128.7 129.5 130.3 131.4 134 137.4 140.1 144.3 148.8 151.2 152.3 155 156.8 156.8 152.7 151.2 149.1 147.5 146.2 145.1 144.8 145.1 142.9 142.1 143.1 143.4 144.7 146.6 148.5 152.5 158.8 165.9 170.9 171.8 170.5 165.7 161.9 161 158.1 156.6 156.2 155.2 155.3 156.9 160.2 167 173.2 173.9 177.2 180.2 185.8 186.8 191.1 195.2 201.4 206.2 211.5 215.1 218 219.8 218.9 218.1 217.2 217.3 218.1 220.3 220.1 220 219.1 217.6 216.7 215.9 214.6 211.4 208.3 208.8 203.3 201.2 199.3 199.3 198.8 198.9 202.6 205.1 205.6 208.3 211.7 211.5 211 213.4 216.4 221.2 231.8 240.6 247.5 256.9 265.7 272.2 277.7 286.7 294.5 299.8 303.1 301.9 301.9 297.7 290.6 287.2 277.4 269.8 265.9 266 281.4 288.1 276.4 262.5 256.4 245.6 240.8 235.4 229.6 227.7 233.9 238.5 239.6 241.7 248 254.3 262 269.7 274.2 276.9 279.4 282.6 287.2 293.9 304.8 312.4 314.6 314.4 314.9 315.3 317.7 315.2 311.2
152.6 151.6 149.9 150.9 152.1 146.5 143.4 140.6 139.2 133.4 125.8 113.4 101.7 94.1 91.6 88.1 85.9 85.2 83.5 87.7 93.4 103.2 111.6 115.6 118.3 121.4 122.7 125.4 126.7 128.2 128.3 127.4 126.8 128 130.8 130.9 130.8 131.9 133.1 134.7 132 133.2 136.7 140 135.3 134.8 135.5 133.4 129.3 122.4 127.7 127.9 128.8 128.9 128.9 128.8 129.6 130.3 131.3 133.4 138.5 141.7 147.1 152.1 156.1 158.7 159.9 162 162.9 159.2 153 149.5 147.3 146.1 144.7 143.3 143.2 142 139.6 139.5 142 144.4 146.6 148.9 151.8 155.4 161.7 163.3 167.7 168 163.9 161.6 160.2 157.9 157.2 157.1 155.9 155.8 157.5 159.9 166.7 174 172.8 175 179.7 183.7 183.2 187.5 192.5 198.8 205.2 210.6 215 218.6 220.5 219 217.2 216.4 216.9 219.4 221.5 221.7 220 218.8 217 215.9 215.4 214.4 213.6 210.5 209.5 207.3 204.1 200.2 201 203.6 205.8 202.6 205.1 204.9 206.6 209.7 208.4 208.3 207.9 209.6 212.7 221.4 232.9 242.5 248.2 256.9 262.7 269 276.9 285.8 292.9 298.3 298.8 287.4 284 279.9 272.7 262.8 256.7 247.9 245.7 255.4 262.2 250.5 244.7 236.8 232.1 228.5 227.2 227.2 221.2 225.1 233.4 238.4 239.9 240.9 246.2 254.7 263.1 269.5 272.7 274.9 277.3 280.1 283.1 289.5 298.7 305.1 305.1 305.5 307.5 310.7 306.3 306.8
151.1 149.9 148.5 156 154 145.8 137.5 135.8 131.8 128.4 124.8 112.3 101.8 94.8 93.2 89 86.9 86.5 86.1 82 87.4 99.3 114 117.7 121.1 123.5 124.7 126 126.5 126.3 126.8 127.3 126 125.9 127.8 133.4 130.7 126.4 128.1 128.7 127.9 128 130.9 131.8 130.4 133.8 139 136.8 129.9 123.1 127.8 128.7 129.3 129.3 129.4 129.4 129.9 131.7 133 136.6 141.5 144.3 148.4 153.2 157.6 160.4 161.5 163.3 164.8 162.3 156.2 149.8 147.1 145.6 143.7 142.2 140.4 139.9 137.2 138.3 141.2 149 148.5 150.7 152.8 154 156.6 158.3 160.8 163.2 161.1 160.7 159.9 158.4 158 157.1 156.2 156 157.1 158.3 165.9 171.8 172.2 175.6 180.2 181.6 182.5 185.8 190.5 196.9 203.4 209.4 214.2 218.4 221.7 219.9 216.2 215.2 214.9 215.8 221.3 222.9 220.5 218.5 216.6 215.2 214.9 217.3 218.8 212.5 210.4 207.3 204.1 202.8 200.1 200.8 201.9 203.4 203.2 203.4 203.5 205.7 205.5 203.7 203.5 203.5 207.1 214.2 224.2 229.2 239.3 246.9 253.9 259.8 266 273.3 281 287 288.4 282.5 272 261.4 256.4 247.9 241.2 238.3 232.6 231.9 232.8 230.2 228 227.2 226.3 221.2 220 222 215 216.6 222.4 230.2 233.4 234.6 239 247.1 255.6 264 269 271.6 273.9 276.7 279.8 282.9 287 292.3 295.9 296.7 296.8 297.2 297 296.7
148.6 150 144.2 151.3 150.1 141.5 133.2 129.5 125.9 120.6 117.1 108.1 104.5 97 93.7 91.1 90 89.9 91.4 86.6 82.3 91.3 106.4 120.5 124.1 121.4 122.3 124.7 126.4 128.4 127.6 126.6 126.1 124.8 123.1 122.5 129.1 126.5 123.3 124.2 123.4 125.5 124.5 128.2 131 135.8 141.9 141.7 128.1 122.5 130.2 131.2 129.4 129.2 129 129.1 130.1 133 136.3 139.3 142.3 147.2 150.2 153.2 155.4 158.8 161.7 161.4 160.9 160.2 156.9 152.5 146.3 144.5 142.7 140.6 138.1 136.1 135.3 137.2 143 152.4 151.4 153.5 153.9 154.3 155.4 156.7 157.9 158.8 160.8 160.6 160.6 159.7 158.4 157.8 157 155.3 156.3 157.4 161.3 169.6 171.4 175.5 179.9 180.7 180.9 184 188.8 194.7 201.4 206.8 211.8 216.7 221.7 222.3 217.1 213.9 213 213 216 220 219.3 217.2 215.7 215.3 214.9 214.5 215.6 216 211.9 209.3 206.5 205 208.4 204.2 207.9 206.7 206.4 204 203.5 203.5 203.5 203.5 203.5 203.5 205.7 211.8 217.5 221.8 230.9 237.5 245.8 252.7 256.1 263.9 266.1 267.4 270 270.8 262.3 249.2 241.6 236.6 230.6 229 227.6 227.4 227.8 225.4 223.9 222.3 222.3 219 216 213.2 210.9 210.2 211.8 220.3 225.7 227.8 233 239.4 247.7 255.6 263.5 267.7 270.7 273.7 276.9 280.1 283 283.7 285.9 286.9 285.5 283.4 283.3 282.8
146.9 149.4 141.5 147.4 141.9 134.5 130.3 123.9 117.9 112.6 110.5 110.3 106.3 101 94.5 94.7 95.7 96.7 101.4 95 81.8 82.5 93.8 106.3 117.2 118.1 120 122.4 127.3 128.8 129 128.7 126.5 123.9 122.5 121.3 120.1 121.5 121.8 117 118.8 119.7 119.9 127.7 132.4 139.3 143.1 139.5 133.7 125.6 127.2 134.1 129.3 128.6 128.6 129 131.8 134.6 139.1 142.2 144.4 147.9 152.8 157.9 159.4 159.7 159.6 160 159.1 157.7 154.9 152.2 146.4 143.1 141.2 139 136 134.9 133.9 136.9 140.7 147.5 151.5 154.7 154.6 155.3 156.4 157.1 157.6 158.9 160.8 160.8 160.8 160.4 159.5 158.8 157.5 156 155.6 156.2 157.6 163.5 171.1 177.8 178.1 178 180.9 183.2 187.2 191.7 197.2 201.7 206.9 211.9 217.8 220.7 218.9 213.8 210.5 209 209 214.2 216.5 215.5 214.6 214.7 214.3 213.5 212.7 213.4 212.4 210.7 208 207.3 209.4 206.3 207.3 207.7 207.3 206.6 207.4 203.2 203.5 203.5 203.5 203.5 203.5 206.9 208.5 212.5 221.6 228.4 234.2 241.5 246.1 249.2 255.8 262.1 260.9 255 247.6 236.6 231.5 228.3 227 225.2 225.8 225.3 225 224.3 222.9 221.3 219.8 218.5 216.9 212.7 209 207.1 208.7 210.8 216.1 219.9 226.9 231.2 238.7 244.9 252.7 260.3 265.6 269.8 273.8 277.1 280.3 280.4 277.9 274.8 272.1 269.6 268.8 269
145.1 141.7 132.6 136.4 133.8 124.9 120.5 116.7 113.1 111.9 110.9 115.7 112.1 106.4 97.4 95.9 104.4 105.8 98.9 94.5 84.9 76.2 82.2 91 99.5 107.1 116.2 121.9 127.7 129.7 131.3 130.8 129.1 125.6 122.6 121.4 120.4 118.3 117.8 117 114.2 115.9 119.1 123.7 131 135.6 137.9 139.5 134.8 129.6 122.1 131.4 131.5 127.9 128 131.4 135.8 136.6 139.3 143 145.7 149.2 152.9 159.5 165.7 166.6 164.3 162.2 160.4 158.2 155.6 151.7 146.8 142.8 140.1 136.4 135.2 134.3 134.3 136.4 139.5 148.4 152.8 155.1 155.3 156.4 156.6 156.8 157 159.3 160.3 160.7 160.8 161.2 161.9 160 158.8 157.7 156.4 155.5 157 162.7 170.1 175.4 176.1 175.1 176.6 178.1 181.9 187.2 193.9 198.2 203.1 207.3 210.9 213.9 215.5 213.8 209.1 206.6 202.9 207.3 211.7 212.1 212.7 213.9 213.1 211.9 212 212.5 212.7 211.9 210.4 207.8 208.5 209.3 207.8 208 207.9 207.1 206.5 202.9 202.8 203 203.5 203.5 204.7 203.5 205 206.1 210.2 214 220.8 223.5 228.8 228.9 234.2 243.3 244.3 243.1 239.5 231.1 227.2 225.1 223 222.8 223.8 224.2 223.9 223.2 222.5 221.8 222.4 219.3 216.5 212.6 207.9 205.3 205.2 205.3 212.6 211.4 215.8 220.3 228.6 236.3 240.8 249.2 257.9 264.5 269.5 273.7 275.8 274.3 271 265 259.7 257.1 256.3 255.9
142.2 133.7 128 127.1 126.5 126.9 124.6 117.3 111.1 110.4 111.2 116.6 115.9 107.8 103.2 95.2 99.6 97.3 95.7 87.5 82.4 75.7 75.4 84.6 92.8 97.4 110.1 118.2 127.2 135.7 134.6 134.3 134.8 131.9 126.8 123.1 119.3 116.6 114.9 114.2 112.5 112 114.6 119.4 125 131.7 135.8 135.6 134.8 132.7 124.4 130.1 133.6 127 126.5 132.1 141 141.7 141.6 144 148.4 152.3 154.4 156.6 160.3 161.6 162.1 164.1 162.3 159.6 156.9 154.1 149.6 143.6 140 135.7 134.8 133.9 133.6 137.7 144.4 149.1 157 157.4 155.7 155.8 156 156.3 156.6 157.8 158.9 160.7 164.1 167.4 169.1 168.1 161.4 160 157.8 155.9 157.2 163.1 170.9 174.7 173.4 174 175.7 176.2 178.5 183.3 188.1 193.5 198.3 203.9 209.1 209.6 210.6 210.8 208 202.7 199.6 198.9 203.3 207.8 208.9 211.2 211.6 210.1 211.4 212.2 212.5 211.8 211.1 210.4 209.3 210.2 208.2 207.9 207.6 206.7 205.2 203.1 203 203.1 204 205.7 207.6 204.6 203.6 203.8 205.8 208.8 213.2 215.3 216.6 218.6 219 221.1 224.8 229.2 231.7 228.3 222.4 221.4 220.8 221.3 222.8 224.1 224.5 224.5 224.8 225.2 224.8 222.8 217.4 213.8 210.4 205.5 203 202.3 204 207.1 208.5 212.3 215.7 224.9 231 238.3 245.5 253.7 261.4 269.2 266.2 263 259.3 254.7 248.6 246.6 246.3 246.6
137.3 128.6 127.1 126.7 127.8 132.6 135.1 120.9 114.6 109.9 109.6 110.7 110 102.5 98 94.1 92.5 90.1 88.2 83.8 78 72.9 67.9 76.9 81 92 103 109.7 121 140.7 140.3 136.2 136 135.9 133.9 131.3 125.4 118.6 116.7 112.9 112.1 111.5 111.6 112.2 117.8 124.6 130.2 133.9 133 129.4 121.4 123.3 130.5 125.9 123.6 130.8 139.9 144.8 143.3 144.4 151.9 154.6 154.5 158.8 162.1 159.2 158.8 158.9 160.6 159.1 158.6 157.1 153.3 145.8 139.6 135.3 134.3 133.4 133.7 137 147 154.3 154.4 156.8 154.9 154.3 154.5 155.7 156.1 157.3 159.4 161.9 165.6 169.8 172.1 174.1 169.3 163.1 158.4 156.3 157.7 162.1 167.9 171.7 172.5 172.9 174.8 175.6 176.6 179.1 182.7 189.6 194 200.4 206.5 208.2 207.6 205.6 204.6 200.8 197.5 197 196.5 198.8 205.3 207.2 209.1 208.6 210.7 212.1 212.4 211.4 210.7 209.7 209.4 209.9 208.1 207.7 207.4 207.3 205.6 202.7 202.7 204.2 208.3 208.7 205.4 205 204.8 206.1 205.9 206.4 207.5 210.5 214.4 215.6 216.8 216.9 219.2 221.4 223.2 221.6 220.9 220.5 220.5 221.2 223 224.5 225.3 225.7 228 229 229.5 223.5 218.1 213.8 210 206.3 202.5 199.8 200.2 200.8 204.6 206 209.3 213.1 219.6 225.7 232.5 239.6 249.4 256.7 252.9 248.3 247.4 245.3 240 237.6 236.6 237.8
132.6 130.1 128.7 128.9 128.3 128.9 127 118.7 119.8 116.5 112.5 111.5 108.8 102.2 96.2 94.4 93.4 93.9 91.6 84.4 77.9 70.1 67.1 70.8 76.7 86 96.7 105.8 116.1 135.6 139.5 139.3 138.9 141.4 139.2 135.3 132.7 124.9 118.5 114.5 113.6 111.6 110.5 109.6 110.2 114.8 121.6 126.8 132.1 128.1 121.7 116.9 123.6 123 119.3 130.3 139.8 146.2 144.6 142.1 146.9 150.6 155.8 159.5 160.6 158.2 155.6 153.9 153.5 154.9 155.8 156.1 153.9 147.5 138.1 135.6 134.2 133 133.6 135.7 145 153 154.7 152.3 150.9 152.3 154.1 155.1 155.7 157.8 161.4 164.1 167.3 171.1 173.4 176.7 174.1 163.2 161.5 157 156.3 160.6 165.6 166.1 168.5 171.3 171.8 175 175.8 177 180.2 184.4 190.5 195 202.2 205.2 203.9 203 202 201.4 196.1 195.7 195.4 195.8 198.1 203.7 206.5 205.9 209.3 211 210.9 210.7 209.8 208.7 208.9 209.4 208 207.8 207.9 207.5 205.1 203.8 203.5 208 207.7 207.3 205.9 205.5 206 206.7 208.1 207.6 208.4 208 209.5 212 213.9 215.2 216.2 217.5 219.2 219.9 219.4 220.1 220.3 221.7 223.8 225.4 226.2 227.9 229.3 230.2 229.1 223.8 219.6 215.5 210.8 207.1 202.8 198.5 196.7 198.2 200 200.2 203.5 206.4 209.9 215.7 221.6 226 233.1 240.9 238.2 234.8 235.5 235.9 232.2 231.5 229.5 222.8
136.1 134.5 131.9 130.3 128.2 125.9 121.3 120 123.8 124.5 121 117.4 113.6 107 97.5 100.1 101.2 99.9 92.6 86.2 77.6 68.9 65.2 66.2 71.7 80.8 90.7 102.3 111.9 120.1 132.3 139.8 141.8 142.4 140.7 141.2 137.3 130.8 121.1 115.2 114.2 115.4 114 109.3 109.9 109 108.2 114.8 121.2 120.8 122.1 118.2 121.1 118.4 117.3 124.9 132.1 137.7 140.5 139.7 142.3 144.4 147.4 152.4 152.6 151.8 151.7 148.6 148.8 149.8 151.3 152.8 152 146.9 138.5 135.7 134.2 132.8 133.1 138 145.5 147.3 149.6 149.5 151.1 150.8 152 153.9 156 160.6 165.5 166.1 166.2 169.2 171.6 174.2 175.5 170 166.9 159.9 156.3 157.3 162 165.3 169.5 170.9 170.6 172.4 173.8 175.1 179.4 181.9 188.4 191.9 196.6 199.6 201.5 201.6 201.4 199.9 194.8 194.3 194.2 194.3 195.8 197.3 199.5 202.6 205.6 209 208.9 209.2 208.8 207.9 208.3 208.9 207.9 207.8 208 205.8 204.4 204.2 207.5 209.5 209.3 207.7 207.7 206.1 207.2 207.9 209.1 210 213.5 213 212.5 211.9 213.2 214.7 217.3 218.4 219.4 220.5 219.9 221 221.8 222.8 225.1 226.6 227.2 228.4 227.7 227.3 223.6 220.7 219.5 215.4 209.4 205.3 202.1 199 195.2 192.9 194.6 195.6 198 201 202.3 206.2 212.7 216.9 220.3 224.7 224.9 224.2 224.2 223.8 221 220.1 221.8 214
141.7 143.1 141 140.8 135.2 129.8 122.4 122.7 126.6 129.2 128.2 123.1 116.5 110.6 104.1 105.7 108.3 102.2 92.5 85.4 77.4 68.8 65.2 65.1 66.3 71.7 82.1 96.9 108.1 114.6 121.8 137 142.9 144.2 143.1 142.9 139.5 132.3 121.3 115.6 115 115.8 115.5 115 109.9 107.8 105 105.2 108.3 110 110.3 118.7 121.3 117.4 114.1 116.1 120.4 125.1 130 132.3 133.2 134.1 133.5 136 141.3 144.5 144.4 143.3 141.8 143.2 146 150.1 148.5 144.5 139.5 136.9 135.4 132.3 134.1 137.9 152.4 153.7 149.2 148.4 149.5 148.4 148.9 150.6 154.1 159.3 163.3 164.9 166.9 168.4 169.9 174.7 174.8 174 171.1 163 158 156.3 159.3 161.6 166.8 170.2 170.3 171.9 172 175.4 177.1 178.2 182.2 188.8 194.1 196.6 196.7 198.7 200.1 197.6 193.6 192.7 192.5 193.9 199.9 199.5 199.7 201 204.6 204.9 207 207.1 206.4 207.4 207.8 208.3 207.8 208.7 209.5 205.7 207 209 210.7 211 209.7 211.3 208.3 207.7 208.5 212.4 214.7 215.5 217.7 217.1 216.6 217.5 218.1 218.7 220.6 222.4 223.6 225.4 224.5 225.7 226.2 226.5 227.1 228 228.9 227.1 226.3 225.5 221.8 217.6 213.7 209.4 205.5 201.5 198.6 196.7 193.5 188.5 188.3 189.5 191.7 192.8 195.2 197.7 205.3 212.1 210.9 208.3 211.7 212.6 213.1 211.7 210.9 211.7 211.9 205.8
143.2 145.3 147.7 146.9 141.5 127.6 125 126 129.3 132.7 137.2 130.1 119 113.9 108.4 110 111 105.3 93.1 82.3 75 68.9 65 64.8 65 67 74.9 87.3 99.6 107.6 115.3 126.8 139.8 145.2 145.6 140.7 136.3 129.3 119 117.2 118.4 117.5 116.9 120.2 116.6 109.7 107.5 104.2 104.9 103 110.3 114.4 111.7 109.2 112.9 115.6 121 127.1 128.1 130 130.3 130.6 130.6 131.7 133.1 136.1 136.7 137 136.9 136.2 139.2 143.5 144.4 140.6 137.8 136.3 133.3 131.2 134.3 137.5 145.4 154.2 151.2 148.1 146.9 146.6 147.7 149.1 150.8 154.3 159.4 165.3 167 167.8 169.6 173.6 176.3 175.5 174.4 169.3 161.5 158 156.7 160.9 165.5 169 168.3 168.9 171.1 173.7 174.2 176.4 179.7 182.5 188.4 192.4 193.8 194.3 196.5 195.6 192.5 191 191.9 193 198.1 199.2 200 201 201.8 203.1 204.2 204.4 205 206.1 206.9 207.6 207.8 208.6 209.3 207.2 209.2 209.9 210.3 210.9 215.6 212.1 210.4 211.8 214.8 219.4 220.4 220.7 220.1 220.9 220.7 224.1 225.8 225 228.7 231.5 234.6 235.5 235.3 236 235 234.4 232.7 230.9 231 228.5 226.4 224 219.7 215.5 210.5 205.8 202.1 198.4 195.5 193.4 192.1 187.2 185.4 183.4 185.3 187.3 189.2 192.6 195.5 200.2 199.4 197.4 201.8 202.5 202.7 200.2 200.5 204.3 202.8 203
145 148.5 148.3 149.1 145.4 129.8 132 132.7 138.7 142 146.9 140.2 125.4 119.8 115.7 119.6 120.6 120 104.5 85.2 75.6 70.6 66.5 63.1 64.3 65.4 67.8 77.8 90.4 101.1 108 117 131.2 139.3 141.5 140.7 137.2 126.9 118.1 117.1 120 120.4 119.2 118.1 117.3 112.8 110.9 108.6 105.7 104.7 101.3 103.5 105.8 106 110 119.9 125.3 130.5 135.8 136.7 130.1 129.9 128.9 127.9 128.2 129.9 130.7 128.7 130.3 132.2 133.8 137.2 139.2 138.1 134 132.2 129.8 130 133.7 135.9 138.7 140.8 145.3 147.9 145.7 146.3 147.5 148.8 150.6 154.3 157.7 163.1 167.3 168.3 170.6 176.4 176.7 176.3 174.9 171.7 165.6 162.8 157.3 159.2 166.4 166.6 165.5 168.2 169.7 170.7 171.9 175.4 177.9 181.7 184.4 186.6 189.3 190 192.3 192.9 191.3 190.2 190.7 192 193.8 198.6 200.5 200.2 199.5 200.6 201.5 200.7 202.4 203.6 204.7 205.2 206.5 207.6 208.2 207.4 208.8 209.8 211.2 211.7 213.8 214.2 215.5 220.2 220 223 225.1 226.7 227.6 226 227.6 227.6 231.3 234.4 237.2 240.3 244.1 245.5 246.6 245.1 245 244.2 240.8 237.1 234.2 231.3 228 225.3 221.2 216 210.8 206.2 202.4 198.6 193.9 190.9 188.9 185.3 183 180 180.4 181.6 184.4 186.5 188.7 189 188.2 190.1 194.4 193.6 191.4 190 190.9 194 193.8 193.9
148.9 152.2 154.5 152.6 140.7 135.2 135.2 137.6 142.7 146.2 149.4 145.9 133.5 127.5 122.2 126.1 137.3 133.3 116.9 93.1 79.9 73.2 67.1 63.2 65.8 66.4 61.8 70.4 80.9 93.1 103.5 112.1 127.8 139.8 144.1 141.2 134.4 121.2 116.2 117.8 117.2 117.7 118.3 115.6 114.4 114.2 112 111.1 111.4 106.1 103.9 100 100 105.3 109.3 116.8 134.2 140.6 140.6 140.3 131.4 130.1 128.8 127 125.2 124.6 123.9 122.1 121.6 122.7 129.7 132.9 134.7 133.3 132.7 129.3 129.4 132.3 134.7 138.2 140.2 141.5 142.6 143.7 144.7 146 147.4 148.8 151.7 153.6 157.4 162.6 166.7 168.5 172.9 179.1 179 176.8 174.8 171.8 167.2 164.8 160.7 157 162.1 163.9 163.5 166.1 170.5 172.3 173.2 176.5 178.3 180.6 182.3 184.8 185.1 186.2 188.2 189.7 190.1 188.5 189.8 190.7 191.4 195.9 199.3 198.9 197.1 195.5 196.6 197.4 197.6 199 201.1 201.3 202.9 205.9 207.8 209 208 209.7 212 213.7 215.6 217.1 221 225.6 229.9 234.2 232.2 230.1 232.7 232.5 233.7 234 235 239.8 245.3 250.1 253.4 256.3 259.8 260 257.8 256.6 252.6 249.1 243 237 233.5 228.5 222.4 217.5 211.5 206.8 202.7 198.6 194 190.3 187.6 185.1 183 179.4 177.8 177.3 178.4 181.1 181.4 182.3 181.3 185.5 186.3 184.8 183.9 183.8 184.5 187.6 185.4 187.2
155.5 156.6 156.5 153.2 137 137 138.5 143.9 145.6 150.7 157.2 150.9 138 139.1 130 133.3 148.6 141 120.5 100.4 85.8 77.5 70.6 67.6 64.7 64.6 56.5 65.5 73.6 85.6 98 107.1 117.4 127.4 137.5 139.4 127.5 113.7 114.2 112.2 111.9 112.9 113.9 116.5 118 117 117.8 117.8 115.9 113.3 110.1 106.5 102.2 100.3 105.8 111 125.2 136.4 134.8 130.5 135.7 133.6 131.1 127.4 125.4 123.5 121.2 118.9 117.5 118.2 119.3 125 128.6 127.6 129.2 125.9 129.3 134.2 137.9 140.8 142 143.5 144.9 146.8 147.2 146.1 147.4 149.4 151.4 153.6 157.1 161.2 165.7 168.6 173.1 180 179.9 177.6 174.3 169.9 167.2 165.9 161.2 158 158.2 162.4 166.4 170.5 173 174.1 174.8 178.7 178.6 180.3 182 183.6 184.3 186.2 187.3 187.4 188.2 188.2 188.8 189.4 190.1 190.7 193 196.2 191.9 192.9 195.5 196.6 195 196.5 199.7 200.4 202.1 208.4 208.2 213 210.7 210.4 213.6 215.2 219.5 219.5 222 224.1 232.3 237.4 239.9 239.2 236.2 237.8 238.8 240.5 241.1 246 252.9 259.4 263.4 266.6 270.9 273.6 273 272.8 269.2 264.9 257.5 247.6 238.2 232.4 226.3 219.8 212.9 207.5 203 198.6 194.4 190.5 187.7 184.8 180.9 178.7 177.5 175.4 174.7 176.8 177.4 176.5 177.2 179.3 178.8 179.2 178.9 180.1 180.5 182 179.9 181.7
160.1 159.2 157.4 144.8 141.8 144.3 143.8 151.5 157.3 157.9 158.9 155.1 150.9 147.5 133.7 137.4 149.3 143.8 129.6 108.4 93.7 83.1 77.4 74.6 63.2 58.7 54.2 60.2 69 80.9 92.2 100.9 108.4 115.8 120.8 125.6 115.3 110.1 111.7 110.2 111.2 115.2 115.2 120 123.4 125.5 127.9 126.3 125.6 122.1 120.5 114.1 109.6 104.4 99.5 99.7 110.3 127.5 133 129.7 137.1 140.3 139.1 129.7 126.9 125.6 123.2 121.1 118.8 115.5 113.1 114.4 117.1 122.2 125.5 123 129.2 141.7 146.7 148.3 146.7 147.7 149.3 149.8 149.5 147.8 147.6 149.6 151.6 153.7 156.4 158.7 164.2 167.9 174.4 177.9 176.6 175.7 173.3 169.9 168.1 165.4 163.8 160.5 157.6 164.8 168.8 174.8 174.6 174.3 175.7 178 178.9 180.3 181.7 183.1 183.5 184.4 185.8 186.2 186.7 186.8 187.7 188.4 189.1 189.3 187.2 187.1 189.6 189.3 190.5 191.9 192.5 197 201.4 200.4 203.2 210.4 209.4 214.7 214.8 213.6 213.5 216.3 219.5 221.5 223.1 226.6 231.4 237.1 242.7 244.6 244.6 243.4 244.1 245.9 246.6 252.7 261.2 268.2 273.6 277.1 280 282.9 284.8 285.5 289.1 288.3 279.2 267.6 251.6 238.7 229.7 221.7 214.8 208 203.3 199.2 195 190.8 187.8 184.9 182.3 179.5 177.9 176.7 173.9 171.8 172.4 169.5 171 172.3 173 174.3 175.3 176.6 179.4 178.3 175.9 175.4
155.4 161.6 161 147.7 149.9 154 153.7 156.9 160.1 162.1 162 160.5 159.7 152.1 135 143.6 150 147.8 136.4 112.5 99.8 91.6 88.2 80.2 74.3 62.5 54.3 53.8 64.5 75.2 86 93.2 100.7 105.5 111.8 106.5 101.3 102.6 105.7 109.2 114 118.2 117.7 122.9 133.6 136.7 135 135.7 135.1 132.7 127.8 123.8 117.4 111.1 106.2 99.1 100.4 106.7 116.2 126.6 134.2 134.7 140.9 137.2 136.3 137.7 132 127.3 124.1 116.8 112.8 110.9 111.2 114.3 118.6 119.7 125.4 135.4 150.9 159.6 156.2 152.8 152.3 150.9 147.7 146.7 149 151.1 153.4 155.7 158 159.8 163.1 166.2 170.7 172.2 173.3 172.5 172.4 171.2 167 165.3 164.4 163.2 159.7 164.6 169.2 175.6 173.9 173.9 175.5 177.9 179.5 182 184.2 184.6 184.9 186.3 186.3 186.7 186.8 186.5 186.4 186.6 186.5 186.4 186.3 185.7 186.1 186.2 189.8 191 191.7 195.6 198.6 199.9 201.9 209 213.5 215.3 218.3 217.3 218.9 220.4 222.9 222.7 225.7 228 231.7 236.8 240.9 245.6 247.7 248.2 247.9 251 253.6 259.4 269.1 278.3 283.8 285.7 290.7 294 298.5 305.5 312.5 313.5 306.6 294.2 275.2 254.5 238 224.2 215.7 209.2 204.2 200.4 196 191.8 188.7 186.1 183.9 181.9 180.1 178.4 174.8 174.4 166.4 165.3 163.7 165.7 167.6 169 169 169.5 171.7 171.8 170.6 171.7
150.2 157.5 149.7 156.1 160.2 159.2 155.9 154.2 157.3 162.5 165.4 164.7 161.7 147.6 136.4 143.9 148.8 148.4 137.1 120.2 103.3 95.5 88.4 83.2 79.4 65.5 49.8 50.6 60.1 68.6 76.4 84.2 90.6 94 92.7 100.1 105 106.6 109.3 112 114.8 120.3 123.8 133.1 139 141.1 139.2 138.2 138.4 139.5 138.8 136.7 129 121.7 118.8 113.1 104.3 97.8 102.5 113 119.3 124.8 128.2 137.6 147.2 150.8 145.4 139.8 131.2 121.3 115.4 111.8 109.3 110.3 114 115.9 119.2 124.9 139.2 152.3 156.9 153 150.9 148.7 145.5 147.8 150.5 153.5 156.5 161.3 165 165.4 165 166.8 168.5 169.9 170.6 171 169.8 168.4 167.1 165.5 165.1 165.3 163 164.4 169.7 172.5 172.7 173.4 175.6 178.6 180.2 181.8 183.2 184.8 185.5 187.7 187.2 186.8 185.9 185.1 186.2 186.8 186.6 186 185.3 184.5 185 182.8 185.1 186.6 190.4 195.4 197.4 199.4 205.1 210.5 216 220.9 218.8 222.7 221.5 221.4 224.9 224.3 227.1 231.4 232.2 234.4 241.2 245 247 250.1 251.2 255 258.5 264.6 273.5 283.2 289.7 294.1 297.6 303.1 314.5 322.6 330.5 332.6 327.5 318.9 301.9 279.5 252.2 234.1 219.8 211.9 206.3 200.9 196.9 192.9 189.5 187.4 185.2 183 181 178.5 175.8 173.2 173.1 170.8 164.6 159.8 162.2 164.5 164 166.4 167.3 166.1 166.3 167.4
131.3 136.5 138 155.3 159 157.1 154.6 146.9 149 154.9 156.1 160.8 158.1 144 134.9 140.5 144.2 140 126.7 112.4 96.6 89 86.9 80 73.8 58.4 44 51.9 57.6 64.2 71.2 78.4 79.4 84.8 93.3 105.3 111.3 115.8 119.7 125.1 128 128.4 132.8 140.7 139.9 139.9 138.8 138.2 140.5 143.3 146.8 145.7 143 138 130.4 124.8 118.3 110.7 93.3 103.7 108.8 111.8 114.6 116.9 143.9 157.3 156 150.4 136.3 124.4 114.8 111 107.6 108 108.4 113.8 116 119.9 126.2 139.3 148.9 146.3 142.8 142.9 145.9 150.7 153 157.1 161.1 166.3 172 174.5 174.3 170.7 169.2 168.9 169.7 170.1 168.8 167.4 166.4 166.4 165.5 164.8 162.3 165 167.8 170.1 172.3 173.7 175.6 179.8 182.2 184.3 185.8 186.2 186.5 188 188 185.8 184.5 184.9 186.1 187 186.7 185.5 183.1 182 180.1 179.5 180.6 183 185.8 190.5 195.3 200.4 205.5 210.1 217.4 221.3 221.5 225.1 223.9 225.9 224.9 225.7 229.5 233.3 233.7 236.5 239.1 242 245.6 248 250.3 253.1 257.1 263.3 272.3 283.8 290.7 297 304.6 312.7 319.9 327 331.5 330.6 329 323.9 309.6 291.8 264.5 243.4 227.8 214.2 206.9 200.5 197.6 193.7 190.2 187.5 185.3 183 180.5 178 175.4 173.3 172.9 170.2 169.1 164.3 158.1 159.1 159.7 160.9 160.9 161.4 162.1 161.9
110.9 118.8 126.7 140.4 150.9 148.6 144.2 142.2 140.1 146.6 148.9 151.6 144.8 133.3 130.9 131.7 135.6 133.7 114.5 99 85.1 88.4 91.5 78.7 64.8 52.3 43.2 50.1 55.9 59.8 62.8 67.4 78.2 94.1 109.7 118.8 125.4 128 130.1 134 136.1 138 138.8 142.9 141.4 140.7 140 144 143.4 145.7 150.5 152 151.9 149.5 144.5 136.8 131.9 124.5 113.9 102.2 93.8 101.2 104.9 105 124.4 147.6 151.6 150.4 134.1 123.1 114.6 110 106.8 105.3 108.4 112.8 114.8 118.7 122.7 128.6 139.6 138.2 138 142.3 148.5 153.5 156.6 160.4 168 177.4 184.5 183.2 184.2 181.2 173.9 169.8 168.9 169.2 167.8 167.3 166.7 166.4 167.3 166.4 162.9 165.8 168.9 170 172.2 173.5 176.3 183.1 183.9 188.2 189 188.3 187.6 188.4 186.8 184.8 183.2 184.8 186.1 187.7 187 183.8 181.4 179.1 178 177.9 178.5 180.9 184.4 188.2 194.3 200.9 204.3 209 213.8 219.1 223.3 228.8 228.4 227.1 227.9 228.2 229.8 231.6 234.3 237.5 240.4 241.8 245.7 249.3 250.6 252.2 256.9 262.9 270.3 276.3 287.7 298.6 309.4 316.3 321.5 327.9 330.9 327.5 321.4 310.9 295.8 280 261.4 246.3 233.6 219.6 207.6 200 197.4 194.2 190.9 188.6 186.2 182.9 180 177.5 175 173.5 170.8 168.6 167.8 166.5 159.9 156.4 155.3 156 156.2 157.3 158 158.6
102.7 108.6 116.8 124.4 135.2 133.7 132.2 131.1 129 134.6 139.9 137.7 130.2 122.5 120.3 124.2 123.6 121.7 104 89.5 83.8 81.7 89.8 90.6 64.7 48.7 41.3 46.9 53.3 53.6 58.9 70.4 84 100.8 112.9 122.5 128.8 131.3 133.3 136.9 140.2 142 141.5 141.9 143.1 142.2 142.2 143.2 145 148.5 154.2 153.9 155.5 158.2 155.8 149.5 140.2 134.7 126.3 113.2 101.9 89.1 96.8 99.9 102.5 124.5 135.3 133.3 130.1 121.8 113.4 107.6 105.6 104.9 107.7 111.8 113.9 117.8 119.9 121.7 126.5 132.1 136.4 142 148.2 155.6 162.5 165.3 173.6 182.7 188.7 191.8 187.3 183.9 178.4 172.2 169.8 168.7 168.1 167.5 166.9 166.4 168 167.6 165 164.3 167.8 170.5 171.6 173.2 175.9 182.6 184.5 186.4 188.8 189.1 187.8 187.3 184.4 182.9 183.1 184.8 188.1 189.8 187.9 183.9 180.2 177.9 177.3 177.4 177.8 180.4 183.5 186.6 190.2 197 202.6 207.5 212.6 218.7 226.6 232.6 232.8 231 230.2 230.5 233.3 235.4 234.5 238.6 243 246 248.8 250.6 252 255 260.1 267.9 269.6 278.4 291.4 304.6 311.7 317.4 322.5 329.3 330.9 323.6 313.9 302.9 288.8 273.8 258.3 247.6 231.9 219.3 207.7 201.6 197.8 195.5 193.5 191.7 188.1 183.5 180.6 177.7 174.8 172.3 170.1 167.9 165.8 163.7 163.9 157.9 154.3 152.6 154.5 155.8 155.7 155.1
91.8 100 109.4 115.5 115.8 119 119.3 118.5 118 117.7 118.6 117.9 113.8 110.1 116.6 111.2 111.9 105 98.5 88.1 80.4 74.1 77.1 80.9 61.1 43.6 35.4 39.7 45.3 45.4 60 73.6 88.4 103.4 117.1 125.6 129.7 133.4 136.2 139.1 142.8 148.8 150.9 149.9 145.2 144 143.7 147.1 154.1 157.5 157.4 157.7 154.7 152.4 151.9 150.8 141.6 136.3 128.2 118.6 104.7 96.4 86.5 89.8 92.3 97.1 106 113.6 119.1 118.3 112.1 106.3 104 102.3 104.4 106.7 112.9 114.8 116.9 118.3 124 130.9 135.9 140.2 148.7 161.2 167.2 169.7 173.4 185.3 190.4 193.1 191.4 185.5 179 173.6 170.5 169.4 168.7 168 167.3 166.6 166.4 166 164.7 165.9 166.5 167.6 171.2 174.1 176.4 180.8 183.8 185.7 188 187.7 187 184.6 184.1 182.4 181.1 184.3 187.1 190.4 187 183.5 180.5 178.1 177.3 177.4 178.8 180.2 183.9 186.3 189.5 192 201.7 206.4 212.5 217.9 223.1 234.1 238.1 234.9 232.9 232.8 234.8 236.5 237.6 240.9 245.2 248 251 256.2 258.7 264.1 269.9 275.3 282.2 290 303.3 312.2 316.6 320 323.4 325.6 323.5 318.8 313 303.9 290.3 274.4 257.9 243.5 230.3 218.9 209.1 204.1 199.2 196.8 195.4 194.1 191.7 184.4 181.2 178.2 175.3 172.8 170.1 167.9 166.5 162.7 160.8 158.4 154.6 152.4 151.9 154.4 154.9 153.2
83.2 86.8 96.9 103.9 108.7 112.4 112.7 113.7 113.4 112.1 110 107.9 105.8 104.9 104.7 108.5 112.2 114.2 104.9 87.3 69.9 61.6 54.8 49.9 44.6 38.5 31.3 32.7 37.6 44.2 58.3 80.1 91.8 105.5 118.9 129.5 137.5 141.6 139.9 144.3 148.7 149.5 156.3 158.1 148.3 147.1 146.5 150.5 157.1 157 155 155.7 153.2 148.7 148.4 146.2 140.5 135.9 127.4 118.2 111.6 101 89.5 85.4 85 85.1 87.3 94.7 105.8 110.7 107.7 104.3 105.1 103.2 102.7 102.8 105.8 111.1 115.2 118.3 123.9 128.8 133.7 139.4 147.9 157.5 166.9 171.7 175.7 186.7 191.1 193.5 191.1 187.3 179.6 175.3 172.5 170.1 169.4 168.8 168.2 167.5 166.3 165.6 167 167.8 167.4 168.4 171.5 173 174.4 177.5 181.3 183.2 185.1 183.8 184.4 184.1 183.6 182.1 180.4 180.5 181 183.9 184.6 183.6 180.3 178.3 177.4 178 179.1 180.2 182.8 185.7 186.5 188 196.2 204.7 212 217.4 222.2 229.3 237.8 239.6 234.7 234.3 238.3 239.3 239.8 241.8 246.8 248.1 251.6 257.8 262.2 267.6 275.9 283.6 290.6 301.2 313.6 321.9 322.6 321.7 322.3 322.3 320.4 317.7 313.6 309.2 298.9 286.7 271.2 249.5 232.4 219.4 210.1 204.3 201.7 198.9 198.4 196.1 191.9 186 182 178.8 175.9 173.2 170.1 167.9 163.9 160.7 158.7 156.8 155.8 154.7 152 151.3 153.2 153.7
77.2 75.8 82.4 96.2 110.9 118.1 119.3 118 113.1 111.4 114.9 126.6 122.9 107.7 104.3 108.7 124 129.5 124.3 107.3 83.5 60.9 45.4 36.8 35.4 32.8 28.5 29.2 33.2 42.5 55.2 76.6 94.3 109.6 118.7 127.1 137 142.2 144 148.5 151 149.6 146.8 154.4 151.1 147.9 148.4 154.3 158.9 155.8 154 150.6 147.4 146.3 149.8 147.2 138.1 132.2 126.9 117.7 111 100.8 91.3 85.3 85.1 84.9 83.9 88.3 99.4 107.8 104.9 105.6 105.2 104 102.2 102 104.2 107.7 111.5 116.7 124.4 129.7 134.9 142 149.6 158.9 167.5 172.8 178 181.8 187 187.8 187.4 185.5 181.8 176.9 173.2 171.2 170.5 169.9 169.3 168.5 167.3 165.9 165.9 168.1 168.5 169.3 171.5 172.4 172.9 174.5 177 180.1 179.9 182.3 183.5 182.8 183.2 181.3 179.3 179.1 179.8 180.4 180.8 180.8 178.9 177.9 177.5 178 179.1 180.2 182.9 184.3 186.4 187.9 191.1 198.8 205.7 215.5 221.1 223.6 233.6 240.1 236.5 235.7 240.3 241.4 241.3 244.4 247.7 251.3 257.3 262.1 267.4 274.4 281.4 289.9 297.2 308 320.5 327.4 325.6 322.9 322 320.7 319.7 317.7 315.1 312.9 304.5 294.2 282.2 257 239.1 224.8 213.8 205.7 201.1 199.5 199.6 196.9 193.6 187.4 183.1 178.7 173.5 170.9 169.4 167.4 165.6 163.4 159.9 158.6 156.3 154.9 154 148.8 151 151.8
72.3 72.8 76 90.8 107.6 120.4 126.2 130.1 122.8 111.5 113.2 127.6 129.2 120.2 107.2 106.4 108.9 119.5 113.6 105.3 96 66.7 46.8 37 30.6 27 24.4 26.4 31 38.3 52.5 72 89.4 113 121.8 128.5 136.7 145.6 146.5 146.7 146.8 144.1 139.9 142.9 149 147.4 148.6 149.4 155.3 155 152.5 148.6 145.3 139.7 141.9 141.1 135.4 127.4 121.2 114.8 105.3 96.8 91.7 86.4 84.6 84.3 83.9 85 89.9 98.2 101.6 103.6 101.7 101.5 100.2 100.8 101.8 106.4 109 115.8 123.4 130.7 136.6 144.3 151.8 161.3 168.5 176.7 183.2 185.3 186.2 187.8 187.2 186.1 185.1 182 175.5 172.8 171.8 171.1 170.5 169.8 169 167.6 166.2 167.1 168 169.5 171.2 171.8 172.2 172.8 174.5 175.8 179 179.3 179.5 180.7 181.4 179.9 177.7 178.3 179 179.7 179.9 180.2 178.6 176.9 177.9 178.4 179.2 180.7 182 183.6 185.2 187.7 191.1 195.5 201.1 208.9 214.3 219.3 228 235.5 236.6 236.8 241.2 243.9 243 247.5 249.3 252.8 260.8 267.6 273 280 287.3 296.5 303.7 316.2 327.7 331.2 327.1 323.3 322.2 320.7 320 318.4 317.4 311.7 304.6 292.5 278.6 261 244.6 228.5 216.7 208.9 200.6 198.6 198.9 199.2 192.4 185 184.4 176.6 175.8 176.2 174 171.4 168.6 165.7 161.5 158.8 156.4 154.2 151.6 149 150 149.7
64.6 69.5 72.5 77.4 91.7 114.4 124.2 125.9 121.4 107.1 111.3 125.9 137.8 130.9 112.2 93.8 93.7 96.1 89.2 80.5 70.9 62.4 51.8 41.7 30.5 23.9 23 25.8 28.1 34.1 46.5 62 80 104.6 123.9 131.2 135.5 138 141.2 141.5 140.7 134.7 133.4 144.5 144.2 141.6 139.7 137.5 137.6 142.7 146.7 143.2 136.1 132.3 128.7 127.2 123.7 118.9 109.7 102.1 96.2 92.8 89.3 85.8 84.5 84.2 83.9 84.1 84.7 89.7 94.7 97.2 96.1 96.8 97.3 99.2 100.3 104 106.5 114.9 122.3 130.6 138.2 145.2 152.6 161.1 169.9 178 185.2 189.5 190.8 188.9 189.7 185.9 184.2 182.6 178 173.8 173.1 172.6 172.1 171.2 170 168.6 167.5 166.2 166.8 168.1 170.8 171.3 170.6 172.2 174.3 174.6 176.3 177.5 177.4 177.1 175.8 177.2 175.3 176.9 178.2 179.5 180 179.5 178.6 177.6 177.4 178.9 179.6 181.8 183 184 184.9 186.8 189 193.6 199.4 204.8 210 215.4 222.4 230.4 234.2 234.5 238.2 245.3 244 246.3 249.7 254.8 262.6 270.5 277.9 285.5 293.7 303.3 310.9 322.5 335 335.2 331.2 324.8 322.3 320.8 320.2 319.6 316.8 310.7 302.3 289.6 274.2 255.2 242.9 229.2 219.5 211.3 202.1 198.5 195.4 193.2 186.9 184.4 183.4 181 180.4 178.8 175.7 171.9 168.1 165 161.9 159.2 156.6 154.3 152.6 148.6 148.3 147
57.4 60.8 62.8 65.1 76 96.3 112.7 109.5 106.1 93.9 99.4 118.5 131.7 131.3 103.9 87.7 77 70.7 62.7 56.1 52.3 47.2 41.9 37.3 28.4 22.3 18.5 22.7 25 31 41.3 54.7 71.2 88.6 109.8 129.2 134.7 137.5 136 132.8 130.9 123.7 116.6 131 137.3 134 128.3 121.1 115.5 116.3 119.3 122.3 120 118 115.9 112.4 109.3 107.8 101.9 96.3 91.9 91.6 85.6 86.4 84.4 84.2 83.9 83.7 83.7 83.9 86.2 89.2 88.3 89.5 97.9 98.1 99.6 104 104.9 111.5 119.9 126.9 134.8 142.6 150.1 159.5 167.7 177.1 185.3 192.8 196.4 197.5 198 195.4 189.7 186.1 181.9 179.9 176.9 174.6 173.7 173.3 173.4 173.2 174.8 173.8 169.4 167.6 167.2 167.6 169.3 170.6 171.5 171.3 172 173.5 174.1 173.6 172.6 174.1 173.3 175.4 176.8 178 179 179 178.4 176.6 176.2 179.2 179.7 182.5 184.7 186 186.3 186.4 188.1 191.2 194 198.7 201.2 208.6 217.2 226.6 229.6 232.4 234.8 239.7 244.8 245.5 253.2 257.4 264.2 272.1 281.7 290 301.4 311 320.1 334 341.6 340.6 336.2 329.4 323.8 321 320.1 317.7 313.5 306.7 297 284.1 266.6 252.2 241.2 230.6 222.5 213.8 204.7 200.1 198 195.3 193.3 191.1 188.6 185.3 183.5 180.7 177.8 173.6 169.8 167.5 165.5 162.3 159.4 157 155.5 152.7 148.1 146.8
44.7 50 49.3 50.3 61.1 72.8 83.7 85.1 80.4 77.7 88.9 107.2 118.6 108.9 85.9 75 63.4 54.4 46.9 41.2 36.6 33 29.7 25.7 24.4 21.6 19.4 18.4 22.4 26.6 38.1 50.6 62.5 77.3 91.2 108.2 123.5 120 114.9 109.1 104 101.5 101.1 104.9 113.4 121.9 118 111.8 106.8 106.8 108.7 111.1 107.9 102.5 100 100.4 99.7 96.1 95.1 92.8 89.7 87.5 88.3 89.3 86.7 84.4 84 83.9 83.7 84 84.3 84.8 85.6 86.6 91.8 94.5 97.1 101.4 104 109.2 115.5 120.9 127.8 135.9 147.1 158.7 173.6 181.6 188.3 194.2 200.3 202.4 202.3 199.5 196 194.2 194.7 195.3 192.5 185.8 176.5 174.5 175.7 175.4 176.9 181.1 182.4 174.1 171 170.3 169.9 169.3 169.3 169.3 169.3 169.3 170 170 170.1 172.3 171.3 174 175.2 176.4 177 176.5 176.4 176.1 177.3 178.6 179.4 180.9 183.7 185.1 186 186.9 187.3 189.3 192.7 195.9 197.9 206.3 216.3 224.9 226.8 230.1 232.9 237.9 244.5 245.2 254.7 258 265.9 273.7 284.4 294 307.2 318 334.6 345.1 349.5 347.1 341.3 334.8 330 325.8 318.8 312.4 306.5 300 288.5 273.7 258 249 239.5 230.4 223.6 215.8 207.1 205.4 203.5 201.1 197.8 193.6 191.7 189.5 187.1 183.6 179.9 174.9 173.7 172.6 169.8 165.9 163.3 161.6 159.8 156.9 155.2 154.2
35.9 41.8 39.3 38.3 42.6 52.5 60.4 61 59.8 66.8 77.2 95.8 109.1 95.5 70.8 59 49.7 41.7 34.1 27.8 24.8 23.6 22.1 21.6 22 20.5 19.4 18.7 19.8 23.6 30.3 43.3 56.9 70.7 83.5 93.4 101.2 101.1 100.1 98.9 98.5 97.9 97.9 98.1 98.3 102.1 103.9 106.3 102.5 98.4 95.8 95.1 96.2 96.2 91.3 89.6 89.1 87.7 86.1 83.2 86.7 89.9 91.8 96.5 92.6 87.4 84.8 83.9 83.7 84 84.1 85.4 85.5 88.8 88.5 90.6 93.5 96.7 99.6 105.2 110.5 117.4 124.6 133.5 146.1 166.6 178.6 183.2 188.4 196.5 203.9 205.2 202.6 199.8 196.9 195.7 197.2 198.3 196.8 190.7 182.7 177.3 174.9 174.5 177.3 183.8 187.8 185.5 176.8 173.4 171.4 170.7 169.5 169.3 169.3 169.3 169.3 169.3 169.3 169.3 169.3 170.9 173.3 174.2 174.9 175.7 175.9 176.3 177.5 178.8 179.8 180.1 182.6 184.5 185.8 188 188.9 189.4 190.6 193.1 196.9 200.7 208.8 215.6 222.6 225.2 231 234.8 240.8 244.8 252.3 258.8 267.3 276.5 285.7 301 314 330.3 346.1 352.5 355.1 352.6 345.7 338.9 334.5 329.8 318 306 297 288.8 277.9 262.6 255.6 247 238.3 233.1 226.3 217.6 212 211.5 209.3 205.9 200.6 195.5 194.1 192.9 190.6 185.1 180.3 178.5 177.6 176.6 173.5 169.9 167.5 165.6 163.5 161.7 160.4 159.2
29.5 31.6 30.8 29.9 28.6 34.3 40.7 42.7 47.1 54.4 64 77.5 88.6 75.1 58 49.3 41 33.7 27.1 24.4 22.5 21.4 20.4 19.7 19.6 18.4 17.4 17.1 17.6 21.1 29.3 39.4 52.2 66.2 79.3 89 98.4 96.7 97.5 97.1 97.7 97.4 97.5 97.7 97.3 98.5 99.3 98.5 95.8 92.4 89.5 89.5 89.8 89 85.9 83.9 87.8 83.4 81.8 83.3 84.4 86.3 89.4 90 92.7 89.3 85.7 83.9 83.7 83.6 84 86.1 86.8 89.4 89.9 92.9 96.1 97.2 99 103.1 110.8 118.9 126 135 148 163.7 176.8 183.5 193.8 201.6 205.6 205.3 202.9 199.6 194.2 194 195.2 197.4 197.5 191.4 183.2 178.3 173.9 173.8 176.5 182.9 187.5 189.1 183.6 175.7 173 172 170.8 170.6 170.1 169.3 169.3 169.3 169.3 169.3 169.3 169.3 169.3 170.6 172.7 173.6 174.2 175.8 178.7 179.6 179.7 181.3 183.2 184.8 185.8 188.9 189.1 189 190 192.5 195.3 199.6 203.5 212.5 217.7 221.4 226.8 233.8 238.3 246.3 254.8 262.1 270.2 280.8 290.9 309.7 325.7 344.4 355.4 359.8 359.2 356.6 351.2 343.5 336.1 331.2 316.5 301.1 289.5 279.1 268 259.1 253 246.8 240.2 234.1 225.9 219.9 219.6 217.3 214.4 210.2 204.3 198.8 195.7 195 193.3 187.2 183.5 182.8 181.8 180.4 177.3 174.2 172.2 171.6 170.7 170.1 168.8 168.5
27.1 26.3 27.7 25.7 24.7 25.1 28.1 29.1 32.4 38.9 45.9 50.8 52 51 46.4 41.3 34.2 27.7 25.3 22.9 20.2 19.3 20.8 18.4 18.4 17.1 17.3 17.7 17.9 18.7 24.2 37.8 51.4 67.5 77.2 84.3 91.2 95.8 96.4 96.3 96.9 97.2 97.3 97.3 97.9 98.5 100.9 100.1 93.5 90.4 89 87.3 86.2 84.8 82.5 81.4 81.3 80.3 82.7 82.4 82.3 82.6 83.6 84.5 87.9 89.4 87.1 83.7 83.4 83.5 84.6 86.1 86.6 90.2 94.5 99.1 101.7 100.1 100.6 105.2 113.7 120.4 128.2 137.4 150.4 164.3 175.8 183.5 192.9 200.8 205 204 201.4 196.7 192.6 189.5 189.6 193.7 192.5 188.1 181.7 176.2 173.1 172.6 174.4 179.6 186.7 188.8 186.7 180.2 175.5 173.5 172.2 172.8 173.2 171 169.3 169.3 169.3 169.3 169.3 169.3 169.3 169.3 169.3 169.3 172.2 174.1 175.8 178 180.4 180.9 180.8 182.7 183.4 186 186.2 188.1 190.1 192.5 196.5 202.9 208.2 217.8 217.9 222 229 239.3 241.5 251.4 257 264.1 274.1 285 300.9 320.3 339.1 352.6 362.6 366 366 361.7 354.9 346.3 334.5 327.3 316.3 295.3 282 268.5 262 256.7 252.3 246.2 240 234 231.5 228.6 225.8 222.5 218.5 214 207.7 202.1 197.5 194.3 191 188.6 187.6 187 185.6 184.2 182.2 180.7 179.7 179.9 179.6 179 179 178.5
24.2 24.3 25.3 25.9 24.8 24.8 23.7 24.7 24.8 26.6 28.2 31.6 34.1 35.5 34.4 31.6 27.5 26 25.2 23.1 20.1 18.3 18.8 18.2 17.7 17.3 18.6 18.1 16.8 17.4 20.5 32.7 45.8 65.4 75.2 86 95 100.3 100.9 99 99 98 97.3 97.2 97.4 97.6 97.9 98 93.3 90.8 91.2 91 86.5 84.6 82.1 81.3 79.7 79.6 81 78.3 78.3 78.9 80.6 82.5 86.9 87.3 85.8 83.8 83.5 84 84.5 86.4 90.9 93.1 98.7 102.3 104.7 101.7 104.5 108.2 113.7 120.1 129.2 139.2 150.2 163.3 175 182.3 189 193.5 197.9 200.4 197.3 193.7 190.6 186.4 183.5 184 185.2 182.8 178.4 174.9 171.7 171.2 172.5 175.6 185 192.2 187.4 182.2 178 175.4 172.8 172.8 173.4 170.6 170 169.8 169.3 169.3 169.3 169.5 172.4 169.5 169.3 169.3 169.3 169.3 169.3 170.1 174.1 177.4 180.9 181.2 183.3 185.4 188.3 188.8 190.4 192.9 199.2 209 207.5 211.5 217.6 222.1 236.8 242.2 247.2 256.3 265 271 283.7 295.6 309.9 330.6 346.1 356 362.6 370.1 370.4 364.1 352.9 341.3 329 317.2 305 289.2 273.4 264.6 259.6 255 249 243.1 242.3 240.2 237.5 234.2 231.5 226.8 221 215.5 210.9 207 201.9 198 197.3 196 193.3 192.2 190.7 190 190.9 189.3 188.9 190 190.5 190.8 191.6 191.6
23.6 23.2 22.8 22.4 22.1 22.2 22.3 23.5 22.9 21.8 21.9 19 23.6 25.3 25.5 24.2 22.9 22.9 22.9 19.6 19.4 18.3 18.2 17.6 16.6 17.3 17.3 18.3 16.3 16.1 18.7 26.1 41 60.9 73.9 82.8 91.3 100.8 105.7 108.8 113.3 113.2 106.5 100.8 98.9 100.4 98.6 100.1 94.3 94.1 97.2 97.3 95.2 91.9 90.2 83.8 82.1 79.8 77.3 76.5 76.1 78.6 80.1 81.4 87.9 89.8 88 84 83.7 84 84.3 87.3 90.2 95.1 101.1 105.3 108.1 106.9 109.7 111.8 115.5 121.9 130.5 142.4 152.9 163.1 172.1 177.9 182.9 186.6 190.4 193.5 193.4 190.3 186.5 183.7 180.4 177.7 177.5 178.4 175.2 172.2 170.6 170 169.8 172.3 176.8 184.7 187.6 182.9 177.9 174.3 173.4 172.6 171.9 171.1 170.3 169.5 169.3 169.3 169.3 169.3 170.2 169.3 169.3 169.3 169.3 169.3 169.3 169.2 170.5 173.4 174.3 179.3 179.3 184.6 185.9 188.9 191.5 194.5 204.9 204.9 206.5 212.1 219.7 226.2 238.6 247.9 255.1 262.6 272.5 280 291.5 307 323.6 337.1 346.1 352 356.9 362.3 364.8 357.9 345.4 332.8 315 302.6 290.9 277.1 267.1 262.2 258.6 253.5 250.5 247.7 246.4 244.6 242.5 239.7 236.1 230.3 224.3 217.7 217.3 215.3 208.4 204.7 205.4 204.9 202.1 199 197 197.3 197.4 198.1 200.8 202.1 203.6 206.2 207 208.1
25.1 24.8 24.1 24.7 24.5 25.4 24.2 21 21.7 22.4 23.8 22.1 18.9 20.3 20.6 19.9 19.4 20.1 18.9 17.5 17.8 18.2 18 17.4 18.1 17 16.7 18.3 16.8 15.3 16.6 23 37.4 56.6 70.5 81.4 92.8 102.2 110.6 115.9 121.7 122 120 113.2 108.3 104.8 103.5 100.6 101.2 105.8 112 112.6 105.3 101.1 102.6 92.8 87 81.6 77 75.5 76.5 75.9 77.7 80.5 89.6 96 89.6 84.2 82.8 83.1 84.8 86.9 89.4 95.1 101.3 108.1 110.8 112.5 115.6 115.9 119 123.4 131.1 143 152.9 163.7 173.2 180.1 184.6 187.8 189.8 190.7 189.9 186.2 183.4 179.8 176.9 174.2 172.2 171 172 171.4 170 168.9 168.9 171.6 175.9 179.4 181.4 180 177 174.9 174 173.1 172 171 169.9 169.4 169.3 169.3 169.3 169.3 169.3 169.3 169.3 169.3 169.3 169.8 169.3 171.9 173.3 173.8 176.5 180.7 184.8 187.8 189.2 193.3 193.8 197.2 200.2 205.4 207.4 211.1 218.2 231 245.8 252 259.5 269.1 277.7 288.5 304.9 320.3 330.7 339.1 344.8 348 350.2 351.2 349.3 344.9 333.7 318.2 302.6 289 278.1 267.4 263 260.2 257.3 254.5 254.2 252.5 250.5 248.9 247.7 245.5 239.9 234.1 227.3 226.3 227.7 224.5 218.4 216.7 215.8 215.4 213.7 212.3 211 210.1 209.9 210.7 212.9 213.9 214.8 218.6 221.9 225.2
29.1 28.4 29.2 27.9 28.3 29.8 29.1 27.7 26.5 25.1 26 23.8 23.3 23.7 20.6 18.4 19.4 19 17.6 17.3 18 18 17.2 16.9 17 18 17 17.2 16.7 15.6 14.9 18.5 32 49.2 64.3 80.8 93.9 102.8 113.9 122.6 129.6 129.4 127.8 123.7 119.1 114 107.9 110.6 111.9 115.4 115 112.9 109 104 103.4 99.4 94.5 85.6 79.4 76.8 76 77.1 78 81.4 89.6 96.7 93.2 87.9 82.7 83.5 85.4 87.9 90.9 96.8 107.1 111.8 114.6 119.5 121.4 123.1 126.6 127.6 132.8 139.6 150.6 161.9 174.4 180.8 185.3 187.4 190.5 190 187.3 183.4 183.3 179.4 178.4 173.2 169.7 168.4 168.1 168.1 168.1 167.5 168.7 173.1 177.8 180 179.4 177.9 177.3 175.5 174.5 173.6 172.3 171.1 170.4 170 169.9 169.7 169.5 169.3 169.3 169.3 170.9 173.7 180.8 177.2 174.4 178.8 181.1 180.9 188.7 191.2 194.6 196.7 198.2 199.2 200 203.7 204.4 208.7 209.6 213.7 220.8 231.6 245.6 253.8 264.4 275.6 285 297.5 313.9 325.6 332.3 337 341.2 344.1 344.2 341.6 337.7 332.1 320.2 304.9 292.5 282.1 272.1 268.1 261 258.4 259.3 258.6 257.3 256.5 256.2 255.3 254.1 251.1 246.4 238.9 235.2 237.2 236.1 233.7 230.6 229.7 229.4 227.5 225.5 223.8 221.5 220.8 221.3 222.7 223.8 225.4 226.3 229.7 234 239.7
41.3 40.2 39 37.5 36.1 35.5 36.6 34.8 33.1 32.6 32.2 27.7 30.6 31.2 29.6 26.6 24.1 22.5 19.8 18.8 18.2 17.8 17.5 17.1 17 17.2 16.1 17.8 17 16.1 15.3 15.9 24.5 41.2 60.5 79.1 93.7 103.1 114.1 125.8 131.9 130.3 131.5 130.3 127 122.4 116.8 113.3 113.5 117.5 122.3 119.4 110.1 105.6 104.6 104.4 99.5 91.7 82.9 78.8 75.5 76.3 77.5 81.5 89.1 91.9 90.5 86.6 82.8 84.4 87.1 87.9 92.4 98.6 106.4 112.1 117.4 122.6 126.3 128.3 130.7 133.5 136.1 140 145.7 156.8 168.3 178.6 184 186.6 185.1 185.9 184.3 180.1 177.9 176.3 176.2 172 168.4 167.4 166.9 166.5 166.3 168 173.7 179.9 181.8 183 183.8 180.6 177.5 176.2 174.9 175.2 174.5 172.2 171.1 170.6 170.4 170.2 170.2 169.2 172.2 175.3 177 180.1 186.5 183.6 180.8 181.4 182.3 186.7 197.4 200.6 201.9 203 203.1 203.6 205.5 206.6 208 210.7 215.4 219.7 223.1 231.3 248.1 257.4 267.9 281.7 298.3 313.8 321.5 328 331.4 333.4 336.2 338.9 340 337.8 331.2 322.1 310.8 301.5 290.3 280 271.1 266.9 262.1 261.8 262.2 263.4 262.9 262.4 262.4 261.9 260.4 254.1 249.3 247.4 245.9 245.6 245.2 244.9 244.2 243.3 240.6 238.1 236.6 237 235.4 234.6 234 234.9 235.2 236.1 237.7 240.3 247 255
53.8 53.3 51.7 49.8 45.8 42 43.8 42.1 43.3 41.4 42.2 42.1 40.6 38.3 39.5 37.8 35.3 32.2 28.4 24.5 22.7 19.4 17.3 17.1 17 17.1 16.8 17 18.2 16.9 15.7 16.1 20 34.5 58.9 75.7 91.6 103.4 113.5 122.8 132 130.3 130.6 131 130.5 127.6 122.1 116.7 114 114.8 116.3 116.7 109.6 104.5 103.1 100.9 100 94.2 85.4 79.8 75.5 76 80.2 81 86.8 90.5 89.7 86.9 82.5 85.1 88.1 88.5 92.6 98.4 105.8 113.3 121 126.3 132.8 133.7 136.5 139.7 142.1 142.7 143.8 149.2 159.2 170.6 178.7 182 180.6 178.7 177.6 174.8 171.1 170.9 171.9 168.6 168.1 167.6 165.9 165.3 167.2 170.7 177.3 185.2 188.3 194.6 196.5 193.9 185.9 179.1 178.7 180.4 180.6 175.1 172.2 171.3 171 171.8 173.9 176.5 172.9 174.4 176.4 182.3 184.6 184.5 183.8 182.4 183.2 192.2 203.1 209.1 210.6 214.9 217.5 214 211.4 213.2 214.8 215.9 224.3 224.8 225.3 233.7 247.4 260.6 270.9 286.3 303.6 320.4 329.5 331 329.7 329.2 331 335.9 338.7 337.9 328.8 319.5 309.1 298.5 286.1 277.5 270.3 266.1 265.6 265.6 267 268.5 268.8 268.6 268.2 266.6 263.8 257.8 256.2 255.1 254.8 255.8 257.4 258 258.3 257.3 255.2 253.3 252.1 248.6 248.2 249.7 248.3 247.5 249.3 247.8 248.6 250.6 254.9 258
64.3 64 63.8 60.9 58.2 56.8 55.7 55.5 51.4 50.1 55.9 56.5 55.2 53.7 51.7 49.6 46.8 44.5 41.3 32.4 27.6 23.5 18.9 16.9 17.1 16.6 16.1 16.5 16.2 17.3 15.6 15.3 18.3 29.5 55.3 71.1 89.6 106.6 120.6 124.2 128.7 133.4 135 133.8 135.4 134.1 129.7 122.2 117.5 114.4 110.9 108.8 105.9 102.5 99.2 96.1 92.6 91.7 87.6 81 76.1 77.5 79.8 80.9 85.3 88.8 86.3 85.9 79.6 82.5 86 90.5 94.3 98.6 109 118.4 126.9 132.1 140.1 146.2 148.4 150.5 152.5 150.6 147.3 150.2 151.4 158.1 167.8 174 174.8 172.7 170.2 169.1 168.3 168.8 168.7 167.8 167.6 167.4 165.8 167.7 172.1 174.1 177.4 184 187.5 194.4 196 193 189.4 183.4 178.4 178.4 176.1 174.3 173.3 172.6 174.3 174.5 175.5 177.6 177.6 179.1 179 178.5 180.4 183.9 184.6 183.3 185.5 194.5 203.9 216.4 223.7 227.2 226.1 222.7 222.9 225.4 224.9 226 228.9 227.9 232.8 241.7 255 264.4 275.9 288.3 304.3 318.6 327.2 331.4 329.9 326.6 321.9 324.7 331.9 335.2 333.1 325.9 311.8 294 284.2 275.9 269.8 267.7 267.6 269.3 271.8 273.6 274.6 274.3 272.3 270.5 265.7 263.6 263.5 263.3 266.5 269.7 271.6 272.9 274.6 273.3 271.1 268.5 265.6 263.1 265.2 265.4 266.1 264.9 261.4 257.7 253.1 252.1 253.6 252.8
75.4 73.2 73.9 72.8 71.3 68.5 65.3 65.5 65.1 66.6 68.2 71 70.9 68.6 67.1 64.5 60.1 57.6 54.6 47.7 37.4 28.7 22 17.9 16.9 16.5 15.9 16.2 16.5 15.3 15.3 15.5 17.4 24.6 42.4 64.7 87.3 104.5 120.2 128.3 129.2 134.2 139.7 139.7 142.9 141.1 135.8 130.7 127.8 125.9 114.4 105.5 101.9 100.8 99.6 97 90.1 86.8 84.9 82.2 76.6 75 78.9 78.6 82.7 86.3 85.3 82.4 78.2 80.6 82 85.5 91.4 99.2 111.3 121.1 129.8 136.8 144.6 152.7 158.1 162.4 162.4 157.8 153.2 151.9 152.5 152.7 154.6 160.7 165.3 166.2 166.8 167.1 167.9 168.4 168.4 168 166.6 166.2 165 168.6 170 171.1 173.1 179.6 184.2 189.9 189.9 186.4 182.8 181.4 178 176.4 175.7 174.1 173.7 173.3 173.7 174.3 178.5 184 186.7 187.9 185 182.7 180.4 183 184.1 185.7 185.6 195.1 206.1 220.8 230.9 238.9 240.9 235.3 232.5 231.7 233.7 232.7 231.6 235.4 240.7 247.9 259.5 271 282.8 294.4 302.7 313.8 321.9 328.8 328.6 323.3 316.9 316.3 319.7 326.1 328.6 324.7 315.8 301.8 288 279.1 271.9 269.6 269.5 272.6 275.4 277.6 279.2 278.2 276.4 273.8 269.7 270.3 271 276 279.5 283.9 286.3 287.4 288.3 288.2 284.3 280.9 278.4 276.5 277.4 273.7 270 264.2 259.5 258.2 251.5 248.6 246.4 244.2
87.2 83.9 83.1 80.6 83.1 83.6 78.9 74.6 79.1 79.3 77.9 80.6 80.4 82.4 82.6 82.1 79.1 75 71 66.4 57.5 43.3 28.1 21.9 19.7 16.6 15.8 15.9 16.2 15.4 16.6 15 16.4 22.7 38.5 58.8 82.3 104.5 114.8 122.5 125.7 129.2 138 140.8 139.5 142.8 140.4 139.5 138.1 137.3 127.6 106.6 99.6 97.1 96.4 99.7 93.2 86.3 83.7 81.9 77.8 74.7 73.9 77 80.7 83 82.1 83.8 77.7 78.7 82.4 87.7 93.7 102.3 112.7 122.7 131.4 138.7 145.5 152.4 156.8 161.9 164.1 162.6 157.5 153.6 154.1 153.2 153.9 156.4 159.4 162.7 164.9 167.4 168 168 167.9 167.9 166.7 165.7 164.7 166 166.6 168.2 169.8 171 174.4 174.7 177.2 178.6 179.2 179 177.3 176.1 175.4 174.2 173.8 173.2 173.6 174.1 175.3 182.4 187.2 192 185.5 183.8 182.9 182.3 183.4 183.8 183.1 191.9 207.2 224.4 239.3 248.7 253.3 251 241.6 235.8 236.7 236.3 234.1 241.3 248.7 256.2 264.9 274.6 287 299.8 304.7 313.3 321.4 325 324.5 318.8 315.7 315.3 314.8 315 321.8 320.1 313.6 303.8 293.4 283.9 275.1 271.1 271.7 275.2 278.5 281.2 282.3 281.1 278.9 276.1 275.6 276.8 281.3 287.2 293.3 297.5 298.9 301.1 304.2 309.9 310.7 306.2 297.6 291.1 285.4 280.2 277.2 278.3 278.1 271.5 263.1 253.3 242.3 234.6
98.6 96.2 96.2 94.1 92.7 93 91.7 85.7 85.9 88.2 89.7 91.6 96.4 100.6 102.5 101.6 98.2 93.2 90.5 86.3 76 62.8 49.4 29.8 22 18.4 17.4 16.7 16.4 16.4 15.9 15.6 15.6 21.3 38.9 57.7 79.3 107.6 124.6 125.7 125.6 124.3 126.1 131.1 133.4 132.9 134.7 135.3 137.4 139 133.6 117.4 103.3 96.1 91.4 90.1 92 89.9 83.2 78.9 74.3 77.8 72.7 81 84.1 81 79.3 81.6 81.7 76.5 82 90.2 101.3 107.4 113.5 124.1 133 140.1 146.2 149.8 153.1 157.1 159.5 160.9 158.9 154.4 153.9 153.8 153.8 155 157.4 161.9 163.3 165.5 166.4 167.3 166.9 166.7 166.9 165.8 165 165 166.5 167.9 169.3 171 172.7 175.4 177.4 178 179.6 178.3 178.3 179.7 175.1 174.3 173.7 173.1 172.9 173.1 174.9 177 184.3 189.8 188.7 184.5 183.6 182.7 182.1 182.9 183.9 195.6 209.5 228.4 245.6 255.6 259.6 256.8 247.6 235.1 233.7 235.3 236.1 241.8 252 257.3 272.2 281.2 288.4 302.2 308.9 312.7 316.9 320.4 318.3 315.6 314.8 314.3 313.8 313.5 313.4 314.8 309.1 302.4 295.3 287.9 279.5 274.1 274.1 277.2 280.3 282.1 282.8 281.5 279.4 278.8 281.4 283.9 288.7 295.3 300.9 303.8 310 318.5 327 330.1 326.2 319.2 311.1 302.6 294.8 289.7 286.9 284.2 281.1 276.7 269.5 251.8 236.5 227.2
109.9 112.5 111 109 106.1 103.6 102.2 102.2 91.5 97.8 102.7 102.2 106.7 113.9 120.1 121.3 119.7 117.6 114.9 105.4 95.8 83.8 70.8 54.4 31.5 21.1 17.3 16 15.8 16.1 15.6 14.9 15.4 20.3 39.9 56.9 76.1 108.1 128.9 128.2 129.8 128.6 133.3 132.9 127.2 124.5 124.2 125.4 128.3 138.4 136.5 124.2 108.9 97.4 91.1 86.6 84.2 82.4 81.5 77.3 75 75.9 75.6 82.5 87.2 83.4 77.6 74.5 74.2 74.8 77 89.1 101.5 110.7 118.1 123.6 133.7 141.2 146.1 147.8 150.3 153.2 153.9 156.5 157.6 155.8 153.7 153.3 153.5 154.8 155.5 159.1 163.6 164.9 164.2 164.6 165.1 165.3 166 166 165.3 165.4 167.4 168.7 170.1 172.2 177.1 181.5 182.7 181.1 178.8 177.5 176.6 176.2 176.3 174 173.4 172.9 171.4 172.9 176 177.9 179.3 182.2 185 184.1 183.3 182.3 181.5 182.7 184.5 195.3 209 228.9 242.7 247.3 252.8 253.3 248.9 235.1 229.8 230.7 235.2 239.5 249 255.9 272 284.9 291.1 299.9 309.8 313.7 315.5 315.8 315.2 314.8 314.4 314 313.5 311.9 309.7 308.2 304.3 299.3 293.9 288.4 282.3 277.5 276.4 278.7 281.3 281.8 281.1 280.3 280.4 282.4 285.7 289.1 294.8 300.8 304.7 311.1 323.9 337.4 342.2 342.7 339 335.4 327.4 317.6 305.4 294.9 287.8 277.9 262.5 246.2 237 228.7 224 220.2
119.9 123.8 126.8 127.9 124 117.8 113.7 114.9 112.4 109.5 118.4 118 115.4 119.7 129 135.7 137.7 142.4 143.3 132.3 118.1 104.6 89.5 73.1 53.9 26.6 18.8 15.2 15.5 15.1 15.5 15.6 15.3 19.4 34.5 53.1 70.5 100.1 121.3 130.4 130.2 133.1 137.7 136.9 132.9 126.9 124.1 121.4 119.7 123.5 126.4 123 113.7 102.1 93.6 89.5 88.6 84.4 78.1 76.3 69.5 71.5 77.4 82.1 82.9 81.6 77.9 74.5 73.1 73.3 77.8 90.3 99.4 109.9 121.9 130.8 135.5 140.3 144 146.1 150.4 151.7 151.4 152 152.9 154.2 153.2 153 153 155.2 155.1 156.1 162.3 163.8 163 163.8 164.9 165.2 164.9 166.1 165.4 166.2 168.5 170.4 172.5 176.2 180.2 182.9 187.9 183.6 178.8 177.3 176.1 175.3 175.9 174.1 172.6 172.1 169.1 171.7 179.2 182.8 186.6 185.1 184.7 184.8 182.8 181.9 181.2 182.2 184.5 195.2 208.1 229.1 236 238.7 243.9 245.6 244 233.2 226.9 226.8 230.7 235.7 242.7 252.7 267.9 284.3 292.4 298.7 308.7 315.3 316.7 315.7 314.9 314.7 314.4 314.1 313.6 312.5 310.3 306.3 299.9 296.4 293.7 289.6 285.3 282.6 281.5 284 283.4 282.5 278.8 279.9 282.9 286 289.3 293.7 298.7 303.1 307.7 314 324.1 330 332 331.7 328.2 325.7 322.9 317.7 309.4 301.5 290.4 264.9 249.3 235.5 231.9 228.4 226.6 223.8
126.9 131 134.4 136.9 139.7 133.8 127.6 123.8 122.9 120.1 137.3 136.2 128.9 124.3 126.9 134.7 143 150.8 158.9 154 139.6 121.4 106.5 93.6 75.2 40.2 21.4 15.6 15.5 14.8 14.6 15.2 15.5 18.9 30.1 46.3 62.2 88.5 108.7 122 128.2 131.4 136.3 137.5 135.6 130 127.3 123.9 118.8 114.3 112.3 115.4 113 105 95.9 99.4 97.5 94.4 83.3 72.9 68 64.6 77.3 79.2 81.4 76.7 74.8 73 71 75.9 82.3 92.6 101.2 110.5 124.6 137.1 141.6 141.1 142.1 144.7 148.3 150.3 149.2 149.4 149.5 151.1 151.6 151.9 152.3 153.9 154.5 155.2 158.7 161.7 161.6 163.2 167 167.8 166.6 166.2 166.8 167.5 168.1 169.2 172.1 176.9 181.1 184.1 184.6 182.2 179.7 177.6 176.1 174.6 173.9 171.6 170.3 170.5 168.9 173.1 178.5 186.2 188.5 188.8 186.8 185.4 183.7 182.6 181.9 182.5 184.4 193.6 205.2 222.4 231 233.6 238.3 239.5 235.5 229.6 224.5 224.4 226.3 233.3 239.3 248.4 260.8 281.2 295.7 305.6 310.8 317.2 318.9 317.2 315.6 314.8 314.4 314.1 313.8 312.8 312.3 310.3 305.9 300.9 297.5 294.1 290.8 288.6 289.6 290.3 289.4 283.5 282 282.4 285.2 288.3 293.4 297.3 299.6 302.8 309.3 317.2 322.2 325.3 323.3 318.8 315.3 310 309.6 308.5 301.7 290.5 269 250.3 241.1 238.2 236.3 234.2 232.3 230
134.5 137.3 143.6 141.8 145.1 144.4 137.2 132.1 130.9 133.8 145.1 154 146.9 140.9 128.1 126.6 133.4 149.9 158.7 160.2 151.2 137.1 122.2 115.3 101 65.8 32.2 19.6 15.7 14.6 14.1 15.2 15.6 19.9 25 40.4 55.8 74.2 87.8 106.6 123.5 128.3 133.1 138.4 135.5 131.7 132.5 133.8 134.9 126.6 114.4 108.7 105.6 106.6 102.2 95.6 95.1 96.2 93.5 77.1 67 62.6 72.2 76.1 79.9 77.1 74.1 71.8 73.2 81.1 87.4 95.3 101.9 113.7 129.6 140.1 143.5 143.8 143.6 144 144.9 148.1 147 148 148.5 149.4 150.3 151 151.8 152.8 154.4 154.8 154.8 160 162.1 164.3 167.5 171 169.8 169 169 169.2 169.8 172.4 173.9 180.6 187.9 192 188.2 185.3 182.2 180.4 176.4 174.6 172.2 169.9 168.5 170.8 173 177.6 184.4 189.6 193.5 192.8 187.8 187.1 189.6 187.3 186.6 185.9 185.5 189.2 200.9 211.2 220.1 225.9 229.3 227.8 225.1 222.1 218.3 218.4 223.2 229.3 233.3 244.3 258.7 281.1 302.9 313.3 318.7 321.6 324.6 324.3 321.3 318.7 316.5 315.2 313.9 313.4 313.3 311.8 309.8 305 301.7 298.8 295.9 295.1 296.4 296 294.2 289.4 285.1 286.8 288.2 291.3 296.2 297.7 298.8 299 307.7 315.1 317 321.3 319.2 313.8 305.6 297.2 290.2 289.4 285.8 274.5 257.9 245.7 246.2 247.4 245.5 244.1 241.9 239.2
143.2 143.1 148.2 147 145.8 147.1 145.3 143.7 140.1 140.7 144.2 155.6 153 147.6 134.8 121.8 123.5 129.4 148.8 156 153.1 147.6 137.1 124.8 118.9 100.8 60.3 24.4 18.1 15 15.1 14.3 16.1 19.7 23.3 36.1 53.1 67.1 77.5 95.7 115.8 126.3 128.5 137.5 132.9 133.7 133.5 135.2 145.6 144.1 137.3 120.8 104.7 100.2 101.3 99.1 95.4 99.9 99.4 86.1 72.7 65.3 65.5 75.6 79.3 76.8 72.8 70 73 82.7 90.7 97.9 106.6 116.5 129 139.4 142.9 145.5 146.8 146.5 147.4 147 147.4 148.5 148.5 149 149.7 150.6 151.3 152.4 153.8 153.9 154.6 158.4 166.9 167 170.9 173 173 172.1 172.4 170.8 174.1 176.8 180.9 186 193.1 195.6 192.6 187.6 187.3 186.1 180.5 175 174 170.9 168 170.9 176.3 181.5 186.4 189.3 190.8 193.2 191.5 188.9 191.9 192 187.5 185 185.5 189 199.2 206.4 210.7 217.2 220.3 219.9 215.2 215.4 215.9 216.8 218.3 223.3 228.8 239.8 255.3 280.5 302.1 314.5 324.3 326.7 327.4 328.6 327.6 324.6 321.1 317.6 315.5 315.1 314.7 312.5 310.1 307.4 305.2 302.5 299.3 299.6 299.3 297.9 294.8 291.4 287.6 289.9 291.6 295.5 297.7 298.1 298.1 298 299 301 300.6 300.3 296.5 291.8 285.9 282.5 276.8 272.6 266.7 260.9 254.4 256.8 258.6 261.2 261.4 258.9 256.7 255.6
