ncols 200
nrows 82
xllcorner 260000
yllcorner 81300
cellsize 50
566.6 566.9 566.7 566.5 566.9 567.3 567.6 567.5 566.7 564.9 560.6 552.6 549.7 548.7 545.7 544.3 547.2 546.8 546.6 545 548.8 553.8 558.9 563.7 568.3 572.5 577.8 581.8 586.4 590.2 593.4 596.8 598.3 599.8 599.6 598.3 596.2 593.5 588.2 584.2 578.4 572.9 567.5 565.6 563.7 561.4 559.3 556.5 553.2 548.4 544.4 542.5 541.7 540.8 539.7 537.8 534.8 531.4 526.2 518.8 513.3 508.4 504.6 503.9 503.1 501.7 500.3 497.6 493.9 489.8 484.9 479.3 473.1 466.1 457.2 440.6 418.3 403.4 391.6 396.7 416.9 427 430.6 432.2 431.4 428.5 424.8 419.7 412 401.2 400 400.2 400.9 404.4 411.5 418.6 424.1 428.3 429.2 428.1 424.9 419 414.9 412.3 410.2 410 409.3 410.5 412.4 414.9 417.5 420.5 421.5 421.9 421.1 418.9 416.1 413.5 408.6 404 399.9 397.4 392.7 392.7 394.3 397 399.5 401.3 403.3 405.3 405.9 404.7 401 395.9 391.8 387.8 384.2 381.2 378 370.9 366.9 374.1 377.1 379.2 377 372.2 364.4 354.4 335.2 306.6 290.7 306.5 298.6 299.2 299 301 300.1 301.1 298.4 290.6 289.3 297 305.2 310.8 313 312.9 311.8 310.8 310.3 309.1 306.6 305.4 305.3 304.5 301.7 297.6 299 304.8 312.9 319.3 322.6 320.2 316.9 313.1 309.4 305.9 302.4 296 292.3 287.2 285.2 286 287.4 298.7 304.6 303.6 298.9 299.4 300.5 299.5
565.4 565.9 566 566 566.4 566.8 567.3 567.2 566.8 564.4 560.5 553.4 549.6 547.9 546.3 542.9 545.5 545.2 542.6 544.1 550.9 554.5 558.9 563.5 568.1 572.4 577.2 581.5 586.2 590.3 593.5 595.4 597.3 598.4 597.5 596.6 594.7 590.9 587.6 581.4 575.8 572.1 568.8 566.4 564.7 562.7 560.9 558 554.4 550.4 545.5 542.6 540.2 539.1 537.7 535.6 533 529.8 524.6 518.4 514.5 511 508.4 506.5 505.8 504.1 502.2 499.3 495.6 491.2 485.9 479.8 473.6 465 454.8 437.4 421.1 404.5 393 395.6 415.2 427.8 432.3 433.8 432.7 429.5 425.4 420.9 413.7 402.6 401.7 402 403.6 407.9 415.8 421.9 426.9 429.7 429.1 426.8 423.5 417.7 414.2 412 409.2 409.1 408.7 409.5 411.1 415 418 420.6 420.9 420.6 418.6 414.5 409.9 406.3 400.1 397.8 394.3 392.4 390.1 391.3 394.5 397.4 400.2 403.4 406.8 408.5 409 408.2 404.6 398.3 392.6 387.2 382.4 379.2 376.1 372.2 362.8 368.2 371.5 374.2 373.4 369.2 361.8 352.1 333.7 306.5 295.2 303.2 309.6 311.4 312.1 310 307.7 305.4 301.1 294 293.1 300.6 308.5 312.8 313.9 312.2 310.7 309 308.3 307.7 305.2 304.1 304.2 304.6 302.7 300.9 302.6 305.4 311.3 317.3 320.4 318.5 314.8 310.9 306.4 305 302.9 299.6 293.6 286.8 281.8 280.9 281.2 286.7 294.5 294.8 291.1 289.4 290.6 290.4
563.7 564.7 564.9 566 566.5 567 567.4 567.2 566.8 564.4 561.1 555.2 550.2 547.1 544.9 542.4 543 541 541.9 543.8 549.6 552.8 557.8 560.6 567.9 573.1 578 582.4 586.7 589.5 592.9 595 595.8 595.8 595.3 593.7 591.2 587.8 584.1 578.5 574.4 571.2 568.8 567.2 565.3 563.6 561.9 558.6 554.1 550.5 545.8 540.8 538.8 536.3 534.3 532.8 530.5 527.1 522 517.3 514.7 511.9 510.2 509.1 507.5 506 503.7 500.6 497 492.1 487.1 480.8 474 466.7 457.7 440.7 426.8 410.8 394.1 396.2 410.5 426.8 433.1 434.3 432.8 429.7 425.9 420.1 412.8 406.6 405.1 405.1 407.3 413.1 419.3 425.3 428.7 430.9 429.8 426.7 422.6 417.5 413.6 410.7 407.7 406.5 405.9 407.2 410.4 416.3 419.2 420.8 420.6 418.3 415.2 410.6 403.3 398.6 393.5 392.7 390.5 387.6 387.6 391.1 394.6 399.2 403.4 407.7 410.8 412.6 413.5 410.7 406.2 398.4 391.9 385.3 379.6 375.3 373.4 370.9 362.3 360.5 364.8 368.7 369.2 365.5 358.7 349.8 331.8 304.9 297.5 304.7 312.8 317.9 317.6 317.6 314.9 310.1 303.6 296.2 296.2 302.6 310.3 313.3 313.5 311 309.3 307.2 304.6 304.8 302.6 301.5 300.8 303 301.6 300.6 301.5 304.2 308.6 314.7 318 316.2 313.3 308.1 304.8 302.8 302.1 299.9 295.8 289 282.5 277.9 276.9 278.4 282.8 285.3 283 280.2 280.7 282
562.6 563 564.2 565.9 566.8 567.3 567.6 567.3 566.7 564.4 560.6 556.1 550.7 547.4 545.6 543.1 541.2 540.1 541.4 545.1 547.4 551.8 556 560.4 566.8 572.5 577.3 581.2 585.4 589.2 591.8 594.3 594.5 594.2 593.1 591.4 588.4 585.4 580.7 576.3 572.1 568.1 566.9 566.5 565.7 564.2 562.1 558.4 554.2 549.6 543.8 538.4 535 532.3 530.3 529.2 526.7 524.1 519.4 516.6 514 512 511.2 509.9 508.6 507.1 504.6 501.9 497.7 492.8 488.4 482.8 478.3 474 466.5 453.6 434.8 418.2 398.9 400.4 413.1 426 432.8 433.3 430.9 428.8 425.2 419 414 411.2 409.9 410.1 411.9 417.7 423.4 427.8 430.3 432 431.2 428.2 424.2 418.6 414 409.9 406.5 404.2 404 405.7 411.9 417.7 419.5 419.9 418.9 415.7 411.4 406.5 398 390.8 388.3 388.2 387.4 384.9 386.5 389.5 395 400.6 406 410.9 415.6 418 417.1 412.1 405.2 398.6 390.9 383.4 377 373 370.3 367.9 362.3 353.9 359.2 362.2 364.5 360.6 355.1 346.3 327.4 301.8 300.5 308.4 314.2 320.8 324.5 324.5 319.9 314.3 306.5 299.8 300.2 305 311.6 313.6 312.9 310.2 306.8 304.8 302.3 301.3 299 297.9 297.8 298.7 299.2 297.8 299.3 302.6 305.9 313 317.6 317.4 310.5 306.4 303 300.1 299.5 297.6 294.9 290.5 285 278.8 274.2 272.3 272.6 275.5 276.2 274.5 274.4 274.8
558.8 560.1 564.3 565.8 567.2 567.6 567.8 567.7 566.4 565 561 555.7 549.4 547.7 546.2 544.3 540.4 539.6 543 544.9 548.5 553 557.8 562.4 567.4 572.2 575.8 581.5 584.8 589.1 591.3 592.7 593.1 592.8 590.6 588.1 585.6 582.1 577.1 572.9 567.6 565.3 564.9 565.3 565.2 564.1 562.3 558.6 553.8 548.6 542.8 535.8 531.4 528.1 526.5 524.6 522.7 520 516.3 513.9 512.5 511.4 510.6 510 508.9 507.1 504.9 502.8 499.6 494.2 489.8 487.1 484.3 479.7 473.9 467.3 448.2 428.6 404.8 400.1 412.2 422.4 430.3 430.4 427.8 426.6 423.2 419.2 418.2 419 417.3 415.8 415.1 420.2 425.8 429.7 432 433.2 432.1 429.4 424.8 419.1 413.3 411 407.3 402.5 402.1 404.4 413.2 418 419 417.4 415.8 412.4 408 401.9 393.4 386.6 384.2 384 383.4 380.5 381.5 387.5 394.4 401.3 408 419.5 421 420.4 416.9 411.3 403.7 397 389.2 381.1 374.4 370.4 367.4 364.6 358.9 351.6 351.7 356.5 356.9 355.4 350.5 341.6 320 298.3 304.2 310.9 319 325.9 329 328.4 323.1 314.1 308.5 303.9 304.6 307.6 312.3 312.7 312 308.2 305 302.3 299.8 296.9 297.3 294 293.8 294.8 295.3 294.6 296.5 299.7 304.3 310.4 315.9 317 310.8 305.4 299.9 296.4 295.6 294.6 292.1 289.1 285.9 281.1 275.9 270.8 269.1 268.7 269.9 270.6 270 269.1
560.6 561.8 564.6 566.4 567.8 568.6 569.1 569 568.1 566.2 561.3 553.7 548.3 546.9 546 544.2 541.9 539.1 541.8 544.4 547.2 552.3 557.7 562 565.4 570.2 575.1 580.7 585.1 588.4 591.7 591.5 591.2 590.9 589.1 585.8 582.1 577.8 572.7 568.8 563.2 562.4 562.3 564 564.4 563.8 561.8 558.2 553.2 547.6 541.6 533.9 527.1 523.3 521.7 519.9 518.3 516 512.8 510.4 510.1 509.1 508.3 509.3 508.7 507 505.1 503.4 500.4 497.3 494.2 491.7 488 483.9 479.1 473.3 462.5 437.5 420.7 415.9 409.4 415.6 423.1 424.7 427.5 428.7 425.1 423.2 426.6 427 423.4 423.1 420.5 423 427.7 431.2 433.1 433.2 432.1 429.5 425 418.6 415.8 412.2 408.9 402.3 400.6 401.7 412 416.9 416.2 414.4 411.7 408.8 404.5 398.3 389 384.2 380.7 379.6 378.9 374.1 378.2 384 393.1 402.2 410.8 417.7 421 419.3 414.3 408.4 401.5 394.8 386.9 379.1 374 369.9 365.8 361.5 356.6 351.8 345.6 349.6 350.9 350.1 345.3 335.8 317.4 299.4 309.4 317.6 324 329.4 332.2 330.7 325 314.1 309.3 307.1 308.8 310.1 311.7 311.4 309.3 304.5 302.1 300 298 295.2 293.2 291.7 290.6 290.9 291.8 290.5 292.7 296.2 300.6 306.1 311.5 311.7 307.7 302.5 297.2 292.3 290.8 290.2 288.2 286.2 284.6 281.3 276.8 271.4 266.9 266.3 266.4 266 265.9 265.5
560.1 563.2 564.7 566.8 568.8 569.9 570.5 570.7 569.2 566.7 560.7 550.3 547.5 546.5 545.4 543.6 542.3 538.8 538.9 543.3 545.6 550.5 554.8 560 563.9 569 574.2 580 583.1 587.4 589.4 590.9 590.5 589.8 587.5 583.9 578.1 574.4 568.4 563.2 559.6 558.8 561.1 562.3 563.1 563.2 560.9 556.9 552.3 546.1 539.7 531.9 522 517.7 516.2 514.3 512.4 510.6 507.5 506.2 506.4 506 506.9 506.8 507.2 506.1 504.7 503 500.8 498.8 496.2 493.5 489.9 486 481.6 476.1 467.2 449.1 435.9 430.4 421.3 412.9 414.1 423.4 429.3 430.7 429.6 432.4 434 433.5 430.4 427 423.6 426.2 430 432.2 434 433.8 432.5 429.4 425.1 420.9 418.4 414 409.3 403 400.9 398.7 405.7 412.9 411.9 408.9 406.4 403.7 399.3 393.2 388 383.3 378.7 374.6 372.8 370 375 382.6 392.2 400.6 408 412.9 415.4 413.2 408.7 403.6 398.2 392.2 385.7 378.6 373.9 370 367.3 363.6 358.3 352.8 346.7 341.9 344.5 344 339.3 331.2 311.4 301.2 315.7 323.1 328.8 332.7 334.6 332.2 324.5 315.2 311.3 309.8 309.5 311.7 311.4 309.9 304.9 302.8 300.4 297.8 295 292.5 290.4 289.4 288.5 287.2 287.5 288.2 290.2 292.7 295.8 300.2 304.6 305.6 302.2 297.1 293.6 288.7 286.7 285.6 284.3 282.8 282.1 280 276.1 269.9 266.3 265.8 265 264.6 264.1 263.7
560.5 563.4 565.2 567.8 569.3 571 572.1 571.7 572.2 570.3 565.3 553.6 547.8 545.9 543.7 540.5 542 540.1 538.2 541.5 544.1 549.2 554.1 559 563.4 569 573.8 578.2 582.6 586.1 589.5 590 589.8 588.5 586.5 581.3 575.7 566.2 560.1 556.4 555.9 557.6 559 561.7 562 561.6 559.3 555.3 550.2 544.1 537.2 528.1 514.4 509.7 509.7 508 505.6 504.5 502.6 501.5 501.9 502.7 503.8 504.7 504.9 504.2 503.4 502.4 500.7 498.8 496.9 493.9 490.9 487.2 482.9 477.5 471.4 454.5 438.7 432.4 422.8 413.2 415.2 427.5 432.1 434.8 435.2 438.3 438.7 437.7 434 428.6 428.5 430.2 433 434.2 435.6 434.8 432.3 430.4 428.1 425 422 416.6 408.8 402.8 402.8 399.2 400.9 405.7 403.5 400.5 399.4 396.4 392.6 389.6 386.9 382 375.2 371.8 369.6 367.2 372.6 380.1 388.8 396.6 403.3 406.9 407.7 406.2 402.8 398.6 394.6 390.8 386.5 380.4 375.8 374.4 372 366.5 360.4 354.8 349.5 343.7 336.1 337.2 334.2 327.3 307.6 307.6 322.6 328.4 332.2 335.6 336.6 333 325 316.8 314.6 313.5 313.8 313.4 311.9 308.8 305.5 301.7 299.7 295.8 292.4 291 288.9 287.7 286.7 285.7 285.1 285.4 286.1 288.2 290.9 293.5 297.2 298.3 296.1 292.7 287.7 285.2 282.6 279.9 279.4 277.8 277.8 276.1 272.7 266.6 266 264.9 263.8 263.6 263.2 263.3
559.2 562 565 567 569.4 571.8 573.2 573.9 574.8 573.8 570.6 562 548.4 545.5 544.1 542.4 540.1 538.7 537.9 539.4 543.7 548.5 553.2 557.6 562.2 567.4 572.1 576.9 581.8 585.4 588.4 590.1 589.3 587.8 585.1 579.4 573.3 558.5 553.8 552.1 553.3 555.4 557.5 559.4 560.7 559.6 557 553.4 548.5 542.4 535.5 525.5 513.6 504.8 503 501.5 501.1 500.1 499 497.5 497.6 497.9 500.2 501.1 502.1 501.9 501.2 500.9 499.9 498.2 496 493.6 491.1 487.2 483.1 477.9 471.3 458.6 445.5 432 421.6 413.1 419.7 430.2 435.2 439 440.4 441.7 441.5 439.9 435.2 432.5 432.7 434.3 436 436.8 437.2 436.8 435.2 433.8 431.7 429.2 427.5 418.2 408 403.2 402.6 400.2 391.3 397.1 396.5 394.9 390 387.3 385 385.2 383.1 378.8 372.6 368.6 367.1 365.5 370.5 377.1 384.4 391.1 396.3 399.3 400 398.1 395.2 392.6 391.2 388.7 387.7 385.1 382.7 379.8 375.1 368.3 361.2 354.5 348.1 341.7 331.3 329.2 327.1 321.1 304.2 312.7 324.2 330.2 333.9 337.3 339.2 336.7 328.5 320.7 318.5 317.4 316.6 314.8 313.4 309.8 305.2 301.2 299 296.4 292.8 290.4 288.9 287.1 285.4 284.7 283.8 282.6 282.6 284.1 285.6 287.8 290 292.4 290.8 287.8 284.7 281.2 279.5 275.9 272.5 271.3 270.8 268.4 266.7 265.5 265.2 265.7 264.8 264.5 264.1 263.8
559.4 561.1 562.6 567.2 569.3 571.9 574 575.5 576.2 575.6 574.1 567.8 554.1 546 544.6 543 541.5 539 537.7 539.6 541.7 548 553.2 557.7 562 566.6 570.7 576.4 580.1 584.3 587 588.6 588.5 586.7 584.4 578.3 571.3 556.6 550.6 548.5 550.2 552.9 556.2 557.9 558.6 557.8 555.1 551.1 546.8 540.6 533 523.2 510.6 502.4 499 498.2 497.5 496.8 496 494.9 494.3 494.3 495.6 496.8 497.9 498.5 498.7 499.1 498.3 496.8 494.9 492.8 490 486.9 482.8 476.8 470.9 459.1 441.9 431.5 418.5 413.8 425 433.3 438.4 441.7 443 443.8 443.2 440.5 436.9 436.6 436.9 437.9 439.8 440.3 440.3 440.2 439.9 439.6 438.2 435.8 431.5 419 407.7 401.7 401.2 398.2 395.5 383.1 384.3 384.6 381.8 379.5 380.1 379.6 377.8 375 369.1 366.5 365.7 363.7 367.8 373.8 379.6 386.1 389.8 391 391.9 390.2 388.2 386.7 386.7 387.2 387.5 386.6 384.5 381.5 376.4 369.3 359.6 355.1 347.7 341.9 335.6 324.6 318.4 313.4 305.3 314.6 325.5 331.3 336.1 339.8 342.5 340.3 333.6 327.3 325.9 325 321.1 319.8 316.2 311 305.9 301.6 299.4 297.3 294.8 291.7 288.6 286.8 285.2 283.7 282.4 281.4 281 280.8 282.3 283.4 284.9 285.9 284.2 280.8 279.8 277.5 275.3 272.8 269 268 267.6 266.5 265.7 266.2 266.9 266.5 265.5 265.8 265.3 264.5
557.5 561.6 564.4 567.8 570.1 572.7 574.8 576.6 577.2 576.3 575.1 571.8 561.3 547.8 544.9 541.8 540.7 539.7 537.3 539.7 543.9 547.3 551.9 555.9 560.3 565.8 570.3 575.2 578.5 582.4 585.9 587.4 587.2 586.1 583.8 578 571.8 558 548.5 545.7 548 551.5 554.6 555.9 556.5 555.9 553.3 548.9 544.6 538.3 530.9 520.1 506.7 499.2 497 496.7 495.8 494.9 493.8 492.9 492.5 492.3 492.8 493.1 493.8 495.8 496.2 496.5 496.2 495.1 493.4 491.3 488.4 485.4 481 475.7 469 456.7 446.2 434.9 417 414.7 427.7 435.4 440.1 442.7 443.6 444.5 442.7 440.4 439.7 440.3 441.2 442 443.9 444.1 445.9 445.6 445.4 445.7 444.7 442.2 437.4 422.1 409.3 402.6 398 394.9 390 385.7 377.6 374.8 374.2 374.6 375.7 374.6 373 371.4 366.9 365.5 364.2 362.8 365.4 369.5 375.1 380.3 382.9 383.3 383.2 381.6 380.3 380.8 382.7 385.1 386.2 385.8 384.4 382.2 377.9 371.3 363.8 354.7 349.3 343.6 337.9 330.2 314.4 307.1 306.6 317.7 327.9 335.5 340.5 344.3 346.6 344.8 339.3 335.6 335.4 333.2 329.1 324.7 320 314 307.4 302.4 300.1 298.7 296.7 293.7 290.5 287.6 285.6 282.4 280.8 280.4 280 279.4 278.9 277.8 276.7 275.3 275.5 274.9 274 273.6 272.9 270.8 269.7 268.3 267.2 267.1 267.6 270.1 269.7 266.5 266.2 266 265.2 264.5
558.1 561.9 565.3 568.4 570.9 574 576.3 577.8 578.7 578.8 576.8 574.5 567.4 556.2 546.7 544.5 542.5 540 536.8 539.1 541.7 545.5 550.2 554.2 559.2 564.3 568 572.6 576.8 581.3 584.4 586.4 586.2 584.7 582.7 578 572.3 560.4 548.2 542.4 544.3 549.4 552.4 554 554.2 553.6 551.2 547.4 542.9 536.6 528.9 520.1 505.4 498.6 496 495.1 494.5 493.3 492.4 491.9 491.4 490.7 490.3 490.4 490.6 492.7 493.6 493.8 493.4 492.5 491.2 488.9 486.4 483.3 478.8 473.5 466 457.9 446.8 433.9 416.7 414.9 427.9 435.7 439.8 442.6 443.6 444.3 443 442.2 443.3 443.9 444.8 446.4 447.8 449.9 451.2 451.7 452.5 452.5 450.2 446.4 442.3 430.5 414.1 405.4 395.1 390.7 385.6 381.6 378.4 374.8 371.5 369.7 368.8 368.7 368.4 366 365.4 363.6 363.5 361.6 362.5 365.8 370.4 373.1 375.4 376.3 375.6 374.6 375 376.9 380.6 383.4 384.3 384.4 383.2 381.4 378.1 372.5 365.4 357 352 344.6 336.2 324.5 309.2 307.2 308.1 320.6 333.8 341.4 346.3 349.5 350.1 347.4 345.3 344.4 343 339.9 336.3 330.6 323.9 317.6 311.4 304.3 301.4 299.6 297.2 294.3 291.6 288.6 286.1 283.6 281 279.7 278.9 278.1 277.5 276.5 276 275.4 274.6 273.8 272.8 272 270.9 269.4 268.8 269.4 272.3 274.5 275.8 276.1 272.6 268.1 267.5 266.3 265.5 265
557 561.1 565.7 569 572.4 575.4 577.6 579.2 579.8 580 577.4 575.1 571.3 562.3 550.3 545.1 542.8 539.8 536.5 536 540.4 544.3 549.3 553.7 557.8 561.8 567.1 571.3 575.4 578.9 581.9 584.4 584.9 583.3 580.9 577.7 572.1 563.9 548 541.1 540.9 546.9 550 551.4 551.5 550.8 548.8 545 540.6 534.7 526.5 518.5 504.9 498.7 496.8 495.5 494 493 491.5 490.6 489.3 488.7 488.5 488.2 488.4 490.1 490.8 491.1 490.6 489.5 487.8 485.8 483.1 480.1 475.4 469.3 460.7 452.3 442.1 431 416.3 416.1 427 434.2 438.6 442 444 445.1 444.5 445.7 447.5 447.8 449 449.8 453.6 455.5 457.1 458 458.5 457.5 454 450.2 445.5 433.2 419.5 405.6 395.9 388.9 384.1 380.7 377.8 375.4 372.6 369.5 367.9 366.5 365.3 364.7 364.1 362.7 362.5 361 360.9 361.2 365.1 367.3 369 369.6 369.1 369 371.1 374.4 379.3 381.9 382.3 382.2 381 379.7 377.3 370.8 367.1 360.9 353.1 345 333.4 318.8 306.7 308.3 310.3 327.3 339.3 346.7 350.5 353.2 352.7 350.6 349.9 347.5 346.4 342.4 339 334.3 326.7 319.9 314.2 307 301.5 300.1 297.7 294.8 292.7 289.4 284.8 282.4 281.1 279.3 278.7 277.9 276.8 276.3 276.5 277.5 276.2 276.8 282.4 284.9 282.1 281.5 282 281.6 281.2 280 279.5 278.3 272.9 269 268.4 266.9 269.9 273.8
556.5 561.1 565.9 569.3 573.2 576.8 579.4 580.4 581.4 580.2 578.4 575.7 572 564.9 554.8 549.1 544.5 540.2 535.7 535.9 540.2 543.7 546.7 551.9 556.1 559.8 564.5 569.1 572.7 576 579.5 581.8 582.4 581.2 579.5 576.2 573.1 565.6 552.6 539.9 538.2 543.2 546.8 548.1 547.9 547.4 545.9 542.9 538.2 532.9 524.9 515.3 506 498.2 496.8 495.3 494.4 493.2 492.3 491 489.4 488.5 487.8 487.4 487.3 487.2 487.8 487.9 486.8 485.5 483.5 481.5 479.2 475.5 469.6 462.9 455.6 446.9 438.7 427.9 416.6 417.5 424.5 432.9 437.4 442 445.5 447 448.5 450.8 451.4 452.7 453.5 456 459 460.6 461.7 462.5 462.3 460.9 457.3 452 446.3 434.4 419.7 405.5 395 389.4 387.1 385.2 383.2 380.7 376.6 370.5 369 367 364.8 363.5 362.3 361.8 360.3 359.5 358.6 359.7 359.6 361.5 362.4 362.2 362.6 364.8 368.4 372.9 377.4 379.7 380 378.7 378.3 377.1 374.7 370 366.2 361.5 354.9 347.2 333.9 318 307.3 309.7 317.6 333.2 343.5 350.2 353.1 354.6 353.8 352.6 351.6 349.6 346.8 343.2 340.5 335.2 328.3 321.4 315.5 308.4 301.9 299.8 297.3 295 292 286.8 283.4 282.1 281.8 279.2 278.3 277.8 276.6 283.3 289.5 290.9 289.8 286.6 288.7 289 287.9 287 286.8 286 283.8 281.3 279.2 277.1 270.4 269.5 268.7 270.9 276.9 279.4
556.5 561.5 566.2 570 574.1 577.7 580.6 582.2 582.3 581.4 578.5 575.8 570.2 563.7 555.4 549.2 545.2 541.9 536.3 535.5 539.7 542 545.7 549.3 554 557.9 562.3 566.7 570.6 573.9 577.2 579.4 579.8 579.1 577.5 575.4 571.9 566.5 558.5 544 533.1 535.8 542.8 544.2 544 544.1 542.6 539.5 535.4 530 522.5 512.5 504.5 498.7 496.9 495 494.7 493.9 493.1 493 490.9 488.4 488 487 486 484.7 483.9 484.2 482.7 481.1 478.9 476.1 473.2 469.4 463.1 457.3 449.9 441.3 432 423.1 419.1 420.1 424.9 431.3 437.8 442.5 446.4 450.3 452.6 455.2 457.8 458.3 459.8 462.6 463.7 464.5 465.4 465.7 464.9 462.7 458.7 453.1 446 433.2 417.7 404.5 395.3 392.2 392 391.7 389.2 386 381 375 370 368 366.2 364.4 362.9 361.9 360.7 359.2 358.3 357.1 356.6 357.1 357 356.2 356.8 360.2 365.6 370.3 374.3 376.1 375.9 374.7 373.8 372.8 370.4 367.5 364.4 360.3 354.6 347.5 334.5 318.5 307.7 311.3 323.4 336.5 345.7 351.9 354.5 354.8 354.1 353.3 351.1 348.6 345.7 342.4 338.6 334.1 328.1 320.8 314.7 307.6 302.3 298 295.4 292.5 288.9 285.5 284.2 284.1 284.6 280.7 278.8 278.2 281.3 288.9 292.9 295.1 294.9 292.8 292.3 291.8 290.4 288.5 287.4 286.3 283.5 279.3 275.9 274.4 271.9 269.7 272 276.7 280.4 281.9
557.5 562.1 565.6 570.1 575 578.4 581.3 583.3 583.7 581.7 578.6 574.8 569.6 562.3 555.8 550.2 545.9 542.6 537.3 534.1 537.8 540.1 543.2 547.9 552.2 556.6 560.1 563.8 567.8 570.9 573.9 575.9 576.7 576.9 575.6 573.6 570.9 566.8 560.7 552.4 538.2 530.7 534.9 539.3 540 540.1 538.7 535.7 531.5 526.6 519.7 511.8 503.9 498.9 496.4 495.4 495.1 495.7 495.9 495.7 493.7 490 488.1 487.1 486.4 484.8 481.4 478.6 478 475.9 473 469.7 466.8 462.4 456.4 450.2 442.1 432.9 424.6 421.5 421.9 424.8 429.2 433.9 439.6 444.9 449.6 453.5 456.6 459.5 461.7 462.8 464.5 465.9 466.7 467 467.6 467.3 465.6 462.7 458.2 452.5 444.3 431.1 417.5 405.6 398 395.9 395.7 394.1 392.2 389.2 383.2 376.4 371.8 370.6 368.8 366.7 364.2 362.9 361.5 359.6 358.6 357.4 356.2 355.3 354.7 353.8 353.8 357 360.8 367.2 370.6 372 371.7 370.2 368.5 367.3 365.7 363.9 361.7 358.3 353.8 346.9 332.9 313.8 310.7 313.5 327.7 338.7 347.2 353 355.2 354.8 354 352.2 349.5 346.3 342.5 339.4 335.7 331.5 325.6 319.1 313.4 307.4 300.7 296.1 292.2 289.5 288 286.8 285.8 286 285.7 281.5 279.2 278.6 283.3 289.8 293.5 296.5 296.8 295.9 294.7 293.1 290.7 288.6 285.8 283.5 280.3 279 277.3 275.8 272.9 270.2 274.6 278.6 280.3 281.9
557.8 562.2 566.6 570.6 575 577.9 581.7 582.8 583.2 581.2 578.6 574.4 569.3 563.1 555.9 549.9 545.7 542.3 538.6 533.1 537.2 539.5 542.5 546.7 550.4 554.2 558.1 561.2 564.6 567.5 570.2 573.5 574.1 574.2 572.9 571 569.5 565.9 561.2 555.8 548.5 535.5 526 530.9 535.3 535.2 533.8 531.3 527.8 523 516.3 508.4 500.6 496.7 495.5 495.4 496.3 497.1 497.3 497 495.7 491.4 488.3 487.8 487.1 485.4 483.1 478 470.3 468.4 466.2 462.6 459.1 454.4 450.8 443.9 434.8 426.8 423 421.5 424.1 428.8 432.8 437.4 442.8 448.3 452.9 456.6 460.1 462.5 464.7 466.3 467.3 468.2 468.4 468.8 468.5 467.5 465.4 461.8 456.8 451 440.9 429.1 417.2 407.9 400.7 398.5 399.5 397.3 393.9 391 383.8 377.4 373.5 372.6 371 368.6 365.9 363.7 362.2 360.1 359.3 359 358 356.8 355.9 354.9 353.8 351.9 359.7 364 366.3 367.4 366.7 365.3 363.8 362.1 360.7 360.2 358.5 355.8 351.8 343.9 327.8 313.1 313.1 320.5 330.1 340.3 348.8 354.2 355.8 354.7 353.9 351.4 348.7 344.4 338.9 334.8 331 326.8 322.5 317.4 311.7 304.6 298.2 294.8 292.3 290 289.6 288.7 288.1 286.3 284.1 281 279.7 280 281.7 289.1 294 297.4 298.7 298.2 297.1 294.3 292.3 288.6 286 283.8 281.6 280.7 279.5 278.6 274.4 273.1 274.3 276.9 279 279.6
558.5 562.8 566.9 571 574.4 577.9 580.7 581.9 582.3 580.6 577.2 573.9 568.7 563.1 556.3 550 545 541.2 535.7 532.3 538 539.5 542.5 545.4 548.7 552.3 555.5 558.5 562.1 565.1 568.2 569.4 571.4 571.3 570.6 569.5 567 564.6 561.4 558.5 554 546.6 527.1 524.2 529.4 530.1 529 526.8 523.1 518.9 509.3 503.6 497 493.6 492.9 493.9 495.4 496.5 496.7 496.8 496.6 494.4 491.1 489.8 488.4 486.2 482.9 478.2 469.3 459.1 457.2 453.7 449.4 446.5 444.7 439.6 430.8 424.1 422.9 423.1 427.8 432.7 437 442 447 451.5 455.9 459.8 462.3 465.1 467.1 468.9 469.1 469.1 468.8 468.3 467.6 466.3 463.8 459.9 454.8 449 438.8 428.7 418.6 411.4 404.3 403.4 401.1 398.4 394.5 389.8 382.4 376.9 373.6 371.9 371.1 369.6 366 362.3 360.6 359.4 359.7 360 359.8 358.3 357.6 356.3 354.6 352 355.4 359.9 362.2 363.2 362.5 361.4 359.1 356.9 355.4 355.9 355.2 352.4 349 337.8 320.6 318.1 319.9 324 332 341 349.9 354 356.1 354.7 354.1 351.4 347.8 342.7 336.7 331.4 326.8 322.3 317.5 313.5 307.6 300.7 297.2 295.1 293.2 292.5 292.7 291.3 288.4 286.5 284.4 281.2 280.4 280.8 282.7 288 294.1 298.2 300.7 301.1 299.7 296.3 294.6 293 290.9 289.9 287.9 286 283.9 281 276.2 274 275.4 276.8 279.1 281.1
558.8 562.8 566.3 570.4 574.2 576 578.8 580.1 580 578.9 576.9 573.7 569.9 563.9 556.9 550.4 545.6 540.8 534 534.3 537.7 540.2 542.5 544.6 547.6 550.1 552.7 555.4 558.2 561.2 564.4 566.2 567.6 568.6 567.9 566.7 564.9 563.2 561 558.6 555.5 550.4 536.8 521.1 520.7 523.7 523.8 521.5 518.1 513.5 506.4 497.7 491.8 489.5 489.5 491 492.7 494.4 495 496.2 496.4 495.7 495 493.6 491 486.9 482.9 478 470.2 460 448.4 444 442.5 440.7 439 434.6 425.9 423.5 422.9 425.7 431.6 436.3 440.5 445.9 450.2 454.6 459.3 463.3 466.1 468.1 469.3 470.6 470.2 469.3 468 467.1 466 463.6 460.7 457.4 452 445.5 436.8 428.6 421 415.8 408.9 405.9 401.8 397.9 394.1 387.9 381.2 375.5 371.4 368.1 368 366.4 362.9 359.4 357.6 357.7 358.3 359 360.3 358.8 358.2 357.9 355.5 350.4 348.8 354.1 356.5 358 357.6 357.1 356 354.2 352.7 351.7 351.2 348.6 343.2 329.2 316.4 326.6 328.8 325.1 334.5 342.8 350.7 355.4 355.9 354.9 353.7 350.4 346.5 340.2 334.1 328.8 324.6 319.4 313.9 309.8 304.6 300.9 297.7 295.9 294.8 295.2 293.4 291.1 289.2 287.2 285.3 282.3 281.3 281.8 282.8 285.6 294.2 300.5 304.1 305.6 304.8 301 301.9 300.4 299.6 298.8 296.7 291.7 286 281.3 276.6 275.8 276.7 277.8 281.1 284.1
559.6 563.6 566.9 570.5 573.3 575.3 577.1 577.9 577.9 576.7 575.6 572.4 568.9 563.2 556 549.4 544.2 540.2 535.3 535.6 538.1 540.3 541.9 543.4 544.9 547.9 550 552.8 555.2 557.5 560.1 562.2 564 564.4 564.1 563.9 563.4 562.2 561 559 556.6 552.7 545.2 527.7 515.1 515.6 516.3 516.1 512.8 508.4 499.7 489.8 484.8 483.5 484.2 487.1 488.6 490.7 493 494.2 495 495.7 495.5 494.2 491.8 488.3 483.8 477.7 470 461.2 452.7 443 436.7 436.3 435.2 429.1 424.1 424 423.6 427.9 434.4 438.6 444 449.1 453.2 458.1 462.6 466.3 469.4 471 471.8 471.5 470.3 468.4 466.9 464.8 462.7 460.3 457.1 453.3 448.1 441.8 434.9 428.6 421.8 416.6 410.6 405.4 401.4 397 393 387.3 380.6 374.4 369.3 365.2 363.1 360.3 357.2 355.5 353.6 355.2 356.4 357.3 357.8 357.7 357.5 357.5 356.8 351.9 343.1 344.8 349.9 351.7 352.2 353.2 352 350.1 348.3 347 346 341.9 332.3 318.3 324.5 328.4 332.8 329 334.1 344.5 351.9 355.1 355.4 354.8 353 349.9 345.3 339.1 331.7 326.4 322.5 318.1 314.3 311.4 307.9 302.8 300.2 298.5 297.7 296.5 294.2 292.1 290.1 288 286.8 284 281.8 282.5 283.2 287.5 299.4 305.3 308.7 310.1 309 305.6 308.2 308.8 307.9 304.6 301 294.9 287.2 280.7 277.3 276.9 278.4 280.2 283 285.5
560.1 563.6 566.4 569.4 571.6 573.8 575.1 575.8 575.8 575.1 573.7 570.8 567.2 561.2 554.6 547.2 543 539.2 533.4 533.4 537.2 539.2 541 542.8 543.7 546 547.4 549.1 551.7 554 556.6 558.5 560.3 561.3 561.2 561.1 560.9 559.9 559.2 558.4 556.8 554.2 548.2 534.9 518.9 508.6 508.1 508.6 506.8 501.9 490.8 483.8 480.9 479.9 480 482.4 485 486.9 489.5 491.4 493 494.2 494.2 493.3 491.1 488.1 483.8 478.1 468.4 459.7 450.8 444.2 437.9 434.4 431.9 427.1 425.2 424.2 425.4 430.5 436.2 441.8 447.6 451.4 456.7 460.4 465.9 468.9 471.7 473.2 473 471.1 470.1 467.4 464.3 461.6 459.4 456.1 452.7 447.7 441.8 436.9 432.9 428.3 422.3 416.5 411.2 406.1 401.2 396.2 392.2 387.1 380.8 374.4 369.7 366.4 362.9 360.6 358 355.8 352.7 352 353.5 354.3 355.3 355.7 355.3 355.5 355.2 352.9 343.1 343.1 343.1 346.2 347.3 349.3 348.3 346.4 343.1 343.1 344.4 329 320.9 328.6 335.3 328.8 339.3 332.3 337.1 345.5 352.6 355.9 355.9 354.6 354.5 352.1 346.8 341 334.1 328.8 323.2 319.6 318.3 317.3 314.2 309.7 305.4 303 299.9 297.1 294.9 293 291.2 289.9 287.8 282.9 283 283.2 284.7 288.6 300.8 307.9 311.7 312.6 312.8 311.5 314.8 315.4 313.3 308.7 302.7 295.6 289.2 282.5 279.4 279.2 281 282 283.6 285.6
560.5 563.3 566.6 569.1 570.7 572.6 573 573.6 572.9 572.1 570.5 567.8 564.4 558.8 551 545.3 541.6 537.7 531.5 532.2 533.4 538.2 540.7 542.1 543.3 543.6 544.5 546.1 547.7 550.1 552.3 554.9 556 556.8 556.8 557.7 558.4 557.8 558.1 558.1 557.5 554.8 549.8 541.5 523.2 509.2 500.9 498.2 497.7 492.7 486.1 481.9 479 477.3 476.8 478.3 480.6 482.8 485.7 488.2 490 492.2 492.4 491.8 489.8 487 482.8 477.1 467.9 457.6 449.2 443.2 439.4 436.2 433.4 429.4 426 425.1 426.9 431.3 437.5 444.3 450 455.3 459.8 465.8 469.6 472.4 473.9 473.8 473.1 471.1 468.8 465.3 461.1 458 454.1 451.1 447.2 441.7 436.6 433.6 429.6 425.3 420.6 415.6 411.3 406.3 400.2 396 391.7 387.7 381.8 378.8 376 375.1 370.7 365.7 362 357.2 353.6 351.1 350.5 350.9 351.8 352.9 352.4 354 353.6 350.1 343.1 343.1 343.1 343.1 342.6 345.1 344.3 343.1 343.1 343.1 343.1 325.4 332.5 340.1 345.7 346.4 344.3 338.4 341 345 352.6 355.1 355.6 356.1 355.9 355.1 350.5 345.6 340.4 333.4 329 324.9 323.3 322.7 319.8 315.2 309.7 305.2 301.6 298 295.8 294.2 292.4 290.8 287.3 283.8 283.9 284.1 284.8 289.3 298.6 307.3 312 314.5 315.9 316.9 319.7 320.1 317.2 311.3 303.6 296.5 289.9 284.7 280.8 280.8 281.7 282.8 284.2 285.3
560.4 563.4 566.2 568.4 570 570.4 570.3 569.7 569.9 568 567.6 564.6 561.8 555.8 548.4 542.9 538.7 535.7 530.6 530.9 532.8 537.8 540.4 542.2 542.2 542.2 541.6 543.1 544.3 545.9 548 550.1 551.7 552.7 552.1 554.2 555.5 555.9 557.1 557.9 557.3 555.1 551.2 543.6 528.1 509.2 499.3 492.5 487.5 484.2 481.4 480 477.5 475.6 475.2 474.4 475.8 478.6 481.7 484.5 487 489.4 490.1 490.1 488.1 485.4 481.6 475.7 467.1 453.6 448 445.2 442.2 438.4 434.4 428.5 425.8 426.1 428.8 433.8 439.1 446.5 453.8 460.4 466.2 470.5 473.1 474.7 475.1 473.9 472.1 469.9 467.3 463.7 459 453.7 450 445.4 441.6 436.3 431.8 428.1 425 420.9 417.1 413.4 409.8 404.9 398.9 395.8 392.1 388.4 386.5 384.5 382.2 380.1 376.4 370.1 365.5 360.7 354.4 350.7 348.9 348.8 349.7 349.6 348.4 350.1 350.7 348.9 342.5 343.1 343.1 343.1 343.1 343.1 343.1 343.1 343.1 343.1 343.1 343.1 343.3 350.2 353 352 348.9 343.7 343.1 345.8 351.7 355 354.8 356.2 358.2 358.4 355.9 350.6 346.2 340.8 335.4 330.1 328.3 326.1 323.5 318.9 313.4 308.1 302.8 299 297.1 295.4 293.2 291.2 285.7 284.8 285.3 285.2 286.1 289.8 295.1 304.3 311.1 315.6 318.7 321.4 324.3 324 322.2 316.3 308 300 292.4 286.9 282.5 282.2 282.9 283.8 285.1 286.5
560.4 563.3 565.9 567.7 568.5 567.9 566.5 567.1 565.9 565.1 562.9 560.9 557.7 552.4 546 538.4 536 534.1 530 529.9 534.8 537.6 540.1 541.7 541.1 540.3 539.2 539.4 540.2 541.7 543.5 545.3 546.9 548.2 548.7 550.6 551.9 554.2 555.9 557 557.1 555.6 551.3 545.2 531.7 508.6 498.3 493.7 485 480.7 479 477.2 475.1 474.2 473.1 470.4 471.5 473.6 476 480.1 482.9 485.7 486.8 487 485.4 482.7 478.7 473.5 466 457.8 453.4 448.8 444.4 439.6 431.6 427.8 427.8 427.7 431.4 437.3 444.2 454 460.7 466.5 471.1 474.2 475.6 476.2 475 472.5 470.4 468.4 465.6 461 455.9 450 445.6 441.4 436.9 431.3 427.7 423.9 421.1 417.4 413.5 411.3 407.6 403 398.6 395.4 393.2 392.6 391.7 389.4 387.5 384.4 380.2 374.2 369.5 363.3 355.8 350.3 347.5 347.3 347.3 347 346.7 347 347.6 345.8 343.1 343.1 343.1 343.1 343.1 343.1 343.1 343.1 343.1 343.1 343.1 344.2 351.1 355.3 357.2 355.1 352.4 348 344.6 347 349.2 353 354.9 356.9 360.5 361.3 359.9 356.4 351.3 344.9 339.5 334.8 331.9 328.6 324.7 319.8 314.4 308.3 303.6 300.5 297.8 295 291.7 287.2 285.5 285.8 286.2 286.9 287.8 291 295 301.2 308.9 315.5 320.6 325 328.5 328.8 326.8 321.9 313.4 304.2 295.2 287.5 284.1 284 284.5 285.4 286.7 288
560 562.8 564.6 565.9 565.8 565.4 563.8 563.3 562 561.2 558.1 556.3 553.9 548.6 543 534.4 532.4 531.6 528.3 528.8 533.8 536.9 539.3 540.8 540.4 538.2 536.9 536.6 536.5 537.1 539.1 540.1 541.5 543.4 544.2 545.6 549.2 551.5 553.8 555.3 555.8 554.8 551.5 545.5 534.7 513.8 498.5 491.2 482.7 480.4 479.1 478 478 476.5 475.5 472.9 467.8 468.4 470.1 475.1 478.4 481.4 482.8 482.5 481.4 478.8 475.1 470.1 463.4 459.3 453.8 449.1 444.2 436.9 429.5 431.2 430.7 431.3 436.3 442.4 450.8 459.2 465.2 470.4 474.8 477.6 478.1 477.1 474 471.6 469.3 466.6 463.5 458.9 452.6 447.5 442.1 437.2 432.4 427.9 423.6 419.7 416.2 412.8 409.8 407.5 403.5 400.2 397.7 395.7 395.4 395.2 395 392.6 389.8 387.2 383.2 376.4 369.8 362.8 354.9 349.9 346.5 344.4 344.1 343.5 343.7 344 344.3 343.1 343.1 343.1 343.1 343.1 343.1 343.1 343.1 343.1 343.1 343.1 344.2 351 355.5 359.6 360.3 357.2 353.6 350.8 346.9 346.6 348.4 350.8 353.9 357 362.2 363.8 362.6 360.4 355.6 348.8 343.2 338.9 333.9 328.8 323.3 318.4 313 308.8 305 301 298.7 295.8 291.5 285.9 286.4 286.9 287.7 288.4 289.1 292.3 296.1 300.5 308.1 316 322.6 328.2 332 332.5 330.5 325.6 317.3 307.5 296.5 286.4 284.8 285.7 287 287.2 288.5 290.1
559.2 562 563.5 564.1 563.9 562 559.7 558.6 557.4 555 553.8 551.3 549 544.7 538.5 532.8 531 528.7 526.9 527.9 533 536.3 539.2 540.7 539.9 536.9 534 533.3 531.5 532.7 534.1 535.5 536.8 538.2 539.4 542.2 544.7 548.9 551.7 553.8 554.1 553.2 550.4 545 535.3 516.9 500.8 491.7 486.2 483.5 481.5 482.5 481.6 479.2 477.2 474.5 470.1 463.9 465.1 468.8 473.2 476.5 478.1 478.2 476.7 474.3 470.3 465.9 462.6 457.7 452.4 447.4 442.2 433.9 431.2 433.5 433.3 435 440.9 449.2 455.2 462.9 468.8 474 478.3 480.4 480.7 476.9 473.6 471.2 468.1 465.3 461.4 457.2 451.4 445.3 439.4 433.1 428.2 423.5 418.9 415.3 411.2 407.5 404.9 402.8 400.1 397.9 396.9 396.7 396.8 397.5 396.3 394.3 390.7 387.3 383.1 376.2 368.2 361.6 354.3 349.1 345.9 343.5 343.1 343.1 343.1 343.1 343.1 343.1 343.1 343.1 343.1 343.1 343.1 343.1 343.1 343.1 343.1 343.1 348.8 354.3 357.6 361.9 361.9 358.6 354.6 351.5 348.6 347.6 348.2 350.2 353.1 357.5 363.5 365.7 365.3 363.2 359.4 353.4 348.1 341.8 336.1 330.6 324.1 318.4 314.2 310.9 305.7 301.5 298.2 293.4 290.5 286.9 287.3 288 289.2 290.6 291.3 294 297.7 301.4 309.1 317.3 324.4 330.2 333.6 334.3 332 326.3 318.4 308.2 296.1 287.8 287.6 290.8 293.2 291.8 292.2 293.9
558.3 560.6 562.2 561.9 561.3 558.9 556.2 554.6 551.6 550 548.8 546.9 543.2 538.6 533.7 531.6 529.7 529 526.7 528 532.4 536.4 539.2 539.8 538.9 536.1 531.6 529.6 527 528.6 529.5 530.8 532.2 533.1 533.9 538.3 542.1 545 549.4 551.3 552.3 552.5 549.8 544.5 534.3 516 498.5 491.3 487.9 485 484.2 485.1 484.6 482 479.7 477.7 474.2 469.6 463.6 461.3 467.9 470.8 472.2 472.1 470.8 468.5 466.5 463.9 460.5 456.1 449 442.1 437.6 432.2 434.9 436.2 436.1 439 445.4 452.2 458.6 465.8 471.7 477 480.9 483 483.7 480.7 476 472.1 467.6 463.2 459.3 455 449.8 443.2 436.3 429.9 424.2 419.6 415.3 411 406.5 401.2 398.8 397.4 395.7 395.3 396.4 397.1 397.4 397.7 396 393.7 390.1 386.3 380.9 374.7 368.2 361.3 355.6 350.5 346.2 343.8 343.1 343.1 343.1 343.1 343.1 343.1 343.1 343.1 343.1 343.1 343.1 343.1 343.1 343.1 343.1 345.1 351 356.2 360.2 363.3 363.2 359.1 354 350.7 349.6 348.8 349 350.7 351.2 357.7 363.8 366.7 367 365.4 362 357.5 352.2 345 338.7 331.2 324.6 320.3 316.5 312.1 306.5 301.5 297.1 295 290.3 287.9 288.4 290 291 293 294.2 297 300.5 303.1 310.3 318.8 324.7 330.3 332.5 333.2 330.4 325.8 318.1 305.7 292.2 290.7 295.8 300.4 302 299.3 299.3 299.8
557.3 559.5 560.9 560.2 558.6 556.1 553.1 550 547.1 544.1 542.7 540 537.6 533.9 531.7 529.7 529 526.7 525 528.8 532.9 536.8 538.7 538.8 537.6 534.6 530.7 527.1 524.5 526.4 526.8 526.4 526.3 528.1 531.9 535.9 538.8 542.4 546.5 549.7 552 551.6 550 545.3 536.2 520.9 505.8 493.6 490.2 489 487.7 487.2 487.1 484.5 482.7 480.7 477.5 474 469.9 464.1 461 465 465.5 465.1 463.1 462.2 461.9 459.5 455.8 450.5 442.1 436.1 437.2 438.8 440 438.5 438.5 442.6 449.3 454.6 461.5 468.1 473.7 478.8 482.9 485.2 485.5 483.5 477.9 473.3 468.9 463.3 457.1 451.9 446.6 440.2 432.9 426.3 420.8 416.5 412.5 408 401.7 396.4 394 392.3 391.8 391.8 393.5 395.2 396.1 396.4 394.5 391.6 387.8 382.5 377.4 370.3 365 359.9 355.7 352.5 347.1 343.1 343.1 343.1 343.1 343.1 343.1 343.1 343.1 343.1 343.1 343.2 343.2 343.1 343.1 343.1 343.1 346 352.5 358.6 362.7 364.8 362.7 358.6 354.6 353.1 351.8 350.2 349.5 351.1 352.7 357.2 363.4 366.9 368.1 366.7 364.2 359.8 354.1 346.7 338.7 331.1 326.3 321 315.2 310.3 304.9 299.1 295.9 293.3 289 288.2 290.4 292.4 294.8 296.5 299.2 302.4 305.3 308.2 312 318.4 323.5 329.4 331.9 331.9 330.1 325.8 318.3 305.1 292.8 297.4 304.1 310.2 313 310.3 309.4 308.2
555.9 558.4 559.9 558.7 557.3 553.2 549.3 545.7 543.4 541.9 538 536 534.6 532.3 528.3 529 528.6 525.4 525.6 530.3 533.8 536.6 537.9 537.3 535.9 533 529 524.9 521.4 523.9 524.3 523.8 523.7 525.7 527.8 531.9 534.9 540 543.9 548.6 551.9 551.7 549.9 547.2 541.7 528.4 511.2 503.6 496.3 492.6 490 489.8 489.4 487.4 486.4 484.5 481 478.5 475.2 471.2 466.2 457.3 454.8 454.1 453.4 454.8 455.8 453.8 449 440 441.6 446 446.1 445.7 442.7 441.1 440.4 445 452 457.2 464.1 470 475.1 480.1 484 486.5 486.9 485.2 480.8 476.1 470.6 464.3 457.4 450.1 443.2 435.7 426.8 420.8 416.7 414.4 409.7 405.6 399.4 393.3 390.5 388.9 388 387.9 390.5 392.1 392.1 391.7 390.6 387.6 383.6 378.4 373.5 367.9 361.6 357.2 353.2 348.7 344.3 343.1 343.1 343.1 343.1 343.1 343.1 343.1 343.1 344.4 349.6 350.4 348.2 345.3 344.6 345.8 344.4 346.9 353.3 359.7 364.4 365.3 362.3 357.6 355.5 355.9 355.3 355.1 352.6 352 353.9 358 363.2 366.5 368.5 368 365.5 361.5 355.2 346.6 338.8 331.2 325.3 319.9 313.9 306.4 301.3 297.2 293.6 291.2 290.3 290.2 292.3 295.1 298.1 301.8 307.1 310.2 311.6 313.7 315.9 320 324.5 330.4 333.7 333.4 331.4 327.8 322.8 309.4 295.3 303.7 312.4 320.3 324 320.2 317.7 314.2
554.6 557.5 559.4 558.8 556.2 551.6 546.5 542.7 540.1 538.8 536 534 531 529.8 529.2 527.7 528 524.2 525.7 529.8 533.4 536.3 537.2 536.6 534.2 530.6 527 524.1 521.4 520.4 521.3 521.8 520.1 523.1 524.4 527.3 532.7 536.1 540.4 546.9 550.2 551.4 550.5 547.7 542.9 534.1 520.1 508.8 497.7 493.1 491.6 491.5 491.5 490.4 489 488.1 484.4 482 479.4 475.7 471.6 467.4 464.6 457.4 451.2 448.6 448.7 447.4 442.1 447.4 451.4 453.1 452.2 449.9 446.2 444.1 441.8 446.6 454.3 460.5 466.3 471.2 476.4 481.3 485.1 487.9 488.6 486.2 482.7 477.9 471.6 464.3 457.1 448.6 442 432.8 422.7 416.6 414.1 411.5 407.1 402.3 396.3 391.1 387.4 385.2 384.3 381.9 384.2 386.9 387.5 386.4 384.5 382 378.5 373.7 369.1 364.6 358.2 353.8 349.5 345.1 343.1 343.1 343.1 343.1 343.1 343.1 343.1 344.2 350.5 355.3 356.5 354.6 351.3 349 350.2 349.6 348.2 348.4 353.6 359.8 364.8 364.5 361.7 358.6 359 359.7 360.3 360.6 358 352.5 354.5 358.7 363.5 366.8 368.8 369.1 366.6 362.3 354.8 346.9 338.3 329.2 322.9 317 310 302.7 298.1 294 292.7 290.8 291.8 292.5 294.7 300.1 305.7 310.8 314.6 318.9 319.9 320.1 321.4 323.2 327.8 333.3 335.8 336 334.7 331.8 325.1 307.8 299.6 311.3 322.7 330.5 333.7 330.2 323.7 319.6
555.4 557.7 559.4 557.8 555.1 550.5 545.4 540.9 537.6 536 534.7 532.7 530.7 528.9 528 526.8 526.3 523.6 525.7 529.3 532.6 535.7 536.4 535.5 533.1 528.8 526.1 523.6 522.4 521.1 518.3 520.2 517.9 519.8 521.8 524 530.2 534.2 538.8 545.2 548.4 550.6 550.5 547.4 542 531.4 517.7 511.3 502.2 494.9 492.3 491.7 491.8 491.9 491.8 491.1 487.9 485.1 482.5 478.7 474.9 470.4 466 460.6 454.4 448.8 445.7 446.6 451.8 457.1 458.2 458 456.9 454.5 451.2 447.9 444.1 447.6 455.5 461.7 467.5 472.5 477.6 482.5 486.2 489.3 489.6 487.3 483.2 478.1 471.6 464.1 455.4 446.6 437.8 426.4 417.1 412.2 410.1 407.4 404 398.9 394 389.1 384.9 382.5 381.2 378.3 377.4 378.2 378.5 379 378.4 377.1 373.8 370.2 366.2 360 354.2 350.3 345.3 343.1 343.1 343.1 343.1 343.1 343.1 343.1 346 352.2 359.6 362.5 360.5 357.1 353.9 356.1 356.3 355.2 352.6 352.4 354.5 359.8 364.3 365 362.3 362.6 364.5 364 364.9 365.4 363.5 354.7 356.8 360.8 365.2 368.5 370.6 369.9 367.4 363.3 356.3 348.6 338.6 327.1 318.9 313.5 307.2 299.9 295.4 293 292.9 293.3 293.5 295.4 301.6 310.9 315.2 319.2 322.1 325 327.5 327.2 326.9 328.5 332.7 337.8 341.1 341.2 340.7 337.9 328.4 303.8 306 319.3 333.8 340.4 341.8 338.5 329.6 323.3
555.8 558.3 559.5 558.2 555.4 550.7 545.2 540.5 536.9 535.6 534.4 532.8 530 528.5 528.1 527.3 526.4 524.1 524.2 528.7 531.6 534.5 535.5 534.7 532.7 528.2 526.2 525.3 523.6 521.8 520.3 517.2 516.5 518.3 519.4 521.4 527.2 531.9 536.8 542.9 546.9 549.4 549.5 546.5 541.5 531.9 522.5 511.8 504 497.5 491.9 489.9 489.8 491.1 492.1 491.6 489.2 487 484.1 480.2 475 469.6 462.8 451.8 448.3 448.7 450.9 455.2 460.1 462.8 463.5 463.2 461.3 458.7 455.6 449.5 445.9 451.2 457 463 467.7 473.1 478 482.8 487.2 489.5 490 487.5 483.5 478.1 469.9 462.1 454.4 443 432.7 422.9 413.7 407.8 405.4 402.9 399.7 395.1 391.5 387.2 383.2 383.2 384.3 381.7 369.1 368.4 366.8 367.3 369.6 369.8 368.7 367 362.7 354.5 350.3 345 343.1 343.1 343.1 343.2 342.2 343.1 343.1 345.5 352.2 361.4 365.7 366.7 363.7 360.6 362.6 363.7 363.6 362.2 358.8 357.9 357.3 360.8 364.9 366.4 367.4 369.7 371 370.4 370.8 370 367.9 356 358.7 362.8 367.4 370.3 371.4 370.4 368 363.9 357.5 350 339.3 326.2 315.4 309.5 304.9 299.4 295.1 292.9 292.8 294.3 294.7 301.2 309.9 319.1 324.1 327.4 331.1 333.2 334.9 335.3 334.2 336 341.6 347 350.5 351.1 349.5 346.2 331 306.6 312 328 340 347 348 344.1 336.4 327.9
556.4 559.2 560 559 555.5 551.2 545.8 541.1 537 535.7 534.6 533.3 531.2 528.6 527.7 527.3 525.6 524 523.2 527.4 530 532.7 534.9 534.8 533.8 531.4 530.3 528.2 524.5 522.3 520.3 518.1 515.4 516.7 517.9 520.6 524.5 529.5 534.6 540.3 545.1 547.6 547.3 544.9 540.3 532.4 522.8 512.4 504.4 496.8 491 489 488.4 488.7 490.4 490.4 489 486.7 484.2 479.6 474.2 467.4 456.4 450.4 452.5 454.7 458.8 463 465.7 467.2 468.1 467.1 466.2 463.8 459.3 451.8 448.4 453.7 458.8 462.8 467.3 472.3 478.2 482.8 486.8 489.2 489.8 487.6 483.6 477.4 469 460.4 452.2 438.7 428 419.6 412.4 406.1 402 399 396.5 393 388 387.6 387.9 391.3 391.9 388.9 385 379 373 358.2 359.9 362.3 362.3 361 354.9 349.8 345.6 343.1 343.1 344.8 347.3 347.8 343.7 343.1 343.5 350 358.7 366.5 371 371.8 369.3 370.9 372.7 372.8 372.3 372.2 368.9 362.9 361.8 362.5 366.2 368.5 372.7 375 375.8 376.1 375.3 373.3 370.3 357.8 360.8 364.6 368.4 371.5 372.2 371.1 368.4 364.3 358 350.2 339.2 325.4 314.4 307.4 304.8 302.5 297.7 294.4 293.8 295.4 297.3 307 316.4 325.1 332.3 335.9 339.4 341.7 343.1 345.3 346.6 348.1 353.2 359.3 363 362.8 359.1 354.4 336.2 313.2 315.8 331.9 343.5 351.4 352.7 349.8 342.9 332.7
558.1 560.8 561.2 559.4 556.5 552.2 547.5 542 538.1 535.9 535.4 533.9 532.7 531.3 530.4 529 526.3 523.7 522.9 526.1 528.4 530.9 533.4 535 535.5 534.8 534.2 532.4 527.4 522.6 520.5 518.1 515.7 514.3 516.2 518 521.9 527 532.7 537.8 542.4 544.7 544.9 542.7 538.1 530.6 521 506.4 499.4 495 490.2 487.4 486.2 485.3 487.1 487.2 486.9 485.6 482.9 478.1 472.7 465.3 452.8 455.7 459.1 462.5 466.3 468.9 471 472.1 472.7 472.1 471.9 469.2 464 455.2 450.2 454.1 459.4 464 468.3 471.9 478 482.9 486.7 489.5 490 488.2 483.2 476.5 468.2 459.6 450.6 434 425.5 418.2 411.5 405.2 399.7 396.1 393.6 391.4 389.5 391.4 395.8 398.9 399.3 397.1 393.7 386.3 375.6 367.3 357 356.4 355.7 352.9 349.9 346.5 344.3 345.6 349.2 352.2 352.4 350.1 344.4 343.1 345.2 353.8 364.1 370.6 376.3 378.1 379.4 382.2 383.9 382.7 382.5 380.7 374.6 366.8 367.5 366.1 368.9 373.5 377.5 379.5 380.2 379.6 378 375.3 370.3 360.4 362.6 366.2 370.1 372.7 373.4 371.7 368.3 364.4 358.4 350 337 320.9 313.8 310.4 311.8 310.5 299.8 295.5 295.2 297.4 304.6 313.5 321.9 330.2 338.3 344.2 347.8 351.9 355 356.2 359.4 361.9 368.1 371.9 373.6 372.6 368.5 359.8 336.4 314.1 317.8 333.7 346.1 354.2 356.3 354 346.9 336.7
559.4 561.3 562 560.8 558.2 554.6 549.5 544.4 540.8 537.7 536.7 535.1 533.9 532.5 531.4 529.8 527.9 525.6 522.2 524 527.2 529.5 532.3 534.5 535.8 536.7 536.7 535.7 532.5 527.5 522.3 519.2 515.1 514 514.9 516.5 519.5 524.4 529.2 535.3 539.4 541.6 541.8 540.2 536 527.6 519.1 508.7 500.3 493 488 485.3 483.5 482.1 482 483.2 483 482.5 480.4 476.6 470.9 456.2 458 463.5 468.1 470.7 472.7 474.5 475.1 476.6 477.4 477.3 475.8 473 468.2 459.5 451.5 453.3 457.7 463.7 468.2 472 478.1 483 486.8 489.7 490.8 488.4 482.3 475.5 466.9 459.1 447 429.1 421.6 416 409.7 402.8 397.8 394.6 390.9 390.4 391.9 396.7 401.9 403.8 403.6 402 398.8 388.2 375.2 365.6 357.6 350.8 350.3 348.3 347.8 346 348 351.4 354.4 356 354.9 351.1 345.8 344.1 347.4 356.4 366.5 374.4 380.2 383.9 389.6 392.5 392 390.1 388 386.3 381.6 378.2 373.9 371.3 372.4 377.9 381 382.5 382.5 381.4 379.2 375.4 368.6 360.5 364 368 370.8 373.4 373.9 371.9 368.3 364.1 357.6 350.1 332.8 322.4 318.5 320.2 321.7 319.8 304.6 296.3 295.7 302 312.9 319.1 325.6 334.5 344.6 352.7 357.9 362.5 366.2 370.4 372.1 375.6 378.9 381.9 382.6 380.5 375.2 360.5 336.1 315.1 322.3 335.7 349.2 357 358.8 356.7 350.3 341.2
560.6 561.8 562.5 561.4 558.6 555.1 551.2 547.2 544.2 540.9 539.8 538.1 535.6 533.7 532 530.4 528.7 526 521.9 522.3 526.3 528.3 530.9 534.1 536 537.5 537.3 536.5 535 530.5 523.8 518.4 514.6 513.1 514.4 514.8 517.2 519.7 526.3 532.7 536.1 538.1 538.3 536.7 533.3 524.6 515.2 506.1 495.8 490.1 486.1 483.9 481.5 480.2 478.7 478.2 478.4 477.8 476.9 473.4 464.4 462.2 469.5 473.5 475.5 477 478.6 480.2 480.6 481.7 482.3 481.3 479.3 476.3 471 462.1 454.6 454.6 457.2 463.3 468.4 472.3 478.2 483.5 487.8 490.5 491.2 488.1 481.2 474.5 465.5 458.6 441.6 425.5 419.4 412.7 406.2 400.3 396.5 393.3 391.7 391.5 396.6 401.1 404.4 406.7 405.4 403.2 398.2 386.6 371.4 361 362.6 368.6 369.4 360 352.3 350.9 354 360.1 363 362.8 358 351.9 348.5 345.3 349 357.3 368.8 376 383.1 391.8 397 399.7 398.8 395.7 392.5 391.2 385.1 381.6 378.3 375.3 375.7 380.7 383 383.8 383.4 382 378.8 372.4 363.7 364.7 367 370.1 371.9 373.5 373.2 371.6 368 363.5 357 349.7 333.4 332.9 332.1 332.2 330.7 325.5 308.1 297.3 298.6 308.5 317.3 323.7 331.2 341.1 351.4 360.9 368 373.8 377.5 382.3 384.7 386.6 388.2 390.4 389.7 385.5 378.7 363.4 337.8 315.9 325.5 338.9 352.7 360 361.5 358.7 352.5 344
560.2 562 562 561.4 558.2 555.6 552.6 549.4 546.9 545.4 543.5 541.7 539.5 536.4 533.9 531.1 529.2 527.1 524.5 521.2 525.1 527.2 529.7 532.9 535.4 537.2 537.7 537.2 535.6 532.2 525.1 519.4 514.7 511.8 513.8 513.2 514.3 517 524.2 529.4 532.1 533.6 533.9 532.9 529.4 522.8 514 505.3 494.8 487.2 484.4 482.5 480.5 478.2 476.8 474.5 472 470.7 469.7 464.7 463.7 472.3 476.6 479.6 482 483.7 484.4 486.2 487.7 488.1 487.4 485.7 482 478 472.7 463.2 457.5 455.9 458.4 463.1 468.3 472.9 479.1 484.4 488.2 490.6 490.3 486.4 480.5 473 465.8 457.8 439.4 424 417.5 409.6 404.6 400.1 396 392.9 391.8 395.5 400 403.8 406.3 407 406.4 401.7 394.3 378.2 363.7 370.4 379.5 383 381.6 373.3 352.2 350 359.2 365.4 368.3 368.2 363.8 357.5 352.9 348.9 349.7 357.6 368.7 377.1 385.4 394.1 400.5 404.1 404.1 400.2 396.5 393.1 388.3 384.1 381 378.3 379.6 382.9 384.4 384.3 383 381 376.2 368.7 367 367.1 371.4 372.8 372.9 373.6 372.8 371 367.7 363.4 357.9 348.6 337.5 339.4 340.5 340.3 336.3 325.1 306.5 299.3 303.6 312.7 320.9 330 339.3 348.6 359.9 370.2 377.3 383.6 388.1 391.1 393.3 394.3 394.7 395.2 393.5 388.9 380.8 362.1 336.7 318.5 329.5 341.7 356.2 362.1 363 359.7 353.9 345.7
560.3 561.2 561.4 560.2 558 555.3 552.7 551.5 550 548 546.8 544.9 542.7 539.3 535.6 532 529.2 527.3 524.1 521.7 524.6 526.6 528.6 531.8 534.7 536.6 536.8 536.2 535.3 532.6 525.6 518.9 515.9 513.3 512.9 512.4 512.7 515 519.8 524.6 527.9 528.6 528.5 527.8 525.5 520 513.1 505 498 489.6 483.3 480.9 479.4 477 475.2 472.1 468.4 465.6 466.5 467.6 473.6 479 482.8 486.3 488.3 490.2 492.1 494.3 494.9 494.4 492.5 488.7 483.5 478.8 472.5 463.6 459.5 458.4 459.8 463.6 468.7 473.2 479.6 484.7 487.7 490.3 489.2 485.7 479.8 472.4 465.8 457.5 445.6 429.1 415.1 407.6 403.6 398.7 394.6 392.6 394 398.8 402.7 405.9 407.4 406.9 403.8 399.2 385.2 367.4 376.9 387.9 393.2 393 389.2 377.9 352.3 353.5 362.8 370.1 372.7 373.7 371.6 365.5 359.2 352.3 351.5 356.4 368 377.5 386.3 394.4 402.3 406.5 406.1 403.5 400.3 395.9 390.4 385.9 382 380.8 381 384.2 385.5 385.3 382.9 379.4 374.6 368.1 368.2 370.8 374.5 375.7 375.4 374.6 372.5 370.7 367.5 362.6 357.3 350.4 342.8 344.1 345.7 343.9 337.9 320.8 299 305.9 313 318.7 327.5 338.2 348 358.9 368.8 379.5 386.5 391.9 395.6 397.6 399.1 399.3 398.7 398.7 395.7 390 379.4 358.6 332.9 321 332.8 345.9 359.4 364.3 364.2 361.1 354.9 347.4
560.7 560.8 560.5 558.9 556.5 554.2 553.1 552.2 551.1 550.1 548.7 547 544.2 541.9 537.4 532.6 529.7 528.2 526.5 522 522.3 525.4 527.6 530.5 533.2 535.8 536.7 536.4 535.3 532.3 525.7 518.9 515 513.2 510 510.7 510.6 512.8 514.5 519.1 522.8 524.3 523.9 523.1 520.9 515.7 509.6 501.6 495.1 490.3 483.5 480.2 478.3 475.7 472.6 469 469.4 470.2 471 476.1 480.7 485.5 489.4 492 494.6 498 500.7 501.9 502 500.4 496.3 490.3 484.4 478.8 471.9 464.2 461.1 460.6 462.5 466.6 470.6 474.1 479.8 485 488 489.1 487.6 484.1 478.1 471.6 465.4 457.4 448.1 436.7 420 406.8 401.4 396.2 394.3 394.8 396.7 401.1 405.3 408 407.8 405.2 399.8 391.6 378.5 381.2 390.6 398.4 402.2 398.9 393.5 378.9 355 355.8 364.4 374.1 378.2 380.4 378.6 372.4 363.8 355.7 352.6 357.3 366.5 376.7 385.7 394.3 401.6 406.1 407.4 406.1 403 397.8 392.3 387 384.5 382.5 383.6 385.6 386 385 381.6 377.5 372.1 370 369.7 373.4 376.4 378.1 377.6 375.8 372.6 370.3 366.9 362.1 356.8 350.3 345.5 345.7 347 343.3 335.6 314.2 306.7 316.3 322.3 328.1 337.2 347.8 359.3 371 379.9 388 394 398.6 400.7 401.7 401.4 400.6 400.4 399.6 396 388.6 375.5 354.1 330.9 322.1 337.2 351.2 362.4 366.3 365.6 361.7 355.6 347.8
562.5 561 559.1 556.2 554 552.3 551.3 551.6 551.4 551 549.5 547.9 544.7 542.3 538.3 533 530.2 528.9 527.5 524.9 521.5 523.5 526.5 528.9 531.8 534.8 536.2 536.1 534.5 531.4 524.8 519.4 515.2 513.3 511.2 508.7 509.5 510.1 511.2 513.5 516.9 518.8 519 518.4 516 512.2 505.6 499 493.7 489.9 483.9 479.3 477.1 472.3 473.5 473.1 473.4 475.9 478.9 482.2 486.7 490.9 495.6 499.1 502.4 505 507.9 509.2 508.6 505.6 500.1 492.9 485.1 477.5 470.2 465.3 463.6 465.4 467.1 469.8 473.4 477.4 481.2 485 487.2 487.4 485.4 480.7 475.9 471.1 464.8 457.4 449.9 439.3 424.5 409.4 399.8 396.1 396.6 397.1 398.7 403.4 407.3 408.5 406.2 402.1 395.5 386 385.7 394.8 402.5 406.5 407.3 403.2 395.9 380.1 357.8 358 366.2 378.2 383.4 386.8 385.4 379 371 360.9 355.4 357.6 364.9 374.5 383.7 393 399.8 404.7 407.3 406.8 404.7 400.2 394.6 389.5 386.8 385.1 385.4 386.2 385.9 384.4 380.1 375.9 372 371.9 371.4 374.5 378 379.9 379.3 377.6 373.8 370.2 366.2 360.4 355.6 349 344.6 343.2 344.3 339.5 324.1 320.8 319.5 325.7 332.6 339.6 348.3 359.6 369.3 379 387.3 394.8 399.9 403.7 404.1 403.3 402 399.5 398.6 396.8 392 384.3 369.7 350.7 330.1 330.1 343.9 356.7 365.2 369 368.4 364.1 357.9 349.1
563.7 560.9 556.2 552.6 549.9 548.9 549.7 550.3 550.3 550.2 548.7 547.3 544.6 542.2 538.5 534 530.9 529.6 528.3 526.9 522.7 520.6 525.5 528.1 531 534.4 535.9 535.5 533.7 529.5 522.8 518.7 515.1 513.7 511.9 509.4 507.8 508.2 507.8 508.4 510.1 511.8 513 513.5 510.6 507.6 503.6 496.9 491.2 488.3 483.5 478.4 476.5 477.3 476.8 476.5 481 482.8 485 487.1 490.7 495.9 501.1 505 508.7 512.8 514.8 515.5 514.1 509.7 503.8 496.7 487.1 478.6 471.1 466.5 466.8 469.5 471.1 473.7 475.7 478.8 481.5 484.2 485.5 483.9 481.8 479.1 475.3 470.2 464.2 456.8 449.4 439.4 422.2 404.7 399.5 396.7 398 398.2 401.7 406.5 410.9 409.4 405.6 400.5 393 390.3 395.6 403.2 408.1 410.3 410.5 406.5 398 381.4 359.5 362 372 383.2 389.8 393.1 393.4 385.2 375.7 368.5 363.1 358.8 364.1 371.9 381.4 390.9 398.2 404.2 406.6 407.8 405.8 402.7 396.5 393.2 391.6 389.5 387.5 386.7 385 382.7 378 376 374.1 372.7 372.7 376 379.9 381.5 381.1 379 375.8 370.4 365.6 359.4 354.4 346.8 342 339.7 335.7 327.3 326.1 325.5 331.1 337.9 344.4 352.2 358.8 370.5 378.1 385.6 393.8 400 403.8 406.4 406.5 404.5 401.2 397.1 393.5 391.5 386.9 377.6 361.2 343.2 331.3 340.2 351.8 363.1 369.5 371.3 370.7 366.9 360.8 350.9
566 561.4 554.3 547 545.7 546.1 546.5 547.6 548.1 548.6 547.9 545.8 544.1 541.5 539.1 535.5 532.5 530.7 529.2 527.7 525.5 520.3 523.6 527.4 531.1 534.1 535.3 534.9 532.8 528.6 521.1 518.3 514.9 513.6 511.3 509.8 506.4 506 505.5 505.1 504.6 505.8 506.6 507.3 506.4 503.1 498.5 491.6 485.9 484.7 481 481.2 483.1 483.8 482.8 479.7 484.9 487.8 490.1 492.2 496.4 501 505.4 510.1 514.7 518.4 520.3 520.6 518.4 513.8 508.7 501.5 493.3 483.7 475.9 469.3 470.7 473.1 474.9 476.3 477.2 479.1 480.9 482.3 482.9 481.6 480 476.8 472.8 468.4 462.3 455.8 447.5 437.8 417.9 404.5 398.9 397.9 400.6 401.1 405.8 411.1 413.7 412.1 409.3 401.2 397.2 397.3 403.2 409 412.9 413.8 412.5 409.9 400.2 382.9 361.6 365 376.6 387.8 396.7 399.4 398.6 393.1 385.1 378.1 371.7 364.2 364.1 370 379.1 387.8 395.9 402.2 406.4 407.5 407.9 404.5 402 400 396.1 392.4 389.4 386.8 383.9 380.9 378.7 376.4 374.5 374 374.4 378.8 382.9 384.2 383.1 380.7 377 371.7 365.6 359.8 352.7 345.8 339.1 335.7 330.5 324.2 328.2 337.4 341.4 349.2 356.1 363.4 371.6 377.4 385 392.3 398.2 403.4 406.8 408.4 407.7 404.6 399.5 394.6 388.6 385.6 380.2 366.1 350 344.1 341.9 350.6 358.4 368.4 373.2 374.6 373.4 369 362.7 352.5
569.2 563.5 555.8 545.7 542.5 542.1 543.8 545.4 545.6 546.8 545.8 544.5 542.7 541.3 538.8 536.4 534.5 532.1 529.5 527.4 525.4 519.4 523.7 527.1 531.8 534.2 534.8 534.3 532.5 527 520.1 517.6 515 513.4 511.6 509.6 507.8 507.4 505.3 502.3 500.6 499 501 500.5 499.7 498.3 495.1 490.4 486.8 488.8 488.4 488.4 489.1 489 488.1 483 485.8 490.9 494.1 496.9 500.4 504.7 509.3 513.8 518.5 522.7 526.1 525 522.4 517.7 512.1 505.9 499.2 489.4 480.5 474.7 474.8 475.5 476.5 477.5 478 478.4 479.2 479.3 479.3 478.9 477.1 474.2 470.7 465.8 460.1 453.4 445.1 433.3 414.6 404 399.4 400.1 401.8 405.2 410 415.5 419.1 419.4 411.7 407.1 402.4 403.8 406.7 411.9 415.4 416.3 416.5 412.9 402.1 383.3 365.2 367.5 379.9 392.8 401.7 405.3 405.6 401.8 393.3 386.7 378.7 367.6 363.4 368.8 375.6 384.6 394.2 400.9 406.3 409 410.5 409.2 407 403.6 399.3 394.5 390.3 386.4 382.4 380.3 378.4 377.5 376.5 375.9 378 381.9 385.9 386.4 385 381.7 377.3 371.6 366.6 359.4 351.9 345 338.6 334 329.6 325.3 331.9 342.5 350.1 357.9 366.5 373.8 379.7 385.9 390.2 396.6 402 406.7 409.1 409.6 407.8 404.1 398 391.8 384.6 379.8 373.4 353.2 358.5 363 359.4 357.9 364.2 372.3 377 377.5 375.6 370.5 364.2 354.6
572.5 567.8 559.7 548.8 543.2 541 539.9 542.7 544 543.8 544 542.9 542 540.5 538.7 536.8 534.7 531.5 528.7 526.7 524.6 519.3 523.1 527.4 531.8 533.9 534.2 533.8 531.9 526.1 519.2 516.4 514.2 512.6 511 510.7 510.4 509.2 507.8 506.8 504.1 498.6 496.9 496.7 495.6 493.9 491.7 493.9 494.4 494.3 493.8 492.7 493.2 492 490 487.1 488.7 492.5 496.7 499.6 503.6 507.7 512.8 517 521.2 525.2 527.5 527.2 525 520.7 515.5 509.2 502.6 495.4 485.8 480.7 479 477.8 478.2 477.5 477 476.4 476 476.7 476.7 475.9 474.4 471.6 467.4 462.4 455.9 450 441.6 426.7 412.3 403.2 401.8 402.2 404.8 408.5 415.7 420.9 423.9 423.8 417.9 412.9 411.3 413 414.4 415.6 419.7 422.6 421 415.9 405.4 387.3 366 372.8 383.8 397.7 405.1 408.7 409.6 408.5 402.7 395 385.3 373.5 364.7 367.9 374 381.8 391.6 399.2 406.8 410.3 412.4 411.7 409.5 405.2 400.6 395.2 388.5 384.6 382.7 380.2 378.7 377.9 377.7 378.6 380.9 384.6 388.5 388.4 386.5 383.1 378.8 373 366.9 359.9 351.3 345.3 339.4 334.7 328.6 325.8 333.2 347.6 357.3 365.9 374.7 382.5 387.7 392.7 396.9 400.3 405.1 408.9 410.2 410 407.4 403.4 396.3 389.4 381.2 377.5 371.2 366 372.3 375 371.5 366.4 369.8 377.5 380.3 380.8 378.1 373.1 365.2 353.1
578.5 573.1 566.4 556 544.8 542.3 539.6 538.6 541.4 541.9 541.5 540.9 540.2 539.5 538.2 536.7 534.8 531.8 528.8 526 523.5 519 522.8 527.3 531.1 532.2 533 532.6 530.6 524.7 518.6 516.3 513.9 512.7 512.1 511.9 511.5 511.1 510 509.6 508.2 504.9 499.5 495.4 496.4 499.4 500.3 500.7 499.4 499 497.1 495.5 494.6 493.2 490.6 488.7 492.2 495.7 499.9 503.5 506.4 510.4 515.3 519.6 523.6 527.1 529 528.6 526.4 522.6 517.6 511.7 504.7 498.8 490.3 484.8 481.3 479.2 477.9 476.7 475 473.3 473.6 474.5 474 473 471.2 468.2 463.9 458.7 451.7 444.7 434.8 421.7 407.9 404.8 405.9 405.9 408 414.8 420.8 426.3 430.3 429.9 426.2 421.5 419.9 421.7 423.2 423.9 424.8 425.4 423.2 418.2 409.2 392.7 370.4 377.7 389.2 401 407.7 412 413.4 413.8 409.7 402.7 393.1 380.2 368.1 368.2 373.4 380.3 388.5 397.1 405.9 411 413.4 413.3 410.8 406.7 401.5 395.2 388 385.5 382.7 380.6 379.3 379.7 380 381.7 383.5 388 391.6 391.5 388.3 384.6 379.8 374.5 366.7 359.6 350.2 344 340.5 336.5 328.9 327.6 339.6 352.6 362.3 371.8 382 389.2 394.2 398.3 401.5 403.8 407.1 410.1 410.8 409.4 406.8 402.1 394.8 388.5 381.3 375.3 367.2 374.2 381.1 381.5 378.7 376.2 377.8 383.4 385.6 385.1 382 375.6 366.1 355.8
583.6 578 572.4 562.7 551.1 543 541.6 538.9 536.9 539.6 540.1 539.2 538.5 538 537.2 536.2 534.3 531.7 528.2 525.7 521.8 518.1 521.9 525.1 529.3 531 530.7 530.9 529.3 524.8 518.8 516.1 514.4 513.5 513.2 513.4 514.4 514.3 514.5 513.4 512.6 510.2 506.3 501.5 502.4 504.7 505.8 505.2 504.5 502.4 499.9 497.1 495.3 493.5 490 493.3 495.8 498.8 501.9 505.8 509.5 513.6 517.4 522 526 529.3 531 530.3 527.3 523.3 518.6 513.2 506.4 500.7 493.5 486.9 482.4 479.6 476.5 474.4 472.9 471.6 471 472 471.4 470 467.2 464.4 459.5 453.7 446.8 435.4 424.1 413.6 407.5 408.1 409.5 409.1 410.7 417.5 425.8 431.5 435.4 436.4 436.2 434.4 431.8 428.7 429.4 428.8 428 427.8 425.4 420.1 412.6 398.2 379.9 380.1 394.8 404 410 414.6 416.8 418.3 418.3 412.8 402.7 388.4 376 368.6 372.5 379.5 387 396.1 405.1 411.4 413.7 413.8 411.6 407 400.7 395.7 389.7 385.5 383.5 381.9 381.6 381.5 382.3 383.6 385.8 391.2 395.2 394.6 391 386.2 381.2 375.7 368.1 358.6 349.1 344.1 341.3 335.3 329.3 332.3 344.4 356.2 365.2 376.5 387.8 395.1 399.6 403.2 406.7 408.8 409.3 411 410.4 409 405.6 401.2 395 388.2 382 372.9 373.4 381.4 386 387.1 384.9 383.7 387.1 389.8 390.8 389.6 385.6 378.5 368.2 357.8
587.4 583.6 576.7 568.2 557.2 548.5 543.2 539.8 536.7 536.1 536.9 537.4 536.4 536.3 535.5 534.8 533.7 531.2 528.3 525.4 523.7 518.2 519.2 522.8 526.3 528.1 528.8 528.1 527 524.9 519.8 516.8 515.7 513.8 514.8 515.6 516.7 516.9 518.7 519.1 518 515.4 510.9 505.5 506.1 508.8 509.9 509.2 508 505.2 501.6 497.3 495.6 493.8 492.3 496.5 500.2 504.2 506.6 508.8 512.7 515.9 519.4 524.2 527.7 530.8 534 530.3 527 522.9 518.7 513.7 507.5 501.9 495.4 488.9 483.6 479.8 476.3 473.7 472.3 470.9 470 469.2 468.4 466.6 463.6 459.7 454.6 448.2 438.5 422.7 416.7 411.7 412.5 416 418.1 416.6 414.2 423.3 429.7 436.3 440.8 444.2 445.6 446 443.7 440.6 438.1 436.3 433.8 430.8 427.2 421.1 413.2 402.1 388.2 380.4 397 405.1 410.9 416.2 420.1 423.1 422.1 421.1 413.7 400.5 384.2 372.2 374.3 380.5 388.9 398.1 405.2 411.6 414.1 413.9 411.6 406.1 401.5 396.2 388.7 386.8 385.3 384.9 384.1 384.7 386.1 386.7 390 394.9 397.3 396.6 393.5 387.6 382.5 375.9 366.3 356.8 348.6 343.6 341.6 332.5 330.4 337 348.6 358.2 368.2 381.9 393.2 400 405 408.2 410.4 412 411.9 411.6 410.6 408.4 404.4 399.3 393.3 387.5 380.8 374.8 375.6 383.3 388.5 390.9 391.9 392 394.5 396.5 396.7 394.8 390.2 381.9 370.2 359.7
590.6 587.6 581 573.5 564.6 556 547.8 542.4 539.8 537.6 532.7 533.9 534.3 534.1 533.8 533.1 532.4 531.2 529.2 527.7 525.4 521.6 516.9 520.7 522.8 525.5 526.2 526.2 525.5 523.4 520.4 518.6 517.6 517 516.8 518.1 518.6 520.6 522.9 524 523.1 519.9 515.5 509.7 509.8 511 512.4 512 510.7 508.6 503.8 497.7 496 495.1 495.5 500.3 505.4 510 512.8 514 515.3 518.5 522.5 525.7 528.4 530.8 536.2 528.9 525.2 521.6 517.7 513.2 508.3 502.7 497 490.7 484.1 478.9 476 473.5 471.4 470.2 468.5 467 465.5 463 459.8 455.1 450.1 441.6 430.2 419 417 417.3 423.2 425.4 426.2 424.7 420.6 427 433.7 440.5 446.6 451.2 454.7 455.5 453.9 451.3 445.7 442.1 437.7 432.7 427.1 421.2 414.5 402.7 391.2 382.1 396.9 404.9 411.5 417.8 422.3 425.7 427.2 426.2 421.6 411.1 392.9 377.6 376.7 383.5 391 398.6 405.5 411.5 413.6 413.5 411.1 406.7 401.9 393.8 391.3 388.4 387.8 387.4 387.4 389.5 390.8 391.5 394.2 398 399.3 398.5 395.1 389.4 381.9 373 363 354.1 345.1 341.8 338.9 331.5 332.1 337.9 350.5 361.5 372.5 387 397.3 404.1 408.5 411.5 412.9 413.6 413.6 412.6 410.8 407.3 402.9 396.8 390.8 386.3 382.9 376.5 374.2 383.4 389.7 393.8 397.4 399.7 401.7 403.2 402.9 400.7 395.3 385.9 374.5 362.6
593.8 589.9 584.6 577.8 570.9 566.2 559.6 551.2 545.1 540.2 535.9 529.6 529.5 530.7 530.8 531 530.8 531.1 530.9 529.8 528.3 524.8 518.3 517.5 521 522.9 524 524.5 524.5 524.2 521.2 519.9 519.4 519.3 519.3 520 521.5 523.8 525.8 526.7 526.4 523.8 518.5 513.4 514.6 514.2 514.4 514.5 512.8 510.3 505.5 498.2 496.6 494.1 499.1 504.8 510.2 514.4 517.3 519.1 519.6 520.9 524.3 525.4 527.4 528.9 528.3 525.6 522.8 519.6 516 511.9 507.6 502.9 497.2 490.7 483.9 478.4 474.6 471.6 470.1 468.5 466.6 464.4 462.6 459.6 455.9 450.5 444 432.9 423.6 422.3 425.8 428.9 434.1 434.6 433.6 432.3 428.8 432 438.6 445.8 452 458.4 462.1 464.1 461.2 457.3 451.2 446.9 439.5 432.9 426.8 420.4 412.9 400.7 390.6 386.9 395.9 405.3 412.6 419.5 424.8 428.7 431.8 431.6 428.1 419.2 406.3 388.9 378.7 385.7 392.3 399.1 406.7 410.5 412.7 412.1 410.9 407.2 404.5 398.5 393.2 391.6 390.8 390.8 391 393.7 395.5 396.8 398.4 400 400.2 399.1 395.6 388 378.9 367.6 358 348.8 340.5 336.8 333.7 334 334.2 337 352 366.9 379.3 391.2 400.5 407.2 411.5 414.1 415.3 415.7 415.1 413.6 411.7 408.3 404.2 398.2 393 387.4 382.4 378.3 374.6 384.1 391.6 397.4 403.2 406.5 407.3 410 409.1 406.7 401.2 392.2 379.4 367
595.9 592.6 586.3 581.4 576 571.5 567.1 561.5 555.7 548.3 541.2 534.1 529.4 525.2 526.6 528.9 529.3 530 530.6 530.7 528.9 527 523.2 516.5 519.2 521.1 522.4 524.1 525.7 526 523.5 521 520.8 520.8 521.6 523 524.6 526.8 527.9 529.3 529.1 527.6 520.7 518.5 519 517.7 516.8 516.1 514.4 512.2 506.1 499.1 497.2 498.3 502.3 508 513.4 517.3 520.2 522.4 523.7 524.3 524.3 524.7 524.6 524.6 523.3 521.5 519.4 516.4 513.1 509.5 505.6 501.3 495.9 489.8 483.1 476.8 472 469.1 467.7 466.3 464 460.9 457.3 453.9 451 445.2 435.9 428.5 426.5 431.9 434.9 439.9 441.7 441.7 440.3 438.2 435.9 436.4 443.2 449.6 458.3 465 469.2 470.3 466.6 461.1 455 447.7 440 432.7 425.9 418.8 408.7 395 387.8 388.3 397.5 406.8 414.2 421 426.2 430.5 434.1 435.5 433.2 427 415.7 400.6 389.3 387.1 393.2 399.7 406.2 409 411.7 412.2 411.9 410.7 408 404 397.6 394.7 394.3 394.7 394.8 397.2 399 401.5 402.9 401.9 401.5 399.2 395.2 386.6 375.8 362.8 352.5 343.9 337.3 335.5 335.2 340.4 344.8 344 356.2 370.6 382.3 393.3 402.5 409.3 413.5 415.4 416.8 417.6 417.4 417.2 415.2 412.3 406.9 399.5 394.2 389.2 384 380 376.4 385.9 394.3 401.1 408.2 412.7 414 416.1 415.6 412.9 407.3 398.1 385.3 372.2
597.1 593.7 588.1 582.8 578.7 575.5 571.6 566.5 563.3 557.2 547.5 538.9 533.2 527.6 523.2 526.4 528 529.1 529.9 529.8 528.6 528 524.8 520.5 516.8 520.4 522.2 524.6 525.8 526.4 525.5 523.1 522.3 522.1 522.6 524.5 526.6 528.2 530.2 531.1 531.1 529.4 525.3 523.6 522.7 520.8 519.2 518 516.2 512.7 507.3 500.3 497.9 500.2 504.3 510.2 515.5 519.2 522 524.3 525.3 525 523.3 522.3 521.5 519.6 519 517.2 515.2 512.9 510 506.5 502.8 498.9 494.2 487 481.2 474.6 469.3 466.7 465.4 463.7 460.7 457.1 453.6 451.2 446.7 438.5 433.1 431 433.2 437.7 442 446.4 446.9 446.7 445.3 444.2 442.6 440.1 447.9 456 463.1 470.4 473.5 473.2 469.2 462.9 456.2 448.6 439.5 430.5 422.2 415.9 403.3 392.2 387.5 388.6 397.8 406.8 415.3 423.6 429 433.2 436.7 438.8 439.1 435 426.5 415.8 400 392.3 394.7 399.4 404.4 408.9 412.5 414 413.9 414.1 412.2 408.3 402.9 399.3 399.9 400 398.1 400.4 403.1 405.8 406.8 405.2 402.6 398.7 392.5 382.5 371.1 358.2 349.6 341 337.7 337.7 341.7 349.4 360.9 362.6 358.3 368.5 379.7 391.5 401.7 409.1 413.7 415.9 417.3 418.6 419.6 419.8 419.2 416.1 410.6 403.9 398.2 392.9 387.4 383.6 378.1 386.7 396.6 405.6 413 417.3 419.8 421.6 421.2 418.5 413.1 403.7 392.8 379
596.7 593.8 589.4 585.5 581.5 576.8 573.5 568.8 566 561.5 553.6 543.3 536.1 529.8 523.2 523.5 526.1 528 528.6 528.9 528.5 527 525 520.4 516.5 519.2 521.3 523.4 525.3 526.5 526.1 525.1 523.9 523.6 524.1 525.6 527.8 530.1 531.6 532.2 532.5 531.5 527.8 527.1 525.5 523.4 521.5 519.5 516.9 513.9 509.4 500.9 498.8 502.4 506.2 511.8 517 520.3 523.1 524.8 525.4 524.8 522.5 518.7 516.9 515.5 513.5 512.3 510.4 508.2 505.7 502.8 499.8 496 492 485.3 480 472.3 466.4 463 462.4 460.9 457.4 455 453.4 450.7 448.2 444.9 441.9 441.1 442.4 445 449.6 451.6 451.4 451.3 450.1 448.9 448.3 448.2 452 459.5 467.5 473.3 476.5 475.1 471.2 463.5 456.1 449.2 439.4 430.2 420 412.1 402.3 393.1 389.1 389.8 397.8 407.2 416.7 425.6 430.9 435.5 439.2 442.7 444.6 441.7 434.5 425.4 411.1 399.7 397 401.1 405.5 410.2 414.7 416.1 416.9 416.7 414.8 412 408.3 405.3 406.5 404.6 402.3 403.7 407.3 409.8 409.4 407 403.5 397.4 388.3 377.7 365.4 353.8 343.6 340 339.5 345.8 354.7 364.8 373.3 376.3 374.3 369 374.3 387.6 398.6 406.9 411.7 414.2 416.4 419.2 422.2 423.6 423.4 421.2 415.9 409.5 404 397.8 392.9 388.5 381.1 387.6 399.5 409.4 416.8 421.2 424.1 426.3 425.6 422.7 417 408.1 398.2 383.9
596.1 593.6 589.6 585.6 582 577.8 574.1 571 567.1 563.2 556.5 549.1 538 529.9 522.5 520.3 524.6 526.1 526.9 526.8 526.5 525.7 524.3 520.8 515.7 518.6 521.3 523.1 524.6 526.1 526.3 525.5 525 524.8 525.5 526.6 528.7 530.8 532.6 533.7 533.5 533.3 530.7 529.8 527.4 525.1 522.9 519.8 517.4 515.2 510.9 502.9 500.6 503.6 508.2 513.5 517.9 521.2 523.6 524.8 525 523.5 520.4 516.6 513.5 509.9 507.5 506.2 504.2 502.4 500.5 498.1 495.7 492.5 489 483.3 478.1 470.4 463.6 460.3 459.5 458.1 457.4 455.8 456.1 455.3 453.1 452.1 452.1 450.8 450.5 451.7 454.1 455.5 454.7 455.1 455.4 453.8 454.3 454.7 457.3 465.5 471.3 476.1 477.9 477.3 472 463.6 457.5 450.9 443.4 433.7 422.2 412.1 401.9 393.9 389.2 390.2 396.9 408 418.5 427.1 433.3 438.4 443.5 446.8 449.4 447.2 441.6 433.1 418.4 406.2 398.7 403.9 408.1 412.9 416.6 418.4 419.9 418.9 417.1 414.6 411.5 410.9 411.4 409.2 406.5 406.9 411.2 412.5 410.3 407.6 403.7 397.2 386.6 374.4 360.8 348.2 342.5 341.5 347.8 358.7 370.1 377.2 382.4 382.8 379.8 374.1 373 383.3 394 401.9 408.4 412.4 416.1 421.3 425.6 427.8 428 426 421 414.9 408.6 402.4 399.1 396.1 389.5 387.4 401.5 412.6 419.8 424.2 427.1 429.4 429.4 426.2 421 412.4 401.7 389.4
595.7 592 588.8 584.9 580.5 576.9 573.2 570.3 565.9 562.7 557.9 551.9 542.4 530 519.9 516.8 521.7 523.8 523.9 523.7 523.5 523.1 522.8 520.2 513.9 516.4 520.7 522.2 523.7 525.5 526.1 526 525.5 525.3 526 527.3 528.9 530.8 532.6 534.4 534.8 534.3 532.8 530.6 528.3 525.8 523.6 520.2 517.5 514.6 510.9 505.1 501.7 505 509 513.8 519 521.7 523.7 524.3 523.8 522.3 519.1 514.3 509.3 505.1 502.6 500.5 498.8 497.2 495.4 493.3 491.1 488.6 485.7 481 475.5 468.6 461.7 459 457.9 458.1 457.7 458.4 459.2 459.2 458.4 459.2 459.3 457.4 455.9 457.3 458 459 458.3 459.5 459.9 460.6 461.4 461.5 464.3 469.6 475.4 478.2 480 479.5 473.4 467.6 462.6 457.4 450.7 438.2 425.6 414.1 403.5 396.1 389.5 391 396.1 409.2 419.9 429.1 435.9 440.4 447.6 451.1 452.7 452.2 448.1 440.8 425.6 410.6 403.1 406.8 411 416.2 420.2 422.1 423 421.4 419.3 417.6 416.3 417.1 416.4 414.3 410.8 411 413.3 413.1 410.8 407.5 402.3 394 381.9 369 356 346.2 344.1 344.9 360.6 371.9 381.5 386.1 388.7 386 383 379.4 377.6 383.5 390.6 398.2 405.2 411.3 417.7 424.3 429.4 431.6 432.1 430.3 425 418.7 413.5 409.4 406.1 402.6 395.6 388.9 404.3 414.3 421.5 426.3 429 431.5 432.1 429.5 425 417.3 405.9 394.9
594.4 591.2 587.3 583 579.3 575 571.3 568.2 565.6 562.7 558 553.5 548.6 535.5 524.5 514.1 516.1 520.3 521 521.1 520.9 520.6 520.2 518.5 515.2 513.4 518.6 521.4 523.6 525.4 526.2 526.2 525.9 525.6 525.9 526.6 527.9 530 532.1 534.3 535.8 535.7 534.9 532.4 529.3 526.5 523.7 520.1 516.9 513.6 509.8 506.3 504.4 506.8 510.1 514.3 518.7 521.6 523.1 523.4 522.7 520.2 516.2 510.9 505.6 502 498.6 495.4 492.9 491.7 490.1 488.9 487.1 485.1 482.1 478 472.7 466.6 460.6 458.1 457.2 456.9 457.4 459.2 460.5 461.8 462.1 462.9 462.6 460.8 460.6 460.9 461.9 462.7 463.1 463.4 465.4 466.6 466.7 467.5 469.2 473 477.2 480.6 481.8 482.4 479.5 474.9 469.5 463.3 453.4 441.7 427.5 416.3 405.2 398.3 391.4 391.5 400.1 410.6 422 431.7 438.4 445.1 450.9 455.6 457.1 455.4 451.9 444.2 433.7 418.3 407.8 410.1 414.6 419.7 423.5 425.4 425.6 424.6 422.3 422.4 421.3 422.2 421.6 419.2 416.6 415 415 413.6 410.7 406.7 398.9 389.2 377.6 364.8 353.9 346.5 347 356.5 370.9 380.2 387.9 391.7 392 387.8 385.6 383 379.9 385.6 390.1 396.9 405.2 412.4 420.7 428 432.7 435.5 436.2 434.3 431 424.7 418.8 414.4 411.7 407.9 400.2 391.1 405 415.2 422.5 427.3 430.6 432.9 434 432.5 427.9 421.1 411.4 400.3
590.4 587.9 585.1 580.3 576.2 572.5 568.8 565.4 563.3 560.5 557.9 554.2 550.9 544.1 529.5 517.5 512.5 515 516.4 517.5 518.3 518 518.1 516.8 514 511.7 517.4 520.3 523.6 525.6 526.4 525.9 525.2 524.8 524.7 525.3 526.9 529.1 531.8 535.1 536.6 537.3 537.1 535.1 530.6 527.8 524 520.8 517.5 514.1 510 507.1 505.6 508.4 511 515.5 519.4 521.6 522.2 522.8 521.7 518.1 513.9 509.3 503.4 497.9 493.5 489.8 487.1 486.7 484.9 484.1 482.7 481.1 478.2 474.1 469.5 464.5 459.1 456.2 455.4 455.5 456.9 458.9 461 462.8 464.4 465.3 464.9 463.3 463.6 464.3 465.5 467.2 467.8 469.1 470.7 471.3 471.7 471.3 472.8 474.8 479.5 482.6 483.9 484.7 483.9 481.1 476.1 469.6 459.1 445.2 428.3 414.8 405.2 397.5 390.9 394.1 401 413.1 423.4 434.6 440.9 447.6 453.8 458.6 461.3 460 456.5 449.3 441.3 427.6 414.7 411.5 417.1 422.2 425.7 427.1 428 427.5 426.5 426.4 425.2 427.1 427.3 425.6 422 418.7 417 414.7 410.5 403.6 392.5 380.6 370.5 360.3 357 351.5 353.8 366.5 377 385.7 392.2 394.6 393.4 390 387.9 386.3 384.6 387.2 390.2 398.8 406.6 414.9 423 430.5 436.6 439.5 440.1 438.6 435.4 430.4 424.6 420.2 416.3 412.3 406.1 391 403.6 415.2 422.3 427.2 431.1 433.6 435.4 434.5 430.6 424.8 416.6 406.5
588.2 585.3 582 578 573 569.4 565.9 562.5 560 558.5 556.5 553.4 550.6 546.6 538.7 523.3 513.2 510.2 511.9 514.5 515.2 516.3 516.2 515.4 510.7 511.5 516.3 521 524.6 525.8 526.4 525.9 524.8 523.6 523.2 523.5 525.7 528.2 531.5 534.5 537.1 538.3 538.1 537.2 533.1 528.6 525.1 521.5 517.8 514.2 509.9 507.5 507.1 509.1 511.6 516.4 520 522 522.8 522.6 520.7 517 512.9 507.5 499.9 493.5 487 483.8 481.3 479.3 478.4 478.6 477.9 475.9 473.8 470.4 465.3 461.3 456.5 453 453.3 454.2 455.6 457.3 460.2 462.7 465.6 466.9 466.9 467 466.8 468.1 469.9 471.7 473 474.8 476 476.7 476.9 476.2 476.9 479.6 481.7 483.6 485.3 486.9 486.9 484.9 481.4 473.5 461.2 443.3 425.9 417.3 408 398.9 391.8 394.2 402.6 414.8 424.5 435.6 443.2 450.5 458 462.5 465.4 464.3 460.7 455.7 447.7 437.4 424.5 415.1 418.8 424.6 427.7 429 430.3 430.9 430.4 429.8 429.9 431.8 431.7 429.8 426.1 423.5 421.2 417 411.6 402.5 387.7 377.2 369.4 364.3 363.8 356.7 359.4 371.6 381.2 389.8 395.1 396.7 394.8 392.1 389.6 388.6 389.4 390.3 392.2 399.8 407.5 416.1 423.7 432.2 439.2 442.9 443.5 442 439.1 434.3 429.1 424.5 420.1 415.4 409.4 392.7 403.1 415 421.9 426.3 430.5 434.9 436.9 436.4 433.9 429 422.8 414.1
584.7 580.7 577.6 574.3 569.8 565.8 562.3 559.3 557.8 556.2 555.5 553 550.3 546.9 541.8 531.9 518.2 511.6 509.1 511.5 513.2 514.2 514.2 513.4 509.5 510.1 515.8 522 524.9 526.1 525.9 525.7 524.2 522.6 520.1 521.5 524 527.3 531 534.4 536.9 538.1 538.4 537.9 534 529.5 525.4 521.5 516.5 512.4 510.3 508.5 509.1 510.7 512.5 517.4 520.7 522.9 522.9 522.4 520.1 517.6 513 506.7 498.5 484.7 477.5 474.3 474 472.1 471.5 472.4 472.7 470.9 468.7 463.6 459.3 455.2 451 447.8 449.5 452.2 453.9 455.9 458.7 462.8 465.7 468.5 471.1 472.1 472.3 472.3 474.1 475.9 478.4 480.3 482.5 482.6 482.8 481.7 481.7 483.1 484 485.7 487.3 489.2 489.1 487.5 484 477.5 461.5 445.7 433.3 423.7 412.7 400.2 393.8 393.9 404.2 415.2 426.3 436.3 445 452.4 459.8 467 469.9 469.5 466.2 463 453.8 443.4 434.8 425.1 422.5 426.3 430.2 431.7 432.8 433.7 433.9 433.8 435.1 435.9 435.3 432.9 428.9 426.7 423.7 417.6 410.1 402 387.9 378.8 372.9 370.2 367.1 357.6 365.3 374.4 383 391.3 396.2 398 397.1 393.7 392.9 391.7 393.9 394.7 396.3 399.9 407 415.7 424.7 433.6 440.5 444.5 445.5 444.4 441.7 437.3 432.9 427.3 423.4 417.9 410.8 395.4 403.5 413.6 421.3 426.5 430.3 435.5 438.4 439 437.3 434 428.8 421.3
580.7 577.9 573.6 570 566.3 561.8 558 555.4 554.2 553.6 552.6 550.9 547.9 546.2 541.9 535.4 523.9 513.4 509.1 507.2 511.2 511.6 510.8 510.6 507.8 509.4 516.6 521.6 524 524.9 524.9 524.5 523.5 521.1 518.1 518.7 522.1 526.3 529.3 532.8 535.5 537.9 538 537.5 535.1 529.9 524.6 520.6 515 512.2 511.1 509.8 509.6 511 513.9 517.7 521.1 523.1 523.1 522.6 521.2 517.7 512.6 506.1 497.9 483.7 471.6 467.7 464.7 463.6 464.4 467.1 467.6 466.2 462.4 456.8 453.4 447 439.8 440.6 445.3 448.9 451.6 454.6 458.1 462 466.1 470.5 473.2 475.1 476.1 476 477.8 480.2 482.9 485.1 487.5 488.7 488.5 487.3 485.8 485.7 487.3 489 490.1 490.7 490.9 489.2 485.9 478.9 468.7 456.3 443.8 431.4 418.1 404.7 397.5 392.6 404.4 417.1 428 437.2 445.2 453.7 461.4 468.6 475.3 475.5 473 467.7 462.4 450.3 441.3 435.1 430.3 429.9 433.1 434.4 436 437.2 437.7 439.5 439.6 439.2 438.9 435.8 432.7 429.7 425.8 419.2 412.5 402.6 391.6 383.2 378.1 375.7 368.1 360.6 367.1 376.2 383.5 390.2 397.1 401.1 401.1 400.2 400.4 400.2 400.7 401.8 403.1 403.5 407.8 414.5 423.9 433.4 441.1 445.7 446.9 445.7 443.3 439.9 435.6 430.6 426.2 420.6 412.5 398.5 404.7 413.4 421 426.3 430.3 437 440 441.4 441 438.9 434.6 428
578 574.2 569.8 565.5 561.9 557.8 553.9 551.5 550.3 549.9 549.8 548.8 547 544.5 540.9 535.7 527 516.2 509.7 505.6 508.9 507.4 507.4 509.4 508.7 508 513.9 519.8 521.9 523.1 523.4 523.2 522.3 519.7 515.9 515.6 519.3 524 527.9 530.8 533.1 536 537 536.6 534.9 530.6 524.4 519.4 515.4 512.4 511.4 510.2 510.5 511.5 514.6 518.4 521.3 523 523.3 522.8 520.7 517.4 512.3 504.9 496.8 483.6 467.8 460.3 458.8 456.1 458.5 461.1 462.7 461.7 457 452 444.1 433.8 430.3 434 441 447.3 451.1 453.6 458.2 463.1 467.9 472.2 475.4 477.6 479 479.1 481.9 484.3 487.2 490.3 492.1 493.2 492.7 490.3 489.7 488.2 490.1 492 492.8 493 492.2 491.9 486.8 482.7 473.6 463.9 450.6 437.9 424 410 399.6 394.1 404.4 419.4 429.6 439 448.1 455.6 463.7 472.2 479.6 479.9 477.4 472.2 466 455.9 445.7 439 434.7 433.2 435 436.6 439.3 440.4 442.8 443.4 443.4 443.4 441.8 439 435.1 431.9 429.1 422.6 415.5 406.6 396.9 387.4 382.6 376.7 366.6 364.1 368.3 375.9 386.3 394.6 401.1 406.6 409 410.5 411.2 410.1 410.2 411 410.7 411.3 411.6 415 423.5 433 441.1 445.7 447.7 447 444.2 441.3 438 433.4 428.4 423.3 415.6 401 407.3 415.5 421.2 426.9 431.6 438.1 441.6 444.3 445.4 444.4 441 435.8
573.6 570.5 567.5 562.9 557 551.1 549 548 546.4 547.3 547.2 545.8 544.3 542.7 539.8 534.3 526.8 516.3 510.1 504.8 505.5 505.7 507.5 510.2 507.4 506.1 513.4 518.9 520.8 521 521.8 521.5 520.3 517.9 512.9 511.6 516.8 520.3 524.5 527.8 530.3 533.2 535 535 533.6 530.2 524.2 519.1 515.6 513.3 511.8 511.4 511.8 513.8 516 518.8 521.1 522.8 523.2 522.2 520.3 516.7 510.6 504.8 494.3 481.1 463.2 454.5 453.6 452 452.5 454.2 457.3 456.1 451.8 446.1 435 425.9 427.5 435 442.4 446.5 449.7 453.1 458.6 463.6 468.9 473.4 476.8 479.8 481.9 483.6 485.7 488.6 491.5 494.5 496.2 496.8 496 493.5 492.8 491.8 494 495.8 496 495.2 494 491.9 488.2 483.3 476.3 468 454.7 445.1 431.4 416.4 401.9 395.1 404.7 421.2 432.8 440.9 448.9 458.3 467.2 476.4 483.8 483.4 480.7 475.1 469.4 458.7 451 443.6 438.8 436.3 438.3 439.7 442.4 444.5 446.1 446.5 446.5 445.8 444.3 441.7 439.2 436 431.6 426.1 418 409 397.7 389.2 381.6 372 366.4 364.5 369.1 379.3 389.7 398.5 406.8 414.3 420.4 422.9 423.3 420.8 419 418.6 419.1 418.6 416.7 417.6 422.7 431.8 439.9 445.4 447.6 447.5 445.1 442.6 439.5 435.4 429.6 425.1 416.9 404.4 411.6 417.8 423.5 428.7 432.7 439.6 444 448.3 450.6 451.4 449.1 444
568.8 565.7 563.4 559.3 554.2 547.1 544.4 544.3 543.4 544.5 544.4 543.3 542 539.3 537.7 533.1 527.8 519 510.6 507.2 504.3 504.4 507.3 508 505.8 503.8 513.6 518.2 519.3 519.3 518.8 518.9 517.4 513.9 509.6 507.5 512 516.3 519.7 523.7 526.6 529.8 531.8 532.8 531.6 529.3 523.9 519.7 516.7 514.7 513.3 513.3 513.4 514.6 515.5 518.3 520.9 522 522 521.4 519.2 515.6 509.4 502.3 483.4 471 456.2 450.7 448.8 447.6 445.5 443.1 448.8 448.2 446 440.1 425.5 422.2 430 438.3 441.7 444.6 447.8 452.5 458.2 463.9 469.6 474.4 478.3 482.2 485.1 487 488.6 491.8 495.4 497.9 499.7 499.5 498.5 496.8 496 497.4 498.7 500.1 499.6 497.4 494.8 491.8 487.5 482.9 477.2 468.6 458.3 446.5 432 416.7 403.3 397.5 405.3 423.1 433.4 441.9 450.7 460.3 469.9 478.7 485.1 486.4 483.9 478 471.9 463.1 455 448.3 443.4 441.2 441.8 443.6 445.4 447.8 449.2 450 449 448.2 447.1 444.3 441.2 437.4 432.9 427.3 419.3 410.9 400.6 389.2 382.7 375.6 369.7 365.6 370.1 381.4 391.5 400 412.8 424 430.6 433.3 433 428.8 426.3 427.1 427.8 427.2 424.7 421.2 423.9 429.5 438.6 445 447.4 447.7 445.6 443.6 440.8 437.2 431.3 426.4 417.7 407.7 415.7 420.9 425.8 430.3 434.8 440.8 447.3 453.2 456.6 458.1 456 453.1
564.2 562.3 559.1 554.9 550.3 543.1 542 541.6 541.3 542.2 541.9 541.3 539.8 538.1 535.8 531.7 527.5 521.1 511 507.4 503.1 503.2 505.8 505.8 502.1 507.1 514.3 518.1 516.2 515.1 514.9 515.7 514.3 510.6 504.6 503.6 508 511.6 515.5 518 522.7 526.2 528.7 529.8 529 527.6 523.5 520.2 518.1 516 514.4 514.6 514.8 515.2 516.3 518.1 520.1 521.1 521.2 520.6 518.1 514 507.9 497.3 477.1 464.4 455.3 448.5 444.2 441.7 438.6 436.6 438.3 439.9 438.6 431.7 419 420.6 431.5 434.7 438.4 441.9 446.6 451.3 457.3 463.9 470 475.7 480.7 486.1 489.6 491.5 492.4 495.7 498.4 500.8 502.3 502.2 500.6 499.9 499.5 501.4 502.2 502.3 500.9 497.7 495.1 491.7 486.4 480.9 474.9 467.3 459 445.6 430.6 413.4 405.6 399.3 408.3 423.8 433.9 443.7 452.8 462 471.6 480.2 486.6 488.6 487.2 481.9 476.2 467.6 460.9 455.3 450.3 448.3 447.2 448.1 449.2 450.7 452.4 452.2 451.6 450.4 448.8 445.9 442.5 438.2 433.3 426.6 418.3 409.6 401 392.7 383.7 376.2 370.7 367.3 374.9 385 395.8 405.8 419.5 431.1 437.8 441 440.5 436.3 433.5 435.2 435.9 434.9 431.3 426.1 424.4 429.1 435.2 443.1 446.5 447.3 445.9 444.2 441.2 436.8 431.9 426.4 417 412.1 418.8 423.5 427.9 433.3 437.1 442.9 450.9 457.5 463.4 465.7 465.2 462.1
560.7 558.3 555.4 551.7 546.7 542 540.8 540.1 539.4 539.3 539.7 538.4 537.3 536.1 534.2 531.7 528.1 522.5 515.2 507.9 504.4 502.4 502 501.7 503.5 507.2 513.3 514.8 513.3 511.7 511 511.1 510.4 507.2 501.5 500.2 502.8 508.3 511.4 513.7 517.4 522.3 525 526.4 526.9 525.3 522.4 521 519.4 517.8 516.9 516.9 515.8 516.4 517 518 519.1 520 520.1 519.7 517.9 513.7 507.4 491.9 477.6 466.1 457.9 448.9 441.3 439.2 438.5 432.8 429.2 432.6 429.7 420.2 416.6 417.9 424.8 429.1 434.2 440.7 445.9 451.4 457.1 464.8 472 478.3 484.6 489.8 493.2 495.9 497.3 499 501 502.8 504 504 503.5 502.7 502.9 503.7 504 502.8 500.7 497.8 493.9 488.7 482.4 476.3 471 464.4 456.7 446.2 429.9 414.7 406.1 401.6 412.1 425.6 435 444.8 453.5 463.1 473.5 482.2 487.7 490.9 490.1 486 479.3 472.4 466 461.5 458.1 456.5 455.8 454.8 454 455 455.8 455.7 453.8 452.7 450 447.2 443.7 437.9 432.3 425.3 416.9 408.4 398.8 390.4 382.9 378.1 373.4 370.6 377.5 388.5 400.4 411.3 426 436.2 443.7 446.8 446.7 442.4 442.2 443 443.2 443.2 439.7 432.9 428.8 431.7 435.5 441.1 445.2 446.7 446.1 444.6 441 436.9 432.7 425.9 418.1 417.2 422 426 430.3 435.5 440.1 446.6 454.3 461.2 467.8 473.3 472.1 468.6
556.5 553.7 551.3 548.3 542.6 539.1 539.1 539.1 536.3 538 537 536.2 535.5 534 532.4 529.2 527.1 522.8 517.1 508.7 506.3 503 501.6 501.1 503 505.3 509.4 511.4 509.9 507.2 505.5 505.3 502.8 501.4 497.7 498.1 500.4 505.1 508.4 510.5 513.7 517.4 520.6 523.1 524 524 522.3 521 520 519 518.4 518 517.9 517.6 517.7 518.1 518.1 519.3 519.5 519.4 518.3 513.7 507.8 499.6 489.6 481.4 467.8 456.8 443.9 434.8 432.6 429.7 424.8 422.2 419.1 416.2 414.4 415.1 418.9 425 433.4 439.4 445.8 451.9 459.3 466.6 474.2 481 487.6 492.3 496 499.1 500.9 501.9 503.2 504.4 505.1 505.1 504.6 503.8 503.2 503.8 503.4 502 499.6 495.9 490.7 483.9 477 471.2 465.6 460.5 453.4 444.1 430.6 416.3 407.2 403.9 415.3 426.9 435.9 445.3 453.8 463.1 473.5 483.3 489.1 492.4 492.1 488.9 484.2 478.2 473.4 469.6 466.3 465.7 464.7 462.4 460 459.5 459.1 457.6 456 454.1 451.1 447 444.2 438.8 431.6 424.6 416.9 408.8 400.2 392.6 385.5 380.5 373.4 372.8 381.1 392.4 406.2 418.8 431.2 441.4 448.5 451 451 447.4 449.4 450 451.6 451.8 448.1 442.2 435.6 436 437.7 440.6 443.6 445.8 445.7 444.1 440.8 437.1 434.8 429.1 418.2 418.8 424.9 429 433.1 438.5 443.2 449.7 457 465.4 473.4 477.9 477.9 474.4
552.1 547.5 545 542.9 540.4 538.9 536.9 536.5 535 535.7 535.3 533.2 532.9 531.3 529.1 527.1 524.7 521.1 516.2 509.1 504.4 504.5 501.2 500.4 500.2 503.2 504.7 505.8 504.7 501.8 500.1 499.6 498.8 497.6 496 495.6 497.9 501.5 504.6 506.9 510.1 512.1 516.8 519.9 522.1 522.1 521.3 520.3 519.5 518.9 518.4 518.2 518 517.6 517.2 516.7 517 518.6 519.6 519.8 518.9 516.2 510.9 506.8 501.5 493.6 476.9 459.3 448.4 441.2 431.4 423.5 420.7 417.6 415.8 414.3 412.5 414.7 417.4 423.9 432.2 439 445.4 451.9 460.6 468.6 475.8 483 489.3 494.1 498.4 501.5 503.3 503.7 504.3 504.7 504.9 504.6 503.4 502.4 501.6 501.2 500.7 499.3 496.9 492.8 487.1 478.7 472.8 467.6 462.8 456.4 450.4 444.2 430.9 416.4 406.5 408.2 418.8 427.6 436.4 445.2 453 461.9 472.4 482.9 489.8 493.7 494.6 492.2 488.6 483.6 480.7 477.5 474.3 472.9 471.4 469.4 466.3 464.3 462.5 460.6 457.9 454.4 452.4 449.5 445.4 439.4 433.4 426.2 418 410.2 401.7 394.2 386.9 381.2 372.8 377.9 387.5 399 410.9 422.9 434.1 443.5 450.4 453.5 454.4 454.5 455.7 457.2 459.3 460.1 457.3 452.2 446.8 443.6 441.9 441.9 443.7 445.6 445.2 444 440.8 439.5 437.5 433.2 423.1 421.1 427.5 431.2 436 440.9 445.8 453 460.3 468.2 476.2 480.9 482.6 478.6
546.6 543.8 542 539.9 538.5 538 536.9 536 533.8 535.1 533.8 532.1 529.5 528.1 526.2 524.2 521.9 518.8 513.3 509.3 506 502.2 501.1 500.2 500 499.3 499.5 501.1 500.1 498.7 498.1 497.2 496.4 495.7 494.5 494.4 495.5 497.8 501 503.4 506.7 510.1 515.2 518.4 520 520.4 519.6 519.1 519.1 518.9 518.3 517.7 517.1 516.9 516.1 515.5 515.4 518.1 519.9 520.1 519.5 517.1 514.3 512.7 508.5 501.2 488.6 468 453.5 444.9 434.2 427.8 422.7 421.4 419.1 415 412.6 412.9 415.6 421.5 431.6 438.1 445.1 452.8 462 469.7 477.3 483.3 489.5 495 499.4 502.5 504.2 504.3 504 504.1 503.4 502.3 500.5 498.6 496.8 496.8 496.5 495.1 492 488.1 481.8 474.9 469 465 460.2 455.8 450.8 444.5 431.6 419 407.7 412.2 422.6 429 437.3 445 452.8 460.7 470.1 481.8 489.3 494.2 496.4 494.8 492.4 488.9 485.6 483.3 480 478.4 477.4 475.5 471.5 468.8 465.7 462.3 459.5 457.1 454.4 451.4 446.7 442.3 434.7 427.5 418.1 409.9 401.8 392.2 386 382.5 375.7 381 390.8 401.8 414.3 423.9 435.4 444.4 450.9 455 456.1 458.9 461.2 463.3 466.3 467.4 466.2 461.9 456.5 451.8 447.3 444.8 445.2 446.3 445.8 444.2 441.5 441.9 440.6 436.8 430.8 423.9 430.1 434 438.7 443.3 448.2 456 464.2 470.4 479.4 484.9 486 481.3
547.2 543.2 541.4 540.7 538.1 537 535.5 533.7 532.5 532.5 531.9 529.6 528.1 524.5 521.4 520.4 518.4 516.3 516 513.4 509.5 504 503.1 501.1 500.8 499.6 498.8 497.8 498 497 496 494.6 493 492.2 491.7 492.5 493.5 494.9 497.8 501.1 505.4 509 514.2 517.1 518.8 518.8 518.6 518.2 518.3 518.2 517.9 516.6 515.4 514.9 513.6 513.6 514.1 516.4 518.8 519.8 520.2 519.3 518.1 516.9 513.9 508 497.1 476.9 461.1 449.9 438.9 432.5 429.2 423.8 420 419.3 412.3 411.3 413 419.4 428.8 436.9 444.6 453.6 462.3 469.8 477.8 483.4 489 494.8 499.2 501.8 503.1 503.6 502.3 502 500.8 498.5 496.5 491.8 489.9 490.6 490.4 489.5 486.6 482.2 476.6 471 465.3 461.7 458.5 455.1 451.1 445.8 433.3 423.3 412.6 415.7 423.6 431.9 438.8 444.5 452.3 460 468.2 479.7 488 494.8 497.3 497.3 494.9 491.7 487.8 485.8 483.8 482.4 480.7 479.1 475.8 472.6 468.6 466.1 462.2 459.5 456.2 453.3 449 443.4 436.2 426.9 416.6 408.1 398.3 390.7 386.7 382 379.2 386.5 394.2 404.5 414.2 424.6 435.5 444 450.8 455.9 459.5 462.7 465.7 468.4 471.7 473.5 473.4 470.2 465.7 460 453.4 448.5 447.9 447.8 447.3 445.1 444.1 444.3 443.3 440.2 435.5 427.5 433.2 436.9 441.3 446.6 451.3 459 465.6 472.3 480.5 486.2 486.8 482.7
551.2 547.3 544 541.5 540 538.8 538.1 536.1 536.1 534.8 534.2 533.4 532.7 530.7 527.7 527.1 526 524.7 523.4 519.8 513.7 506.8 505.6 503.2 502.1 502.8 502.3 503.4 492.3 494.6 493.8 492.9 492.3 491.5 491 491 491.3 492.6 496.5 499.7 503.2 508.6 512.4 515.7 516.3 516.9 517.6 517.3 517.4 517.5 517 516.3 514.8 513.1 511.6 512.2 512.8 513.7 517.4 519 520.1 520.3 520.3 519.4 517 512.4 505.1 489.6 470.5 456 443.2 437 430.1 427.7 422.5 415.7 412.3 409 410.5 413.8 424.5 436.3 445.1 453.4 461.8 469.6 476.6 482.5 488.2 494.3 498.1 500.7 501.8 501.6 499.9 498.4 496.6 494.3 490.5 484.6 482.4 482.3 483.2 482.8 480.6 478 472.2 466.3 461.4 458.1 456 453 450.6 447.3 438.1 428.3 418 419.3 425.1 433.1 439.6 444.9 451.5 458.9 466.3 477.3 486.6 493.4 495.8 495.8 494.1 491.4 488.6 486.6 484.9 483.7 482.5 480.8 478.9 475 472.5 469.8 465.6 461.7 459.1 455.1 450.2 443.9 435 424.3 412.1 404.4 397.3 391 387.9 381.8 384.1 389.3 397.1 405.6 414.1 424.9 435.2 442.3 451.1 456 461.2 464.9 468.2 471.8 475.7 477.5 477.8 475.9 472.4 465.1 459.7 453.7 450.6 450.5 449 447.4 447.3 446.5 445.7 443.3 438.3 432.3 436.2 439.7 444.3 448.6 454 461.1 467.2 474 480.7 485.9 486 481.7
553.1 550.4 547.3 543.9 542.3 540.8 539.5 538.5 537.9 537.5 536.9 536.2 535.5 534.8 534.2 534.3 533.5 532.1 528.8 525.1 520.7 513.6 507.3 506.6 506.6 506.1 505.6 503.1 496.6 492.2 492.2 492.1 491.5 491.1 490.7 490.3 490 490.4 494.9 498.2 501.5 506.9 511.3 514 515.3 515.3 515.9 516.5 516.7 516.2 516.1 515.8 515.2 513.3 511 509.4 510.4 510.2 513.6 516.6 518.3 519.6 519.9 519.7 517.9 514.8 509.3 500.4 484.1 466 452.8 441.8 434.2 431.3 419.1 416 413.4 409.6 409.2 412.2 423.4 436.4 445.3 453.4 460.6 468.6 475 481.4 487.3 492.9 496.6 498.9 499.7 498.6 496.8 494.1 491.1 488.2 483.4 477.5 475 475.4 475.6 475.5 475.3 473.6 468.7 462.1 457.5 454.8 453.4 451.2 448.8 446.5 444 434.3 425.1 420.6 428 434.1 439.1 444.2 450.4 457.7 464.7 473.7 484.5 490.5 491.8 491.6 490.6 489.2 487.6 486.1 484.8 484.2 483.3 481.8 480 478.2 475.5 472.5 468.6 465.3 462.1 457.2 451.7 443.2 431.3 417.9 408.8 403.7 396.5 391.4 386.2 385.2 389.4 394.6 400.1 409 417.5 426.7 435.2 444.6 451.3 456.8 460.9 465.1 468.9 473.6 477.8 480.5 481.8 480.5 478.2 472.9 465.2 460.3 456.7 453.6 451.5 450.2 449.6 449.7 448.5 444.6 441.6 439.2 439 442.7 446.7 450.5 455.8 461.9 468.1 474.7 481.2 486.1 484.4 479.3
554.3 551.6 549.7 546.6 543.9 541.9 540.2 539.2 538.6 538.2 538 538.1 537.7 537.5 537.8 537.7 536.6 535.5 533.5 530.8 526.4 521 516 511.4 508.5 508.4 506.6 502.7 499.3 494.7 491 491.7 491 490.6 490.4 488.9 489.1 489.5 492.4 496.3 500 505.4 509.6 512.8 514.3 514.3 514.7 515.5 515.8 515.3 515 515.3 514.7 514.4 511.1 508.6 508 507.6 508.7 513 515.4 517.2 518.2 518.1 517.4 515.9 511.8 503.9 493.3 478 460.7 448.1 438.3 431.6 424.5 416.4 412.2 409.2 408.2 411.5 422.7 434.7 443.4 452 459.8 467.1 473.2 479.1 485.7 490.6 494.4 496.9 496.9 495.6 493 487.7 484.3 480.7 475.9 470 467.7 467.9 469 470.4 471.1 469.4 465.6 459.2 454.6 451.4 449.9 448.1 446.8 445 442.9 438.6 431 423.2 430 434.5 439.5 444.4 449.6 456.5 462 468.5 479.2 484.3 486.7 487.4 487.3 486.6 484.8 484.6 483.6 483.6 483 482.2 480.6 479.2 476.7 474 471.6 468.8 465.1 459.9 452.3 442.4 424 416.8 408.3 403.3 396.3 390.8 388 390.6 398.6 403.2 409.1 416.3 423.4 431.5 439.3 445.8 448.8 456.1 459.8 463.7 468.1 472.9 478.3 482.1 484.3 484.1 482.4 478.2 472.5 466.1 461 457.6 454.2 453.1 452.8 452.4 451.4 448.9 446.8 444.4 443.1 445.1 448.6 453 457.6 463.2 469.5 475.8 481.2 485.1 482.3 476.8
554 552 550.3 548.4 545.6 544 542 540.1 539.4 539 539.1 539.2 539.6 539.7 539.6 539.5 538.7 537.6 535.4 532.6 530.1 526.3 521.5 516.5 512.7 509.9 508.4 505.2 502.7 499.7 494.9 490.2 490.5 490.4 490.3 489.1 488.2 488 489.6 494.4 499.8 505.4 509.6 511.1 512.8 514 514.4 514.7 514.5 514.6 514.1 514.9 514.5 513.3 510.5 507.5 505.8 505.5 506.5 510 512.3 513.5 514.3 514.9 515.6 515.6 512.3 505 496.7 486.4 473.2 456.9 445.2 434.8 428.3 419.9 411.2 405.9 407.7 410.7 421 432.6 441.2 450.5 457.4 464.5 470.3 476.6 482.4 487.8 492.1 493.9 493.8 491.4 487.4 481.6 476.2 472.1 468.2 462.4 460.3 461 463.6 465.1 466.9 466.2 462.4 457.4 453.4 450.1 447 445.1 443.6 443 441.2 437.1 427.5 426.7 431.1 435.9 440.4 444.2 449.3 453.4 459.2 465.3 472.2 478.3 481.2 483 483.9 483.1 482.3 481.5 481.4 481.7 481.6 481.2 480.2 478.8 477 474.8 473.2 470.7 466.8 461.9 453.6 441.3 428.5 417 409.3 402.9 396.9 392.3 395.8 400.3 407.2 413.2 417.4 422.9 428.9 435.3 440.9 445.3 449.9 453.8 456.5 461.2 465.7 471.2 477.3 482.5 485.9 486.5 484.9 481 476 469.1 464.5 460.2 457 456 455.3 454.7 453.7 452.5 450.5 447.5 445.8 446.5 450.2 454.3 459 464.7 470.7 476.1 480.6 482.9 479.3 474.8
552.4 550.5 549.2 548.4 546.8 545.2 543.5 542 540.1 540 539.8 539.6 539.5 540.1 540.6 541.1 540.4 538.9 537.1 533.9 531.3 528.4 523.9 520.3 516.4 512.1 509.6 507.9 505.5 503.6 497.1 497.4 498.8 497.1 497 492.9 489.4 487.7 486.9 492.7 502.6 506.6 510 511 511.9 512.5 513.2 513.6 513.1 513.2 514.2 514.7 514.5 512.8 509.6 507.1 504.1 504 503.6 505.9 507.6 509 510.2 511.1 511.7 511.8 510.2 505 497.3 488.5 476.9 465.8 452.8 440.6 428.9 413.8 411.5 406.4 407.7 411.8 421.5 431.2 440.5 449.1 455.1 461.6 467 472.5 478.2 484.6 488.9 490.8 490.5 486.9 481.7 475.7 469 464.3 458.5 454.8 453.8 455.3 458.3 460.5 462.5 461.9 460.8 458.5 454.1 450.3 446.7 443 440.2 438.5 437.5 432.6 429.4 431.1 434.4 437.6 440.4 444.2 448.6 452.7 457.4 462 467.9 472.7 475.5 478.3 479.4 478.7 478.1 477.8 478.8 479.3 479.1 479.1 478.4 477.7 476.3 474.7 473.4 471.2 467.6 461.9 454.9 439.7 427.9 421 412.7 405.1 399.8 397.3 403.7 409 413.9 419.8 424.1 429.1 433 436.3 439.9 443.2 446.3 449.5 452.4 457 462.4 467.9 474.2 481.1 485.6 487.7 486 482.3 477.4 471.5 465 460.2 457.2 456.4 456 455.6 454.9 453.9 452.3 450.1 448.6 449.8 451.6 455.8 460.3 465.8 471.2 475.9 479.9 480.7 477.6 472.6
551.5 549.2 548 547.1 545.9 544.7 543 541.7 540.6 539.9 539.4 539.3 539.3 540 540.6 541.3 540.9 539.6 537.7 535.2 533 529.8 526 522.5 517.9 513.8 511.4 508.7 506.5 504.3 499.8 500.9 499.9 498.4 497.1 490.9 489.6 488.4 487.3 489.3 496.6 504.5 507.2 509.6 510.1 510.2 512.1 512.7 511.7 512.1 512.9 514.5 514.8 514.1 511.9 508.1 505.6 503.4 499.7 500.2 501.5 503.7 505 506.2 507 506.9 505.7 501.6 495.1 486.5 477.4 467.5 457 443.1 431 413.9 409 404.4 409.4 412.5 421.5 431.6 440.3 447.6 453.2 458.1 463 468.8 474.2 480.7 485 486.6 485.2 481.1 475.6 468.6 462.5 455.8 450.5 444.3 447.4 450 453 455.7 457.4 458.2 457.7 457 454.5 450.6 447.2 442.5 439.8 437.8 435.3 432.6 433.5 435.5 438 439.6 442 444.7 448.5 452.4 456.1 460.2 464.7 469.2 472 473.8 475.1 474.7 473.9 474.1 474.7 475.7 476 476.1 476.2 475.6 474.7 474 472.6 470.9 468.4 464.5 457 447.4 433.8 427.6 418.8 411.7 407.5 403.5 410.3 415 420 424.7 428.3 431.9 433.9 435.5 436.3 439.2 441.9 444.5 447.5 452.3 457.9 464.5 471.1 478.2 484.2 487.5 486.7 483 477.7 471 462.8 457.9 455.5 455.6 455.5 455.6 455.4 454.5 453.5 452.2 451.2 451.9 453.2 457.1 461.2 466.1 471.2 476.2 479.5 479.6 476.3 471.5
549.5 546.9 545.6 544.8 543.9 542.9 541.6 539.6 538.8 538.5 538.3 538.8 539 539.1 539.8 540.7 541.2 540.3 538.5 536.4 533.7 531.6 528.2 524.1 519.8 514.7 512 509.7 508.3 505.3 504 502.6 501.4 499.3 493.5 490.8 493.3 490.7 488.6 485.7 489.7 497.1 503.8 507.1 507.9 509.6 511 511.6 511.2 510.4 512.1 514.2 515.2 515.2 513.9 511 507.4 503.5 499.1 492.9 494.5 496.1 497.3 499.8 501.1 501.1 499.4 495.2 490.2 483.6 474.5 466 455 443 432 410.7 402.6 406 411.3 412.3 423.7 432.9 438.4 444.8 449.7 454.8 459.3 464.7 470 476.1 480.6 481.8 479.6 475.2 468.5 462.2 456.2 446.2 442.1 439.3 441.5 445.2 447.8 450.7 452.2 453.6 454 453.6 452.7 449.9 446.9 443 439 437.4 435.8 435.7 437.5 439.8 441.6 443.2 444.7 446.6 448.9 451.9 454.9 458.4 462.5 466 468.4 470.2 471 470.7 469.8 470.5 471 471.6 472.1 472.2 472.8 472.9 473.2 473.2 473 471.9 469.9 466.7 459.4 450.8 440.9 432 424.1 417.9 413.6 412.4 414.7 421.2 425.3 429.3 431.5 433 432.4 432 431.4 433.4 436.5 440.1 444.1 447.9 454.3 460.9 467.6 476.5 483.7 487.5 486.2 482.9 477 468 458.6 454.2 453.2 453.2 454.2 454.4 454.8 454.7 454.2 452.7 452.3 452.9 453.9 457.6 461.6 466.5 471.6 476.3 479.6 479.1 475.7 469.6
548.4 545.7 542.6 540.5 537.9 537.5 536.5 536.8 537 536.7 537.2 537.7 538 538 538.9 539.8 540.8 541.1 539.3 537.2 534.9 532.4 530.1 526.4 522.3 517.7 513.6 510.2 508.6 505.7 504.9 502.9 499.7 494.7 494.2 495 498.2 498.6 497.3 498.6 487.4 492 499.5 503 504.8 506.5 509.3 510.3 510.1 508.8 511.2 513.4 514.7 515.5 514.8 512 507.6 503.5 498.6 489.8 480.8 488.2 490.7 493.3 493.8 493.8 492.2 489 484.5 478.3 469.9 460.7 450 438.9 428.2 407.5 400.9 404.4 408.1 414.3 424.8 431.4 437.1 442.2 445.9 450.4 455.5 460.5 465.8 471.5 475.4 475.9 473.8 469.6 462.3 456.5 450.2 438 430.9 432.7 435.8 439.3 443 445.6 447.2 448.5 449.3 450.2 449.8 448.4 444.8 441.7 439 437.3 438.2 439.3 440.5 442.8 444.3 445.9 445.9 447.6 450.3 452.2 454 456.6 459.5 463.3 465.9 466.6 466.9 466.7 465.9 465.9 466.2 466.9 468 468.8 469.7 470.6 472.1 473.8 474.1 473.6 471.7 468 461.8 454.2 445.5 436.7 429.7 423.7 420.2 416.9 419.3 425.4 430.8 433.3 433.6 432.1 430.7 426.8 426.8 428.6 432 435.9 438.6 444.7 450.9 457.4 465.5 477 484 488.1 486.4 482.1 473.2 463.9 455 450.4 449.6 450.9 452.1 452.3 453.9 454.3 453.8 452.6 451.8 451.9 453.6 457.1 461.3 466.6 471.9 476.6 479.4 478.5 475.6 469
549.2 545.8 543.2 539.2 536 535.6 535.3 535 535.2 535.6 535.7 536.3 537.1 537 537.9 539 539.8 541.3 538.6 536.9 534.5 531.8 529.7 527 523.1 519.6 514.3 510.5 507.3 506.2 504.1 500.7 496 499 503.6 504.2 505.6 506.4 501.7 500.8 497.3 486.3 492 496.1 500.7 505.6 507.7 508.6 508.9 508 509.8 512.6 514.5 515 514.4 512.2 507.3 503.2 497.7 491.7 480.1 477.9 483.5 485.5 486.3 486.5 484.8 483 478.9 472.6 464.7 456.2 441.4 430.3 420.9 409.5 402.6 401.6 405 412.1 422.8 429.2 434 438 442.1 447.3 452 456.8 462.8 466.9 469.7 469.9 467.7 463.7 457.1 451.7 443.8 427.8 423.2 426.4 431.4 434 437 440.1 442 443.2 444.2 445.6 446.3 445.6 443.3 440.3 438.5 439 440.1 441.8 443.7 445.4 446.4 447.5 446.9 448.7 450.1 451.5 453 454.9 458.1 460.5 462.3 463.3 463.3 463.1 461.6 461.1 462.1 462.8 463.7 464.6 466.6 469.8 474.2 477.3 478.1 476.8 474.5 470.5 464.5 458.3 450.4 441.5 434.7 429 425.2 422.2 424.2 429 433.6 435 433.7 431.5 426.8 422 422.5 424.4 428.1 426 436 440.5 447.5 455.3 463.6 476.5 483.8 487.2 486.2 480.6 470.2 460.7 453.2 448 446 447.2 448.9 449.5 451.4 452.4 452 450.5 449.9 449.7 451.5 455.5 460.7 467.1 473.1 477.1 479.5 479.1 476.3 471.9
550.7 549.1 547.6 544.4 537.3 533 531.9 532.3 533.7 534.4 534.4 534.7 534.7 535.4 536.1 537 537.7 537.8 537 534.7 532.4 530 527.6 525.2 521.6 519.1 514.1 510.1 505 502.5 501.3 497.7 500.6 504.6 507.3 508 507.3 506 502.9 499.1 494.9 486.1 485.8 493.8 504.1 508.5 507.6 507.1 506.7 507.2 509.6 511.5 513.6 514.6 514 511.8 507.5 502.3 496.7 491 481.9 466.7 474.9 476.6 478.6 478.5 478.4 476.3 472.6 467.5 458.7 446.1 432.3 420.9 409.3 410 404.7 399.1 403.5 410.9 420.2 426.3 430.5 434.1 438.7 443.8 448.7 454 459 463.1 465.5 465.6 462.8 458.3 452.5 447.1 436.2 423.3 417.8 421.1 425.4 428.6 431.2 433.7 435.9 437.3 439.2 440.6 441.6 440.6 439.1 440.7 442.1 442.4 443 444.6 446.1 447.3 446.9 447.2 445.6 447.4 449 450.5 452 453.6 455.6 457.4 458.7 459.7 459.3 458.9 457 457.6 458.2 458.7 460 461.8 466.2 471.3 476.3 479.4 480.7 479.8 477.1 473.2 467.7 461.8 454.5 446.8 438.9 432.4 429.3 424.9 427.5 431.4 435.5 436.1 433.5 429.4 423.2 419.8 419 421 424.9 423.9 432.3 436.8 438.7 453 463.5 474.1 482 486 485.3 480.2 471 461.9 453.9 446.7 442.9 441.3 444.2 446.3 448.1 449.1 449.1 448.1 447 446 448.1 453.7 460.9 468.3 474.4 478.7 481.4 481.5 479.9 476.7
552.6 551.7 550.7 548.1 544.9 537.7 533.8 530.5 531.1 531.9 532.1 532.9 533.4 533 533 533.7 534.2 533.6 532.4 531.7 529.6 527.5 524.9 522.2 519.6 514.8 510.9 509.7 507.8 505.5 500.7 498.6 503.3 506.8 509.7 510 509.3 507.2 504.2 501.4 501.8 501.8 493.9 485.2 500.5 506 506.7 505.8 503.5 506.4 508.4 509.9 511.9 513.2 513 510.8 506.6 501.1 495.3 488.6 480 464.8 465.2 468 469.2 471.2 471.5 469.6 466.9 462 451.9 442.4 423 404 399.2 405.8 407.4 402.3 397.8 408.6 415.8 421.7 427.6 430.7 433.8 439.1 444.3 451.4 455.6 459.5 461.7 462 459.9 455 449.3 440.7 429.7 418.2 413.6 417.1 419.3 422.5 425.2 427.9 429.8 431.6 433.3 435.2 435.8 434.2 437.4 443.4 446.3 447 446.5 446.8 447.3 447.6 447.4 446.1 444.4 445.1 447.8 449.4 450.6 451.8 453.1 454.2 454.6 455.2 455.6 454.9 452.9 452.7 452.8 454.1 455.6 461.1 466.2 472.2 477.3 480.7 482.5 481.8 479.6 475.1 469.8 463.7 456.6 449.4 442.3 436.1 432.3 427.9 431.6 435.4 437 435.8 432.5 427.6 421 417.2 415.5 417 416.7 423.7 428.6 424.2 441.9 451.2 460.9 473 480.8 484.8 484.3 480.3 473.3 464 455.9 447.9 441.2 438.2 437.9 441.1 443.8 443.9 444.1 443.2 441.8 441.4 444.9 452.9 461 469.3 475.8 480.5 483.7 484.5 483.9 481.8
554.3 553.5 552.1 551.2 548.8 543.1 536.7 533.5 528.9 529.4 529.4 530.5 530.4 530.2 530 530.6 530.6 530.2 529.1 527.5 524.8 523.1 520.7 518 515.8 511.7 514.2 511.9 509 506 501.2 501.1 505.6 509 512.3 513.6 513.7 513.1 510.3 506.6 506.6 507.1 506.3 492.9 490.3 503 504.3 502.7 501.5 504.2 506.1 507.8 509.8 511 511.2 508.9 505 500.3 494.5 488 479.6 466.6 458 458.6 461.4 464 464.2 463 459.1 454.1 446.5 435.5 419 401.2 396 394.9 400.7 403.2 396.1 405.1 412 418.4 424.1 426.6 429.5 433.9 441.1 448.1 452.3 456.4 459.2 459.9 458.2 454.1 445.8 437.6 428.8 417.8 409.6 412.5 415.3 417.2 419.6 422.2 424.2 426.1 427.3 428.6 427.6 432.3 438.9 444.2 447.4 448.4 448.5 448.2 447.4 446.9 446.3 444.5 443.5 444.3 446.3 447.7 448.4 448.3 449.7 450 450.6 450.9 451.2 450.6 448.2 447.3 449.1 449.8 455 459.6 465.8 472.3 477.2 481.6 484.2 484.3 481.7 476.9 471.5 464.8 457.2 450.3 443.7 438.7 433.2 432.2 435.5 437.9 437.4 434.5 430.5 425.9 419.4 412.5 409.2 412.5 415.8 412.4 416.3 428.9 438 447.5 457.2 469.9 477.5 485.4 482.9 479.5 474 466.4 457.6 449.8 441.1 435.3 433 436.2 437.5 437.4 437.3 436.6 434.4 437.8 442.8 451.8 461.2 469.7 476.3 482.3 486.3 488.3 488.2 486.4
555.5 554.8 553.8 552.6 550.5 546.8 541.3 536.1 532.2 527.5 526.1 527.9 527.6 526.8 525.5 525.8 525.6 525 524.4 523.1 520.3 518.4 517.3 516.8 516 515.4 514.1 512 509.5 506.5 503.5 504 508 511.5 514.8 517.7 517.8 516.7 513 511.2 510.4 510.2 508.1 504.3 488.3 496.2 500.3 498.3 497.4 499.7 502.8 503.7 506.4 507.6 507.6 506 503.4 499.2 493.6 486.9 478.4 466.3 454.5 453.1 453.5 456 456.9 456 452.5 447.1 439 422.1 405.2 398.9 397.8 396.4 393.5 395.3 395.7 402.7 411.6 417.2 420.8 423 425.1 430.4 439.1 444 449.4 454.1 457.7 459.4 457.9 454.5 448.8 441.7 432.9 421 411.4 404.8 408.9 412.1 414.3 417 418.6 420.2 422 422 424.4 433 438.2 443.2 446.6 448.4 448.7 447.5 446.5 444.8 444.2 442.8 441.7 441.5 444.4 445.3 446.1 445.3 445.9 447.3 447.4 447.2 447 445.6 443.8 443.3 445.1 447.8 453.1 457.9 464.8 471.4 477.1 482.9 487.2 487 483.5 478.8 472 464.4 457.5 450.8 444.1 439.4 437.9 437.1 438.2 438.3 436.2 433.1 429.1 424 417.8 412.8 405.3 407.7 410.6 411.3 419.8 425.1 433.5 443.2 452.8 463.8 472.6 480.9 480.9 478.2 472.9 466.1 457.9 451 442.2 433.6 428.9 428.6 429.9 428.6 429.2 428.8 428.3 433.6 438.3 449.9 460.3 469.1 476.4 483.4 489.1 491.8 491.7 489.6
556.7 556.2 554.9 553.5 551.7 548.2 543.5 538.8 533.2 530.7 526.4 523.6 524.3 523.3 521.6 520.9 519.2 519.2 519.9 519.1 516.6 516.2 515.9 515.7 515.2 514.9 513.1 511.7 509.5 505.8 502 506.8 510.1 514 517.2 519.3 520 519.2 516.2 514.9 513.4 512.1 506.8 498.5 486.8 483.1 492 492.6 492.5 494.2 497.4 499.4 501.5 503.5 503.7 502.6 500.4 497.3 492 485.8 479 467.9 458.4 449.8 448.6 448.3 447 444.8 442.9 437.6 431.9 416.8 400 404.5 406.6 398.6 394.7 392.4 393.9 403.7 412.2 416.8 419.7 420.2 421.8 429.1 436.4 441.1 446.4 452.3 456.8 459.2 459.1 455.9 451.1 444.9 437.4 425.5 411.3 401.2 401 404 408.8 411.9 413.9 415.6 417.3 418.2 425.1 430.8 436.3 441.3 445.1 446.9 447.2 446.2 443.2 441.7 441 440.9 439.5 438.9 441.5 442.7 443.6 443.1 443.3 444.4 443 442.8 440.8 440 439.1 439.9 442.4 446.8 451.1 457.1 463.3 470.2 478.5 484.9 488.8 487.8 483.7 479.2 472.5 463.9 457.6 450.1 443.2 440.5 435.8 437.4 437.8 436.1 434.1 431.4 427.5 422.6 416.9 411.2 407.1 398.6 405.5 394.7 415 420.1 427.4 437.8 447.8 456.9 467.6 475.6 476.4 474.4 470.4 464.1 456.8 450 443.3 434.2 424.6 420 421.5 421.2 421 419.8 423.4 428.1 434.7 448.1 457.5 467.5 476.7 483.8 490.7 494.4 494.5 491.6
