ncols 200
nrows 82
xllcorner 280000
yllcorner 823000
cellsize 50
298.6 298.5 297.7 296.2 296.3 296.5 296.7 296.7 296.6 296.7 295.9 295.7 294.2 308.7 320.9 326.6 332.7 336 338.6 348.4 354 356.8 352.5 348.7 345.4 346.7 353.1 362 364.2 366.4 379.1 386.9 393 398.6 405 410.4 414.7 419.5 424.2 428.8 433.7 437.3 439 438.5 435.7 431.5 428.9 424.7 421.9 420.5 419.3 418.9 413.2 408.6 405.9 403.1 402.1 401.3 400.5 397.9 401.9 406.5 410.4 418.3 422.8 431.4 439.6 447 454.2 458.8 461.8 467.2 472.3 472.7 473.8 475.7 477.7 480.7 486.9 497.1 507.8 519.7 529.5 538.3 547.3 557.7 568.1 576.4 581.4 589.8 598.2 600.2 594.7 589.5 584.7 580.9 578.8 575.7 574.5 572.1 570.8 570.4 568.5 572.1 573.3 573.7 575 575.5 576.5 577.7 577.5 577.7 577.4 576.9 577.2 575.2 575.7 574.1 571.2 567.1 561 552.1 547.6 546 544.9 543 543.7 545 546.4 548.1 548.7 548.9 549.6 550.5 550.3 548.1 545.4 541 534.2 525.5 535.6 539.5 542.1 545.8 552.6 558 562.7 569.2 575.6 581.4 587.5 588.2 584.6 578.6 567.9 547.3 536.1 523.1 509 492.1 475.3 463.9 455.2 448.4 445.3 442.7 437 431.5 432.6 429.8 430.1 428.6 425 423.9 420.2 416.5 410.9 414.8 412.3 406.4 414 415.6 418 424.1 429 432.7 437.5 440 436.8 434.7 439.2 438.8 438.8 446.9 449.8 443 434.2 432.5 420.3 409.3
299.1 298.4 298.3 296.6 296.5 296.7 296.9 297.1 297 296.8 296.1 296.2 295.7 297.6 318.6 323.9 328.9 333.3 341.5 350.9 355.5 362.3 359.8 352.6 344.5 346.2 350.1 354.6 362.9 365.4 367.5 378.7 384.3 390.5 396.2 401.7 406.6 411.4 415.9 421 426.4 430.5 432.6 432.9 433.9 431.8 430.2 426.6 424.4 423.2 421.6 421.6 417.1 412.6 409.2 406.2 404.7 403.8 403.5 401.7 401.5 406.5 410.8 416.8 424.2 433.6 442.6 448.6 456.4 461.9 466.5 472.3 476.3 475.1 474.7 475.6 477.2 480.2 485 493.1 503 513.7 522.2 531.3 540.2 550.2 560.5 569.7 576.7 585.3 594.3 597.6 595 590.9 586.5 582.9 580.3 577.1 576.8 574.6 573.3 572.7 572.2 571.6 572.8 573.3 575.3 575.1 576.8 576.9 576.8 578 577.9 578.6 579 578.9 578.5 576.9 573.9 569.7 563.2 553.1 548.5 547 544.8 544.6 544.5 546.1 547.7 550.5 551.1 551.1 551.2 551.8 551.6 549.7 546.4 542.1 539.3 520.2 529.6 536.3 538.1 543.5 551.5 558.7 562.3 568.8 576.4 581.4 587.8 587.8 582 577.4 565.1 542.4 535.1 523.9 507.4 490.1 474.9 461 453.7 447.6 444.9 446.9 444.3 438.4 431.3 427.3 422.1 421.1 421.5 418.7 417.5 414.9 409.3 407.3 407.7 403.7 409 410.8 414 418.2 423.6 428.2 432.1 436.5 440.2 443 439.1 432.3 426.8 428 429.1 422.4 417.9 415.8 415.4 392.3
300.3 299.4 298.2 297.1 296.7 296.9 297.1 297.3 297.5 297.2 296.4 296.4 296.3 294.1 314.4 319.5 324.9 332.6 342 348.8 355.6 365.8 367.3 358.8 348.9 345.4 348.2 351.4 356.6 364.1 367.1 368.5 377.4 384.1 390 394.7 399 404 408.6 413.4 419.3 423.9 427.5 429.3 431.3 431.8 431.1 428.5 426.6 426.1 426 424.5 421.1 417.6 413.5 409.1 406.8 406.4 406.1 405.1 401.5 406.6 411.3 415.9 424.7 435 443.4 449.6 456.1 461.7 467.2 473.4 476.9 475.5 473.6 474.4 476.3 479.2 483 489.3 497.8 508.9 517.3 525.4 534.1 542.6 552.8 561.3 569.3 577.6 586.2 591.5 593.7 592.1 588.5 585.5 582.9 580.5 579.4 577.9 575.2 573.5 573.2 572.8 570.5 574.1 575.6 576.4 576.7 577.4 578.5 578.7 578.2 579.2 580 580.7 580.1 577.5 574.9 570.7 563.8 553.6 549.2 547.4 545.8 544.9 544.9 546.7 548.7 551.7 553.2 553.1 553.1 553.4 552.8 550.4 546.6 543.6 542.7 534.8 520.4 532.6 535.4 540.1 549 557.6 561.1 567.5 574.8 580.4 583.5 582.5 577.8 574 556.9 539.2 534.3 522.2 506.5 489.7 472.6 458.7 451 445.3 439 444.3 440.8 430.4 427.9 426.4 424.3 412.4 416.4 417.2 414.1 413.5 407.9 402.2 402.3 399.5 402.2 405.5 407.1 408 413.1 420.9 426.2 431.3 434.2 436.1 439.2 439.9 439.2 435.9 422 420.1 421.3 402.8 395.2 398.1
300.5 300 299 297.9 297.8 297.5 297.3 297.5 297.7 297.7 296.6 296.7 295 295.7 315.3 318.9 323.6 330.2 337.3 349.9 361.4 370.2 373.4 367.5 359.3 352 346.4 350.5 354.7 358.5 365.2 369.6 370.3 377.3 384.2 388.6 392.7 396.6 401.3 406.2 412.2 417.7 421.6 424.8 427.4 431.3 431.4 430 428.8 428.5 428.9 427.6 425.4 422 417.1 412.9 409.5 409.1 409 408.9 406.2 407.2 411 415.2 425.9 433.9 443.6 449.8 454.4 458.8 465.7 471.1 472.9 472.3 471.1 471.7 475 478.1 481.5 486.6 495 504.7 513 520.8 528.4 536 545.1 552.2 559.9 569 577.8 584.8 590.9 591.7 590.3 588 585.7 583.9 581.6 580.4 577.6 575.9 573.8 573 570.7 575 575.8 577.4 578.3 578.7 578.6 578.9 577.6 580 580.9 581.5 580 577.4 574.3 570.5 564.2 555.8 549.4 547.4 546.2 545.5 545.2 547.4 550.4 553.4 554.5 555 555.3 555.9 556 553.7 546.4 543.4 542.9 538.5 515.8 527.9 531.7 536.9 543.2 554.1 559.1 565.2 568.8 576.3 578.5 576.3 571.5 560.6 545.8 538.4 533.3 522.3 504.2 488.4 469.9 456.6 447.8 442.1 440.5 431.3 425.8 424.4 423.4 421.7 417.6 412.4 416 413.8 412.3 408.3 406.7 399.5 397.1 397.5 397 402 405.7 408 409.4 410 418.9 425.3 429.7 430.9 433.3 437.7 442.4 441.9 437.5 427.5 418.6 409.9 401.9 388
300.6 300.6 299.4 298.3 297.7 297.8 297.5 297.8 298 298 296.8 295.9 295.5 296.6 315.6 318.2 322.9 328.5 339.6 350.3 362.3 373.4 376.3 375.9 369.3 360.8 354.2 348.3 353.7 354.8 358.1 366.3 369.3 372.1 378 384 388.3 392.2 395.9 400.5 405.6 410.7 415.1 419.1 423.3 430.6 431.2 430 431.2 431.9 431.6 430.8 428.7 425.7 420.1 415 412.4 412 412.5 412.5 411.2 408.5 410.9 415.8 426.1 433.5 442.7 448.6 452.9 455.3 460.8 463.8 466.1 467.5 467.6 470.2 473.5 476.6 479.9 483.3 491.7 499.7 509.2 515.9 523.4 530.8 540.1 547.1 553.9 562 569.8 576.4 584 588.4 589.8 589.9 589 587.8 585 582.7 581.2 579.5 577.2 575 571 575.5 576.7 578.5 579.7 579.1 579.4 578.9 578.4 579.4 580.3 580.8 578.1 575.3 572.6 569.1 564 556.1 549.9 548.1 545.9 545 546.5 548.5 552.1 555 556.1 556.6 557.6 558.5 558.9 556.4 546.9 542.9 539.8 535.6 511.9 519.1 528.3 534.6 540.2 551 557.5 562.4 564.7 569.5 571.1 568.3 561.1 550.8 537.3 534.2 530.1 519.7 500.9 483.8 468.2 456.2 443.7 434.9 430 425.2 421.5 419.4 418.7 417.2 412.3 408.4 411 409 408.9 405.4 404.3 401.1 393.6 393.7 393.5 396.6 400.1 402.6 406.7 408.4 411.2 417.8 423.8 428.7 431.1 437.4 439.8 436.4 431.5 421.8 415.1 402.7 393.4 383.8
300.7 300.9 299.5 299.1 297.9 297.9 297.7 298 298.2 298.2 297.1 295.6 296.7 308.1 312.6 316.4 321.5 330 338.3 349.3 357.9 369.5 376.3 380 376.8 369.7 362.1 355.7 350.4 353.2 356.1 359.8 366.1 370.3 373.9 378.5 383.6 388.6 392.2 395.9 399.5 405 408.7 413.3 419.2 426 428.4 428.8 431.6 433.9 434 434.2 432.7 429 422.4 417.1 415.4 414.7 415.3 415.7 415.2 414.2 410.5 416.4 424.8 431.6 439.5 445.2 448.7 451.5 455.7 457.6 460.5 463.1 464.5 468 470.3 473 476.8 480.4 486.9 494.2 504.1 511.8 519.1 526.4 535.9 542.8 550.4 556.8 564.3 571.2 577.6 583.5 587.8 591 591.6 591 588.2 585.8 583.8 580.7 579.6 575.4 572.2 576.1 577.4 579.6 578.6 579.8 580.3 579.8 579.4 580 578.9 579.7 577.1 574.1 569.8 566.1 563 556.8 551.1 548.2 545.4 544.3 547 549.5 553.5 557.4 558 558.3 559.1 560.1 560.6 557.1 549.7 543.8 539.3 527.9 516.2 509.6 522.3 532 537.4 545.4 553.7 557.2 558.7 559.3 559.4 556.5 549 541.4 530.7 526.4 522.4 512.2 495.4 480.6 463 452.2 442.4 430.5 425.2 421.2 417.8 414.6 414.6 413.3 409.7 405.2 401.5 403.2 402.8 402 399.2 396.2 390.4 391.3 390.1 391.4 394.4 396.3 401.6 405.7 406.6 411.9 419.4 425.4 429.1 433.8 435.6 434.6 430.6 419.6 409.7 399.3 391.4 380.7
300.8 300.8 299.5 298.6 298.4 298.3 298.1 298.2 298.5 298.1 296.9 296.1 297.4 306.6 311.7 316.2 323.6 329 335.6 345.4 357.1 370.8 377.3 383.4 383.2 378 369.6 362.6 356.8 353.4 353.9 357.2 357.7 365.9 371 375.3 377.4 384.7 389.2 393.2 396.2 399.5 403 408.7 415 422.4 424.7 426.5 430.7 434.8 436.4 437 435.7 433.1 425.2 420.7 418.6 417.2 417.8 418.4 418.2 417.7 417 415.6 419 428.7 434.9 440.7 444.2 448.1 451.6 452.6 455.2 459 461.9 464.9 467.4 470 473.8 478.7 484.1 490.8 501.4 509.2 516.9 523.5 532.3 539.7 546.9 552.8 559.7 566.6 572.9 578.3 584.6 589.8 592.5 592.4 590.4 587.7 585.9 583.2 581 578.6 575.7 576.4 579.3 580.6 580 580.7 581.4 580.9 580.4 579.4 578.9 578.5 576.6 574.6 571.7 567.3 562.3 556.1 551.7 548.3 544.2 543.1 546.5 551.2 555.4 558.8 558.9 558.9 558.8 560 559.2 555.3 550.4 546.1 540.9 530.7 517.7 508.1 518.1 528.7 535.6 538.4 545.1 548.3 549.7 547.7 545.5 542.4 537.2 531.4 524.9 521.4 514.1 502.2 487.4 472.9 458.5 448.4 434.9 426.6 421.7 417.7 414.2 410.9 409.4 409 406.8 403.5 395.3 397.9 399.1 395.6 394.7 392.2 390.2 388.3 387.7 386.7 389.4 392 397.7 403.1 404.9 407.6 414.4 420.7 425.8 430.2 435.9 436.8 425.6 414.1 405.3 397.2 387.4 372.9
300.9 301.4 300.5 299.8 298.4 298.7 298.4 298.6 298.8 298 296.8 296.1 298.8 300.4 312.9 315.4 320.4 329 335.3 347.8 354.9 366 376.8 383.2 387.8 383.4 377.1 368.6 362.9 358.6 356 354.8 355.7 360.3 366.5 370.8 377.7 377.9 385 390.1 393.7 395.7 398.5 404.1 410.8 418 420.8 424.2 429.2 436.7 438.5 438.6 439 435.9 429.8 423.7 422.1 419.2 419.6 421.5 421.9 420.9 421.6 421.6 421 423.9 427.3 435.1 439.2 442.2 446.7 448.3 450.9 455.3 458.6 462.1 465.1 468.1 472.2 476.7 481.9 487.4 495.6 506.1 511.1 522.2 530.9 539.1 545 550.8 556.8 562.6 568.3 574.3 581.4 587.4 590.4 591.6 590.9 588.4 586.9 584.8 581.7 579.5 577.3 575.1 580.1 581 581.1 581.7 581.7 582.2 581.5 580.4 580.3 579.3 578.1 577.7 574.8 569.3 563.7 558.5 553.3 548.1 543.3 542.3 546.5 553 557.3 560.9 561.6 559.4 557 555.4 554.1 551 549.3 546.9 543.1 530.4 517 499.5 513.6 525.2 533.9 534.4 536.1 536.6 536.4 534.3 530.1 526.4 524.2 520 517.3 510.9 503.2 493.8 480.3 462.6 454.7 441.8 431.2 423 417.6 413.9 410.4 407.4 404.9 404.4 401.7 398.7 394.2 393.1 399.3 392.8 388.4 389.2 389.5 386.3 385.2 384.9 387.4 389.2 392.8 400.3 402.5 407.1 411.7 416.3 421.5 426 429.7 427.3 417.6 408.1 398.4 392.9 384.1 363.5
301 300.6 300.5 298.8 298.6 298.5 298.8 298.9 299.1 297.4 296.1 296.9 312.6 313.5 306.1 316.8 319.6 328.6 336.1 345.8 353.6 362.5 375.3 381 386.3 389.3 386.1 378.6 371.6 365.2 361.7 359.7 357.5 357.7 362.5 366 372.8 377.1 380 384 387.6 392.1 394.8 400.8 406.4 413.1 417.1 421 427.7 437.2 438.9 438.5 442.1 437.6 430.6 424.6 424.7 421.7 422.5 424.8 425.5 424.6 425 426.1 428 429.4 430.3 428.2 433.9 439.1 441.7 445.2 448.6 451.9 455.6 459.3 462.5 465.4 471.6 477.2 483.9 493.6 505.4 514.8 522.6 528.9 533.2 539.1 544.3 549.4 556 561.2 566.1 571.5 577.2 583 586 588.1 589.2 588.1 587.1 585.9 582.5 579.3 576.7 576.2 580.4 582.4 583.2 583.1 582.9 583.4 583.3 582.3 581.6 581.2 580.5 579.6 577.2 573.3 567.8 562.1 555.1 549.4 543.2 539.1 547.2 554.7 557.8 561.6 563.5 562.8 559.6 553.8 547.9 545.9 545.9 545.6 542.6 532.1 522.5 501.6 511.5 520.4 531.6 532 530.7 529.2 525.8 520.8 517 513.9 512 507.4 502.8 500 496.7 481.6 468.9 457.6 448.9 439.1 427 419.2 413.9 410.1 406.9 404.4 401.5 400.3 400.3 394.6 392.3 388.5 395.6 389.9 388.4 386.9 385.3 384.9 382.4 386.2 385.6 386.6 390.4 396.7 401.3 407.2 409.8 413.5 421 423.6 425.5 424.1 418.1 409.8 400.6 390.5 376.4 361.4
301.6 301.4 299.6 299.2 299.3 299.4 299.4 299.2 299.6 297.5 296.6 302.2 314.8 316.4 317.1 316.1 321.2 329.1 334.8 342.6 351.1 359.7 372 380.6 385.5 388.7 390.6 389.7 384 374.7 368.8 365 362.2 358.6 358.4 363.2 367.5 372.2 375.4 380.8 382.3 386.3 391 396.9 401.4 407.8 412.7 417.5 425.7 436 435.6 439.3 443.4 436 430.9 426.7 427 424.1 425.3 428.7 428.8 428.7 429.2 429.9 431.1 432.8 434.6 435.5 430.5 436.8 440.4 443.7 446.8 450.8 455.2 460 464.9 468.8 472.8 481.9 490.6 501.5 513.1 523.7 534.4 539.6 543.1 547.4 551 555.7 559.6 563.3 566.1 571.2 574.1 578.8 583.1 585 586.3 586.8 586.6 585.9 582.5 579.1 576.8 577 580.3 582.7 583.8 583.8 583.5 583.7 584.3 584 583.4 582.5 581.3 580.4 578.5 575 569.5 563.9 556.6 549.1 542.2 538 545.7 553 555.8 558 561.1 563 558.1 551.6 546.5 543.7 540.6 542.3 539.2 531.8 524.1 500.1 501 514.4 522.8 527.1 523.2 519.5 513.7 508.4 502.7 499.8 497 496.2 492 487.5 482.1 472.8 464.6 451.8 441.1 430.2 421.4 415.2 410.8 407.1 405.2 400.7 398.6 396.9 396.3 390.6 387.9 386.3 390.1 385.2 384.3 384.7 383.1 383.5 379.7 382.7 383.9 384.7 387.2 392.6 398.3 401.6 404.8 412.4 421.5 430.4 430.4 422.7 414.3 404.2 393.6 380.7 365.5 361.1
301.9 301.2 300.1 299.8 299.6 300 299.9 299.7 298.3 297.2 299.6 313.6 317.4 318.4 320.1 320.4 319 328.1 335.8 342.4 348.4 353.4 365.3 376.9 382.4 386.2 390.9 396 397.2 388.1 378.7 371 366.4 362.1 359.6 360.8 365 369.4 372.2 375.1 379.5 384.6 385.7 390.9 398.2 403.6 408.2 413.5 423.5 432.2 432.8 436.8 439.2 433.9 428.4 428.3 429.1 424.3 427.7 431 431.8 433.3 433.8 434 434.6 436.4 438.5 439 439.3 437.5 442.1 444.6 447 450.4 454.9 460.7 466.6 472.5 480.3 489.1 497.6 506.9 517.8 529.8 542.7 549.8 555.6 559.5 562.2 564.2 566.2 567.7 570.4 572.7 575 578.8 582 583.7 585.2 586.1 586 584.6 580.5 578.9 575.6 577.1 578.9 582.5 583.8 583.2 583.6 583.3 583.4 584 583.8 582.2 580 580.5 578.3 573.1 568.4 561 554.1 545.6 539.2 529.2 539 544 547.5 549.6 552.2 554 550.7 545.2 539.6 538.7 536.4 536.4 535.3 530.1 524.4 508.3 488.6 504.2 513.5 516.8 513.2 506.1 501.3 495.1 488.3 484.4 484.4 483 482.2 477.9 473.2 465 453.1 444.5 435.7 425.2 417.1 411.5 407.7 403.7 400.1 397.2 394.4 394.9 392.4 387 384.6 387.8 380.8 381.3 382.1 383.9 381.1 380 378.8 377.9 381.8 383.3 384.2 388.2 391.3 395.9 399.6 409.2 420 429.4 422.1 413.4 404.8 396.7 378 366.9 362 360.3
302.3 301.5 300.3 300 300.1 300.5 299.8 299.7 297.7 297 310.2 316.9 319.2 320.2 323.1 324.1 325.7 326.7 334.4 341.4 345.5 351.2 358.7 372.4 379.5 386.4 392.1 399.2 403 399.6 388.5 381.1 373 367.7 364.4 361.9 361.8 366.8 370.1 371.8 373.2 376.5 383.2 386.8 390.2 396.8 401.9 407 415.7 424.2 427 430 431.1 426.7 424.6 427.1 428.4 424 428.1 431.5 434.7 437.8 437.2 437.8 437.8 438.5 440.6 441.7 442.4 442.8 440 445.5 448.2 451.9 455.3 461.1 466.9 474.2 482.4 490.5 500 509.9 520 532.9 546.4 557.2 564.1 568.4 570.6 571.5 572.1 573 574.7 576.9 578.8 579.5 582.2 583.8 584.8 584.1 585.1 583.1 580.9 578.6 577.1 579.3 579.1 581.9 582 583.1 583.4 583.3 583.2 581.8 580.7 575.9 574.6 574.1 568.7 574.2 564.2 559.5 550.8 543.8 532.9 527.5 528.5 533.2 537.7 540.5 543.1 543.4 539.6 535.1 533 533.6 532.7 531.4 529.2 527.2 521.7 512.5 494 489.4 499.7 499.6 497.5 493.1 487.4 478.2 471.4 467 468.1 468.8 466.9 465.9 462.5 455 446.6 438.2 429.2 420.9 412.8 408.5 404.6 399.1 397.4 393.8 391.4 392 390.7 383.9 384.4 379.5 378.8 379.2 378.8 378 377.8 378.4 376.6 379.2 379.3 382 383 386.1 388.8 390.8 392.9 403.6 416.6 418.3 409.8 404 387.1 369.9 365.1 364.8 361.9 360.5
302.6 301.8 300.5 300.4 300.6 300.7 299.7 298.7 297 308.1 317.1 318.9 320.5 322.4 325.3 328.2 330.6 334.2 329.6 339 343.7 349.8 356.5 367.7 377.5 384.8 391.8 399.7 405.4 407 399.5 391.2 381.5 374.4 370.6 366.4 363.3 364.2 366.7 369 370.2 374.8 376.5 381.4 388 389.3 393.5 401.3 406.9 413.2 418.5 420.7 422.2 419.7 418 419.2 422.5 421.6 429 433.4 435.9 441.5 441.3 440.7 441.9 441.5 442.4 444.2 445.2 446.3 447.3 447.4 448.2 450.6 456.4 461.6 466.1 474 482.6 490.7 500.2 510.5 520.6 533.9 546.1 558.4 567.6 573.2 575.7 576.8 577.4 577.6 577.8 580.1 581.2 580.8 581.6 583.9 584.4 582.9 582.1 582.2 580.7 578.3 580.2 580.7 582.3 581.8 583.3 583.4 583.2 582.3 580.7 580.8 578.4 578.2 579.9 579 576.6 572.3 565.3 554.9 549.5 544.7 538.5 525.5 514.6 522.3 526.9 530.9 533.4 533.7 531.3 529.3 529 527.9 526.3 526.3 526.2 525.8 524.9 517 490.7 470.2 480.9 482.7 479.1 476.3 471.1 463.1 459.2 457.7 457.3 457.4 456.6 454.5 451.1 448 440.1 432.6 424.6 417.3 409.9 403.3 401.1 397.1 393.4 389.6 389.9 391.2 388.1 384.6 380.3 378.7 377.3 377 376.6 377.1 377.2 377.6 375.2 377.7 380.3 381.6 382.7 384.8 388.9 390.7 391.1 395.5 408.2 404.7 396.7 385.6 377.6 369.4 368.1 363.7 362.2 361.4
302.8 302.3 301 301 300.4 299.5 299 298.9 300.7 319.4 323.4 320.6 323 324.9 328.2 331.5 334.9 337.7 340.1 340.9 343.6 350.3 356.1 364.1 373.7 381.4 389.5 397.7 403.6 407.3 406.4 398.8 390.1 383.9 378.9 372.8 369.1 366.4 365.2 365.8 368.1 369.6 371.7 378.7 380.1 388 391.4 392.3 394.5 403.8 407.4 411.9 413.9 412.2 412.1 413.2 413.5 419.6 424.9 431.3 435.1 442.1 445.3 444 445.8 444.3 444.6 447 448.1 449.1 450.1 449.9 449.4 452.4 456.3 461.5 466.7 472.6 482.5 490.3 500.6 509 518.8 530.1 543.4 557 566.4 573.4 578.9 580.4 580.4 580.8 581.4 582.6 583.5 583.8 582.8 584.4 585.6 585.3 584.4 583.2 579.7 582.7 583.8 582.8 584.3 584.7 584.5 583.7 583.5 582.5 581.8 582.3 582.5 583.4 584 583.3 580.5 575 568 562 554.4 548 542.7 528.6 516.5 507.6 515.2 519.2 523.8 524.3 523.9 523.2 523.1 521.8 520.8 521.6 523.4 523.4 523.1 520.5 501.4 471.8 460 459.1 462.6 460.1 456.1 453.4 451.9 450.1 449.4 450.9 449.3 447 444.8 439.5 433.6 425.9 420 413.6 407.1 401.3 398.9 392.5 390.2 388 391.1 386.1 381.8 381.7 378.9 377.6 375.6 374.6 374.6 375 376.1 376.6 373.3 377.6 378.8 379.5 381.8 382.7 386.3 388.7 390.3 390 391.8 388.7 380.6 372.4 367.4 374.1 367.2 363.9 363 362.2
302.6 302.2 300.7 300.8 300 299.7 297.9 297.6 306.8 317.4 321 322.5 326.5 329 332.4 335.9 339.8 341.7 343.2 345.9 346.1 351.9 356.3 364.4 371.8 378.9 385.2 393.9 401 407.4 405.2 401.9 398.5 396 387.5 380.7 375.4 372.6 371.7 368.9 367.5 369 370.5 372.2 379 382.7 384.3 391.5 393.7 394.5 395.7 403.5 405.3 407.1 408.6 408.3 410.1 414.1 419.8 424.5 430.8 440.3 446.3 446.5 446.4 445.6 446.5 449.5 450.9 451.9 452.9 453.7 454.3 453.1 456.6 460.8 467.3 472.1 482.4 490.8 498.8 506.9 515.6 525 539.6 552.6 563.2 570.5 577.4 581.6 581.8 582.6 584 585.4 586.6 585.4 586.9 587 587.2 587.5 585.5 584 583.6 585.7 586.2 586.2 586.2 586.4 585.7 584.9 585.3 584.2 583.2 585.2 586.9 587.9 588.1 586.6 583.4 576.8 569.4 564.8 558.8 550.9 544.6 534 519.3 507.3 504.4 507.9 512.3 514.8 516.6 515.9 515.9 515.8 515.1 515.7 517.8 519.4 520 519.6 508 486.5 466.7 445.5 451.2 446.7 441.4 445 441.6 438.5 439 440.2 439.6 437.4 435.8 431.6 426.6 420.5 416.1 409.5 403 399.2 394 390.7 390.4 389.9 384.5 383.2 381.4 378.7 377.1 374.9 373.1 372.6 373.2 373.2 374.4 370.3 373.2 376.1 377.9 377.2 379 380.5 383.3 387.1 388.8 388.7 388.2 384.5 373.8 379 378.2 372.8 367.6 364.3 363.8 363
300.4 299.8 299.7 299.8 299.3 297.9 298.5 299.3 309.2 320.9 323.7 325.5 329.6 333.4 337.1 343.1 345.8 346.8 348.5 349.7 352.2 351.8 357 365.4 371.7 377.9 382.7 391.4 397.2 404.9 403.4 404.7 405.4 403.5 396.9 389.4 382.8 379.5 376.4 374 372.3 371.7 371.5 372.2 375.6 380.3 385.3 386.6 386.3 392 394.5 397.5 398.2 403.1 403.6 405 406.1 408.2 412.8 418.5 425.8 436.5 442.9 445.6 445.2 444.9 447.5 450.9 454.2 455.3 456 457.2 457 456.6 458 461.6 466.9 472.2 480.2 489.5 497 504.7 512.4 521.8 533.9 547.9 558.2 566.5 574.7 580.2 582.4 583.6 586.9 588.5 587 590.4 591 589.5 589.2 587.1 587.2 587 585.6 587.9 588.5 588.8 588.3 587.8 587.2 586.7 586.9 586.9 586.9 589.1 590.7 591.8 591.1 589.2 584.9 577.5 571.2 566.8 559.7 551.1 545.6 535.9 524.8 508.7 495 497.7 502.5 506.5 507.5 507.2 507 507.2 506.2 508 511.1 513.9 515.5 516.4 506.6 491.6 478.5 458.4 441.5 429.3 424.4 427 430.2 426.8 428.4 429.4 429.6 428.9 426.2 422.6 420.1 417.1 412.5 405.7 400.3 395.2 391 390.7 388.1 384.5 383.8 381.2 379.6 377.9 378.2 379.9 371.1 370.3 370.3 370.5 373.2 370.6 372.2 372.8 373.4 374.7 377.2 378.4 380.1 383.9 385.7 383.4 380.9 379.2 384.6 384.1 378.7 373.4 369 364.9 364.1 363.6
300.7 300.1 298.7 298.7 299.2 299.8 300.4 301 308.8 321.1 323.5 327.9 332.3 337.5 342.6 347.4 351.4 352.6 354.4 355.4 356.8 359.7 359.3 366.9 371.3 376.9 382.2 387.6 394.9 401.9 403.8 407.3 410.1 408.9 403.8 398.6 390.6 386.6 382 378.6 376 375.1 374.5 376.5 377.3 379.2 380.8 383.1 388.8 390.2 386.2 394.1 396.2 399.3 401.2 402.5 404.7 406 408 412.9 420.8 430.5 434.1 438.9 442 443.2 446.1 453.5 457.2 458.8 458.9 459.4 458.9 459.4 460.3 462 466.6 471.6 478.8 486.5 494.5 502 510.1 517.9 527.7 542.8 553.1 562.8 571.4 577.8 581.3 585.9 589.5 590.3 591.4 594.4 593.8 590.2 590.8 588.5 589 588.3 587.7 589.6 591.3 591.2 590.9 589.8 589.3 588.7 588.7 588.7 590.2 592.3 594.1 595 593.6 590.6 584.3 577.3 570.7 566.4 557.2 551 545.5 537.3 528.6 511.4 498.1 486.2 493.1 496.9 497.9 496.8 497.2 497.8 499 499.2 503.5 507.2 510 508.4 501.1 489.3 477.1 460.6 450 441.1 427.8 416.4 415.4 419.7 418.6 420.3 421.1 421.4 420.1 419.4 417.2 413.5 407.9 402.6 403.1 394.1 392.6 386.2 384.2 382.2 382.1 380.8 378.3 377.1 382 376.6 370.7 368.6 366.5 368.1 368.9 366.8 370.1 370.6 371.1 372.4 374.2 375.4 377.3 379.6 380.5 380.6 381.5 388 389.2 385.7 380.2 376 369.9 365.6 364.6 364.2
300.4 298.8 299.3 300.8 302.5 304.6 309.8 316.1 317.4 319.2 323.2 329.8 333.7 339.9 345.9 352.5 355.8 357.6 360 362.2 363.5 363.7 366.5 368.1 372.2 376.2 381.3 386.1 394 400.7 404.2 408.4 411.8 413.9 409.2 406.3 397.2 393.2 388.2 383.9 380 380.9 382 383.7 382.3 384 386.3 388.6 389.2 392.4 392.1 393.1 387.4 395.6 401.1 401.5 402.5 404.3 406.3 409.4 412.9 419.9 425 431 435.3 441.1 444 453 458.3 461.9 462.3 460.7 460.4 460.8 462.4 464.6 466.9 471.3 478 485.3 490.8 499.1 506.9 515.4 525.1 538.7 549.4 560.1 568.8 575.5 581 587 591.1 591.2 596 596.2 595.8 593.6 593.2 591.5 590.2 590 589.9 592.4 593.5 594.9 595.4 593.5 591.6 590.7 591 591.4 593.3 595 596.1 596.4 594.5 589.4 582.6 575.8 569 562.1 554.5 550.7 545.5 537.8 529 515.2 498.7 487.2 484.2 487.2 488 488.7 489.9 490.5 491.5 493.2 496.2 499.9 501.5 498.4 491.8 482.6 469.4 456.7 446.1 438 430.1 420.8 412.3 405.9 411.6 413.3 417.3 415.3 414 413.1 411.4 409.8 404.4 398.3 395.5 393.9 389.2 383.7 382.6 380.6 378 375.9 375.5 378.5 374.1 371.1 370.3 368.7 364.5 366.1 367 365.2 368.6 369 369.7 370.8 372.2 373.8 376.1 378.8 381 386 389 391.5 391.9 389.6 381.9 376.9 371.8 367.1 365.5 364.8
299.2 300.3 300.9 309 318.8 320 321.6 322.4 321.5 317.8 326.3 331.4 337.5 346.6 349.8 354.1 358.9 361.4 364.8 368.5 367.6 370.4 374 374.2 377 376.1 382.1 386.7 393.8 398.5 403.3 409.1 413.2 416.6 414.3 412.5 404.5 400.6 396.1 392.2 387.2 388 392.4 392.5 392.1 392.1 388.8 396.3 396.1 397.4 396.8 395.3 397.6 398.2 390.4 398.6 403 403.3 405.2 408.2 410.4 413.2 416.9 423.4 429.1 435.2 440.1 451.9 456.8 461.8 463.6 462.3 462.2 463 465.4 467.5 470 469.6 478.4 484.9 489.7 496.5 504 513.2 522.5 534.3 548.2 558.8 566.3 573.8 580.8 587.7 591.5 592.9 596.8 597.7 597.5 597.1 593.8 592 591.5 590.4 593 596 597.6 599.6 599 598.3 595.9 593.7 593.1 593.2 595.2 597.1 596.6 596.3 593.1 587.4 580.4 573.5 568.2 559.2 553.3 550.2 543 536.6 527.2 515.2 498.6 484.7 469 476.5 479.1 480.2 481.2 482.9 483.8 485.2 487 490 490.5 485.7 478.6 470.9 462.2 451.7 441.9 433.5 425.4 418.2 410.7 405.1 401.7 411.9 409 411.1 409 409.4 407.3 404.6 400.1 392.5 393.1 393.7 385.6 383.2 381 378 376.1 374.7 373.6 375.8 370.9 369.2 368.4 367.4 366.2 364.3 362.1 367.3 367.4 367.9 368.7 369.5 370.8 372.6 376.7 379.4 383.5 388.9 391.2 396 394.8 390.5 383.8 377.9 372.5 366.9 365.7 365.2
302.7 306.6 317.7 319.5 324.6 325.7 326.3 325.4 324.4 317 326.5 330.6 337.1 348.2 352.5 357.3 362 366.9 370.5 373.1 373.9 378 382.1 381.4 381.7 382.3 382.1 387.4 394.2 398.9 402.5 407.7 412.8 417.9 418.4 416.7 409.4 406.6 408.1 398.6 399.6 396.5 395.6 396.3 395.3 395.6 393.1 393.5 393.9 397.7 398.7 396.5 398.8 401.5 403.2 403.3 394.3 401.2 404.3 405.9 409.2 411.2 413.6 416.6 422.3 429 433.9 443.4 452.4 458.2 462.8 464.8 465.9 467.5 469.6 471.4 474.2 476.1 476.8 481.4 485.3 492.6 501.9 510 521.5 532.1 544 556.6 564.4 572.6 580.2 588.7 591.8 594.4 598.1 599.9 600.2 598.4 597.3 594.9 592.6 593.8 597.9 599.8 602.1 603.6 604.2 603.4 600.7 597.6 595.1 594.5 594.9 595.5 595.8 595.1 591.2 585.3 578 571.3 566.1 558 551.1 546 539.4 533.3 523.8 513.2 497.2 481.9 474.8 460.8 470.2 470.9 472.1 473.7 475.8 476 478.3 478.6 476.4 471.5 467.4 461.4 454.5 445.5 436 428.7 420.8 413.9 406.8 402.6 396.3 408.5 403 405.8 408 405 402.3 398.7 391.2 386.6 394.8 386 383.3 381.3 377.1 375.3 373.9 373.6 373.3 371.2 369.2 367.4 366.8 366.7 364 360.1 364.5 366.6 366.8 367.3 368.1 368.8 369.8 373.1 379 383.1 387.4 392.7 396.8 400.3 397.1 391.4 385 378.5 371.6 367.1 366 365.6
311.9 320.1 325.3 328 330.4 330.7 330.5 329.6 327.7 322.8 323.5 331.8 338.4 348.5 354.2 359.9 366.7 372.5 376.3 378.7 380.6 386.2 390.2 390.4 387.3 387.2 388.1 388 394.8 398.7 402.7 407.6 412.8 418.2 419.2 419.1 414.6 411.8 406 401 403.7 401.8 399.1 398.7 398.4 396.4 395.2 395.1 396 397.7 400.3 398.6 400.6 402.9 404.5 405.7 405.9 405.3 394.6 404.2 405.5 409.5 411.4 412.8 416.4 422.2 427.8 437.9 446.2 452.3 459.8 463.8 467.3 471.1 474 477.3 479.3 481 481.3 486 491.1 495.8 501.3 508.3 520.6 530.9 539.6 551.3 562.5 571.1 580.7 588.8 593.1 596.6 600.3 602.3 601.4 600.3 599.1 596.4 594.4 599 601.1 603.7 606.6 608.3 609 607.6 604.9 600.9 596.6 594.6 593.3 593.4 592.9 591.4 588.2 581.7 574.3 569.7 562.7 555.9 548.9 542.5 535.9 527.8 519.2 508.8 494.6 480.8 471 452.4 461.9 462.3 463.2 464.9 467.4 467.7 469.4 469.4 466.6 463.8 459.9 452.9 446.3 439.1 431.3 423.5 416.2 409.9 403.2 398.9 393.6 401.3 400.7 397.3 402.5 400.3 396.6 393 387.2 395.4 385.1 384.3 377.7 376.3 374.4 374.1 374 373.7 371.4 369 367.6 366.3 365.3 364 360.9 360.4 365.1 366 366.5 367 367.5 368.3 370.2 375.7 384.1 387.5 391.7 395.8 404.1 406.1 400.7 390.9 384 377.2 370 366.6 365.8 365.4
329.3 331.6 332.8 335.4 335.1 337.1 337.1 335.4 330.9 329.5 329.4 326 338.6 349.4 356.6 364.4 372.5 377.3 383 385.6 387.7 393.5 398.3 398.7 394.6 392 392.2 392.4 394.4 400 403.7 406.9 410.7 416.8 419.3 420.9 416.4 404.7 406.7 414.5 415.8 411.7 406.5 404.9 403.6 402.5 401.6 400.7 399.7 400.1 400.7 401.6 400.8 402.4 404.6 406.2 407.4 408 408.1 405 397.9 405.2 408.3 409.8 411.9 415.8 420.5 427.8 436.2 444.8 452.4 458.9 466.1 471.6 475.4 481.3 486.3 489.2 487.4 488.4 493.2 498.5 506.4 513.1 520.2 530.1 539 551.4 563.2 573.1 582.9 590.2 595.2 599.4 601.6 603.4 602 601.4 600 598 599 601.6 604.5 607.4 610.5 612.4 613.1 611.6 607.7 602.3 597.6 594.8 591.6 590.5 588.8 585.9 579.6 575.1 570.3 564.1 559.6 553.4 546.4 538.4 531.2 522 513 502.2 489.2 477.6 467.5 459.9 453.9 455 455.2 456.1 458.5 459.6 461.2 460.7 458 454.2 450.5 443.2 438.4 431.6 424.5 417.8 411.3 405.2 400.1 394.6 388.9 401.8 402.9 400.4 400 398.1 396.7 396.5 394.7 382.8 379.9 380.3 373.6 379.8 376.5 376.4 372 369.3 367.5 366.4 365.7 364.6 363.6 361.9 357.8 363.9 365 365.5 366.1 366.6 367.2 368.2 370.6 377.9 386.9 391.8 394 397.9 408.8 410.1 399.4 390.1 381.4 374.1 368.4 365.9 365.3 365.2
336.1 336.8 340 341.1 342.9 342.4 344.3 339.8 334 334.4 334.2 331.9 329.5 351.3 358.1 365.9 373 381.4 387.5 390.4 392.2 400.7 405.4 406.3 404.7 398.9 396.4 396.9 398.9 399.8 403.2 405.7 408.9 415.1 420 418.3 407.4 413.6 423.3 426 421.1 419.6 414.8 410.7 409.3 407.8 406.9 406.8 405.2 404.3 403.7 403.5 401.9 403.4 405.5 407.1 408.6 409.1 408.9 408.9 407.4 398.5 404.8 406.6 409.7 412.1 415.9 420.2 426.2 436.1 443.1 454.5 462.1 468.6 475.1 483.7 493 494.9 493.7 491.8 495.6 499.2 507.7 516.9 525.2 531.9 540.7 553.1 566.2 577.1 586.3 593.6 598.5 602.7 604.9 604.8 604.2 603.4 601.6 598.6 602.1 605.7 608.8 611.8 615.3 616.3 616.2 613.6 608.9 603.3 598.2 594.6 590 585.2 583.8 578.6 572.1 568.6 563 558.4 553.7 548.4 541.6 532.9 523.7 514.8 505.7 493.6 481.8 472.5 462.6 455.9 441.7 448.7 448.4 448 449.5 451.9 452.6 450.2 447.1 444.5 439.3 435.8 431 425 418.2 410.9 406.3 401.1 396.3 390 395.6 402.9 399 395.4 390.4 392.6 390.9 387.1 385.3 381.1 377.9 378.5 372.9 372.8 369.6 368.6 366.9 366.9 366.4 363.8 363.8 362.7 362.7 358.3 357.1 362.4 363.8 365 365.6 366.2 366.6 367.3 372.1 379.6 388.8 393.3 395.2 398.4 407.4 410.2 396.3 385.7 379.8 372.8 367.6 364.6 363.9 364.1
341.6 342.9 343.8 347 348.3 347.4 346.1 344.4 340 339.3 339.7 340.1 342.8 339.1 354.4 365 371.9 381.6 390.3 393.4 399.3 408.3 413.7 415.5 407.9 404.2 401.6 402 402.7 402.9 403.3 405.6 408.3 414 420.2 408.8 416.6 429.3 437.3 441.2 435.8 429.8 422.8 418.1 413.7 411.4 410.1 409.3 408.9 408.2 407.2 406 404.1 404.6 406.5 407.8 409.1 409.7 409.3 408.8 408.2 408 403.4 404.7 406.6 409 412.1 414.9 419.3 425.5 437.9 448.3 455.9 464.7 473.2 485.2 495.7 497.5 496.3 493 496.6 500.7 508.3 519 528.2 533.5 542.3 555.2 568.7 580.4 590.8 598.1 602.5 605.5 606.8 606.4 605.6 604.5 603.8 601.1 605.6 609.4 612.7 615.4 618.1 619 617.8 614.8 609.8 603.9 599.3 594.8 589 580.4 576.3 570.5 566.7 560.4 554.8 550 545.7 540.5 534.6 525.6 515.7 506.6 496.2 484.8 474.4 466 457.3 451.3 446.6 435.6 441.3 441.1 442.1 442.9 441.9 441.2 439.8 434.9 431.6 427.9 423.4 418.1 411.5 405.9 400.2 395.9 392.6 387 383.3 396.3 393.4 397.2 389.4 388.8 390.4 384.1 384.2 377.9 371.8 370.5 368.4 370.5 366.9 365.6 365.3 365.6 364.3 361.3 361.3 361 357.6 354.1 359 361.3 362.7 364.2 365.2 365.5 365.8 367.8 373 381.1 390.1 393.4 395.4 398 404.7 402.9 390.9 382.5 377.1 370.3 365.1 363.4 361.6 361.1
347.7 347.9 349.1 351 352.7 353.1 351.5 347.1 345.3 344.5 346 348.3 349.7 349.8 346.7 358.9 368.9 381.5 390.5 395.9 403.2 414.3 417.2 418.9 414.3 409.4 406.2 405.1 405.2 405.3 405.4 406.4 408.7 414.7 417.1 408.8 427.6 438.7 447.2 451.7 446.4 441.1 437.7 432.6 426.7 422 417.4 414.9 412.6 410.5 410 408.8 407.3 406.2 408.1 408.7 409.8 410.2 409.8 408.2 407.2 406.5 406.3 403.8 404.6 405.7 408.2 410.4 414.3 420.3 429.9 440.9 450.1 461.8 472.4 485.7 495.6 499.5 498.6 497.6 498 501.5 508.7 519.6 529.2 536.5 546.1 560.4 573.2 584.2 594.5 601.3 605.4 608.2 608.8 607.1 607.4 605.6 605.3 603.7 608.6 613 615.9 617.9 620 620.4 618.7 615.4 610.3 604.7 599.6 594.8 586 576 567.2 561.9 556.2 550.1 544.2 539.7 536.3 531.4 525.3 516.9 506.4 497.1 487.1 477.2 466.5 458.8 451.6 446 442.8 438.1 430.2 435.2 436.1 435.4 435.7 434.2 431 426.4 422.3 419.1 414.5 409.8 404.8 400.3 395.7 393 388.8 384.2 387.8 389.1 387.7 388.8 388.7 386.9 383.7 381.4 379.8 373.1 369.2 366.8 366.6 368.9 366 363.8 362.3 360 359.1 358.7 358.2 357.2 356 354.2 358 360.1 361.6 363.1 364.4 364.7 365.4 368.2 373.6 382.1 390.2 393.2 394.1 395.7 398.4 394.3 386.5 379.4 373.2 365.1 363.2 361.5 359.4 357.8
351.8 352.4 356.2 358 358 357.1 355 352.4 353.4 352.5 353.6 355.8 358.3 358.8 359.2 351.6 360 378.3 388.2 396.3 404.1 414.2 419.4 421.5 419.2 414.3 410.2 408.7 408 407.5 407.7 407.5 407.8 409.8 409.5 420.3 435.5 443.6 454.4 458 456 451.7 449 444.2 438.1 434.9 431.3 425.5 424.7 418.1 414.7 412.4 409.7 408.1 410 410.5 411.1 410.8 410.3 408.4 406.8 406.8 406.8 405.9 404.7 403.8 404.5 406.1 411 416.6 425.5 434.8 446.9 458 471 482.4 489.4 496 499 497.1 499.3 502.1 509.3 519.7 529 537.5 549.6 564.5 577.5 588.5 596.9 603.8 608.1 610.2 608.9 608.9 608.5 608.3 607.6 606.3 611.2 615.8 618.2 619.3 619.9 619.3 617.8 614 609.7 604.9 599.5 593.3 582 571.5 558.8 549.4 545.1 540.7 535 529.7 525 519.8 513.4 504.1 496 487 476.9 467.4 458 451.2 445.6 441.5 438.5 434.6 422.1 430.1 430.1 429.9 429.3 427 422.4 418.2 414.5 411 406.6 403.1 398.4 395.2 392.4 389.3 384.6 376.8 387.5 378.3 377.7 381.6 382.9 381.6 376.8 376.7 373.4 372.2 368.4 369.7 363 360.3 360.1 359.6 357.9 356.6 356.5 356.7 356.1 355.3 353.9 351.9 356.7 358.9 360.4 361.9 363.4 363.8 365.2 367.9 373.9 380.3 387.8 390.4 391.8 392.2 391.7 387.6 382.1 375.5 368.2 363.1 362.5 359.1 355.8 355.1
356 359.1 360.7 363.3 364.6 363.9 360.3 358.6 358.2 359.7 362.5 364.3 365.3 366.6 366.8 367.6 367.3 368.4 382 392.3 402.6 411.8 419.1 422 422.9 419.6 414.7 412.4 411.2 410.3 411 409.3 409 410.2 413.9 428 439 446.9 456.9 461.8 463.8 460.7 458.2 453.5 448.9 445.8 442.7 438.9 434.9 427.6 420.1 415.5 412.6 411.2 415.3 415.2 414.3 413.5 412.6 411.6 409.6 408 407.9 406.5 404.9 403.8 402.8 403.1 404.9 415.9 422.3 429.7 440.5 451.9 463.9 472.8 479.6 485.9 487.8 491.9 500.4 503 508.3 519.9 530.3 539 549.5 566.2 579.7 592.1 601 606.2 609.8 611.3 611.1 610.1 608.9 609.8 608.3 609.4 612.8 616.8 618.7 618.2 617.8 616.8 614.8 611.7 607.9 603 597.2 589 575.8 563 550.1 542.7 535.5 529.9 523.9 517.1 511.2 506.3 501 493.6 485.8 475.5 466.4 456.9 448.7 444.9 440.8 437.6 434.1 430 417.7 426.6 427.3 426.6 424.4 420.9 416.1 412.6 408.5 404.9 401.9 398.2 395.1 392 389.7 386.2 379.2 372.8 377.6 375.7 370.6 370.6 375.2 375.8 371.1 367.4 368.5 368.6 365.6 362.7 359.3 357.6 357.8 357.7 356 354.4 354.5 354.6 354.4 353.6 352.8 350 355.2 357.9 359.3 360.8 362.2 363 365.3 368.7 372.6 377.4 382.6 386.5 387.8 386.4 384.6 381.7 377.4 370.1 362.8 362.2 359.4 355.2 352.9 352.5
361 364.7 367.9 372.6 372.3 368.4 364.3 364.3 365.3 368 372.2 374.1 374.1 374.2 375 376.1 374.9 373.8 372.5 387.7 398.1 407.5 416.3 421.6 424.5 422.7 418 416.3 414.7 412.7 411 410.4 411.8 414.8 419.5 430.9 440.1 450 458.2 467 471 468.4 465.3 464.1 457.4 454 452.5 448.6 441.1 434.6 427.1 422.1 416.2 413.3 414.4 414.3 415.8 414.6 413.8 413.4 412.6 410.8 409.4 408.2 407 405.7 406.4 402.5 402.1 402.5 416 423.9 434.6 445.3 454.4 462.3 473.6 480.5 484.8 492.5 499.5 502.1 506.5 518.1 529.9 539.4 549.6 564.5 582.3 594.6 602.8 607.8 611.1 612.7 612.4 611.4 611.3 610.7 610.1 610.7 614.3 617.6 617.6 616.5 615.1 614.3 611.5 608.8 605 598.6 590.9 581.1 568.8 555.4 544 535.8 525.1 517.7 510.7 502.8 495.3 491.8 487.6 479.9 471.3 464.6 456.1 447.5 443.2 439.7 436 432.7 429.9 426.9 415.7 424.9 424.7 423.6 421.8 418 413.1 409.5 405.5 401.6 398.1 395.2 392.3 389.7 387.5 382.6 372.6 378.9 373.9 373.6 365.3 362.7 368.1 371.3 367 362.9 361.8 361.3 359.2 359 357.2 355.2 355.3 355.7 355.1 353.5 352.8 352.8 352.7 352 351.1 349.3 354.6 357.7 358.9 360.1 361.3 362.8 365.1 368 372 375.3 379.4 382.4 381.2 379.1 375.5 373.6 368.3 361.9 361.6 359.4 356.2 352.5 349.7 349.4
366.3 370.2 375.7 380.7 378.6 374.9 369.7 371.4 374 378.1 382.6 384.6 385.3 384.8 384.6 382.4 383.3 382.2 381.5 376.8 391.1 401.5 412.1 419 422.4 423.7 421.8 419.1 415 413.8 413.9 413.5 417 419.8 423 432 442 451 460.3 468.7 475.2 472 469.5 469.3 463 461.9 464 456 446.3 440.6 432.5 426.4 416.8 415.2 417.3 420.4 421.7 418.1 415.5 414.7 414.3 413.4 411.9 410.5 410.4 410.2 410.3 407.2 401.5 402.3 399.8 416.7 426.9 436 446 455.9 463.8 469.8 475.6 483.7 491 499.7 507.9 514.8 526.6 538.3 549.3 563.7 584.8 596 603.5 609.3 612.8 613.7 613.8 613.8 613.3 612.2 611.9 611.5 614.2 616.9 616.8 615.7 614.4 611.8 608.3 604.2 598.9 591.4 583.5 572.7 560.6 549.9 539.1 528.5 518.6 507.5 498.5 490.6 483.9 478.3 472.6 467.6 461.1 455 447.6 441.7 438.3 435.1 430.7 427.9 425.3 420.9 410.5 422.4 422.4 421.1 420.1 417.3 411.4 408.1 403.6 399.8 396.5 393.4 390.4 387.4 384.9 380 369 368.3 368.2 364.9 359.3 357.4 357.6 358.1 356.7 356.2 356.5 357.2 356.9 356.6 355.4 354.2 353.1 353.1 352.7 351.5 351 351.1 350.9 350.2 348.9 348.9 353.9 357.1 358.3 359.3 361.4 362.5 364.4 367 371 373.8 376 375.4 370.1 366.1 362.2 361.3 361.6 361.9 360.2 356.7 351.9 348.7 346.9 346.3
369.9 378.6 380.1 384.8 383.5 380.1 374.6 377.3 381.3 389.4 393.4 394.3 395 396.3 396.1 395.1 392 390.4 389.1 389.3 385.6 397 407.3 415.9 419.6 422 419.8 415.8 415.2 420.4 419 418.5 418.7 421.8 425.3 432.7 441.3 450.9 459 468.3 475.1 474.8 474.3 474.2 467 468.3 468.4 462.5 453.2 444.6 436.3 430.1 424.7 416.6 420.8 425.4 426.2 422.8 418.5 417.8 417.5 416.3 415.2 414.2 413.4 413.3 411.6 402.9 404.1 400.8 401.1 408.3 419.3 427.8 437.9 447.6 453 458.1 465.5 470.5 487.3 502.1 512.6 518.1 524.7 533.7 547.4 562.2 583.2 595.5 603.9 608.8 612.1 614.5 614.2 615.8 615.2 614 612.8 611.4 613.4 614.8 615.2 614.7 612.6 609.4 604.7 599.3 592.3 584.2 574.9 563.2 552.4 543.5 532.5 520.8 511.5 501 490.4 482.1 475 470.7 465.5 459.1 453 448.1 440.6 436.7 433.9 430.9 427.5 423.8 420.7 417.6 410.2 419.7 420.3 419.1 418.4 415.5 410.6 407.1 403.7 399 394.8 391.6 388.4 385.4 382.3 378.2 370.6 364.6 361.8 359.2 356.7 355.2 353.5 352.2 350.9 351.2 351.9 352.5 353.1 353.7 354 352.1 350.1 350.4 350.5 349.9 349.1 349.4 349.1 348.6 347.6 350 353.2 356.1 357.2 358.4 361.7 362.1 363.4 363.6 367.7 370.1 371.4 369.9 363.7 361.1 360.6 360.5 360.2 358.4 356.4 351.3 348.3 345.6 344.1 343.8
379.5 383.5 384.8 386.8 386.5 383.7 382 386.5 391.7 399.5 407.7 407.8 410.3 408.9 407.5 408.3 406.8 402.4 397 396.6 386.4 398.1 406.9 411.6 413.3 415 416.2 417.6 431.5 429 424.6 422.8 422.2 424.1 427.7 434 440.8 448.7 455.9 463.3 469.8 472.7 474.6 476 471.9 475.7 474.5 469.4 457.6 448.3 438.9 431.5 423.3 419.5 425.9 428 426.8 425.3 423.7 424.5 422.3 421.7 420 419.2 417.9 418.2 420.8 419.2 408.9 402.1 400.7 400.3 410.3 422.1 431.4 437.7 442.7 448.5 457.5 473.1 490.9 504.9 518 523.8 530.4 534.5 544.8 561.3 580.9 594.1 602.9 608.3 612.9 616 617.1 617.7 617.6 616 613.8 612.6 612.3 613 613.1 612.9 611.3 606 601.1 595.8 588.7 580.7 569.4 556.3 545.5 536.6 525.6 511.8 502.9 494.3 485 476.7 468.8 463.9 457.7 451.8 444.9 440 436.6 432.4 429.7 428 424.6 420.3 416.5 412.2 402.3 415.4 416.6 416 415.8 411.2 409.1 406.9 402.8 397.9 393.6 390.4 386.4 382.9 379.8 377.9 371.6 364.1 359.1 358.1 355.7 353.9 352.3 350.9 349 348.3 348.6 348.8 349.7 351.1 351.6 350.3 348.4 348.5 348.7 348.1 347.7 347.8 347.4 346.7 345.2 348.2 352 355 356.3 357.5 360.2 361.3 362.1 362.4 364.1 365.9 366.4 364.6 361 360.5 359.1 356.5 353.5 351.5 348.6 346.2 344 343.4 342.1 341.6
385.2 388.2 388.3 389.7 389.4 387.2 388.1 393.3 400 412.4 414 414.5 417.2 418.8 420.4 420.9 418.2 414.1 409.2 405.9 401.2 401.3 406.3 414.3 416 423.2 429.5 435.6 437.1 436.8 435.3 428.4 427.6 428.5 430.9 435.6 440.9 446.9 451.7 455.6 461.8 466.7 469.9 473.3 474.7 479.7 478.6 472.5 461.5 451.6 439.8 433.8 425 426.8 429.7 430.2 429 428.5 428.7 427.3 425.3 425.9 424.4 421.7 421.3 424.8 426.5 423.5 416.4 409.6 400.6 400.5 399.7 415 424.7 431.1 437.6 447.1 461.4 476.9 492 506 522.5 529.2 536.3 543.6 548 563.1 578.4 591.6 600.4 607.9 613.9 619 620.9 621 620.2 617.4 614.2 612.4 610.5 611.2 610.1 609.3 606.9 602 598.1 592.9 586.1 577.6 563.7 551.2 540.6 529.8 518.6 505.8 496.8 487.9 479.9 472.5 465.6 455 449.6 444.4 439.2 433.4 431.2 428.8 427.4 425.7 422.4 417.1 410.8 407.4 396 409.2 415 413.2 409.2 408.5 407.7 405 401.6 396.8 392.4 388.4 384.7 381 377.7 377.3 368.2 362.2 359.5 355.9 354.1 352.3 350.8 349.5 347.3 346.6 346.5 346.9 348 348.9 347.8 347.4 345.5 347.3 347.3 346.7 346.2 346.4 345.8 345.2 343.1 347 350.9 353.8 355.3 356.6 359 360.2 361.4 362.5 362.6 362.7 362.9 361.7 360.6 358.8 354.2 350.1 348.3 346.3 344.5 342.5 341.6 340.1 340.2 340.1
388.1 392 392.6 393.4 392.9 391.7 393 401.2 408.3 414.3 419.8 425.4 433.3 437.3 435.9 435.1 431.3 422.9 419.1 414.8 409 397 405 414 418.6 425.9 434.5 439.2 441.7 443.4 439.7 434.3 434.6 443.3 442.5 445.4 444.7 446.1 447.7 450.3 455.9 459.9 463.3 468.5 472.5 477 477.5 471.3 466 455.2 442.3 436.7 426.6 434.3 433.1 433 433.5 431.8 430 430 428.1 428.5 427.2 425.7 425.1 426 429.2 427.4 411.1 398.7 399 401.3 399.3 397.6 413.8 426.1 437.2 447.8 457.8 478.2 489.5 505.4 523 530.1 537.7 545.9 553 562.6 576.6 590.2 601.1 610.2 618 623.2 624.8 624.7 623 619.6 614.5 610.7 610.2 608.4 606.3 604.4 600.2 597.9 594.7 589.6 581.5 570.9 558.3 546.6 535 522.9 510.1 498.8 490.3 483.1 475.9 469.6 463.1 455.9 446.6 435.7 433.8 429.7 425.8 424.6 425.2 423.7 419.9 414.9 407.5 401.2 392.4 398.9 409.2 409.5 408.5 406.1 404.9 403.3 400.4 395.4 390.4 386.5 382.9 379.3 372.4 369.2 364.4 361.9 358.5 354.8 352.2 351.2 349.3 347.9 346.4 345.6 345 345.2 346 346.7 346.3 345.7 345.2 346 346 345.1 344.3 345.1 344.4 343.6 340.9 345.9 349.6 352.7 354.5 356.3 358 359.7 361.3 362.3 362.7 362.6 361.9 360.3 358.8 355.1 351.4 347.6 345.3 343.7 342.3 340.4 340.5 338 337.6 338.7
390.7 395.3 397 396.9 396.9 396.7 398.3 405.8 414.3 422.7 424 437.1 443.4 446.4 445.3 444.1 438.2 429.9 424.4 420.5 416.2 415 411.7 412.6 419.3 427.4 436.2 441.8 443.8 448.9 445.8 441 442.4 446.1 444.9 443.6 445.8 446.6 447.4 448.3 451.6 455.7 457.4 463.1 467.4 471.6 472.5 469.5 464.6 455.8 444.9 436.3 422.2 437.4 439.1 440.9 441.6 439 435.7 433 430.5 429.7 428.2 427.8 427.6 426.2 417.8 424.3 405.2 414.5 407.9 401.5 405.9 397.4 396.3 409 426.5 439.8 451.4 469.7 483.6 498.5 515 527.8 535.7 544.8 554.1 565 577.8 588.8 601.9 612.9 621 626 628.9 628.9 625.5 619.8 612.6 607.9 607.4 604.3 600.3 596.2 593.9 592.1 589.3 584.1 573.9 563.4 552.3 540.1 526.7 513.5 501.1 491.7 484.6 477.6 471.2 465.2 458.7 451.8 442.3 434.2 420.9 423.9 421.8 421.1 422.4 421 416.8 412.3 408 403.2 393.5 389 400.3 405.9 405.5 403.3 401.7 401.1 398.8 393.5 388.5 384.5 380.5 373.2 368.7 365 362.4 360.1 357 353.9 351.4 350.1 348.3 347 345.5 344.7 343.9 343.5 344.4 345 344.8 344.1 344.1 344.8 344.6 343.9 343 343.8 343.3 342.4 341 344.7 349.1 352.3 354.2 355.6 356.5 358.5 360.5 360.7 360.6 360.7 359.7 358 355.5 352.8 350.1 346.7 343.3 341.2 340 338.9 338.1 337.5 338 340
394.8 398.3 399.4 399.2 401.6 400.7 403.3 410.5 418.8 425.4 435.7 444.5 450.5 452.9 451.3 448.4 442.9 436.3 431.9 427.2 421.9 418.9 415.3 407.8 420.7 426.4 437.6 443.9 449.3 455.2 452.3 446.3 445 445.9 445 445.4 447.9 447.6 448.3 448.5 449.8 453 454.9 458 462.3 466.9 467.7 467.1 461.6 452.2 446.4 424.5 437.3 444.3 446.4 449.4 449.3 445.6 441.3 439.6 437.1 435.8 436.2 431.9 432.4 436 432.6 405.8 422.7 422.3 419.1 415.2 413.3 408.8 406.5 394.1 393 425.2 440.9 458.1 469.3 481 499.3 517.1 529 541.4 552.7 565.2 576.8 588.4 601.6 613.2 621.8 627.9 631.9 631.8 625.4 618.4 609.3 602.1 601.3 596.6 590.6 586.8 585.3 583.6 580.6 574 564.4 552.5 542 529.5 516.4 504.3 494.2 486.1 478 470 463.6 459.1 452.7 444.7 435.8 428.8 422.6 416.2 416.1 417.4 419.7 418.6 414.2 409.7 406.2 401.1 392.8 383.9 395.1 401.9 400.8 399.6 398.1 398.5 397.6 392.5 386.6 382 374.3 373.4 367.7 365 360.9 358.1 356.2 353.8 351.3 348.7 347.4 345.8 344.5 343.7 343 342.4 343.7 343.9 343.7 342.8 342.7 343.5 343.4 342.9 341.8 342.6 342.3 339 339.2 343.4 347.9 351.4 353.3 354.6 356.6 358 359.3 359.5 359.5 358.4 357.2 355.5 353.2 350.7 347.9 344.8 341.7 339.7 339.1 338.4 337.6 335.3 338.6 339.8
397.5 400.9 400.9 402.9 403 404.3 407.2 415.8 423.5 434 443.7 449.9 454.3 456.8 455.3 452.7 448 444.1 439.6 434 428 422.3 420.1 411.5 420.2 427.6 438.6 445.5 455.4 460.1 458.4 453.2 446.6 448 453.7 452.7 450.8 448.9 449.2 448.4 448.4 451.4 454 456.9 459.9 462.9 464.7 463.8 458.3 451.3 441.7 425 443.9 451.6 455.6 455.7 455 451.6 449.1 446.2 444.3 442.4 439.8 435.2 434.2 444.4 446 439.1 441.4 437.3 430.6 425.9 422.4 421 418.6 409.4 392 394.5 413 435.2 446.7 459.5 482.6 502.7 520.9 536.9 550.1 562.5 574.3 588.6 601.1 613.6 623.2 630 633.5 631.1 623.2 614.9 604.9 598.2 594.2 587.3 579.8 577.4 575.4 572 567.3 560.7 551.5 539.8 529.9 519.7 509.6 496.4 487.1 478.2 469.2 460.9 455 449.7 443 436.1 428.5 421.7 417.3 404.9 406.5 412.7 416.1 417.5 411.9 407.5 404 401 393.6 383.4 380 397.7 398.4 395.2 394.7 395.6 395.9 390.6 384 378.4 375.2 370.1 367 363.7 359.4 357 355.3 353.5 351.1 347.9 346 344.7 343.5 342.7 342 342 343.2 343.5 343.1 341.7 341.9 342.3 342.3 341.9 341 341.5 341.4 338.8 337.8 342.9 347.5 350.9 352.6 354.2 355.8 356.9 358.2 358.5 357.9 356.5 354.8 353 351.2 348.5 346.3 343 340.4 339 337.3 337.4 336.8 335 338 339.3
400.6 403.2 404 406.7 408.5 409 411.1 423.8 431.3 442 448.3 454.1 458.8 461.5 462.7 459.5 456.3 451.9 446.8 441 433.9 427.4 423.2 420.4 418.7 429.1 437.3 447.1 456.8 462.2 463.9 459 447.4 456.4 463 461.9 457 453.3 450.2 448.6 447.7 448.5 452.6 455.8 458.5 459.1 460.6 460 457 444.8 427.7 432.7 452.9 460.4 463.6 461.9 461.1 459.8 459.2 455.5 451.3 446.7 442.7 441.5 445.3 451.4 457.3 457 455.4 451.3 446.9 438.2 431.9 431.8 423.7 415.4 396.8 389.7 379.3 406 411.7 439 467.7 491.7 513.3 532.1 548.5 559.4 573.2 586.6 600.8 614.2 622.3 627.6 630.7 628.1 620.1 610.9 602 593.7 586.3 576.4 569.6 565.5 563.5 559.5 553.3 546.2 537 527.1 518.4 510.1 500.2 489.4 478 468.9 460.1 450.8 445.1 439.9 434.2 427.6 421.4 416.2 410.9 407.7 401.2 396.5 404.3 414.8 409 402.9 401.2 399.3 396.6 385.1 378.1 382.5 389.2 390.2 390.7 392.5 393.4 387.7 381.2 375.6 372.8 368.2 367 361.4 359 356.4 354.3 352.5 350 347.3 345.1 343.9 342.9 341.4 341.2 341.3 342 341.6 341.3 340.1 340.3 341 341.2 340.4 340.2 341.1 340.3 339.3 338.9 341.7 346.1 349.3 352.2 353.7 355.1 355.9 356.8 356.9 356.1 354.7 352.9 351.2 349.5 347.5 345.3 342.2 339.6 338.2 336.3 336.4 335.7 335.3 337.3 338.4
403.8 405.2 407.5 411.3 413.1 411.9 419 432.7 441.3 448.6 455.1 461.6 466.4 470.5 470.8 466.3 461.9 457.3 452.2 446.8 440.5 432.9 427.2 423.7 417.3 425.8 440.4 447.2 457.5 463.1 468.4 462.6 450.3 467.1 473.1 471.1 465.3 462 460.8 457.1 453.1 445.6 449.8 454.8 455.7 454.5 454.9 455.6 445 431.7 433.7 455.3 462 467.6 471.2 468.8 467.5 466.9 466.8 463.8 457.1 456.4 452.8 450.9 452.7 459.1 465.7 469 469.2 468 461.9 452.5 445.4 439.2 431.6 424.4 412.4 399.1 388.3 368.1 377.9 412.9 450.5 475.8 500.9 522.5 539.2 555.2 568.3 582.2 598.9 608.4 616 622.1 625.4 622.4 616.1 607.7 599.5 587.9 578.8 569.6 562.9 556.7 552.5 547 540.7 533.1 525.3 517.8 509.5 501.6 491.5 480.8 469.6 459.3 450.8 442.1 437 431.9 425.7 417.7 412.5 409.3 404.6 401.8 395.9 389 403.7 408.8 400.7 395.9 397.4 396.4 394.6 386.4 377.6 374.1 380.6 386.6 386.3 388.7 389 384.3 377.3 372.6 368.8 369 364.3 360.7 357.5 355.1 353.8 351.9 350.6 347 345.3 344.1 343 341.6 340.1 339.5 339.4 338.8 338.5 338.2 338.6 339.2 339.7 338.9 340 339.9 339.1 338.4 337.4 340.7 345.1 348.4 350.9 352.8 354.1 354.9 355.1 355.1 354.3 352.9 351 349.3 347.7 346.5 344.1 341.5 339.3 337.3 336.2 333.7 333.8 335.7 336.5 337.4
405.6 408.1 410.4 414.2 413.4 413.7 429.6 439.9 447.5 455.2 462 469.7 474.7 478.3 477 472.2 467.4 462.6 457 451.9 446.9 440.5 433.1 428.8 425.8 427.8 438.9 448 457.2 462.6 466.6 457.1 462.2 477.3 483.3 480 476.8 470.4 468.5 466.3 460.8 446.7 444.7 451.7 451.8 448.8 439.7 437.9 444.7 452.3 454.2 462 468.8 472.9 476.2 474.1 474 474 473.9 468.3 463 462.3 460 457 459.4 465 471.4 476.1 477.5 479.7 473.2 464.6 459.2 451 447.2 434.4 420.3 405.4 389.5 384.7 361.7 382.5 434.7 463.4 486.9 506.6 526.1 544.7 559.5 571.8 584.3 594 603.5 610.7 614.6 617.3 611.6 605 596.2 585 579 569.6 561.7 551.9 543.7 537.2 530.1 522.3 514.9 508.4 501.5 492.6 482 471.6 459.5 449.5 442 435.2 428.9 424.3 418.6 410.4 404.7 401 397.7 397 391.1 381.5 401.9 405 396.7 392 395 393.6 391.8 389.6 376.9 371.7 373.7 382.4 381.1 384 381.6 377.1 371.2 369.9 367.2 364.6 361.9 359 355.8 353 350.8 349.3 347.8 346.4 345.4 344.3 343.6 342.8 343.4 339.6 338.2 337.7 337.3 337 337 337.5 338 338.3 338.7 338.7 338 337.3 334.9 340.1 343.4 347 349.4 350.9 352.2 352.9 353.1 352.7 352.5 351.2 349.8 348.8 346.3 344.9 343.3 340.4 338.1 337.2 336.2 335.1 333.2 335 335.9 336.4
407.3 411.5 416.2 414.3 415.5 427.8 439.3 446.5 454 462.8 470.9 477.5 482.9 485.5 482.6 477.5 472.4 467.2 461.5 455.7 451.4 447.3 443.7 435 428.3 426.8 441.6 452.5 456 455.8 455.7 458.1 472.6 487 493.6 489.8 488.4 481.1 477.5 472.9 469.1 461.5 445.9 444.6 443.2 446.2 452.3 455.8 461.6 462.3 461.7 466.4 473.1 476.6 480.7 480.7 480.2 481.7 480.2 476.3 472 466.9 464.2 461.9 463.7 468.2 477 481.1 483.7 488.6 484 472.9 468.8 467.4 457.6 442.6 425.8 411.1 392.5 382.6 376.5 364.4 417.6 452 474.9 496.9 517.7 531.4 544.7 557.4 569.3 577.8 586.2 596.5 602.2 611 606.8 601 593 585.9 580.3 571.7 562.5 552.5 540.3 530.9 517.2 513.3 506.1 499 492.4 483 472.5 461.7 449.1 441.1 434 427.2 421.4 416.7 409.3 403.1 398.5 392.6 390.2 392.5 385 386.6 397.8 399.2 394.1 390.3 391.6 390.2 388.2 385.5 375.7 372 368 373.9 373.8 371.9 374.8 371.3 373 372.2 364.8 361.6 358.2 356.2 354.3 352.8 351.7 348.5 347.6 346.5 345.7 344.8 344.1 343.5 342.1 340.2 338.4 336.5 336.5 336.1 335.9 336 336.5 337 337.3 337.4 336.8 335.2 334.5 338.7 342.1 345.4 347.4 347.5 348 347.4 347.1 345.5 345.3 345.3 345.9 344.5 344.2 342.7 341.5 338.7 337.3 336.6 336.1 335.2 333.5 334.1 334.6 335.7
408.5 414.4 414.4 415.6 426.6 436.9 447.4 453.3 462.2 471.2 479 486.2 491.3 491.8 487.6 482.1 476.3 470.9 465.4 459.5 454.9 451 446.9 443.1 430.2 432.8 443.5 453.1 457 466.8 465.7 468.6 479 494.8 503.3 502.5 499.5 490.6 485.4 481.8 476.3 470.5 461.5 454.3 459.1 463.2 465 464.8 464.8 465.4 465.8 469.2 475.2 478.6 483.3 485 484.9 487.5 486 484.7 478.1 472.2 467.5 464.9 466.1 472.3 480.8 485.1 489.9 493.6 487.5 478.4 475.9 476.8 470.3 455.8 435.3 417.8 393.5 378.2 384.5 373.4 407.1 441.8 467.5 485 505.6 519 529.8 542.9 553.6 562.7 571.6 582.7 588.9 598.6 599.2 596 591.5 588 583.3 574.8 564.7 554 542 530.3 519.8 504.2 493.8 488.8 481.7 474 462.2 450.8 441 433.2 426.6 420 414.9 410.4 404.1 398 392.5 391.5 384.1 390.1 379 382.7 390.2 394 389.2 387.9 388.8 387 382.7 376.8 369 366.6 364 365.1 367.3 369.7 371.9 374.4 372.5 362.3 361.6 362.4 362.1 358.8 354.6 352.1 349.3 347.8 347.3 347 346.5 345.1 344.3 344 342.6 340.3 338.5 336.7 335.6 335.2 335.1 335 335.2 335.6 335.7 335.8 335.7 334 333.3 337.7 341 343.6 344.9 345 344.9 345.3 345.4 345.7 341.4 339.5 337.5 336.1 336.3 335.6 335.4 336.1 336.1 335.9 335.5 335 333.5 332.6 334 334.8
409 415.1 413.8 425.7 437.2 447.7 453.9 460.8 469.4 478.1 486.9 494.4 498.3 497.2 491.8 485.6 479.8 474 468.5 462.2 458.4 454.1 449.9 443.3 427.8 437.1 449.7 456.3 463.3 469 462.5 478 489.9 502.8 510.7 511.8 510.6 501.9 498.8 492.8 485.2 479.5 468.2 465 465.2 467.4 468.6 468.1 467.4 467.8 469.2 471.3 474.2 477.8 483 485.3 486.1 488.9 490.7 491.3 485.2 475.2 470.1 467.8 468.7 475.9 482.6 487.8 494.3 497.1 488.4 483.1 480.8 480.6 477 462.5 445.2 422.7 395.6 376.7 377.6 382.3 397.4 432.5 454.3 473.2 490.7 505.6 516 527.9 538.4 548.7 557.5 568.9 577.5 585.5 590.2 591.1 589.5 588.1 584 576.1 565.8 555 542.7 531 519 502.9 488.9 475.2 469.7 462.3 452 442.4 433.7 424.9 418.8 413.6 408 404.5 401.1 398.4 394.9 391.6 389 380.3 374.5 371 388.7 389.9 386.1 387 385.2 383.4 375 366.6 361.1 360.3 362.2 363.8 366.5 367.7 372.8 372.4 365.8 362.6 367.9 366.2 363 358.5 353.5 349.9 348.5 347.7 347.2 347 345.9 345.2 344.5 343.6 342.7 340 337.6 336.2 335.3 334.9 334.4 334.2 334.4 334.6 334.2 334.9 334.3 333.2 333.7 337.4 340.2 342.9 344 344.2 346 348.2 349.4 348.8 342.9 339.6 338.3 338.4 337.1 335.7 334.5 334.3 335.1 335.3 334.8 334.3 333.5 332.5 333.2 333.9
412.3 413.9 423.5 435.3 449.5 455.3 458.5 466.3 474.5 483.6 492.1 499.2 503.3 500.7 494.7 488.3 482.5 476.6 470.4 463.9 460 456.2 452 446.8 429.7 439.9 451.5 456.6 463.1 465.7 469.3 486.2 499.2 510.3 519.8 519.9 518.5 513.7 507.7 501.7 494.7 486 475 471.7 470.9 471.3 471.4 470.8 470.4 470.5 471.6 473.1 474.3 476.2 480.8 483.5 485.1 488.3 491.2 493.9 489.6 481 472.9 469.7 470.4 474.9 482.3 488 493.9 496.3 489.2 484.3 482.2 480.1 478.4 467.3 450.9 425.6 400.2 381 363.3 375.4 389.9 418.6 440 458.2 474.6 492.3 504.6 514.2 524.4 534.5 543.1 554.6 565.3 572.7 578.8 581.6 584 584.3 582.1 575 564.3 553.2 541.8 530.2 515.3 498.9 484.1 468.4 452.9 449.7 442.4 433.4 425.4 417.9 412.1 408.3 402 398.9 396.8 395.4 392.8 388.8 386 386.5 379.6 365.1 383 383.5 378.8 382.6 380.9 378.3 365.2 361 357.4 358.4 360.1 362.7 367.5 369.7 370.4 370.1 362.6 363.9 368.3 366 362.3 357.5 353 349.9 348.5 347.3 346.8 346.3 344.2 342.8 342.2 342.8 340.6 338.7 337.5 337.2 335.6 333.6 333.3 333.3 333.4 333.2 333 333.1 332.7 331.1 332.5 335.2 338.3 341.2 343.8 345.1 347.4 348.9 348.7 348 346.5 344.6 343.7 341.2 338.4 336.6 335.5 334.7 334.1 334.5 334.1 333.4 332.6 331.7 331.7 333.1
411.4 415.5 428.9 443.9 454.4 456.5 460.7 468 476.9 486.4 495.2 501.9 505.4 502.6 496.4 490.7 485 479.2 472 465.4 460.7 457.6 453.8 449.2 434.2 436.7 447.8 457.7 465.6 473.5 482.4 493.8 506.7 518.8 528.6 530.3 526.5 521.6 514.1 509.5 500 490.8 482.2 478.6 478.5 475.6 474.4 474.3 474.1 473.7 473.9 474.9 475.8 476.4 478.1 480.5 482.8 486 489.1 493.7 490.3 483 475.7 470.5 470.6 472.6 480.1 485.6 495.7 497.1 490.4 484.3 480.3 477.5 475.6 468 452.1 427.3 403.6 386.9 368.8 365.3 381 406.7 427.6 445.1 460 476.4 491.2 500.2 510 520.2 529.7 539.7 548.8 557 564.9 571.9 576.4 578 577.2 570.8 560 548.6 537.2 524.4 509.4 493.6 478.5 462.4 448.7 434.7 431.6 425.3 416.9 411.3 405 401.7 397.4 394.1 392.8 391.6 389 382.9 375.5 375.6 371.9 360 375 375.2 373.3 376 375.7 372.3 361.5 357 355.8 356.8 358.1 361.5 366.2 367.3 367.2 366.3 361.7 369.3 368.4 365.3 361.3 356.9 351.3 348.7 347.7 347 345.4 342.9 341.8 341.5 341 339.3 338.5 337.6 336.2 334.7 334 333.5 330.7 332.2 332.2 332.4 331.7 331.6 331 329.7 331.1 334 336.4 339.6 342.3 345.2 346.5 347.3 347.6 347 347.1 345.3 342.3 337.7 337 336.2 335.3 334.1 333.8 333.3 333.5 332.6 331.2 330.6 330.2 331.4
412.6 416.7 429.5 444.3 450.1 453.6 457.9 465.8 475.2 484.8 494.3 502.4 506.5 503.9 497.8 492.7 488 482.2 475.5 468.2 462.6 458.9 454.7 449.9 441.7 434.8 442 457.3 467.6 477.8 487.5 499.5 511.8 525.5 535.7 538.2 535.4 529 521.2 512 501.6 494 489.5 488.1 487.7 484.5 480.2 478.7 477.4 476.7 476.7 477.4 477.4 477.2 477.9 477.7 479.4 482.8 485.1 488 488.3 482.9 475.7 470.5 469.1 472 478.4 485.8 497.2 497.4 491.2 483.8 475.8 471.7 469.5 465 451.2 428.5 407 388.9 365.8 358.1 373 391.8 415.8 432.2 448.8 465.7 479.4 486.9 495.9 506.1 514.9 523.7 532.7 542 551.1 560.1 567.4 570.6 568.4 562.3 552.6 542 529.8 517 502.5 487.5 471.6 456.5 443 432.2 417.5 415.2 409 404.8 400.2 396.6 391.6 387.8 388.2 387.8 382.8 368 366 368.3 360.2 357.6 360.8 361.9 361.4 363.8 364.4 361.3 355.2 353.7 354.1 353.9 356.4 360.4 363 364.8 365.6 366.2 361.6 370.2 368.2 364.4 359.9 355.8 350.1 347.7 345.8 344 342.9 342.6 340.9 339.6 338.9 338.7 337.9 337.1 335.8 334 333 332.3 330.7 331.5 331.6 331.4 330.3 329.7 329.2 328 331 333.3 336.1 338.2 340.6 343.8 345.2 347.2 347.6 347.6 346.1 342.7 338.4 337.7 337.5 336 334.4 333.2 332.8 332.1 331.8 330.6 330.1 329.7 327.8 329.2
411.8 418 428.3 438.7 444 448.1 453.2 460.4 470.7 480.1 491.8 501.6 506.7 504.7 498.9 494.8 490.5 484.8 478 471.3 465.9 461.4 456.8 451.4 447.5 441.8 438.5 453 469.4 479.4 491.8 504.1 514.5 528.4 539.8 544.4 542.9 536.8 525.2 507.8 504 502.4 500 498.9 497.3 493.2 486.8 484.3 483.8 480.8 480.5 479.8 479.1 478.4 478.2 476.5 475.5 479.3 481.8 480.8 480.7 476.5 474.4 468.6 463.3 470.9 476.9 482.4 495.1 493.3 489.5 481.8 471.1 464 461.2 458.1 446.7 426.1 405.8 388.7 374.4 355.4 369 379.7 404.9 420.2 437.1 448.4 460.2 471.5 482.9 491.4 499.5 509.3 519.3 529.9 539.9 547.9 557.2 561.4 560.2 553.8 545.7 534.7 522.1 507.7 494.5 479.7 464.8 449.8 437.1 427.9 418.3 407 401.4 398.7 395.5 391 387.3 379.2 383.5 383 371.6 358.8 354.1 354.8 354.4 354.2 353.6 352.6 353.4 352 352.6 352.1 351.4 351.2 352.2 351.4 354.7 357.5 358.7 361.2 362.2 359.3 364.5 369 366.9 363 358.8 353.4 348.1 346.5 344.9 343.4 342.3 340.4 339.5 339.1 338.6 338.2 337.8 337 334.3 333 332.5 331.1 329.8 330.3 330.3 331.3 331 328.7 328.4 327.6 331.1 332.4 335.2 337.5 337.7 339.8 342.6 344.7 345 343.5 341.4 338.6 337.9 337.2 336.7 335.1 333.5 332.3 331 330.5 327.6 328.7 329.9 329.7 329.3 326.1
407.7 415.5 424 431.8 437 441.5 446.9 454.3 464.7 474.5 486.6 498.2 504.8 503.8 499.4 496 492.2 487.2 480.9 474.3 469.4 464.3 460.3 454.9 450.8 448.7 446.6 445.9 467.1 482 493.3 504.8 514.2 528.6 540.3 547.4 547.9 540 527.4 510.3 513.2 511.3 512.9 508.1 508.6 503.1 495.6 489.4 488.5 486.5 484.1 482.8 480.8 479.7 478.6 476.8 474.9 472.5 472.8 467.8 465.5 466.2 459.9 454.7 447.1 464.8 467.2 469.9 480.6 485.2 483.9 476.6 465.4 455.8 454.1 448.3 439.4 422.3 400.9 387.7 381.8 356.3 360.6 373.4 390.5 405 420.2 433.7 444.6 457.5 466.3 476.1 486 496.9 508.4 516.8 526.2 536.2 546.9 553.2 552.8 545.2 537.7 527.8 513 498.8 486.6 471.2 457.3 443.7 431.4 421.3 412.2 404.3 396.2 387.1 386.9 384.8 377.6 368.2 377.3 376 363.4 353.7 352.2 351.9 352 351.6 351 350 349.2 348.7 348.7 349 349.3 349.2 349.4 350.8 351.5 352.1 357.5 357.7 360.2 359.3 363.5 367 365.5 361.6 357.3 349.7 347 345.3 343.7 342.5 341.1 339.8 339.2 339.2 338.9 335.5 332.1 331.9 331.8 331.6 331.9 330.9 328.6 328.6 328.6 328.5 328.3 327.7 327 324.6 328.6 331.2 334.1 337.2 337.9 338.4 339 339.4 340.7 339.5 339 338.8 338.6 336.9 337.1 334.3 332.6 329.4 327.1 325.2 325.9 325.7 326.4 328.2 326.4 326.5
402.7 409.1 416.2 423.6 429.4 434.3 440.2 447.8 457.2 468 478.5 492 501.8 501.9 498.1 496.8 493.6 488.7 483.7 477.6 472.7 467.7 464.1 457.9 454.1 451.1 453.5 443.7 457.9 480.2 492.6 504.3 514.5 526.1 537.6 545.1 546.1 541.9 527.5 511.9 522.9 524.2 523.4 517.6 516.2 513.2 504.7 496.9 493.6 490.4 486.8 484.9 483 480.9 479 477.2 476.1 475.4 469.8 472.2 473.6 474 471.3 466.5 445.3 442.8 455 464 471.2 475.3 473.7 467.4 457.8 449.3 446.1 440.7 429.9 414.9 397.4 387.1 385.2 360.9 354.2 371.7 378.9 398 404.1 418.8 432.2 443.9 454.3 463.2 473.3 484 496.1 506.5 515.5 525.5 538.4 545.4 544.5 537.1 529.6 519 504.5 491.6 476.9 462.5 449 436.9 425.5 415.8 406.9 397.7 390.6 383.7 373 367.6 364.1 358.3 359 355.8 350.5 350.2 350.3 350.2 350 349.5 349.1 347.6 345.4 344.9 345.1 345.9 346.2 347.1 347.6 349.4 349.4 348.8 350.5 356.1 359.3 357.1 361.2 364.9 363.5 360.2 353.4 348.8 346.3 344.4 342.5 341.6 340.8 339.1 338.7 338.8 332.7 332.7 332.7 332.6 332 330.6 330.1 329 328.3 326.4 326.6 327.3 327 326.5 325.6 326.1 328.2 330 332.8 336.2 340 341 341 340.6 339.5 339.4 339.2 339.3 338.9 337.1 334.7 332.5 330.9 329.4 328.9 327.1 324.6 319.5 322.7 318.9 321.6 323.7
395.2 401.7 407.5 412.8 420.5 425.6 433.4 440.8 450 461.1 471.9 484 495.8 497.4 495.8 496.4 494.1 490.3 485.5 480.7 475 470.8 466.6 462.2 457 450.5 449.4 447.4 461.3 478 490.5 501.8 510.8 521.6 530.4 537.3 540.7 539.6 531.7 513.2 526.4 532.4 531.7 525.8 522.7 519.8 514.4 505.5 501.4 495.8 488.9 487 485.8 484 480.6 477.5 473.9 473.2 477.1 478.3 479.2 478.6 475.2 470.9 468.5 454.4 445.4 453.3 456.4 462.4 461.5 457.1 448.8 442.2 437.6 431.5 419.8 407.9 396.1 386.7 388.3 367 350.4 364.7 373.9 383.4 396.8 409.8 421.6 432.9 442.3 452.3 462.4 473.5 483.8 496.3 507.6 517.8 530.7 537.6 535.9 528.2 520.3 510.8 496.6 482.8 468 453.4 440.2 429.7 419.9 410.6 401.1 393.4 387.1 371.7 363.6 360.3 356.3 353.3 351.6 350.5 349.8 349.4 348.9 348.6 348.1 347.4 346.2 345.1 343.5 342.7 342.6 343.2 344.5 344.3 347.8 348.7 348.4 347.4 347.7 351.9 354.8 354 358.9 362.6 361.2 356.8 351.5 347.9 345.7 344 341.6 341.1 340.2 338.8 338.2 333.1 333.1 333.2 332.9 332.9 331.8 330 329.2 328 326.8 325.8 324.1 325.9 326 325.4 322.5 325.6 327.2 330.9 332.1 335.4 336.6 341.2 340.6 341.4 341.2 340.3 339.8 339.3 339.4 334.7 333 332.2 330.7 329.6 329.3 327.6 327 318.3 312.8 311.7 312.1 312.9
388.1 395.8 401.5 406.2 412.7 419.7 426.1 434.6 444 454.6 465.8 477 486.6 491 492.1 494.7 493.7 490.2 485.8 481.1 476.5 472.6 468.1 463.9 459.2 447.6 448.8 458.5 466.7 469.6 487.6 497.7 506.1 514.3 522.4 529.1 534.1 535.2 528.6 514.6 529.5 540.9 540.6 537.3 533.5 528.2 521.8 513.5 506.6 501.5 493.4 490.1 488.5 487.8 486.7 484.5 483.2 482.8 483.5 483.5 485.1 483.9 480.9 477.6 474 464 442.6 413.5 420.8 438.1 446.9 443.8 436.8 432.7 428 421.8 412.8 397.9 391.5 386.2 385.5 370.3 352.9 351.3 360.5 378.5 393.4 401.8 412.1 422.3 432.5 442.8 453.1 463.5 475.8 486.1 498.4 509.3 521.5 531.7 530.5 521.1 513.2 502.3 488.8 473.6 459.2 444.6 433.3 423.4 413.7 405.3 397.1 390.9 383.2 365.6 358.5 357.2 354.6 352.5 352.5 350 349.2 348.7 348.2 347.6 347.1 345.6 343.9 344.5 343.3 342.9 341.8 341.4 342.6 342.8 343.3 347.5 349.3 347.8 345.6 348.5 350.1 354.2 355.9 357.3 356.1 352.9 349.3 347.2 344.9 342.6 340.8 340.1 339 337.8 336.4 333.3 333.1 331.7 331 331.6 330.8 329.6 328.5 327.2 326.1 325 323.5 324.9 325.1 324.3 322.9 324.8 326.7 330.5 331.2 333.6 336.8 334.7 335.7 337.6 338.8 338.8 339.5 337 333.9 333.4 332.9 332.3 330.7 329.6 328.5 326.6 323.9 313.8 313.3 312.8 311.6 310.7
381.3 389.1 397 403.1 408.5 415 421.1 428.8 437.4 448 458.9 469.7 480.6 484.7 487.2 489.9 490.7 488.3 484.6 480.7 476.1 473.1 467.9 464.2 459.5 449.7 453.3 464.2 467.9 463.7 483.3 493.7 500.3 508.3 515.5 522.1 527.7 529.7 520.8 517.1 537.2 546.7 547 543.7 541 535.2 529.1 520.9 512 505.1 499.8 494.9 493 491.8 490.5 490.1 488 487.6 487.4 487.7 488.8 489.1 487 483.1 477.3 467.3 457.9 429.3 409.2 418 430.2 430.6 426.4 420.8 415.1 406.3 401.4 386.8 381 385.3 379.3 366.6 357.1 348.8 354.1 375.6 384.2 395.7 403.8 415.9 424.7 432.7 443.6 455.2 468.3 481.4 492.3 503.1 516 526.6 527.5 517.9 510.1 498.1 483.6 467 452.1 436.7 425.8 416.9 408.2 400.4 394.3 386.7 374.9 360.8 355.8 355.1 354.3 351.2 351.7 351.5 349 348.1 347.5 346.9 346.3 345.1 346.6 345.1 343.9 343.8 343.3 341.7 340.6 341.1 339.9 339.7 340.5 342.8 344 345.7 350.1 350.5 343.8 350.6 351.3 348.9 347.8 346.4 344.2 342 340.2 339.7 338.7 337.5 336.2 333.7 333.3 332.8 331.6 333.3 331.9 330.2 329 327.4 324.8 323.5 321.8 323.7 324.3 323.3 319.6 323.7 326.7 328.6 329.8 332.1 333 332.6 333.9 334.4 334.5 334.6 334.4 334.1 333.8 333.3 332.8 332 331.9 329 327.3 325.4 322.3 315.4 314.5 314.5 315.3 310.2
381.1 382.3 393.7 397.6 403.6 409.6 415 423.8 430.8 442 452.8 463.3 474.2 478.7 482 484.5 485.6 484.3 481.8 477.9 474.7 471.7 467.5 464.6 456.6 452.9 458.3 465 467.3 466.6 480.2 488.5 496.3 500.9 508.7 514.9 519.9 519.6 516.1 525.3 540.7 546.4 547.9 546.6 544.8 541.1 536.1 528.6 519.1 512.2 506.3 501.8 497 495.6 494.9 493.9 491.9 491 491.3 492.7 492.1 492.3 489.3 486.3 480 468.1 456.3 444.3 424 407.9 414 416.9 414.6 410.3 402.2 396.9 392.1 381.8 381.2 385.4 381.6 371.7 372.7 359.8 350.2 369.9 378.4 388.7 399.1 410 416.1 423.8 434.4 446.2 460.9 474.8 488.2 499.4 512.3 523.3 525.7 518 508.7 495.2 480.8 462 446 429.9 419.6 411.1 401.7 396.2 390.3 383.6 368.2 356.8 353.2 354 352.6 350.7 350.9 359.6 350.3 347.7 347.1 346.4 345.7 345.1 345.6 345.3 344.2 343.2 341.6 340.6 340.2 340.8 338.7 337.6 338.8 336.7 337.7 343.4 348.6 343.2 331.2 327.5 331.8 347 346.6 346.1 345.4 342.4 341.8 340.3 339.2 338.1 337.7 334 333 331.2 330.2 325.9 324.9 324.2 325.6 325.8 323.5 322.5 321 325.3 324 322.7 318.9 323 325.2 327.2 328 331.8 332.9 333.3 333.5 335.5 335.4 334.9 334.8 334.2 334 333.6 333.3 333.5 333 329.7 326.5 324.1 318.3 317.3 315.5 315.5 314.9 309.4
396.1 382.3 386.7 397.5 402.1 406.5 412.2 419.6 427.5 436.2 447 457.9 468.4 472.7 476.2 478.9 478.6 478.7 476.5 472.8 471.4 469.1 465.8 460.2 452.7 463 465.1 462.9 468.2 469.8 476.7 485 492.1 496.6 503.4 509.8 514 514.7 516.5 529.2 537.5 542.1 545 546.1 545.7 542.8 538.8 532.3 525.4 519.2 513 509.7 504.3 499.8 498.3 496.9 495.7 494.8 494.4 495.5 496.2 495.2 495.3 488.8 480.1 470.9 463.7 453.7 438 418.6 403.1 402.6 403.9 398.6 391.8 387.6 384.9 381.2 381.3 385.6 385.8 377.5 373.4 359.7 348.4 361.8 377.1 379.2 391.7 403.7 412.2 417.6 425.8 438.9 452.6 469.7 482.9 496.2 509.8 519.3 523 518.8 509 493.9 476.4 457.6 439.5 425.4 414.1 405.5 397.8 393 387.5 376.5 360 354.5 351 352 349.9 351.3 357.6 362.1 348.9 347.7 346.6 345.7 345.6 345.4 348.8 347.3 344.6 342.8 341.8 342.4 340.9 340.7 338.5 336.7 337.9 337.7 341.5 350.4 346.5 338.4 325.9 333.8 328.8 325.9 331.6 337.5 343.6 342.7 342.5 340.8 340.3 338.2 337.3 334.8 333 332.5 331.5 324.2 326.9 326.9 323.9 323.9 323.1 322.1 320 322.3 321.6 320.2 318.4 322.9 323 324.9 325.3 328.2 331.6 333.1 334.3 336.9 336.5 335.7 335.2 334.9 334.5 335 334.5 332.9 331.4 328.5 323.2 320.5 318.8 318.1 316.7 315.7 313.5 308.4
401.1 399.8 385.7 386.8 396 402.7 409.1 415.2 424.1 430 441.6 452.6 461.5 465.9 469.9 474.3 475.8 475.4 473.1 471.1 469 466.7 463.2 453.1 458.5 464.9 469 470.3 466.9 472.3 475.6 482.9 488.9 494.1 500.7 507 510.8 513.2 520 526.3 532.7 538.3 541.5 543.5 543.1 542.4 539.5 535.6 531.4 526.4 520.3 518.3 509.3 504 501.7 500 499.2 498.5 497.7 495.9 498 497 494.4 488.9 483.2 474.2 468.8 462.7 452.2 433.8 422.8 415.8 408.3 400.5 387.6 385.5 383.9 380.1 380.2 381.6 386.1 382 371.5 361.9 348.3 357.4 375.7 378.2 382.8 393.2 405.9 413.4 418.7 429 444 460.7 475.1 490.1 503.9 512.7 517.1 516.4 508 493.1 473.2 452.5 434.7 419.9 408.7 401.3 394.9 389.8 383.1 366.1 357 352.6 350.2 349.6 354.2 360.1 356.5 351.9 348.3 348.3 346.4 345.5 345 348.3 353.3 353.2 349.2 343 342.2 343.9 342.6 341.7 342.4 339 336 335 345.5 350.7 351.5 331.4 336.4 348.5 334.1 329.6 323.5 329.1 339.7 341.2 341.3 341.3 339.6 339 337.4 335.3 333.2 330.7 328.3 324.7 326.6 327 323.7 323 322.2 321.4 319.8 320.4 319.7 316.5 318.9 319.8 319.1 319.7 323.5 326.3 327.3 332.3 333.8 334.1 334.2 332.8 328.7 326.5 326.1 325.8 326.2 325.2 325.5 323 320.9 320 319.2 318.7 318.3 317.6 309.3 307.7
407.8 405.9 401 395.6 390.6 400.1 406.2 413.1 420.6 428.6 436.4 446.5 455 460.2 464.1 468.5 470.1 469.9 468.9 467.6 466.4 464.7 454.7 460.5 466.6 469.4 471.2 472.1 473.1 475.4 480.5 483.1 489 494.6 500 505.9 510.1 513.8 518.8 524.4 530.2 535.1 539.4 541.8 542.6 543.5 542.9 540.7 536.6 533.7 528.1 524.8 517 507.6 505.7 502.2 500.5 499.2 499.3 496.6 499 497.3 495 488.7 483.1 476.9 471.9 467.7 463.1 443.3 431 424.2 414.8 412.3 403.7 389.4 383.7 380.4 378.4 378.8 386.3 383.1 376 362.4 348 346.9 366 375.8 379.4 388.4 398.8 407 412 420.7 435.2 449.3 464.1 480.4 495.8 504.8 509.1 510 504.5 487.2 468.2 448.1 427.3 414.8 405.1 397.3 392.1 386.6 379.5 361.9 355.4 351.1 349.2 348.7 350.3 352.4 349.3 348.5 349.5 348.5 346.5 345.4 346.3 351.9 357.2 356.8 355.5 352.8 351.1 354.6 356.6 356.2 355.3 353.1 349.9 340.7 334.2 345.5 346.8 331.1 345.4 349.9 348.7 346 339 327.4 331.8 338.4 340.6 341.8 339.1 339 336.8 335.3 332.7 330.1 327.5 326.7 328.3 328.5 323 322 321.7 321 320.3 320 319.3 319.6 315.2 313.9 312.7 317.6 321.7 325 325.2 324.7 325.8 324.9 322.1 322.5 322.8 323.4 323.7 323.4 323.1 322.4 321.7 321.1 320.5 320.1 320 319.7 319.3 318.6 308.7 307.1
415 411.4 406.7 404.1 390.5 393.4 400.6 407.8 415.9 424.7 431.6 441.4 451.1 455.3 458.6 462.7 464.4 466.8 467.3 466.1 464.6 460.5 453.5 467 468.4 472 473.8 475.7 477.6 482.1 484.7 490.3 493.7 496.5 497.8 505.7 510.1 513.2 517.5 523 528.9 535.3 539.7 542.6 546.9 547 547.2 547.1 541.8 538.6 533.9 528.9 523.1 512.2 507.6 503.9 501.3 498.9 497.1 495.9 495.8 492.8 492 487.6 485.2 478.4 475.6 474.2 471.1 452.2 435.3 424.6 419 414.7 410.9 402.4 398.5 391.3 380.9 377.3 383.6 381.6 375.7 369.1 349.5 345.3 351.8 371.2 375.3 380.9 392.9 402.1 407.6 414.5 425.7 438.6 451.9 468.3 484.1 495.1 501.8 502.9 497.3 479.4 461.3 441.2 421.7 408.5 399.9 393.4 388.3 381.1 369.1 356.8 354.2 351.8 348.8 349.7 352.2 350.8 350.9 350.6 350.3 348.9 346.3 344.8 350.7 359.7 361.3 359.6 357.1 356 355 355.9 357.2 357.8 356.2 354.2 352.6 350.9 342.3 332.4 331 331.8 347.9 349.5 348.4 346.8 342.1 337.6 319.2 324.4 332.2 337.5 339.4 338.2 336.8 336.6 332.1 328.6 326.9 324.7 324.3 321.7 321.1 321.1 321.1 320.6 320.2 321.2 320.4 318.9 318.7 318.1 312.2 316.6 317.2 320.5 322.4 321.9 320.2 320.9 322.2 322.6 322.9 323.5 323.3 323.4 323.6 323.1 322.2 321.7 320.8 320.5 319.8 319.5 319.4 319 310.5 306.9
422.8 416.2 410.7 410 406.2 393.1 395.5 403.6 412.4 420.1 429.1 438 447.3 451.1 454.8 458 460.7 462 464 463.4 460.9 454.6 465.9 469.3 471.7 474 477.2 480.5 484.2 486.2 492 496.2 500.2 501.7 503.5 505.4 510.9 515 518.3 522.2 528.6 535.4 540.6 544.1 549.2 552.9 552.6 551.7 547.5 541.7 539.1 534.4 527.6 517.7 511 505 501.1 497.6 494.4 490.8 488.5 486.1 484 483.1 481.1 478.3 475.9 475.2 475.1 454 435.4 425.4 418.9 414 410.8 406.2 401.1 397.7 380.6 376.3 378.7 373.9 370.6 364 353.4 346.1 346 360.5 374.2 375 385.1 394.2 400.7 408.1 416.9 430.4 440.6 455.1 472.8 485.6 493 494.2 488 470.4 453.7 433.9 415 403.7 395.7 390.1 381.6 370.3 362.2 356.4 353.7 352.6 349.1 352 354.6 354.5 351.2 351 349.8 347.9 345.7 347.8 358.3 366.7 363.4 362 358.1 356 355.8 355.5 357 357.2 356.4 353.9 352.8 352.5 350.3 344 335.8 336.3 348.2 348.7 347.5 345.4 342.4 338.7 336.7 316.6 316.4 320.5 324.2 324.5 326.3 322.6 320.8 318.4 317.9 316.7 315.2 319.6 320.3 320.5 320.4 319.9 319.1 320 319.2 318.6 318.5 319.1 312.6 310.5 317.4 317.8 318.8 318.8 319.6 321.3 323.7 330.9 331.7 330.1 331 329.2 328.9 327.6 324.3 324.4 322.4 321.2 320.2 319.6 318.9 318.3 314.7 307.9
430 423.2 415.7 413.4 410.9 408.9 398.3 399 407.2 414.7 424.4 433.1 441.5 447.3 450.9 454.6 457.6 459.8 459.8 459.9 457.5 456.1 466.3 470.1 474.1 477.2 479.5 484.6 487.5 491.2 498.2 502.8 507.4 509 508.4 509.4 511.4 514.7 520.3 524.1 528.8 535.6 542.3 546.5 553.6 559.4 558.2 555.7 552.3 545.1 542.7 538 530.3 521.3 511.7 505.3 501.1 495.8 490.9 485.9 482 478.5 476.4 475.8 475.6 474.8 469.9 468.6 472.4 454.5 430.1 426.4 419.1 413.7 413.9 403.8 400.9 398.4 396.8 382.7 374.3 373.9 373.5 371.4 361.4 346.6 342.4 356.8 369.3 373.7 377.1 386.4 393.4 401.6 410.6 422.6 432.8 444.7 460.6 474 478.3 479.9 472.8 460.7 445 426.2 407.7 398 391.5 384.5 373.9 363.7 358.6 356.3 355 353 349 348.8 352.3 351.5 350.5 349.6 348.2 345.9 345.3 355.2 366.3 369.1 365.4 362 357.4 356.1 355.8 355.3 356.9 357 355 352.7 349.6 348.2 345.5 346.9 349.3 349.5 348.4 348.1 347.1 344.5 341.4 337.8 337.4 336.6 325.9 316.8 315.2 313.8 319.3 314.8 310 311.5 312 311.9 310.7 310.2 314.9 319.1 318.9 318 319 319.1 319.4 317.9 317.6 316.2 307.8 312.2 320 319.1 319.1 319.1 320.4 325.8 331.7 333 331.5 330.1 329.9 328.5 328.2 327.5 326.1 324.8 323.1 321.3 320 319.1 318.3 317.8 317.4 314.1
436.7 428.7 420.7 416.1 414 411.2 407.8 400.7 406.2 413.3 420.9 428.7 435.7 442.5 447.6 450.6 454.5 457.1 457.7 456.9 455.1 456.2 465.4 469.7 474.4 478.3 481.2 486 490.6 496.6 504.3 510.8 516 518.7 519.4 515.9 517.3 518.4 521.4 525.3 530.4 537.1 543.6 549.9 558.1 563.7 565 564.2 560 551.1 545.3 541.1 534 524.3 513.6 506.5 501.6 495 488.9 482.8 478.8 475.7 474.1 472.1 469.8 467.1 462.5 455.3 462 446.5 430.2 423.4 421.6 410.8 414.5 407.3 405.2 397.4 400.1 400 377.4 379.8 375.6 376.1 374.3 359.9 341.6 350 361.2 369.7 373.8 382.4 386.8 395.3 405.2 415.5 425.5 435 448 461.9 467.7 466.5 460.3 448.2 431.1 412.8 402.5 394.3 386.6 376.7 366.9 360 356.6 354.6 350.8 349.1 348.4 347.8 348.4 347.7 346.9 346.6 345.7 346 354.9 365.5 369.4 369.4 366.5 360.9 357 355 354.8 354.5 355.3 355.5 352.6 350.9 349 347 346 347.1 348.8 348.7 348.1 347.4 345.7 344.5 340.4 337.1 336.3 337.1 337.3 334.7 331.8 328.1 311.6 311.3 311.7 318.1 311.1 308.8 311 309.6 309.3 310.2 310.5 311 313.3 315.3 317.2 318.2 321 307.3 309.4 320.8 323.8 324.7 327.4 329.2 329.4 330.1 331 330.8 330.3 329.1 328.8 328.2 327.3 327.2 325.7 324.5 321.9 320.6 319.4 318.5 317.7 317.2 316.5 315.7
441.3 432.7 424.9 418 416.1 412.9 410 406.9 404 409.4 416.3 425 433.1 440.2 447.8 447.5 450 452.5 453.2 453.7 453.6 455.2 463 467.5 472.7 477.7 484.2 487.8 492.9 501.7 508.7 517.4 524.2 526.5 527.9 528 523.7 522.8 523.4 526.7 532.2 539.3 546.6 553.3 561.5 567.1 569.6 569.4 566.2 559.6 552.2 546 541.4 534.2 520.3 513.6 505 496.3 488.4 480.9 475.9 473.3 471.4 469.3 467 462.9 456.7 449.8 445.6 436.4 432.7 416.1 417.4 413.5 412.8 415.4 406.1 397.3 398.3 392 395.8 388.6 378.2 377 375.9 370.7 349.5 345.9 352 353 356 369.1 383.8 389.1 398.2 407.1 418.2 426 436.3 450.7 459.3 455.6 446.7 434.4 418.6 403.2 395.1 386.9 377.3 367.4 359.3 355 354.6 349.1 349.1 349.3 352.7 349.5 349 348.5 346.7 347.8 351.3 357.1 361.3 367.8 369.7 367.9 364.8 359.9 356.5 353.7 353.9 353.5 353.6 354.1 350.9 348.5 347.8 347.3 346.9 347.2 348 348.2 347.9 346.5 345.6 342.7 340.2 337.6 336.2 334.6 333.5 331.6 331.7 328.8 326 316.6 311.2 311.1 310.6 310.1 315.1 308.1 307.1 308.3 308.9 307.3 307.2 307.2 307.5 311 317.6 311.7 307.7 319.9 324 324.5 327 328.9 329.5 329.9 329.9 329.9 329.2 328.3 328.6 329 326.8 326.4 325.3 323.4 321.4 320 318.9 318 317.2 316.5 315.7 315.2
444.1 435.6 429 420.5 416 412.5 408.4 410.3 412.2 406.6 415 423.5 429.2 436.4 441 442.8 444.4 445.3 447.2 449.2 451.8 455.5 461.3 465.6 469.8 475.8 483.8 487.9 494.5 503.7 513.3 523 531.5 534.8 535.6 536.5 533.6 529.8 527.9 528.7 535.1 541.1 549.6 555.9 564.4 568.6 572.1 573.7 571.9 568 563.1 556.1 549.4 542.1 532.7 523.8 511.6 499.7 490.3 481.3 475.7 472 469.1 466.7 464.6 461.2 454.2 447.2 441.2 437.6 423 418.5 415.6 415.1 417.9 412.8 404.5 400.1 406.3 404.9 393.3 390.6 381.2 377.6 377.4 374.7 356.9 341.1 343.7 349.5 350.1 355.7 372.4 384.7 386.9 399.2 408.8 418 429.8 441.1 448.1 443.7 432.1 419.5 406.1 398 387.6 373.9 368.6 359.5 356 348.2 349 348.9 350.3 358.5 361 357.7 351.8 351.2 355.4 359.2 358.8 361.2 363.9 368.9 370 366.7 363.4 357 354.4 353.3 352.4 351.5 351.5 352.5 350.4 349.4 348 347.2 346.9 347 346.8 347.1 345.6 343.1 339.2 336.5 335.1 334.2 333.3 332.7 331.8 330.5 329.7 328.4 326.7 324.8 321.9 319.1 313.7 310 309.7 311.5 312.1 313.1 306.8 307 306.3 306.2 306.1 305.8 306.6 307.3 307.7 321.2 323.2 324.5 324.7 326.5 328.4 328.2 328.4 329.6 329.2 328.5 328 326.5 326.4 325.1 324.7 323.3 321.1 319.8 318.4 317.4 316.6 315.7 315 314.8
445.7 439.1 432.3 423.8 416.8 412.4 412 412.7 414.6 414.5 413.3 420.9 426.8 433.7 436.6 438.2 439.5 440 442.9 446.1 448.9 453.2 459 465.8 469.7 475.4 482.4 488.3 496.2 505.4 516.9 527.8 536.5 542.1 544 542.9 540.7 536 532.7 531.7 536.3 541.8 550 558 565.5 570.9 574.7 577.6 577.8 576.8 572.3 565.6 558.4 550.9 542.5 531.2 521.6 506.2 497.9 486 477.1 472.1 469.2 465.4 462.4 458 452.2 444.9 437.9 432.2 426.1 420.8 417.6 416.5 416.5 414.6 409.6 408.8 407 401 395.5 383.7 383.4 382 378.4 376.5 370.3 349.2 341.4 340.9 341.9 348 362.7 372 385.3 385.1 393.5 406.1 420.7 430.3 434.7 431.5 420.2 409.3 395.4 380.9 364.9 364.5 358.8 355.5 359 358.1 355.3 358.1 364.5 366 366.7 365.5 363.4 359.8 363.7 362.3 362.5 362.8 363.8 367.4 369.1 365.7 362.2 355.4 354.6 354.4 354 352.2 350.8 350.5 349.8 348.9 346.9 346 346.5 344 341.6 340.8 343.5 343.8 342.6 339.9 337.5 334.8 333.3 332.1 331 330.9 331.3 328 325.3 323.9 323.3 324 325 321.5 320.4 320.3 318.5 318.3 318.2 314.8 309.9 304.9 304.7 304.8 305.3 304.4 308.5 314.9 320.2 323.5 324 326 326.3 327 327.8 327.6 327.8 327.5 326.7 326 325.8 325 323.5 322.1 320.6 319.3 318 316.9 316.1 315.3 314.7 314
447.8 441.5 435.7 425.6 419.4 417.2 416.4 416.2 415.8 416.8 413.7 418.5 423.2 430.1 432.5 433.2 434.7 436.6 440 443.7 446.9 451.6 458 464.6 470.1 474.8 481.9 487.9 496.2 506.6 520 530.6 541.8 548.3 551.9 548.9 547 542 537.2 536.3 537.5 543.5 550.2 558.5 566.3 572.1 577.2 581.1 582.7 583.7 581.1 575.5 566.4 557.6 549.4 538.3 530.2 517.9 502.7 491.2 481.4 475.4 469.8 465.8 461.4 456.3 451 444.3 436.9 429.9 425.7 421 417.4 413.8 411.5 410 409.7 408.9 406.6 404.3 399.3 395.3 392 388.8 381.3 380.1 377.8 371.1 352.4 340.9 340.5 340.2 345.2 368.5 377.7 384.6 385.9 386.8 402.4 417.3 416.7 416 408.2 395.7 381.5 369.7 361 361.3 368.7 369 369.3 369.2 369.6 370.1 370 369.4 369 368.1 367.4 365 364.8 363.1 362.7 362.5 363.1 365.6 367.3 363.6 360 355.7 355.2 354.5 352.8 351.4 350.6 349.9 349.5 348.4 347 345.5 344.8 345.3 344.7 344.3 342.5 341.5 339.9 338 335.3 333.6 332 331.1 331.3 331.1 331.5 329.7 326 323.9 323.1 322.4 321.2 320.2 320 322.4 322.5 319.8 319 317.3 316.6 313.8 308.6 305 304 304.8 304.6 304.9 314.9 320.1 321.6 324.3 325.6 325.3 326.5 327.5 327.1 327.1 326.9 325.6 325.5 324.6 323.6 321.8 319.6 318.7 318.4 317.4 315.6 314.9 314.8 313.1
447.9 441.5 436.7 427.5 422.3 420.5 421.3 421.8 421.2 420.5 418.5 413.4 421.1 423.9 427 428.7 431.7 434.6 437.4 441 445.1 450.6 457 463.2 469.4 474.6 480 487.7 496.8 507.6 519.9 532.9 544 552.7 557.5 555.5 551.6 544.7 541 540.2 540 545.2 551 558.6 566.9 572.7 578.1 583.2 587.1 588.4 586.9 581.6 573.2 563.7 555.1 546.1 537 527 510 496.5 487.2 480.1 473.1 467.8 463.3 458.5 451.4 445.6 438.1 431 425.4 419.9 414.9 411.9 409.2 407.7 408.4 405 404.6 403.5 399.8 396.2 394.2 392.4 387.5 382.2 378.8 376.5 369.6 357.9 343.9 340.8 339.9 355.5 370.6 377.3 391 387.2 386.4 387.3 388.2 394.1 388.8 390.9 370.1 359.4 370.7 376.4 373.1 370.6 382.5 383.2 379.8 377.9 376.2 375.1 373.7 371.5 370.2 369.2 366.9 363.9 362.8 363.5 362.7 363.5 361.6 359.9 356.8 355.5 355 353.4 354.7 353.9 351.8 349.2 349 348.4 347.5 346.4 345.3 344.4 343.7 342.5 340.1 338.5 337 335.6 333.7 331.9 330.8 330.3 331.6 331.4 330.7 328.4 325.6 323.9 323.1 322.2 321.7 321.8 321.2 320.1 319 318.5 319.9 318.9 317.5 316.6 314.3 309.2 302.9 303.5 303.2 300.2 301.3 312.1 320.7 322.5 324 325 325.5 326.4 327.6 326.1 326.1 325.2 324.4 324.1 323.1 321.7 319.4 318.8 318.6 318.3 315.6 314.8 314.9 312.5
448.5 443.1 437.5 430.2 425.2 425 425.6 425.7 426.6 424 422 419.9 416.7 420.7 424.2 426.7 429.1 432.5 435.6 439.9 444.7 450.1 456.6 462.5 467.8 473.5 479.2 487.8 496.7 506.7 518.5 532 544 554.8 560.6 561.3 555 548.3 545 543.7 543.7 547.3 551.4 560.9 567.4 573.6 578.8 583.9 589.7 592.1 590 584.9 577.9 568 559.7 550.5 541 532.2 518.3 500.7 493.4 487.9 481.2 475 470.9 463.3 454.7 447.4 441.2 434.5 428.2 421.2 416.1 410.9 407.9 406.3 404.8 403.9 403.2 401.8 398.8 396.1 395.7 394.1 388.7 385.2 382.5 374 374.1 367.5 348 342.7 339.4 347.3 367.3 371.9 385.2 390 401.5 399.8 394.5 389.2 376.1 366.1 359.1 386.3 385.9 385.9 385.1 385.9 386.6 387.5 385.9 382.7 379.6 379.1 376.9 375.5 373.2 371.8 369.4 366.6 363.7 363.1 364.4 364.5 363.4 361.2 357.9 356 355.3 354.4 353.1 351.7 350.6 350 349.4 348.2 346.2 345 344.4 343.4 342.1 340.5 338.9 337.2 335.5 333.8 332.1 330.6 329.8 329.1 330.5 330.3 329.6 327.6 324.7 323.7 322.9 321.5 322.3 321.7 321.1 319.9 319.7 319.5 319 316.6 316 317 314.2 312.6 313 306.1 302.4 302.5 300.8 300 311.6 320.3 322.8 323.9 324.4 324.7 325.5 325.6 325.2 325 324.7 323.3 322.4 321.7 319.5 319 318.5 318.3 315.6 314.5 314.3 312
448.8 443.9 439.6 432.6 431.6 429.3 431.1 432.6 430.7 427.6 424.8 423.3 420.6 418.3 422.2 425.1 428.1 431.6 435.7 440.1 444.9 450.4 456 461.6 466.7 472.9 478.3 486.2 496.2 505.6 517.4 529.7 543.3 553.8 560.8 563.2 558.1 553.5 549.7 547.5 547.9 549.2 553.3 563 568.3 575.2 580.2 587.3 592.4 594.8 592.4 586.3 578.8 569.1 560.1 551.4 543 534.9 521.2 506.3 502 497.5 490.9 485.9 477.3 471.1 460.1 450.3 443.2 436.4 428.8 420.8 417.5 410.5 407.2 405.3 403.8 403.1 401.8 400.4 398.2 395.2 393.6 392.7 389 386.6 381.5 378.5 362.3 371 362.7 355.5 339.5 343.6 361.7 368.3 371.9 373.9 394.9 388.3 375.5 366.3 363.2 369.7 385.8 397.6 401.6 401.8 401.9 397.3 395 394 390.7 388.4 385.4 383 380.8 379.3 375.5 373.1 369.2 366.6 364.3 362.5 360.2 358.1 357.6 357 356.9 355.9 354.8 354.1 353.3 351.7 350 349.4 348.6 347.2 345.1 343.8 343.2 342.1 340.6 338.9 337.2 335.5 333.9 332.3 330.7 329.8 329.3 328.9 328.4 328.2 327.3 327.1 324.5 323.6 322.7 322.1 322.1 321.5 320.8 318.8 319.5 319 318.4 316.8 314.8 315 316 313.1 313 312.4 308.3 303.1 303 301 298.6 314.7 321.2 322.7 323.1 324.2 324.4 324.6 324.4 323.9 323.8 322.5 321.4 320.1 318.4 317.5 317.2 316.3 315 314 313.6 312.4
449.8 445.6 440.1 435.8 433.8 435.9 436.9 436.8 436.2 431.9 428.5 426.6 423.3 422 422.3 425.5 430 433.1 438 443.2 448.7 451.8 456 461.3 466.6 471.8 477.7 484.4 495.2 505.2 516.7 527.5 541 551.6 560.1 563.6 562 558.6 554.8 552.3 551.4 552 556.8 564.7 570.9 577.4 583.3 590.5 594.5 596.4 593.1 584.9 576.4 567.1 557.4 548.6 541 533 519.7 513.3 508.5 502.5 498.3 492.2 485.7 480.5 467.7 456.7 444.5 435.7 429.4 419.8 415.4 410.8 407.6 405.3 403.1 401.7 399.9 398.7 397.4 393.9 390.8 389.1 387.5 386.7 384.8 380 376.6 373.3 366.9 356.7 339.2 347.2 365.5 370.6 366.9 366.6 364.4 365 369.8 376.3 392.3 399.4 400.9 403.8 406.7 407.8 408.5 405.7 405.1 404.1 400.8 397.7 395.5 392.6 389.9 386.5 381 375.8 372.6 365.8 362.8 361.5 359.6 358.4 357.8 357.3 356.6 355.4 354.4 353.7 352.9 351.2 349.2 348.2 347.1 345.9 343.9 342.4 341.9 340.5 339.1 337.5 335.9 334.6 333.2 331.6 330.3 329.7 329.3 328.8 328.2 327.4 326.5 326.6 324.4 323.3 323.2 322 321.9 321 319.6 318.7 319 318.3 317.5 315.3 315.2 315.5 314.7 313.6 314.1 313.2 313.8 312.2 303.5 302.5 299.5 301.8 318 322.6 322.5 323.3 323.4 323.9 323.5 323.7 322.5 321.8 320.2 318.8 317.4 316.8 315.1 313.9 312.5 313.1 310.5 310.1
452.9 447.6 442.4 438.8 438.3 441 443.6 444.6 442.9 438.9 434.6 430.8 427.8 426.6 426.1 426.3 429.3 433.9 440.5 445.8 450.7 454.8 458.7 461.6 466.7 472.2 477.3 484.4 495.6 504.6 514.9 526.2 538.4 550 559.3 565.1 565.5 562.7 560 559 558.3 559.1 561.2 566.6 573.8 579.8 586.8 593.4 596.4 596.9 591.1 581.9 571.6 562.6 551.7 542.2 534.8 527.4 522.2 515.3 511.6 510.2 504.9 498.7 490.4 483.2 473.1 462.2 449.4 436.4 427.4 419.6 414.6 411.6 408.3 406 403.8 400.9 397.1 396.2 395.8 393.2 391.4 388.6 387.7 387.4 387.5 383.5 381.3 377.5 370.7 363.4 337.4 342.9 353.2 369.6 376.2 378.3 378.3 383.1 390.2 396.3 403.2 405.6 409.7 412.3 410.6 414.4 415.5 415.6 415.4 417.3 414.3 410.8 407.9 403.3 397.7 392 384.1 377.9 374.8 367.6 363 361.1 359.9 358.7 358.1 357.2 356.3 355 354 353.3 352.5 350.9 348.5 346.7 345.5 344 342.4 341.1 340.4 339 337.6 336.3 335 333.7 332.3 331.1 330.4 329.7 329.1 328.5 328 327.2 326.5 325.9 324.4 324.1 322.6 322.2 321.6 320.8 319.5 319.6 318 317.6 316.4 315 315.4 315.8 314.8 313.6 312.7 312.1 313.4 314.4 312.3 304.5 301.2 296.9 310.1 320.4 322.9 322.4 323 322.5 323.5 323 322.2 321 319.1 318.3 316.9 315.8 314.4 313 311.5 310.1 309.7 308.6
454.6 450.2 446 442.3 442.2 445.5 448.1 450.1 450.8 447.8 442.5 438 432.9 431.1 429.4 426.2 431.3 434.1 439.3 446.4 452.3 456.7 461.8 466.3 468.5 473.1 478.9 485.8 495.1 504.4 514.8 525.9 536.6 548.6 558.6 565.7 567.6 567 565.3 564.8 564.5 564.3 564.7 568.9 575.3 581.9 588.2 595.3 596.3 593.6 586.6 576.5 564.9 553.9 542.1 533.5 527.9 523.2 519.2 515.7 514 514.5 511.1 504.8 494.8 485.8 478.8 469.2 454.8 440.8 430.5 421.2 415.1 411.9 408.8 406.1 403.5 400.3 396.7 395.1 393.4 392.7 392 390.1 388.6 389.7 391.1 386.8 384 381.7 374.8 365.6 343.9 337 348.9 368.7 379.5 385.5 382.6 391.8 396.3 402.6 406.7 413.7 415.7 419.3 417.5 423.1 422.5 424.3 427.3 426.3 422.9 419.2 413 407.9 401.5 395.8 386.4 381.7 374.5 367.6 363 361.3 359.8 358.7 357.8 356.8 355.9 354.6 353.6 352.8 351.7 349.7 347 344.7 343.5 341.8 340.8 340 339.1 337.8 336.8 336 334.6 333.1 331.5 330.8 330.1 329.6 329 328.4 327.8 327.1 326.4 325.5 324.4 323.3 322.2 321.5 321.3 320.8 320.1 319.6 317.9 316.9 315.4 315.7 315.8 315.7 314.4 313.1 313.5 312.5 310.7 314.2 315.1 311.9 301.8 296.4 304.1 319.2 321.1 322.2 322.7 322.3 322.7 322.1 321.2 319.8 318.1 317.2 316.3 314.8 313.4 311.6 310.6 309.7 308.5 307.4
456.8 452.6 449.5 446.5 446.6 449.1 453.8 456.9 458.2 456 450.6 444.2 438.3 437 434.1 430.8 429.6 434.2 440.7 447.8 452.9 458.5 464.4 469.4 472.2 476 481.1 488 495 504.2 514.5 525.6 535.6 547.6 557.3 565.4 570.2 571.1 570.8 570.2 569.2 568.7 567.7 569.9 575.8 582.9 589.4 594 593.2 587.7 580.5 568.6 553.9 542.2 532 525.2 520.3 515.6 514.2 512.4 510.5 512.9 511.2 505.7 496.2 489.1 481.8 474.5 461.2 445.9 433.9 423 415.4 412.4 409.1 405.8 403 399.5 397 394.7 393.2 392.2 391.4 390.5 389.5 391.1 392.6 390.7 386.3 382.1 376 364.9 347.9 336.6 351.2 373.7 383.6 383.8 386.7 394 399.1 404.4 411 417.7 420.4 424.2 424.4 429.2 431.7 435.1 436.6 432 427.6 423.1 417.3 410.4 402.9 396.3 388.5 381.5 375.8 368.5 362.9 361.2 359.8 358.7 357.8 356.9 355.6 354.3 352.9 352.1 350.6 348.4 345.6 343 341.9 341.3 340.4 339.3 337.9 336.9 336.1 335.3 334.2 332.8 331 330.3 329.7 329.6 329 328.3 327.7 327 326.2 325.2 324.1 323 321.9 320.8 320.6 319.7 319.6 319.1 317.7 316.4 315.2 314.5 314.9 314.4 313.7 312.4 313.4 312.3 312.5 309 314.6 314.8 306.8 295 303.8 317.2 319.4 321 321.5 322.5 321.8 321.2 319.9 318.6 317.1 316.5 315.2 313.5 311.8 310.4 309.4 308.6 307.9 305.7
460.1 457.2 454.8 452.6 451.5 454.6 458.2 461.6 465.2 463.9 458.1 451.3 446.8 443.4 440 436.4 434.2 435.7 440.7 447.8 454.3 460.6 467.4 472.5 476.3 480.1 485.5 490.4 497.2 504.8 513.9 524.5 534.9 545.8 555.6 563.8 570.7 573.7 575 575 572.9 571 569.3 570.4 576.1 582.1 586.8 589.2 586.8 580.7 572.4 559 543.6 532 523.4 518 513.4 509.8 508 507.2 506.4 507.3 507 503.1 496.4 491.7 486 478.4 468.4 451.9 442.3 426.1 417 413.9 410.6 406.7 402.6 399.8 397.3 394.8 393.5 392.5 391.7 391.2 390.9 392 392.3 389.6 384.4 381.1 374.5 364.5 346.4 336.7 355.3 375.5 383.5 381 394.9 397.9 404.6 409.5 415.1 420.5 424.9 428.8 435.1 438.9 441.9 443.7 442 435.5 430.8 426.2 419.7 411.6 403.1 396 389.2 382.5 375.6 367.8 362.6 361.1 359.5 358.7 357.8 356.4 355.1 353.9 352.2 351.1 349.4 347.5 345.4 343.2 342.2 341.5 340.6 339.4 337.8 336.5 335.5 334.4 333.8 332.3 330.4 329.8 329.3 329 328.9 328.2 327.5 326.8 326 324.9 323.8 322.7 321.6 320.6 319.6 319.1 319.3 318.5 317.3 316.3 315.4 314.4 313.4 313.1 312.5 313.3 312.8 311.9 312 312.8 307 313.3 313.1 299.8 296.1 310.5 319 319 320.1 320.5 320.9 319.8 319 317.7 316.2 315.5 313.7 312.1 310.6 309.2 308.2 307.4 306.2 303.8
464.7 461.8 460 458.1 457.5 459.2 463 466.7 471.9 470.5 464.3 459 452 447.6 444.1 442.6 438.4 434.4 440.6 447.8 454.3 461.8 468.8 474.2 479.3 483.9 489.3 494.5 500.1 505.6 513.5 523.6 533.7 544.2 554 562.3 569.3 574.3 577.1 577.3 575 572 569.4 569.1 573 578.2 580.8 581.2 577.1 572.5 563.3 550.2 534.6 524.2 517.4 511.2 506.5 503.1 501.7 501 500.3 501.1 501.2 500.5 496.9 493 489.1 482.6 474.2 458 448.6 432.9 422.1 416.1 412.5 407.4 403.3 400.2 397.6 395.2 393.6 392.8 393.4 392.2 390.5 392.8 390.8 387.8 383 377.5 371.2 363.9 345.6 335.4 355.6 376.5 380.9 385.3 394.6 403.7 408.1 413.7 418.5 423.7 430.2 437.4 442.8 447.9 452.6 450.6 445.1 439.1 432.5 425.5 419.4 411.7 403.1 395.5 389 381.8 373.3 366.3 362.5 360.6 359.2 358.3 357.2 355.9 354.6 353.5 351.8 349.3 347.7 345.9 344.6 343.6 342.7 341.7 340.6 339.3 337.9 336.3 334.6 333.5 333 331.6 329.9 329.1 328.3 328.3 328.2 328 327.4 326.7 325.7 324.6 323.5 322.5 321.5 320.5 319.5 318.6 317.8 317.3 316.8 316.2 316.3 315.3 313 312.8 313.2 313.2 312.2 311.4 312.8 313.3 312 306.1 313.4 308.5 297.8 301.4 311.7 318.1 318.6 319 319.4 318.4 318.1 316.8 315.1 314 313.1 310.9 309.9 308.2 306.9 306 304.8 302.1
471.5 468.4 466.6 465.6 465.7 466.4 468.5 472.8 477.2 475.2 470.7 465.4 460.1 454.1 449.6 448.2 445.1 441 441.2 447.3 454 462.3 469.2 474.6 480.1 486.4 492.5 499 502.8 507.2 513.3 522.7 532.4 541.3 551.1 559.4 566.2 571.9 575.6 576.3 574.5 570.6 567.5 566.4 568.3 570.7 571.2 570.3 566.8 560.7 552.2 540.4 525.8 517.9 511.9 505.1 500.2 496.3 494.7 494.9 494.1 494.4 494.8 495.2 495.8 492.7 491.2 486.5 480.4 467 451.7 442.6 427.2 420.1 413.6 408.2 402.7 399.6 397.4 395 393.6 392.2 392.5 392.5 389.6 388.2 388.6 387.1 380.6 372.9 366.8 361.9 345.8 335 349.4 375 380.1 387.6 399 406.4 411.1 416.7 422.3 428.2 435.7 443.3 450.8 455.7 458.1 452.7 446.3 439.9 431.9 424.7 418.4 412.3 403.9 395.6 387.9 378.4 370.5 364.8 361.4 359.9 358.9 357.9 356.6 355.3 354 352.8 350.9 348.3 346.1 345.3 344.5 343.5 342.6 341.5 339.9 338.6 337.2 335.9 333.7 332.3 332.3 330.6 328.8 327.2 326.4 327.6 327.5 327.1 326.6 326.3 325.4 324.3 323.3 322.2 321.2 320.1 319.1 318.2 317.4 316.6 315.8 315.9 315.7 315.1 312.9 312.5 311.9 311.1 310.7 311.6 312.6 312.6 311.4 307.4 310.6 311.6 298.9 289.1 301.7 314.3 317.3 317.3 317.8 317.8 317 315.9 314.4 313 311.1 309.4 308.2 306.9 304.9 304.6 302.9 301
478.7 476.3 474.6 474.5 474.4 475 475.6 478.5 482.3 483.1 478.9 474.8 469.2 460.8 455.1 453.7 450.9 445.2 438.8 446.3 453.1 461.5 468.6 474.2 479.1 486.2 493.9 501.7 504.4 508.4 513 521.1 529.3 537.6 546.5 554.7 560.8 567.9 572.1 573.5 571.3 566.6 563.6 561.2 561.4 561.2 559.9 558.2 553.7 548.7 541.3 531.1 517.9 512.1 505.4 499.5 494.5 490 488.7 487.4 488 488.2 488.4 489 491.1 491 491.2 490 482.6 470 458.8 453.5 436.2 424.1 415.7 407.8 401.3 399.5 397.3 394.6 392.7 391.5 390.7 388.1 383.8 383 382.8 381.1 374.7 367.8 363.4 361.4 350.6 334.4 347 371.1 383 394.8 400.5 407.2 412.6 420 427.9 432.1 440 450.7 458.7 463.3 461.9 453 447 440 431.7 424.5 417.8 409.4 401 391.8 383.4 374.5 370.2 363.1 360 359 358 357 355.6 354.1 352.7 351.8 349.7 347.1 345.2 344.8 344.2 343.4 342.2 340.6 338.7 337.6 336 334 332.9 331.9 331.1 329.6 328 326.3 325.1 326.1 326.6 326.3 326 325.9 324.7 323.9 322.8 321.8 320.7 319.7 318.7 317.7 316.9 316.1 315.3 314.5 314.4 314.3 313 312.2 311.6 311 310.1 311.6 311.7 311.6 311 310.4 302.5 311.2 309.9 300.4 288.8 302.7 315.3 316.7 316.8 316.6 316.3 314.6 313.6 311.4 309.2 307.8 307.4 305.8 304.1 303.6 301.4 298.2
488.3 484.9 483.4 484.1 483 483.6 485.3 488.2 491.8 490.6 487.5 482.9 477.9 469.8 461.8 458.8 456 449 443.1 445.3 449.9 459.1 467.1 473.2 478.6 485 493.3 501 504.5 507.8 512.1 517.9 525.2 532.8 541 548.8 555.3 563.2 567.6 568.9 566.7 561.6 557.5 553.7 551.1 549 547.4 544.2 540.9 536 530 521.8 511.2 505 498.8 492.7 488.3 484.2 481.5 481.3 481.8 482.2 482 482.9 484.9 486.7 488 488.6 478.7 473.2 468.1 460.6 445.8 434.5 421 408.8 402.3 399.5 397.3 394.7 392.3 390.8 388.3 385.2 384.6 384 382.2 378.8 372.7 364.2 362.2 358.1 340 336.6 350.9 365 382.5 396.1 401.7 408.7 415.5 423.1 430.7 436.3 445.3 456.6 463.7 469.1 465 456 447.8 437.7 430.1 424.6 416.6 405.9 397.7 389.9 380.9 374.6 367.8 361.5 359.2 357.8 356.7 355.9 354.2 352.5 350.9 350.1 348.5 345.7 344.6 344.3 343.7 342.9 341.5 340.4 338.3 336.2 334.8 332.7 330.7 329.8 329.6 328.4 326.8 325.3 324.3 324.5 325.3 325.6 325.5 325.4 324 323.2 322.3 321.4 320.3 319.3 318.2 317.3 316.5 315.7 314.9 314 313.3 312.9 312.5 311.5 310.4 309.5 309.7 309.9 309.9 309.9 309.4 309.4 309 301.2 310.6 310.8 294.8 284.6 310 314.9 314.8 314.6 314.4 312.8 311 308.9 307.5 306.6 305.2 303.6 302.1 300.7 298.8 297.2
501.9 497.8 499.3 497.8 496.7 496.4 496 500 501.5 502.4 496.7 490.7 484.9 479.1 471.9 466 461.4 455.1 447.1 445.3 449.8 455.2 465.1 471.1 477.5 484.8 491.8 498.6 501.9 505.2 509.5 515 520.8 527.4 534.9 541.7 548.6 557.3 561.4 563.2 560.4 553.7 549.5 545 540.1 536.7 533.5 530.6 527 523.7 518.5 511.8 503.8 497.7 491.9 485.7 481 477.2 475.5 475.7 475.9 476.4 476.3 476.3 478.4 480.4 482.7 483.7 480.1 482.9 473.9 465.8 450.9 440.7 423 409.2 402.7 399.7 397.8 395.7 393 390.6 386.9 385 384.2 383.8 382.3 379.8 370.4 360.8 358.5 343 334.4 337.3 358.1 373.4 390.7 396.9 404 410.7 417.8 425.7 432.9 439 448.5 459.4 467.8 471.4 464.8 457.6 448.2 436.5 430.1 424.6 413.9 403.6 394.5 385.9 378.4 371.2 365.5 360.9 359.6 357 355.2 353.7 351.8 349.6 348.8 348.7 346.9 344.8 344.1 343.9 343.4 342.2 341.6 340.8 338.7 336 334.1 332.4 330.4 328.6 326.4 326.2 325.2 324.2 323.7 323.8 324 324.6 324.5 324 323.3 322.5 321.6 320.8 319.9 318.8 317.8 316.9 316 315.2 314.3 313.3 312.7 312.3 311.7 310.6 309.6 309 308.5 309.2 308.3 308.2 308.9 309.6 309 306.5 306.4 310.5 303.3 283.3 304.4 314.5 315 313.7 312.1 310.1 309.7 307.1 305 304.4 302.8 301.1 299.7 298.3 296.8 293.9
518.8 515.9 513.4 512.3 508.9 507.8 510.4 512.7 514.6 514.3 507.7 500.4 493.1 486.8 481.3 474.8 469.6 462.4 457.8 447.4 448.6 453.6 460.6 469.7 476.4 485.1 491.2 496.4 497.6 501.3 505.3 510.5 515.9 521.7 527.8 534.4 541.5 550.5 554.6 556.6 555 549.1 544.3 538.8 532.8 527.8 523.3 518.1 514.9 511.7 507.9 502.1 495.6 490.2 485.1 478.6 474.4 471.2 470.3 470 470 470.5 471 471.7 472.3 473.5 476.5 478.5 481.2 484.4 476.9 471.4 455.2 444.6 423.1 409.4 401.8 399.7 398.2 396.2 392.9 390.3 384.5 384.4 384 378.3 375 373.7 364.3 359.2 353.7 334.6 336.1 343.7 364.4 381.5 389.8 398.4 406 411.8 420.3 427.3 435.5 441.2 451.6 461.8 468.9 471.2 464.9 457.5 446.4 436 430 420.3 409.4 401.4 393.2 383.4 374.7 370.3 362.1 360.4 359 356.7 353.8 352.3 350 348.5 347.1 346.5 345.3 344 343.7 343.5 342.8 341.9 342 341.8 339.6 335.7 333.6 332.3 330.4 328.7 328.1 325.8 324 323.5 323.1 323 322.9 323.6 323.6 323.4 322.9 322 321.1 320.1 319.2 318.4 317.4 316.4 315.5 314.5 313.5 312.6 312.2 311.7 310.8 309.8 308.8 308 307.6 307.2 307.3 307.8 308.3 308.4 308.3 307.5 297.9 309.3 291.2 291.7 302.2 312.7 312.9 311.7 309.8 308.4 306.8 304.8 304.5 302.2 299.8 299.1 298.4 295.5 293.2 291
532.5 531.1 527.6 524.9 521.6 520.1 522.3 524.7 526.9 528.1 522.5 514.9 505.4 496 487.4 481.6 477.3 472.3 465.2 457.4 449.9 452.4 457.6 466.9 472.8 480.6 487.2 489.4 491.7 495.9 499.9 505 509.7 514.2 520 527.1 534.6 542.8 547.7 551.9 551.5 547 539.5 533.2 526.7 520.6 515.4 509.5 504.4 500.5 497.2 492.2 486.7 481 475.9 471 467.7 465.6 464.7 464.5 464.9 465.9 465.9 466.4 467.1 467.7 470.1 473.3 478.1 483.7 478.3 475.5 459.2 448.7 426.1 410.9 401.7 398.6 396.8 395.4 392.3 387 384.4 384.1 383.8 373 369.6 371.1 361.7 352.1 341.7 334.1 336.7 352 370.3 386 393.2 400 407.6 414.3 424.1 429.6 437 445.1 454.7 463.9 469.7 467.9 463.2 454.9 444 434.1 426.6 417.7 405.8 395.6 389.9 380.9 372.7 367 361.7 359.8 358.3 356 353.3 350.7 349.1 347.7 346.1 345.1 344.2 343.6 343.4 343 343.1 343.2 342.9 342.1 340.1 336.7 333.5 331.2 330.2 328.6 327.6 326.5 325.1 323.1 322.2 322.3 322.2 322.9 323 322.7 322.2 321.5 320.6 319.7 318.7 317.8 316.8 315.8 314.6 313.8 312.8 312.1 311.6 311 310.2 309.2 308.2 307.5 307 306.3 306 306.2 306.5 306.7 306.6 306.9 306.8 295.9 285.2 285.4 297.2 309.6 309.2 309 307.4 305.5 304.9 303.3 300.9 300 298.7 297 294.6 292.6 291 291
547.2 545.2 540.7 537.5 535 532.3 532.9 535.9 538.9 540.8 535.8 528.7 520.3 508.1 497.3 486.4 481.5 478.5 468.9 462 458 452 456.3 460.7 466.8 473.3 477.6 480.7 485.3 489.3 493.3 497.4 502.7 507.1 513.6 520.6 527.4 535.5 542 546.6 549.2 546.9 538.8 530.7 522.8 514.7 507.1 500.1 494.2 490 485.7 482.3 478.2 473 468.6 464.3 461.4 460.3 459.4 458.9 459.7 460.9 460.9 461.4 462.4 463.1 463.9 467.6 471.9 479.3 477.4 474.9 463.1 454.2 429.2 410.2 401.3 398.3 397.2 394.8 390.1 386.2 384.3 382 381.5 365.4 366.9 368.9 355.8 346.9 336.2 335.2 340.9 357.9 375.3 388.9 395.4 401.5 407.7 416.7 425.1 432.1 437.7 447.9 456.6 462.7 464.9 462.6 459.1 451.7 442.4 431.8 423.2 413.4 401.5 393.2 386.6 377.9 370.7 365.4 362 359.7 357.3 354.8 352.4 350.4 348 346.5 345.5 344.9 344.6 344.2 344.6 344.4 343.3 345 344.8 343 340.4 337.2 333.9 331.6 329.8 328.6 327 325.8 325.2 323.5 321.9 321.5 321.6 322.6 322.6 322.1 321.4 320.8 319.9 319 318.2 317.3 316.3 315.1 313.7 312.9 312.1 311.4 310.8 310.2 309.6 308.6 307.8 307.2 306.6 305.6 304.7 304.9 304.2 304.7 305.1 304.7 304.5 295.9 281.6 284.9 293 306.2 308.7 306.5 304.3 303.2 302.3 301.5 298.8 297.8 295.7 295.3 292.7 289.3 287.2 284.3
558.5 556.4 552.7 548.4 546.1 544 543.2 545.5 548.4 550.3 546.9 541 532.4 521.6 510 497.9 486 479.6 474 467 461.7 456.9 455.8 459.6 463.8 467 471.3 474.4 479.3 483.4 487.9 491.8 496.9 502.5 508.7 514.6 520.7 526.9 534.8 541.5 546.1 545.8 541.5 534.6 524.3 512.8 503.1 492.7 485.7 481 476.8 473.4 470.8 465.9 461.9 456.3 455 454.6 454 453.9 454.8 455.8 456.2 456.6 457.4 458 458.5 461.9 465.9 472.4 473.8 472.9 465.6 459.8 431.2 412 403.4 399.7 397.6 394.5 388.7 386.5 386.2 380.1 368.7 363.1 360.8 356 346.7 339.6 333.5 336.6 350.3 366.8 381 389.5 396.8 402.6 408.9 416.9 427.2 432.8 440.9 448.9 455.5 458.6 460 458.5 454.7 450 439.7 429.9 423.3 411.2 401.7 391.9 384.8 374.9 369 363.8 361.2 359.4 357.3 354.3 350.9 350.1 349.2 348.8 348.1 346.9 346.6 346.8 346.2 345.1 346.8 348 347.7 346.4 343.8 339.3 335.6 333.1 330.2 327.8 326.7 324.9 325.1 323.5 321.9 321 321.5 322 321.9 321.2 320.6 320 319.2 318.4 317.5 316.6 315.5 314.1 312.8 312.1 311.3 310.8 310.1 309.5 308.9 308.1 307.4 306.7 305.7 304.6 303.6 303.1 302.2 302.2 302.4 301.6 302.7 291.2 290.3 283.8 287.3 290 305.7 303.2 302.3 301 299.3 296.6 294.1 292.4 290.4 289.4 287.4 283.3 277.2 274.9
567.5 565 562.5 558.6 555.2 552.3 551.5 552.2 553.5 555.7 554.8 548.5 541.9 531.5 520.3 506.4 494.7 486.6 476.7 468.8 465 462 456.9 458.1 462.8 466.1 469.3 472.3 475.2 480.4 484.7 489.6 494.8 500.5 505.1 510.6 516.2 520.5 530.5 537.1 540.7 547.6 546.9 542.1 530.3 518.2 503 490.7 481.3 476.2 472 468.2 463.9 458.8 455.4 453.1 450.9 449.4 448.9 449.2 450 451.1 451.6 452 452.6 453.2 453.7 456.1 460 465.5 468.7 469.8 468 463 437.3 415.5 405.2 400.9 397.6 393.9 387.6 385.6 378 373.5 365.5 362.4 355.4 346.9 343.3 334.9 333.3 341.9 361.7 375.5 385.2 390.8 397.4 404.2 410.2 419.9 428.7 435.1 442.6 449.1 453.7 456.6 456.8 454.5 450.8 444.7 436.6 430.2 423.1 410.9 400.5 390.6 383.1 375.5 368.2 364.5 361.6 359.2 355.6 354 353.4 352.7 351.7 351.6 350.3 349.6 349.8 350.4 350.1 349.4 350 351.1 349.7 348.7 345.3 340 335.8 332.6 330.5 328.4 326.3 324.7 323.5 323.3 321.4 320.7 320.7 321.3 321.1 320.5 319.8 319.2 318.6 317.7 316.8 315.8 314.5 313.1 312.1 311.3 310.5 310.1 309.5 308.9 308.3 308.1 306.8 306 304.8 303.5 302.4 301.7 300.8 300.1 299.7 299.6 300.8 290.5 282 290.7 284.6 297.6 296.3 301.2 300.8 299.4 296.1 295 292.5 292.3 289.5 283.7 282.2 273.3 265.4 264.6
572.6 571.2 568.3 564.4 561.4 558.5 557.4 557.1 557.1 556.9 556.5 551.3 544.6 536.1 525.7 513.8 502.6 491.2 481.8 475 469.7 464.9 461.2 462.5 465.5 463.4 467.3 470.1 474.5 478.8 483.1 488.4 493.7 498.7 504.7 510.6 514.9 519.6 524.1 529.8 538.6 548 548 543.7 535.4 524.7 508.3 494.9 485.1 473 466.9 463.3 460.3 455.9 451.6 449.4 446 444.7 444.5 444.6 445.1 446.3 447 447.6 448.1 448.9 449.7 451.3 454.8 459.4 462.1 465.5 467.2 462 442.5 416.3 406.2 402 397.2 389.4 387.5 386.2 383.9 381.2 372.4 362.8 348 343.4 336.9 333.3 334.2 353.1 372.3 380.7 386.3 391.6 398.3 403.9 410.5 420.2 428.6 435.4 442.6 447.9 451.8 452.8 453.4 453.3 450 442.7 436.4 431.4 421.2 411 400.1 389.8 382.9 373.4 368 363.7 360 358.8 357 356.2 354.9 355.2 354 353.9 353.4 352.3 352.7 354.2 354.2 353.8 353.5 353.6 352.5 350.2 345.3 340.9 337.7 334.1 330.4 327.8 325.8 324.4 322.1 321 320.5 321 320.1 320.6 320.3 319.9 319 318.4 317.9 317 316.1 314.9 313.6 312.3 311.4 310.5 309.7 309.3 308.8 308.2 307.8 307.4 306.1 305.3 304 302.7 301.4 300.4 299.5 298.6 298 298 298 293.4 280.6 280.3 289.1 292.8 297.7 299.9 297.6 296 292.8 286.8 283.5 279.6 275.6 271.5 269.1 265.3 264.9 264.1
