ncols 200
nrows 82
xllcorner 290000
yllcorner 825750
cellsize 50
614.9 616 617.7 610.6 597 587 575.1 575.6 565 575.1 576.7 576.1 583.9 586.4 585.2 581.3 574.5 569.2 562.7 544.9 539.6 538.2 537.2 538.7 546.2 540.3 533.6 524.5 512.3 487.6 471.5 453.4 446.8 442.4 437.9 435.2 427.5 424.6 420.1 415.5 413 411.4 410.1 404.4 398.7 398.6 397.8 395.4 394 393.3 394.2 391.7 387.5 388.7 391.6 387.6 381.3 372.6 384.8 387.1 382.6 381.1 381.1 380.4 379.8 376.5 380.6 381.3 380.7 382.7 374.9 363.6 362 359.2 364.2 366.4 366.9 368.5 368.8 369.4 370.8 374 378.1 382.9 386.9 390.1 392.8 393.6 394.2 395.2 396.4 396.6 394.6 393.6 391.5 392.1 395.9 399.4 402.8 405.2 412.9 412.8 417.7 419.1 421 425.6 434 445.7 456.2 457.9 474.2 469.2 465 447.3 432.9 432.2 432.2 423.4 416 409.8 401.6 393.3 390 382.5 368.7 362.3 357.4 350.6 343.5 335.2 325.3 319.9 318.8 326.9 334.6 342.5 347.9 354.2 360.3 368.9 376.5 383.9 391.6 396.8 400.8 403.2 408.9 413.7 419.3 427.8 433.9 440.8 443.2 441.6 432.1 423.1 411.2 398.8 385.1 378 368.2 353.2 342.3 334.6 327 320.5 314.6 310.6 302.8 296.3 278.9 278 278.1 278.3 289.2 299.5 306.1 306.8 308.9 315.5 318.4 318.5 315.2 313.3 305.1 300.5 297.3 297.1 297 296.9 296.7 296.5 295.5 296.3 290.9 290.6 281.5 264.2 263.1 263.7
615.2 614.3 610.1 602.2 592.1 582.9 571.7 565.3 562.2 566.7 570.1 570.5 575.4 577.1 576.2 571.9 563.5 555.7 543.2 537.8 535 533.7 532.9 532.7 539 540.2 534.3 523.8 510.7 494.5 474.6 468.1 454.9 444.6 439.1 432.8 427.9 424.6 419.5 415.7 410.3 405 406.2 396.8 401.1 396.3 393.6 393.6 393.9 393.6 393.5 393.2 387.5 391.2 394.9 387.7 377.7 375.1 380.8 383.6 382.6 382 382.9 383.3 382.6 377.4 373.9 375.9 380.4 375.1 364.7 365.4 358.4 358.7 366.5 367.6 369.4 370.2 368.7 368.7 369.1 369.6 372.2 375.4 378.7 382.5 385.1 387.2 388.4 388.7 389 389.8 389.9 389 385.4 391.8 395.8 398.7 401.6 404.6 409.9 412.5 416.8 422.6 435.6 437.2 458.8 461.4 465.1 461.2 475.6 470.7 459.8 446.7 431.4 431.7 427.4 416 405.9 397.3 390.6 386.4 381.6 375.3 363.6 356.5 351.2 345.7 338.6 331.1 322.7 317.9 315.7 323 329.7 336.9 343.2 347.8 355.3 361 368.2 375.4 381.5 389.2 394.2 396.4 401.5 405.1 408.4 418.5 422.9 432.9 435.2 434.1 421.8 413.1 402.8 390.4 374.5 368.1 360.4 346.4 336.9 329.7 323.1 317.8 313.2 305.9 292.7 285.1 277.3 277.5 277.7 291.6 307.4 308.3 306.4 308.3 310.8 311.2 317.7 319.7 316.7 314.6 304 299.6 298.1 297.4 297.1 296.7 296.3 295.8 296.2 297.6 296.7 295.8 290.4 272 262.5 263.2
613.6 611 603.9 597 586.2 577.2 564.8 560.4 558.5 561.1 563 563.4 564.9 564.7 562.6 558.2 548.6 541.9 536.1 531.5 529.9 530.2 530.9 532.7 541.7 539 534.4 517.7 505.5 498.5 497.4 484.6 461.9 455.8 440.9 436.6 430.1 427.2 417 412.2 408.9 400.1 398.6 400.9 395.1 394.8 393.6 394 393.9 393.6 393.4 392.3 388.4 387.8 388.5 384.1 368.5 379.6 380.9 380.5 379.4 381.3 378.6 379.4 380.6 373.8 372.6 377.1 377.1 364.9 362.8 361.6 357.6 361.6 368.9 370.1 369.8 369.1 368.2 367.9 367 367.2 368.7 371.4 373.7 376.7 379.4 380.7 381.5 383 383.1 383.1 384.6 384 384.2 391.2 395.9 397.8 400.3 403.1 407.4 414 419 427.2 435.5 457.7 464.3 471.3 470.6 462.9 476.6 470.1 458 452 430.6 426.2 424.1 414 400.9 392.3 386.3 379.2 373.7 368 357.8 349.7 345.1 339.8 333 326.6 319.5 314.9 313 318.2 325 331.7 337.1 343.3 349.2 353.4 360.4 366.3 371.1 380 386.8 388.5 393.7 396.1 396.8 402.8 410 418 426.3 426 415 402.2 391.1 377.6 365 358.3 351.5 339.5 332.6 325.8 319.9 315.7 313.1 308.3 295.1 278.9 276.5 276.8 278 302.8 306.9 306.9 307.8 311.7 316.9 317 314.3 315.6 318.4 317.7 304.1 300.1 298.7 297.7 296.9 295.8 294.4 293.9 290.1 293.5 295.9 295.9 295 281.7 263 262.9
609 607.3 597.2 591.5 580.7 570.8 560.4 557.1 557.3 555.4 555.5 555.4 555.8 555 553.2 549.2 539.3 533.4 528 528.4 528.9 530.2 532.1 533.5 542.7 545.8 525.5 514.9 506.1 506.1 501.9 475.9 471.4 472.1 465.9 446.3 434 426.6 417.9 413 407.8 403 396.4 394.7 394.4 395.5 395.8 396.9 394.6 391.6 391.2 389.6 387.6 387 381.2 374.4 365.2 377.1 377.7 374.4 375.3 375.4 370.8 369 368 368.5 370.5 368.6 365.5 361.8 357.8 359.4 356.5 359.7 369.8 369.8 370 369.4 368.4 366.9 364.6 364.4 365.2 366.7 369.4 371.9 373.8 374.8 375.5 376.4 376.8 377.5 379 378.4 381.2 390.9 397.3 397.5 398.7 401.9 406.2 412.7 420.5 427.8 444.9 461 466.8 472.9 466.8 461.2 468.9 466.3 459.2 449.2 430.5 421.1 418.8 410.4 399.3 384.4 380.6 370.8 366.6 359.9 351.7 343.8 338.7 333.9 328.6 323.7 316.1 311 309.3 313.1 321 326.5 331.6 337.7 341.2 346.7 353.6 356.1 362.1 370 379.1 381.9 383.6 388.7 388.8 388.8 396.8 402.9 413.6 415.6 408.1 392.7 376 365.9 358.9 349.4 340.2 334.5 327.5 321.4 317.2 314.5 312.1 298.2 281 276.3 275.9 277.2 294.9 302.8 307 309.2 311.7 314.7 314.5 315.7 317.5 316.1 309.4 313.2 302.7 300.5 300 300.5 299.7 296.6 290.8 284.3 283 281.2 288.2 294.1 293.2 287 275 265.2
602.7 597.6 590.1 587.3 572.7 561.7 555.8 554.9 553.2 549.6 547 546.7 545.2 544.7 543.3 538.7 530 522.9 521.7 526.4 530.5 530.8 532.7 533 533 537.6 530.1 525.3 514.3 505.1 492.4 482.4 474.7 476.3 474.1 454.6 439.2 429.5 421.3 413.8 409.3 402.4 397.7 394.1 391.9 396.3 396.1 396.6 394.4 389.7 386.8 385.9 384.7 384 382 372.3 365 371 374.2 371.1 369.4 366.4 365.1 365.8 366.7 366.9 365.8 364 363 358.4 355.8 356.6 355 359.7 365.6 368.2 370.3 370 369.3 367 363.8 358.4 356.8 355.5 362.2 367.4 369.6 370.6 370.6 369.5 368.7 370.2 372.1 373.9 378 395.5 398.6 396.4 396.8 400.4 405.2 409.9 423.9 428.3 448 461.8 469.1 472.1 461.4 457.1 466.5 464.8 456 443.6 431.4 415.2 410.9 403.3 391.5 374.8 372.4 364 359.6 353 346.7 339 333.6 328.8 324.7 320.2 314.7 308 306.2 309.9 317.1 321.8 326.8 332.5 336.4 341.5 346.1 348.2 353.8 360.7 369.7 375.4 376.7 380.4 382 380 383.6 390 396.5 396.8 394.6 387.3 368.7 358.6 351.7 342.5 335.3 329.6 323.5 317.7 313.3 307.9 301 282.6 276.7 275.7 275.4 288.5 309 307.6 308.7 308.4 311.1 313.6 313.8 315.9 319.2 320.2 311.2 311.4 303 302 302.8 304.3 302.5 297.3 286.3 287.3 287.2 284.7 279.1 293.6 293.8 290.7 279.8 266.7
594.8 589.2 579.6 574.3 562.5 556 551.9 552.8 547.9 542.9 539.4 537.6 533.2 530.4 529.6 525.2 517.8 516.3 518.3 524.9 530.6 532.2 536.4 539.6 529.9 534.3 534.1 540.4 528.5 502.3 489.3 479.9 483.4 488 474.5 465.4 447.1 431.9 425.2 415.5 409.4 403.9 397.9 393.4 389.4 393.5 393.5 391.4 386.5 385.1 384.8 384.1 382.4 381.6 375.2 369.6 360.9 365.9 368.3 367.6 366.8 366.6 366.2 363.8 365.6 366.3 366 363.8 358.8 355.8 355.8 353.7 355.2 358.9 364.3 368 369.8 369.7 369.5 367.7 364.2 360.1 351.5 342.2 354.7 363 362.9 365.8 364.3 362.5 361.2 360.9 363.8 372.2 377.3 390.6 399.6 393.7 394.6 398 403.2 407.9 422.1 428.5 446.1 457.8 464 463.1 453.2 461.9 464.7 461.5 452.3 440.5 424 412.2 400.9 395.1 380.3 364.3 359.3 355.5 351.4 343.4 338.5 334.5 329.8 325.4 321.7 316.9 313 308.8 304.7 308.8 311.8 315.6 320.3 325.6 330.6 335 338.7 342.2 346 352.3 360.8 367.5 371.5 372.1 374.4 373.7 371.2 376.4 382.2 384.1 379.5 375.6 360.6 352.2 344.9 336.9 331.1 325.1 319.5 314.3 310.4 299 289.6 276.1 275.3 274.8 286.7 293 309.3 308.5 309.4 312.1 310.1 311.7 317.1 318 319.9 319.6 312.1 305 304.5 304.7 306.3 308 300.7 288 294.2 297 296.1 292.7 279.7 286.1 293.2 291.2 281.7 266.1
589 580.3 568.2 561.6 555.6 553 550.1 548.8 544.9 540.5 534.1 529.6 524.7 521.8 519.8 515.4 510 510.4 515.3 522.4 529.7 541.1 542.7 538.8 532.8 530.2 535.2 536.2 533.2 519.8 496.2 495.1 486.7 475.9 484.6 475.6 449.3 435.5 429.1 416.2 410 404.7 400.1 392.5 388.9 386.4 387.2 386.2 385.1 383.5 382.5 382.1 377.8 374.1 368 368.9 364.9 357.7 366.6 367 365.1 364.3 360.7 362.1 362.7 363.3 363.5 361 356.7 355.8 361.4 351.2 355.5 358.2 362.4 366.1 367.9 367.6 368.2 366 356.1 346.9 344.9 346.3 345.1 353.8 348.1 353.4 352.3 351.2 349.4 357.3 363.8 370.3 375.8 390.2 396.2 390 390.7 394.8 400.6 406.4 418.7 425.1 440.4 451.3 455.5 451.8 447.7 462.8 462 456.6 446.9 431.1 415.5 408.5 392.1 384.5 369.3 360 353.5 347.1 342.5 337.3 333.5 330.3 326.2 322.2 317.6 313.6 310.3 305.5 303.8 305.3 306.6 309.1 312.8 316.9 321.5 325.4 329.9 334.8 338.7 345.2 351.9 359.1 362.7 363.4 364.5 365.5 364.5 364.5 367.7 371 368.9 359.9 356.5 350.4 339.6 332 326.3 320.4 316.2 311.1 299.1 291.2 278.8 274.9 279.4 289.3 295.8 297.6 308.4 308.2 312.3 307 305.7 306.2 305.4 309 319.2 318.6 305.6 297.8 296.1 294.2 306.6 299.4 289.8 292.9 302 300.4 297.2 295.2 285.6 276 290.6 292 285 266.3
581.4 571.6 560.8 552.6 550.8 552.7 550.9 548 544.5 540.8 531.3 523.7 518.5 514.5 511.4 506.6 502 506.7 513.1 523.9 536.5 544.4 548.3 545.8 534.2 530 532 537.5 536.2 519.6 518.1 518.5 509.3 488.6 475.2 466.9 455.4 436.9 428.7 418.2 409.6 406.6 399.8 393.3 388.8 384.1 379.9 378.3 376.7 372.4 371.5 370.9 369.6 368.8 368.6 367.6 366.1 361.3 358.5 368.6 363.4 359.3 357.8 359.8 359.7 359.3 357.6 353 355.1 354.5 363.3 350.2 352.5 356.9 360.4 363.3 365.2 365.5 365.8 361.1 348.7 348.2 352.6 355.8 342.7 339.9 339.7 339.2 339.3 339.6 340.9 355.4 361.2 366.7 372.5 385.4 384.2 385.9 387.4 391.8 397.4 403.4 413 420.4 431.2 440 445.5 442.1 443.1 453.2 455.7 449.9 436.5 423 409.2 400.2 389.4 373.5 363.4 355.9 349.3 341.9 336.9 333.1 330.5 327.6 323.6 318.6 313.3 310.9 306 303.5 303 304.1 304.4 304.3 304.7 306.2 307.8 314.4 320 325.7 333.2 338 344.8 349.1 355.6 357.6 357.3 358.9 358.8 356.8 356 359.3 358.2 355.9 349.5 345.5 334.5 327.2 321 315.1 309.7 300.8 295.7 276.7 275.2 274.3 294.9 302.3 294.6 304.5 309.7 309.5 312.6 305.5 311 316.9 313.5 305.1 303.9 304.2 300.4 300.5 297.6 295.4 292.5 291.4 295.8 304.9 305 301.9 298.7 295.8 293 291.1 275 274.6 280.3 267.7
569.8 560.8 552.8 545.9 548.9 553.3 553.4 550.8 545.9 540.9 531 519.2 512.2 508 503.7 498.4 497.7 503.3 516.7 534.9 546 541.4 547.1 542 536.3 532.6 528.8 533.8 527.6 527.1 529.3 519.5 511.7 498.5 477.8 464.1 461.3 437.1 430.2 420.2 410.9 408.1 399.2 393.1 389.4 380.1 376.2 374.1 372.7 371.4 370.2 369.9 368.9 367.4 368.2 367.2 366.1 357.5 360.7 363.8 359.6 359 361.9 359.2 358.6 357 355.7 347.6 346.6 348.8 356.1 346.3 351.6 357.6 358.2 360.3 362.2 362.3 354.2 351.2 350.5 364 361.2 357.1 353.6 350.7 348.7 347 343.5 337.7 338.3 351.2 357.7 361.6 367.6 375.2 380.8 382.3 384.2 387.8 392 398.9 405.3 413.4 422.2 429.5 433.7 434.8 437.7 446.8 449.5 437.8 426.3 416.5 403.2 391.5 383.2 369.7 360.6 352.6 344.7 337.8 332.6 329.6 327 323.6 320.5 314.3 309.5 307.1 304.3 302.8 301.9 302.5 302.7 302.8 302.5 302.3 302.3 305.9 310.3 316.1 323.2 330 335.5 340 346.2 350.4 351.1 351.4 351.1 349.2 347.3 345.9 349.6 350.3 343.7 336.3 329.7 323.1 317.3 311.5 301.4 292.6 282.3 275.3 274.3 276.5 297.1 292 297 298.4 305.4 305.1 309.8 307.8 318.7 321.8 318.9 311.8 308.6 312.3 308.4 310.7 304 297.4 294.4 299.1 308.4 309.4 307.6 304.6 301.1 298.5 295.8 292.2 290.4 286.4 279.8 267.5
553.8 548.3 543.8 543.7 551.6 557.1 558.5 553.3 545 536.7 526.1 514.9 506.7 500.7 496.8 491.6 493.6 503.8 518.8 547 545.6 537.8 541.6 534.4 531.7 532 526.6 526.5 527.1 539.1 539.3 527.1 516.9 503.9 484.5 465 453 436.6 429.8 419.8 413.5 408.3 401.9 392.2 388.1 381.8 375.8 373.3 372.2 371.2 368.1 366.2 365.7 360.1 362.2 359.1 358.6 349.7 358.5 357.7 356.8 353.7 351.1 350.6 350.3 348.7 344.6 344.5 344.4 343.1 346.7 345.9 351.4 358.7 357.1 357.2 358.3 354.6 352 351.3 352.3 365.5 362.3 357.7 352.8 350 347.8 346.7 344.2 336 344.5 350.9 354.9 356.2 363.2 370.5 377 378.8 378.6 381.6 384.9 390.4 396.7 405.6 412.9 418.1 425.6 427.4 431 439.8 438 428.2 416.8 408.8 398.1 384.3 374.7 364.3 357 351.9 340.3 336.1 329.6 325.7 321.9 318.3 315.7 311.5 307.1 306.7 302.7 301.4 300.3 301.2 300.3 300.5 300.2 299.9 301.2 303.5 304.2 306.9 312.4 318.3 323.9 329.5 336.6 342.9 345.1 344.9 342.8 341.7 340.3 337.7 339.3 337.7 334.8 328.1 323.1 317.6 312.3 306.1 293.9 282.9 273.8 274.3 273.3 285.5 298.2 296.1 298.6 297.9 304.7 306.8 307.1 312.9 323.5 319.8 318.4 322.3 320.3 317.7 314.5 316.6 314.1 307.5 308 315.6 320.9 318.6 313.6 308.1 303.3 301.1 299.1 295.9 291.9 290.6 284.9 279
542.3 538.1 537.5 541.9 551.4 558.1 561.3 555.4 545.7 532.8 522.3 511.9 502 494.7 490.1 484.3 492.5 503.7 515.4 534.7 534.9 536.8 535.4 529.4 526.2 526.3 522.7 523.1 533.3 543.5 542.1 530.3 520.2 504.3 486.7 468.8 447.4 437 426.9 421.2 416.2 406.6 401.8 392.5 387.8 381.1 376.6 373.6 371.9 368.9 367.5 366.4 364.6 360.7 354.1 362.6 358.2 345.8 350.8 348.9 348.7 349.4 347.9 349.6 345.8 343.8 341.5 341.9 340 341.2 343.1 351.4 353.3 356.5 356.4 354.4 353.1 351.3 354.9 359.1 364 369 363.5 359.1 353.8 349.3 347.8 343.6 341.9 334.6 340.7 346 351.3 351.5 358.3 366.2 372.9 372.6 373.3 373.7 378.9 384.9 391.1 398.1 403.9 409.7 414.5 418.8 422.8 430.4 428 416.8 408.9 402 392.3 379.2 369.8 357.6 350.6 346.6 336.9 331.3 326.8 322.5 318.5 315.2 311.8 307.9 306 304 302.3 299.9 297.7 297.9 298.3 297.3 297.4 298.1 298.7 301.2 301.3 301.3 302.9 306.3 311.8 317.3 325 330.8 336.7 337.8 337 334.8 333.2 331.6 330.8 328.5 323.8 319.9 315.1 309.4 300 294.5 283.4 275.6 272.3 272.3 279.9 298.4 297.7 296.4 298.5 300.6 306.3 308 308.1 316.8 318.6 322.8 326.6 326.1 323.3 320.7 319.9 320.7 321.3 322.9 324.1 325.9 325.8 323.4 317.4 309.8 306.3 304.2 302 299 293.7 290.8 288.5 278.3
532.1 530.8 533.9 542.1 551.5 560.7 561.8 559.7 551.2 535.3 521 508.1 497.4 487 481.8 479.5 488.4 503.8 511.4 521 527.7 529.6 529.2 523.8 522.5 522.9 520 526.6 532.3 541.8 539.1 531 520.3 505.3 488.9 477.3 447.8 432.7 432.9 422.2 412 405.6 397.8 392.8 387.1 382.8 377.7 375.3 371.7 369.8 366.3 364 362.1 360.5 356.1 347.7 345.2 347.2 340.9 344.3 342.3 345.5 344.3 342.6 343 339.8 339.3 336.9 337.2 337.1 342.9 351.3 352.5 357 355.4 352.6 351.4 351.8 359 361.8 367.2 371.7 364.5 359.6 354.6 349.7 344.8 343.1 342.4 333.9 333.4 338 344 347 350 359.5 362.3 367.4 369.1 369.7 373.5 379.9 384.5 391.2 396.4 402.3 407.3 411.8 416 419.9 416.8 408.3 401.6 394.6 385.6 374.7 364.4 353 345.5 339.7 333.5 328.6 324.8 319.8 315.3 310.9 307.5 305.1 303.2 300.8 299 297.9 295.4 296.3 295.4 294 294.9 295.9 296.9 298.5 299.6 300 298.9 302.2 305.8 307.7 313.5 318.3 323.5 328.8 329.9 327.9 325.2 322.3 321.3 319.1 315.2 309.7 305.1 303 292.4 284.2 276.6 271.9 272.2 285.6 298.7 300.4 296.9 294.5 299.7 307.7 307.8 308.7 309 321.3 324.4 329.8 332.3 330.1 327.5 324.2 323.3 324.2 326.2 328.1 329.6 330.8 329.9 326.9 320.4 312.6 308.2 307.1 305.4 302.3 296.5 292.5 292.5 280.6
523.3 526 532.9 542.8 554.2 563.3 565.1 562.5 550.8 535.3 520.5 503.5 489.9 480.2 476.3 476.8 485.5 504 507.1 511.2 519.2 522.7 522 518.8 517 517 516.6 524.9 537.8 542.3 537.7 532.2 519.2 509.1 492.1 473.7 448.5 440.9 433.1 422.6 411.5 404.9 397.2 392.3 387.3 383.7 379.3 374.9 371 368.4 365.7 363.1 361 358.2 354.6 347.9 339.6 341.7 340.6 338.7 339.6 342.8 342.3 339.5 339.7 337.7 336.7 335 335.6 334.4 339.5 346.2 350.3 353.1 350.3 350.3 350.2 355.8 360.6 363.9 371.1 374.2 365 360.6 355.5 351.2 344.3 344.6 345.4 337.2 331.7 333.7 337.3 341.4 344.7 349.8 355.8 363.6 365.5 365.7 369.5 373.8 379.6 385.5 389.9 393.6 400 403.8 407.4 410.5 408 400.9 394.3 387.7 380.2 368.6 357.4 347.7 340.8 336.1 331 326.6 324.5 318.7 312.5 308.3 305.4 303.1 301.4 300.1 300.1 298.3 294.5 292 292.7 291.3 291.4 291.9 292.4 294.9 296.9 296.2 297.9 307.3 310.5 302.5 301.7 304.1 311.3 317.7 321.8 321 316.6 314.2 311.3 308.5 304.2 299.5 296 287.5 282.2 275 271.7 271.3 286.4 295.4 295.7 297.6 297.1 298.1 304.1 310 309.7 310.8 318.3 327.9 333.6 336.6 338.7 334 331.6 327.8 327.7 328.2 330.7 333.4 334.8 336 333.9 329.8 322.2 317.3 312.2 309 312.3 307.2 299.3 296.2 295.9 289.1
513.9 522.4 534.9 547.6 560.3 569.1 567.2 562.2 546.2 532.2 516.4 500.3 487.3 476.1 471.4 472.8 484.3 498.3 505.7 508.7 513.8 514.4 512.8 510.1 509.8 511 513.9 528.3 541.8 547.9 540.5 527.1 514.8 507 485.5 465.1 458.3 448.1 434.3 422.7 412.8 407.2 398.7 390.9 386.2 381.8 377.1 373.8 370.2 367.3 366 363.1 359.5 356.8 354.6 340 338.8 337.7 336 334.5 336 340.5 341.4 339.5 338.7 335.2 333.5 333.7 333.9 336 336.7 337.8 338.4 338.9 345.7 349 352.2 356.7 361.2 366.5 373.4 376 363.9 360 354 351.2 349 342 338.6 336.2 334.1 331.7 334.9 338.3 342.2 346 354.8 358.6 359.6 360.6 363 368.2 374.5 379.5 383.5 386.8 390.6 395.1 399.2 401.9 400.3 394.2 387.4 379.1 371.1 361.9 349.1 342.2 337.2 332.4 327.1 324.4 322.7 317.5 309.8 306 303.4 302.3 301.5 299.4 297.8 296.6 291.9 290.7 290.3 289.6 289.3 289.5 289.5 289.9 292.2 290.9 292.5 296 301.8 305.6 299.4 298.9 298 308.9 314.4 313.6 309.1 306.9 305.5 299.3 290.7 286.1 282.6 278.9 273.2 272.1 271.2 277.6 295.3 297.3 297.7 296.3 296.1 297.9 306.5 310.2 312.1 316.3 326.9 332.1 338.7 341.7 342.8 337.3 335.5 331.9 331.8 332.2 335.6 338.9 341.6 342.5 340.3 334.5 327.6 322.6 317.3 313.5 317.4 312.2 304 300.5 299.2 294
510.8 521.2 538.1 547.9 559.1 569 570.8 557.1 542.6 527.8 511.1 496.7 484.2 474.4 467.9 469.9 482.4 503.1 507.5 509.1 508.5 507.5 505.2 502.6 503.2 506.4 511.3 523.4 538.9 547 544.1 533.8 520.9 498.4 478 464.3 472.8 456 436.2 423.6 413.4 406.4 396.6 389.7 385.8 381 376.9 373.4 369.5 366.9 364.8 360.6 359.2 354.8 352.4 338.8 336.9 333.5 333.7 332.6 332.5 334.7 334.8 336.9 333.9 331.4 333.2 331.3 331.4 332.8 337.1 341.6 343.6 343.9 345.7 350.7 354.2 358.1 363.3 368 374.6 367.3 362.3 357.6 352.9 350.8 349.5 348 345.7 342.3 338.9 335.6 332.6 336.4 340 344 351.1 353.1 353.8 356.6 358.5 364 369.5 375.1 378.6 381.2 384.2 387.7 390.3 393.2 393.1 386.3 379.5 371.3 363 354.4 345 337.7 333.2 329.2 325.5 322 317.5 312.9 308.1 304.5 302.7 301.4 299.2 299.1 294.8 291 290.7 289.9 289.5 289 288.8 288.7 288.6 289 289.9 290.5 289.5 289 292.1 298.5 302.2 303.4 290.8 298.5 307.8 306 300.2 296 291.9 284.3 278.5 275.7 274.5 273.5 272.4 270.9 275.4 291.9 293.3 295.9 293.4 295.8 298.6 300.1 309.3 311.7 317 324.8 335.6 339.2 342.4 346.4 345.8 340.2 337.8 335.9 335.5 336.6 341.3 344.7 348.4 348.6 347.6 339.8 333.8 328.2 322.5 319.9 325.3 316.9 308.8 305.8 304.6 297.6
508.1 521.4 533.6 543.7 556.2 566.5 566.1 554.4 535.7 521 505.1 491.6 478.5 471.4 464.6 469.4 483.9 504.5 511 504.4 501.4 500 496.4 495.2 495.3 499.7 506.1 516.7 532.5 540.5 541.8 536.1 524.7 500.1 472.4 487.1 475.9 449.3 436.3 426.2 413.9 402.8 394 388.3 385 380.9 375.1 372.4 369.3 367.2 364.2 362.6 358 352.5 343.4 337.2 334.2 333.7 330.6 329.6 330.6 331.2 332.5 333.2 331.3 330 331 333.1 329.7 333.4 337.7 342.3 346.3 347.9 348.9 353.9 358.4 359.8 366 369.3 378.9 363.8 359.5 355.8 351.4 349.8 348.7 347.9 347.5 345.9 343 329.9 329.3 333.7 338.9 342.9 346.5 347.7 350 352.9 353.4 358.1 365.6 371.2 374.4 376.4 378.8 381.6 382.2 384.6 385.3 379.4 371.6 364.1 355 348.9 340 332.5 328.7 326.3 323.1 319.7 315.9 311.4 309.5 303.8 302.2 300 299 292.4 291.1 289.9 289.6 289.2 288.4 287.6 287.5 286.8 287 288.6 292.5 292.9 290.6 288.5 287.5 288.4 291.8 293.9 290.1 289.7 295.5 295.2 290.9 283.5 278.7 275.4 275.4 274.8 273.6 272.5 271.4 271.1 282.7 289.4 290.8 291.9 292.6 297 301 304.9 311.3 313.7 321.9 333.5 342.2 347.7 350.7 351.3 349.7 344.2 340.7 339.4 339.3 341.6 346 350.8 355.2 357 356.3 346 339.7 334.3 328.9 325.2 329.5 322.1 314.4 310.9 310.7 301.8
503.6 515.9 527 541.6 551.9 564 565.8 551.5 531.2 514.6 500 485.7 473.6 468.1 463.5 465.7 478.8 501.1 506.5 497.5 495.5 492.3 487.9 486.8 487.8 492.4 498.8 509.2 523 532.9 539 533.8 521.9 501 502.1 475.7 467.9 456.3 437.7 425.1 409.8 403.2 392.9 387.5 380.4 375.7 373.2 370.3 366.6 365 363.3 357.2 353.2 348.6 339.9 332 333.8 328.6 327.6 328 328.7 333.6 335.2 335.5 331.9 332.2 328.5 326.9 326.5 330.5 336.3 341.3 346.4 350 353.9 358.5 361.5 362.2 367.1 369.8 376.8 363.9 358.6 353.3 350.1 348.9 348.2 347.6 346.7 345.1 341.9 325.5 336.6 341.8 340 339 341.2 341.2 344 346.1 346.5 354.3 360.6 366.4 370 372 373.3 374.3 375.2 377 377 371.4 364.1 356.8 351.2 343 336.1 327.2 324 323.2 320.6 318.1 314.2 311.4 307.8 303.1 301.5 298.7 294.1 291.5 290.3 289.3 288.6 288.7 287.1 285.7 285.5 285.8 286 287.6 290.1 290.3 289.7 289 287.3 284.7 283.1 281.1 283.6 283.5 282.7 283.6 278.9 276.1 275.2 274.9 275.5 277.7 278.2 271.3 270.5 271.1 284.3 288.6 289.1 289.3 295.6 299.2 303.6 308.6 312 316.4 326 339.1 349.4 355.1 358.3 358 352.6 347.6 343.8 343.2 343.5 346.2 352.3 357.2 362.3 366.6 363.1 350.5 346.8 343.3 335.3 333.5 337.5 330.1 318.7 316.8 318.8 306.3
501.6 511.6 524.8 538.3 549.3 554.1 556.3 541.3 528.3 508.8 494.1 479.4 469.5 464.6 461.2 460.9 470.9 483.7 491.2 488.1 485.5 482.9 479.7 477.6 477.8 482 490 501.1 517 525.6 531 524.4 508 508.6 505.7 486 467.4 445.7 431.8 416 410 400.4 389.8 382.6 378.6 374.1 369.2 366.6 365.2 365.1 360.8 355.7 350.7 344.7 336.9 330.3 328.7 326.6 324.9 326.5 333.1 337.1 329.9 333.6 337.7 333.9 328.1 325.4 326 329.7 336.5 342.1 348 353.4 357.7 361.4 364.2 364 368.5 370.5 363.5 360.1 358 351.5 348.8 348.5 347.9 347.3 346.5 344.9 342.5 329.3 326.9 340.3 339.9 335.2 334.1 333.1 335.9 338.8 341.4 349.1 356.5 362.6 366.5 366.4 367.6 369 369.2 370.2 369.5 363.4 357.2 350.5 343.5 338.8 329.1 322.2 317.3 317.7 317.8 316.9 313.5 310.5 306.5 302.9 300.6 296.7 293.6 291.2 289.6 288.8 287.4 286.6 286.2 285.6 284.6 286.5 285.3 285.7 286.9 287.2 287.3 286.1 284.8 280.2 278 277.1 276.9 277.1 276.2 275.4 274.8 275.1 282.1 275.2 281.1 281.2 271.9 272 270 270 281.2 284.7 287.2 288.3 298 301.3 305.9 311.3 313.6 321.9 331.6 341.7 358.3 362.9 366.2 364.8 356.2 349.1 347.7 346.8 347.7 350.5 357.6 364.6 371.1 375.9 370.5 357.4 353.8 351.6 343.4 342.6 344.4 332.7 322.1 321 327 312.2
503.9 508.7 519.9 535.7 542.7 548.7 542 537.5 523.7 502.3 485.8 472.6 464.4 459.5 456.5 453.9 463.6 472.6 477.2 478.6 475.9 473.7 469.6 467.7 467.6 473.1 478.3 492.7 506.9 515.7 515.7 508.3 499.3 516.1 501.9 486.8 469.6 453.4 429.8 417.7 402.9 390.5 385.9 385.1 372.9 370.6 367.1 365.6 365.4 364.1 359.9 354.3 348.6 343.8 335.6 331.9 325.9 326.8 323.7 327.6 329.5 330.9 332.1 332.2 338.1 335.9 330.5 328.2 325.8 330.8 336.9 342.9 351.1 356.6 359.7 363.4 367.3 366.2 371.2 374.3 366.3 358.7 356.2 349.9 347.2 347 346.9 346.7 345.9 344.6 342.1 336.2 321.2 324.1 336.5 333.6 325.7 327 328.2 329.8 337.7 344.9 351.8 358.4 362.5 361.6 362.8 363.7 362.1 361.9 359.5 354.9 350 344.4 337.6 329.2 321.2 316.4 312.5 310.8 310.1 314.1 313 309.2 305.7 302.7 297.9 295.7 294.5 290.7 289.1 287.9 286.4 285.6 285.4 283.9 282.4 283.3 283.9 284 283.2 282.9 283.7 281.9 279.8 279.4 278 276.6 276.5 276 275.3 274.5 274.9 277.3 282.2 275.1 280.3 274.3 271.2 275.7 269.6 270.3 277 284.2 284.7 293.7 298.7 304.4 308.6 312.8 315.4 325.3 334.3 345.2 364.8 371.2 370.1 364.8 356.3 354.1 351.8 350.9 352 356.8 365.4 371.7 379.9 383.9 379.6 365.8 362.4 360.4 351.7 353.4 352.3 337.7 326.7 324.9 324.5 316.7
495.8 500.8 513.4 528.2 534.8 539.2 533.8 527.2 515.1 496.5 480.1 466.6 458.7 452.9 449.9 450.3 456.6 464.5 471.1 470.8 467.1 463.7 460.7 459.2 458.3 463.3 471.9 483.6 495.1 502.9 503.6 498.5 515.7 516.5 503.7 483.6 464.7 439.2 427.9 411.9 398.9 391.7 389.3 373.4 369.7 369.8 366.2 365.6 364.8 361.7 355.6 349.7 343.6 338.1 334.9 327.1 324.9 323.6 321.4 324.9 328 327.8 330 333.8 333.7 331.6 326.6 327 327 332.5 337 344.4 353.5 358.7 362.7 365.8 370.2 368.2 372.4 376.2 362.6 357 351.7 348.2 345.1 345.3 345.3 345.3 345.2 344 343 342 338.6 327.9 321.5 324.7 321.1 320.7 321.4 323.2 331.3 338.4 343.7 352.6 357 357.7 356.5 356.1 355.4 355.1 352.4 348.8 341.4 336.8 328 322.1 315 311.1 310.1 308 306.2 306.9 310.2 308 305.3 299.3 296.3 294.5 290.5 288.7 287.2 286.5 286.2 283.8 283.8 282.7 282.1 280.5 281.2 280.5 280.1 280 280.5 280.4 280.2 279.6 277.9 276.6 276.5 275.6 274.7 273.6 279.7 283.2 279.6 273.4 277.7 275.9 272.5 275.8 269.8 272 280.3 282.9 289.2 298.2 302.4 305.4 310.2 315.3 317.6 328.1 336.2 345.7 362.4 370.5 372.6 365.7 361.3 357.4 355.4 355 357.4 362.4 371.4 379.5 385.3 390.6 386.6 376.1 370.4 369.3 361.4 360.6 349.2 336.2 329.3 327.9 326.4 322.5
482.5 490 502.1 514.7 519.7 527.1 525.1 515.9 503.5 487.8 473.2 462 453.9 448.4 445.5 447.2 452.9 457.2 461 460.3 455.3 451.2 446.8 446.7 450.6 453.2 461.8 470.2 480.2 490.8 495.9 498.2 510.8 511.4 500.7 478.1 456.3 438.4 419.5 405.3 390.6 393.6 382.6 375.6 369.4 371.3 365.5 365.2 363.8 360.5 355.1 346.7 341.6 334.2 335.6 326.8 324.7 321.2 320.3 325.4 326.7 325.3 329.8 328.4 326 324.8 323.9 323.3 325.5 331.6 338.5 345.9 354.4 361.2 366.3 369 373.8 369.7 370.3 370.1 358.5 350.8 346.4 343.8 342.9 343.1 343.6 343.9 344 343.2 342.6 342.5 342.3 339.6 325.9 321.9 318.8 314.6 316.3 318.3 323.4 330.5 339.6 347.4 353.4 353.7 352.4 350.9 349.8 349.7 347.9 343.7 339.2 332.5 322.1 316.2 311.3 311.1 309.5 308.8 307.6 303.7 302.7 303.6 299.1 297.5 294.9 291.6 289 287.8 287.5 285.1 283.7 282.9 281.4 281.6 278.5 277.6 278 278.8 279.3 279.3 280.2 279.8 279.7 278.3 277.3 276.6 276.6 275.4 273.6 273.8 275.9 277.2 272 276.6 276.5 270.7 274.3 269.6 269.9 273.5 278.7 287.9 295.6 301.9 308 308.6 314.4 316.9 322.8 330.6 337.1 346.3 360.9 371.9 372.9 369.5 365.1 362.4 360.7 359.7 361.4 368 376.7 386.5 394.3 401.8 394.7 385.8 379.3 379.1 365.3 363.4 354.2 337.8 332.1 331.7 331.2 329.1
470.3 479.3 489.6 499.7 506.7 508.6 506.5 500.4 491.4 478.3 466.7 458.1 448.3 445 442.9 444.1 448.2 448.4 448.2 446.4 442.6 437.5 427.9 432.5 439.6 442.6 447.4 457.8 466.2 478 486.1 495.9 504 505.5 495.3 474.5 448.9 431.5 413.7 402.1 396.9 385.9 377.1 373.7 371.5 367.2 365.2 364.5 362.8 357.9 351.7 345 338 332.4 332.6 327.7 321.6 320 318.8 319.2 321.3 321.4 322.5 325.6 324.5 323.5 322.5 322.5 326 331.6 340.5 348.5 357.1 363.6 370.5 370.2 377.2 370.1 363.8 360.6 353.7 345.3 344.1 341.9 340.7 340.8 341.5 342 341.9 341.8 341.8 342.6 342.6 340.5 334 329.4 326.9 319.6 312 313.1 315.7 324.1 332.7 341.6 348.8 348.3 348.1 345.5 343 341.2 338.7 335.4 330.6 325.1 316.6 311.4 310.9 309.8 309.8 309.5 307.1 301.7 299.8 298.3 297.2 295.9 293.1 289.4 287.5 286.4 284.4 284 283.6 282.3 278.1 277.3 276.8 276.8 277.8 279 278.7 278.8 278.7 279.3 279 277.1 278.4 278.3 276.4 275 271.8 275.2 274.7 274.9 274.4 275.3 272.8 271 274 269 269.8 277.6 280.6 292.7 296.8 303.5 309.7 311 315.6 321.3 325.5 333 338.5 347.4 360.1 371.3 373.4 371.1 369 367.4 366.4 364.8 366.6 373.3 384.3 395.9 405.6 413.1 407.3 395.4 387.3 384.2 372.3 360.8 356.6 340.6 337.1 336.9 336.9 334.9
456.8 465.1 475.8 485.5 490.6 493.1 491.1 485.7 477 467.4 457.2 446.6 441.6 439.9 438.4 442.4 443 442.9 442 437.7 435.8 425 420.4 420.6 426.9 429.2 435.4 447.5 456.5 465.4 473 487.1 495.3 495.5 483.6 466.9 446.5 430 412.6 399.9 393.8 378.9 377.1 368.6 367.4 367 365.3 365.3 361.3 356 349 342.1 339.1 330.2 323.8 323 322.6 321.7 320.5 317.5 317.9 320 324.1 324 323.6 322.4 321.5 327.3 327.5 333.5 343.2 351.7 361.5 367.1 372.7 372.4 381.4 376.3 358.1 357.2 346.8 341.7 338.9 338.8 338 338.5 339.3 339.9 340.1 340.6 341.4 342.2 342.6 341 334.7 329.3 329.2 327.5 319.1 310.5 312.8 319.5 327.6 338.5 343.5 345.9 341 338 336 334.5 332.2 320.9 321.9 319.1 312.3 310.5 309.4 309.7 310.3 308.9 306.1 302 297.9 296.3 294.8 293.8 291.8 288.5 286 284.7 283.9 283.2 283.2 280.1 276.7 276.5 276 276.3 276.8 277.2 277.9 277.7 277.7 278.1 278.6 279.1 278.4 277.3 274.4 271.4 271.3 273.2 275 272.2 271.6 273.9 269.9 272.3 270 269 271.9 276.5 286.4 295.4 299.2 304.5 311.1 314.5 318.3 324.4 329.5 336 342.3 350.4 361 369.9 371.6 371.9 371.3 370.3 370.6 368.8 371.6 378.7 393 401.1 413.5 420 420.3 404.1 397.9 390.3 388.2 362.5 355.4 346.8 345.3 342.4 342.8 340.1
443.9 453.5 462.3 471 476 478.1 477.3 472.8 468 460.6 447.6 441.4 434.6 431.2 429.5 441.2 441.9 441.4 437.5 428.9 427.8 422.8 416.6 412.7 411.1 417.3 428.3 439.1 445.3 452.6 460.8 474.2 476 481.2 470.9 456 438.3 420.8 406.7 397.8 392.9 383 377.8 371.7 368.3 367 365.6 364.3 359.5 353.5 344.6 340 331 327.4 320.4 322.1 326.5 326.4 328.7 316.5 316 317.4 324.9 323.1 325.2 322.9 320.5 325.3 328.1 337.3 345.6 356.7 365.4 369.6 375.1 375.8 383.2 370.7 355.3 353.9 345.1 340.5 337.2 335.9 335.7 336.1 336.9 337.9 338.5 339.1 340.1 341 341.8 339.4 334 327.5 325.8 325.6 321.3 315.1 310.7 316.6 324.3 331.8 337.4 337.1 336 335.6 335.2 334.8 332.9 325.5 314.3 312.5 310.6 309.3 306.4 306.9 305 304.9 302.2 297 294.9 294.1 292 290.1 288.4 287.5 284.9 283.9 283.2 282.1 281 276.1 276 275.8 275.4 275.3 275.5 276.9 278 276.6 276.7 277 277.7 277.5 277.3 276.7 272.7 270.6 272.1 271.9 273.4 270.6 273.4 269.3 269.8 269.1 267.7 269.2 273.6 280.9 290.5 296.2 302.4 308.7 314.9 318.8 321.2 326.8 332.8 337.8 344.5 354.3 362.2 369.4 372 372.2 372.2 372.7 373.6 373.9 377.4 385.6 400 409.5 420.2 430.9 428.4 412 405.2 389.1 382 369.8 360.8 352.5 351.6 347.4 347 344.4
429.2 437.8 446.4 458.2 461.9 462.3 462.5 459.3 453.7 449.3 442.1 435.5 427.1 423.8 430.3 439.7 440.1 438.2 429.5 423 415.4 412.3 406.9 407.2 405.3 405.6 417.2 426.3 434.6 448.4 452.2 455.9 450.9 448 434.3 429.1 420.3 408.8 394.2 393 386.4 379.7 376.1 370.8 368.1 366.7 364.2 362.7 358 350.3 341.2 334.7 328.2 324.5 320.1 319.8 325.7 333.1 331.2 331.9 314.7 316.8 324.5 323.2 324 323.5 322.4 325.1 331.9 339.3 349.2 359.6 368.6 374.3 379 376.1 386 367.6 352.4 349.8 345.4 338.7 335.4 334.6 334.4 334.4 334.6 335.8 336.9 337.8 338.6 340.3 340.5 340 333.8 326.8 323.2 322.4 318.9 313.4 308.9 315.3 323.6 331 332.4 334.5 335 336.2 334.3 324.8 321 315.4 313.1 311.3 307.7 305.5 303.5 301.3 299.6 296.9 292.2 291.5 290.9 290.5 289.5 287.1 285.9 284.5 283.7 284.2 281.9 280.3 278.2 276.5 276.6 276 275.5 275.3 274.6 275.6 275.8 275.9 277.9 279.7 275.1 274.6 274 272.8 271.1 270.4 270.8 270.2 270.3 269.3 272.8 268.8 269.2 266.9 267.5 269.4 275.3 285.8 291.9 298.1 309.2 313 315.6 321.3 325.2 330.3 334.3 339 345.9 354.2 363.1 371.5 372.5 373.2 373.3 374.5 376.4 377 383.1 392.1 406.8 417.1 427.7 441 435.4 422.5 413.6 406.1 383 375.5 366.5 358.1 354.4 351.8 349.8 346.6
425.5 431.9 434 440.6 446.7 447.3 446.8 444.2 442.9 439.6 435.6 427.2 421 422.1 426.7 433.3 434.1 431.5 420.3 418.1 409.9 406.4 405.3 402.6 402.9 402.7 403.1 413 427.6 438.8 447.7 459.7 468.3 463.4 451.7 434.2 416.9 393.7 389.2 393.5 378.8 375.8 370.4 367.7 366.3 364.4 362.5 359.9 353.2 345.3 337.1 330.7 324.8 321 321.4 321.3 322.8 331.1 335 334.7 314.7 322.1 322.4 323 323.3 322.6 319.3 327.9 335.2 341.9 352.3 362 372.3 379.6 382.8 376.8 383.3 364.6 349 347.6 342.7 337.4 334.3 334 333.3 332.7 332.7 333.7 334.7 336 337.3 339.2 340.5 339.7 334.1 326.5 322 321 317.5 310.4 307.7 316.8 328.5 329.3 328.1 329.4 328.3 326.7 324.4 318.4 317.2 313.1 310.1 305.5 303.1 302.9 302.1 300.6 300.1 299.2 295.3 287.4 288.1 288 286.8 285.4 283.8 283.2 282.4 281.6 281.5 280.6 277.2 278 276.4 276 276 275.3 274 274.4 275 275.5 279 275.9 274.6 274.1 274.2 272.5 271.2 273.1 270.3 269.7 269.7 268.9 268.6 267.9 266.1 264.8 267 270.9 278.3 285.7 293.4 302.6 310.3 314.3 320.5 324 329 332.2 335.6 341.3 347.2 355.8 368.1 372.6 373.2 373.7 375.1 376.9 378.7 382 389.2 398.5 413.3 423.5 438.2 447.4 442.3 430.2 422 412.6 395.5 378.5 374.6 366.7 363.8 360.8 358.7 354.4
429.9 420.8 428.1 430.4 436.1 438.7 438.3 437.1 437 433.7 426.8 417.1 413.9 417.5 421.4 426.8 427.3 421.5 416.3 410.5 407.5 405 400.3 397.1 397.7 401.3 400.1 405.3 415.8 427.2 436.6 453.4 455.9 451.6 439.1 422.1 401.3 397.3 399.4 387.5 382.3 371.4 369.2 367.2 365 361.7 359.4 352.9 348.9 343.1 335.6 329.3 322.5 323.7 321.4 319.5 320.9 316.7 320.7 322.6 313 323.3 322.8 323.2 323.7 320.5 324.1 328.9 337 343.5 355.9 365.6 375.3 383 385.3 377.5 373.4 364.2 349.9 346.6 343.2 337.4 333.7 333.4 332.3 331.2 331.1 331.3 332.3 333.3 334.7 337.5 339.6 339.4 333.4 326.4 321.3 320.5 315.3 307.8 307 316.6 323.1 322.5 322.6 323.8 327.7 328.4 323.5 320.9 313.9 309.9 306.3 302.1 302 304.1 303.6 306.1 306.2 304.6 301.8 295.2 286.5 285.4 284.4 283.7 283.1 282.6 282.3 281.5 281.7 281.1 278.5 276 275.2 275.1 276.5 275.1 273.2 274 274.4 274.4 277.9 277 277.9 273.8 276.2 273.5 269.4 272.8 271.8 269.4 268.6 267.6 268.7 265.9 263.9 268.3 267.6 270.8 282.5 287.7 295.7 305 311.9 316.1 325.5 329.6 333 336 337.7 340.8 348.9 359 369.7 372.5 373.9 374.8 377.1 379.3 381.4 386 394.8 404 419.1 429.8 444.3 454.8 449.2 439.9 428.9 420.9 404.4 389.3 376.9 373 372.2 369.4 368.6 364
429.7 426.3 423.8 424.6 427.8 429.7 431.5 430 430.2 424.8 417.4 412.4 408.2 415 413.2 413.7 412 408.9 408.3 405.7 402.7 397.5 392.4 390 389.3 390.4 394.3 396.3 405 414 430.8 437 437.4 434.9 420.2 411.4 395.1 401.4 392.5 381.9 372.8 371.8 366.9 365.5 360.6 357.5 353.9 350.6 346.6 338.6 333.2 329.1 326.1 325.4 319.6 319.6 321.4 320.4 317.4 312.1 311.1 318.7 324.7 324.2 323.2 319.2 326.4 332.1 339.4 345.2 359.5 370.4 377.7 387.3 391.6 378.4 376.2 364.9 353.1 347.5 343.9 338.4 333.6 332.7 331.6 330.1 329.6 329.5 329.7 330.4 332.7 335.3 337.9 338.7 332.5 326.2 321 319.8 315.1 306.6 308.2 316.3 318.8 317.5 320.2 318.9 320.1 318.2 319.1 314.7 310.6 309.9 301.9 300.6 303.7 306.1 306.6 307.2 305.7 303.5 301.4 297.4 291 285.3 284.3 283.9 283.9 284.4 282.9 282 281.2 278.3 276.8 277.1 275.8 274.4 273.9 273 272.7 273.4 274.3 274.2 274.1 274.2 275.4 271.4 275.3 271.2 271.2 271.9 271.8 269.2 268.6 267 264.9 264.2 261.2 265.4 266.7 273.9 281.2 289.8 300.9 310 316.5 319.2 328.7 331.9 335.3 339.6 342 344.1 351 361.2 369.8 372.6 374.4 376.1 378.7 381.2 384.3 390.2 399.9 410.8 422.8 436.1 448.3 458.7 453.7 448.8 434.1 423.9 413.4 396.8 381.9 381.7 376.4 374.9 373.6 368.4
430.8 428.1 421.7 408.6 419.2 426.4 422.8 419.9 417.8 416.9 413.1 405.4 411.1 409.6 408.5 407.8 406.5 404.5 401.5 399.2 393.8 388.9 385.9 384.7 385.7 387.2 387.7 389 394.9 401.1 412.5 412.3 413.3 407.9 405.8 399.1 398.3 395 385.2 373.4 370.6 367.1 364.4 360.4 357.6 355.5 352 346.4 337.7 334.9 332.3 330.6 325.3 326.6 323.4 322.3 327.7 326.2 316.6 312.1 309.8 319.7 325.2 322.9 317.6 319.9 326.7 334.5 339.7 347.4 362.7 373.2 377.3 388.9 396.2 380.3 379.6 375.5 353.4 349.4 347.7 340.8 334.8 332 330.6 329.4 328 327.5 327.6 328 330.2 332.6 334.6 337.3 332.3 325.1 320.4 318.9 311.8 305.7 309.3 317.3 318 314 312.8 312.6 313.9 315.5 316.5 313.2 306 301.6 300.2 301.8 305.3 306.1 306.6 306.3 304.2 302.2 300 296.1 291.9 285.3 283.7 283.1 282.8 281.2 280.9 281.8 280.3 277.6 277.6 277 275.3 274.2 272.7 273.4 273.2 273.2 273.5 274 273.8 271.8 270.1 268.5 275.5 274.7 271.7 271 270.9 269.4 267.8 264.8 263.6 262.1 260.6 264 268 276.3 282.4 294.8 304.5 313 320.2 322.2 331.8 335.4 338.8 345 346.8 348.7 352.7 362.5 369.2 372.1 374.7 377.4 379.9 383.1 387 394.7 405.7 417.5 428.9 443.6 452.3 464.2 456 454.7 442.8 430.5 420.6 403.2 389.8 383.8 378.4 378.8 379.5 374.8
432.5 428.2 425.4 422.3 402.4 419.2 416 412.6 409.6 411.2 410.8 399.1 406.5 406.2 406.6 404.9 402.5 398.3 396.5 393.9 388.9 384.9 382.1 378.9 378.3 381.8 382.7 383 384.5 389.2 396.1 399.4 399.5 394.5 392.8 388 387.9 379.5 369.4 368.1 366.5 361.3 360.2 357.7 353.6 349.6 344 338.7 335.6 335.1 334 328.3 324.2 320.6 321.2 332.7 331.1 318.1 309.5 309.4 308.7 318.3 323.3 318 317.9 321.5 326.8 333 340.7 348.4 368.3 374.6 377 390.6 394.2 384.1 379.8 374.8 358.7 349.2 348.1 341.7 336.9 331.9 330 328.3 327.1 326.2 325.9 326.3 327.3 329.6 330.7 335.9 329.7 322.2 318.7 318 312.5 304.8 308.3 311.3 311 308.2 308 307.3 305.8 306.1 306.1 304.8 300.8 300.5 299.6 303.7 305.2 305.5 305.9 305.3 303 300.8 298.6 294.5 289 285.8 283.1 282.1 280.9 280.8 279.2 278.1 277.6 276.7 275.7 274.4 273.6 273.2 272.5 273 273 272.7 273 272.2 271.5 269.8 268.7 268.5 273.8 270.8 270.3 270.7 269.4 267.6 266.1 264.5 261.9 260.1 260.1 263.1 268.7 278.4 287.5 302.9 310.6 317.4 323.2 327.9 335.2 338.7 346.7 350.7 351.6 354.7 354.4 362.4 367.9 371.8 374.7 378.7 381.4 385.3 390.1 399.5 410.8 422.1 434.3 447.8 456 464.9 458.7 458.2 445.3 437 426.3 408.7 394.8 383.8 380 380.3 380.7 377.7
432.5 427.4 424.4 421.1 411.3 401.1 414.6 408.3 403 404.2 399.6 396.4 396 395.9 395.8 396.2 395.1 394 391.5 388.5 384.5 378.8 375.6 371.7 370.4 375.2 374.2 375.8 378.2 378.2 379.1 380.8 385.5 384.4 381 377.9 374.8 378.1 375.5 364.9 358.6 357.2 354.3 352 346.6 341.7 338.5 334.8 334.4 334.2 334.1 330.3 326.3 320.4 320.8 325.3 324.6 311.4 307.7 307.7 307.5 317.3 319.8 321 316.9 326.2 327.8 335 342.7 350.5 372 377.3 379.8 383.4 400.8 387.1 376.7 374.8 360.5 350.2 346.7 343 337.3 332.7 329.6 327.2 325.9 324.5 324.6 324.6 324.8 326.6 328.3 330.3 324.9 319.9 317.4 316.3 312.6 304.9 305.9 307 306.2 305.5 311.6 313.1 307.8 302.6 300.7 300 300 299.8 300.1 303.2 304.1 304.3 304.5 304 301.7 299.4 296.8 292.9 287.4 284.1 281.4 281.1 280.8 279.6 278.3 277.8 276.3 275.4 274.9 273.9 272.4 271.8 272.7 272.9 272.6 272.4 272.1 271 269.8 268.8 268.3 268 269.6 269.9 271.9 271.3 269.9 267.8 267.9 264.5 263.9 262.3 259.1 261.6 269.2 279.4 290.2 306.1 315 321.2 324.7 335 339.3 342.8 353.1 354.4 357.2 358.8 355.7 362.4 367.3 371.2 374.6 379.3 382.5 386.9 393.4 403.7 413.9 427 440.7 452.7 459.2 462.8 462.1 457.6 448.8 438.2 427 412.6 400.1 386.7 381.4 380.6 378.9 376.5
431.6 426.7 423 417.9 413.8 402.3 408.4 405.3 400.6 397.8 396 393 392.8 390.8 388.5 385.7 386.7 384.4 384.1 383.2 374.5 370.1 366.5 364.8 365.7 366 367.3 365 366.5 376 383.5 385.9 374.6 377.8 377 375.5 375 374.3 363.8 358.3 356.8 354.1 349.3 343.7 337.9 334.6 334.9 335.2 335.2 334.5 331.3 327.9 327.6 315 316.7 313.4 314.7 308.8 306.4 305.8 314.5 315.6 319.1 321.3 313.9 326.7 329.8 337.3 344.7 354 374.5 382 386.6 385.8 400.3 385.9 377.8 374.7 363 351.1 348.5 344.1 339.6 334.1 330.2 327.6 325.6 323.2 322.5 322.2 322.4 323.6 324.9 324.3 320.9 316.1 315.9 312 308.2 304.3 304.3 306.2 305.7 305.6 308.8 310.5 310.8 309.8 305.1 300 299.3 298.8 299.7 301.8 302.4 302.4 303.4 303.1 300.6 298.1 295.4 291.3 285.7 281.6 280.2 279.4 278.9 278.2 277.5 277.2 276.9 274.8 273.2 272.5 271.8 272.3 273.6 274.3 275.3 273.1 271.5 270.5 268.7 267.6 266.4 267.7 272.4 271.2 272.2 271.1 270.2 268.3 268.6 267.3 265.9 265.2 258.1 262.2 270.5 281.4 296.6 311 319.6 326.6 330.1 340.1 343 346.7 355.8 357.4 361.2 360.5 357.2 362.5 366.8 370.7 375.1 379.3 383.6 388.7 396.4 405.6 417 430.4 446.1 455.7 463.3 464.2 463.7 459.5 450.1 439 429.4 417.4 404.3 387.4 382.3 380.4 377.5 375
431.5 426.9 423.1 417 412.7 405 393 400.6 401 396.8 389.9 388.6 391.8 391.9 391.7 390.3 389.1 382.3 374.5 370.5 365.2 365.7 366.1 362.1 362 358.2 361.7 362.5 368.1 364.9 369.2 371.1 365.7 372.7 374.7 370.8 366.9 362.3 358.6 356.2 353.6 349.8 344 339 334.5 335.5 335.2 335.4 335.2 334.3 330.4 328.1 323.5 316.1 312 318.6 316.4 305.4 304.9 304.9 313.6 315.9 318.2 319 319.8 326.9 330.6 339.4 346.3 357.2 378.8 385.4 390.5 388.3 386.3 381 376.8 378.2 367.3 352.9 348.9 345.6 341.5 335.6 331.2 328.2 325.1 322.8 320.9 319.8 319.8 320.6 321.2 320.7 315.9 312.6 312.3 308.4 306.2 304.3 302.6 306.9 305.6 304.6 305.5 307.6 307.7 307.2 304.7 301.7 301.3 298.5 298.1 301 301.2 301.5 302.4 302.3 299.9 297.5 294.5 289.7 283.4 280.1 279.2 278.6 278.7 278.7 276.9 276.8 274.2 273.1 272.4 271.5 272.2 272 272.1 272.8 272.5 272 270.9 270 268.5 266.4 264.9 269.4 271.3 271.4 272.4 271.3 270 268.4 267.5 266.4 266 259.8 257.8 263.1 274 286.3 298.3 314.1 324.3 329.9 337.5 342.3 346.8 349.9 353.8 359 362.6 360.4 359.3 362.2 366.1 370.1 374.8 379.6 384.9 390.2 398.2 408.1 420.1 434.2 447.1 458.1 466.4 466.3 462.2 455 449.2 439.9 429.6 417.4 399.6 388.8 382.9 379 375.5 372
433.2 428.8 423.1 417.9 413.4 405.6 398.7 387.4 399.7 397.2 383.7 391.7 395.4 394.5 393.5 386.6 379.9 376.4 370.2 365.3 364.1 363.7 362.2 365.2 358.3 357.6 353.4 353.2 354.9 358.1 362.3 363.5 362.3 364.3 365.4 364.3 362.3 357.4 356 355.2 351.9 347.4 341.9 336.7 334 335.4 334.8 334.2 333.9 331.3 328.1 327.4 321.3 314.3 312.6 310.2 313.8 304.9 303.4 304.1 311.7 312.6 313.6 312.4 325.4 328.5 332.8 340.4 348.9 361.1 382.7 389.5 397.4 394.8 388.2 378.4 374.2 368 364.4 354.1 350.8 347.7 342.8 336.3 332.2 327.6 324.3 321.8 319.3 317.6 317.3 318.1 318.4 315.6 312.1 310.1 308.6 306.2 304.9 304.8 301.8 303.9 303.9 304 303.9 304.9 303.2 300.2 299.5 299.1 298.5 297.5 297.9 299.4 300.3 300.7 301.7 301.2 299 296.6 293.7 288.6 281.8 279.2 277.7 277.8 277.9 277.4 277.2 276.6 273.5 273 272.2 271 271.8 271.7 271.9 271.7 271.5 271.2 270.8 269.8 268.1 265.3 264.5 267.2 271.5 271.7 271.9 271.7 270.3 268.7 266.6 266.6 262.3 257.9 258.2 264.3 274.5 286.9 299.7 317.4 328.2 337.7 342.6 345.6 350.5 353.9 355.9 361 362.4 361.3 360.5 362.4 365.6 369.7 374.2 379.7 385.2 392 399.8 410.8 421.8 435.3 446.6 458.7 469.3 467.8 463.8 456.6 449.4 440.7 425.6 410.6 398.4 388.7 382.3 376.8 371.7 366.9
434.8 430.6 425.4 419.6 413.7 406.4 401.3 394.6 386.2 390.3 379.1 392.8 394.7 395.5 387.4 379 374.3 369.4 363.6 362.4 361.2 360.2 359.9 356.9 356.3 355.1 351.5 349.6 349.2 349.6 352.9 356 358 361.9 358.4 357 356.3 355.4 355 354.4 351.5 346.3 341.5 337.7 336.3 335.4 334.7 333.1 331 330.6 327.8 321.8 320.8 322.2 316 321 319.8 307.8 303.7 303.2 313.2 312 309.1 318.1 326.9 330 337.5 341 351.3 363 388.7 393.1 398.1 400.2 395.2 390.2 375.4 367.4 362.1 356.5 353.3 349.6 344.9 338 334 327.7 323.5 321.2 317.9 315.6 315 315.4 315.2 312.3 309.4 307.9 306.6 304.6 303.8 304.7 301.5 304.4 302.7 302.5 302.3 301.3 299.5 299.1 299.8 299 297.8 296.5 296.8 297.9 298.8 299.8 301 300.4 297.2 295.5 291.6 284.8 280.6 279.6 277 277.1 278.1 277.2 274 273.8 272.7 272.3 270.9 270.4 271.4 271.6 271.8 271.2 270.8 270.4 270.2 268.5 266.7 264.8 266 265.4 268.6 271.1 271.4 272.2 270.7 268.6 266.4 265.5 258.6 256.4 260.3 267.3 278.5 288.9 301.6 314.2 328.4 340.3 348.5 347.7 350.8 356.5 358.2 361.6 363.2 361.9 360.5 362.2 364.9 368.9 373.5 379.1 385.1 392.6 400.1 410.8 422.2 433.9 446.2 456.8 468.5 469.9 465.4 454.7 447.2 435.6 426.1 411 396.2 387 379 373.1 366.1 361.6
436.1 431.7 427.7 421.2 413.2 407.4 402.5 397.4 380.3 384.4 375.7 386.4 390.1 389.7 383.9 377 370 365.1 360.2 359.3 358 356.3 353.8 353.3 353.9 351.9 348.8 347.8 347.7 348.6 347.7 348.5 350.5 355.3 356 356.2 356.7 355.3 355.1 354 352.2 347.2 341.9 337.5 336.9 335.6 334 331.7 331 331.4 328.7 328.6 330.8 328.6 322 321.6 320.2 306.7 301.1 302.3 306.4 306.1 311.4 325.7 329.6 334.2 339 343.5 352.8 368.7 388.6 396 398.4 401.7 398.3 396.4 380.2 374.3 365.5 359.6 356 352.7 346.4 339.8 335.2 328.7 323.1 320.8 318.3 314.3 312.3 311.5 311.1 309.1 307.5 306.3 305.2 303.4 302.8 303.3 300 301.3 301.4 300.6 299.8 299.2 298.9 299 298.6 297.8 296.7 295.5 295.7 296.8 297.9 299.1 299.9 299.3 295.5 293.5 288.5 281.8 279.5 280.2 276.4 276.7 275.9 274.9 273 272.4 272.5 271.3 269 271 271.6 271.6 271.6 271.4 271.2 270.9 269.6 267.8 266.2 264.1 265.3 264.6 264.8 269.6 270.6 271.4 271 269 265.9 264.6 256.2 256.3 261.8 270 281.9 291.4 302 314.2 329.9 339.4 349.2 351.3 350.9 357 359.5 361.3 364.7 360.3 360.5 361.7 364.2 368.4 372.9 378.4 384.7 392 400.2 411.1 420.6 433.6 446.1 455.7 463 469.2 461.6 446.3 438.1 426.8 418.1 406.6 392.5 384.3 376.2 371.1 363.2 356.3
432.3 427.9 426.8 422.5 416.4 407.1 402.7 397.4 384.2 375.8 372.5 370 375.2 376.8 375.9 371.8 367.4 360.8 359 357.6 356.1 354.5 353.7 351.8 349.7 348.2 347.4 346.7 345.6 348 347.8 347.1 348.2 353.3 354.6 354.3 354.6 354.6 354.9 354 350.1 345.4 341.6 338.4 337.5 335.5 332.8 331.7 332.4 332.3 329.5 325.9 329.4 323.1 322.5 322.2 320.2 307.2 300.7 300.8 309.1 311.8 311 326.9 331 338.6 341.7 345.4 352.5 365.4 391.8 398 399.4 399.1 398.9 396.8 382.7 377.9 368.7 362.8 358.8 355.5 349.4 342 336.3 329.2 323.5 320 317.4 314.2 311.5 309.3 306.6 305.2 304.5 303.7 303.2 301.4 301.2 300.3 300.4 298.1 300 298.2 298.6 297.9 298 297.6 297.4 296 294.8 291.7 294.2 295.9 297.1 298.5 297.8 296.2 293.2 290.9 283.1 280.5 281 279.4 276.3 273.7 271.5 270.3 270 269.6 269.3 268.4 268.6 270.2 271.3 272 271.7 271.5 271.3 270.9 269.2 267.5 265.5 264 268.6 267.5 264.3 269.2 269 270.4 271.3 269.3 266.9 264.6 255.4 256.7 263 272.6 285.1 292.5 302.2 317.7 329.2 337.6 346.2 352.8 351.1 356.5 362.1 361.2 360.7 359.2 359.4 360.4 363.3 367.9 372.7 377.9 383.3 391.9 400.4 410.4 420.7 432.2 445.1 454.3 461.8 463.7 456.2 442.5 432.6 421.5 410 402.3 390.4 380.2 373.2 367.1 359.8 354.4
426.3 424.3 422.1 419.2 413.2 402.8 399.6 397.1 385.2 374 371.1 369.7 367.1 365.2 363.5 362.2 362.1 360 358.4 356.8 354.7 353.2 354.3 350.6 348.8 348.2 348.3 347 346.2 345 346.5 344.4 350.8 350.3 351.8 351.7 353.5 353.5 353.3 351.5 348.4 344.2 340.9 337.8 337.1 335.4 332.5 333.2 332.9 332.8 329.4 328.9 322.2 321.6 323.2 323.2 321.4 306 300.3 299.5 309.4 311.6 314 328 331 339.4 343.7 347.1 355.7 362.2 390.8 400.1 399.8 399.1 399 395.3 384.9 381.4 371.1 365.2 361.6 358.7 351.8 343.5 337.6 330.5 324.6 320.2 317.2 314.2 312.1 308.2 305 303.6 302 301.2 299.3 298.6 297.6 295.6 297.3 296.1 294.8 294.2 292.7 291.1 292.8 293.8 293.1 291.7 289.7 287.7 291.7 294.8 297 295.4 297.5 294.9 289.7 283.6 279.4 279.2 278.6 275 271.1 270.3 270.4 268.7 269 268.4 267.9 268.1 267.1 267.2 271.9 273.2 272.1 271.4 271.3 270.4 269.2 267.5 264.4 267.2 266.6 265.1 265.6 268 269.8 270.7 271.6 267.9 267.6 264.7 255.1 259.3 264.7 273.7 283.8 293.7 303.8 317.1 328.4 336 344.2 351.2 351.8 355.2 362.4 359.7 358.2 357.8 358.3 359.9 362.5 367.3 371.8 376.7 382.4 390.5 398.9 410.5 420.6 431 445.5 453.3 457.2 454.2 448.5 439.3 425.7 414.4 406.3 397.7 387.5 376.3 368.8 362.9 356.1 350.4
435.2 431.3 427.8 421.9 414.3 406.1 394 388 382.9 373 374.8 374.1 373 370.8 365.9 361.8 360.1 358.6 357.7 356.4 353.6 352.3 351.2 350.1 349.4 354.3 356 354.5 350.4 343.7 343.9 343.9 351.2 347.7 348.4 349.2 352.6 353.3 352.2 350.7 347.6 343.6 339.7 337.3 335.9 334.9 334.2 333.7 333.7 333.3 329.4 330.8 323.7 322.2 324.5 324.6 318.9 303.7 298.8 305.3 311.3 311.7 316.5 326.9 331.1 342 346.8 349.9 355.4 365.5 374.6 391.4 397.9 398.6 397.1 396.1 387.6 384.7 374.7 368.6 366.1 361.8 355.7 346.4 339.4 332.4 325.5 320.2 317.5 314.6 311.1 307.1 304.7 302.9 300.6 297.7 298.8 297 296.1 292.5 293.4 293.7 293.4 291.9 291 290.1 289.3 288.1 286.8 285.5 282.5 282.4 282.1 287 283.9 285.3 286.6 286.1 281.2 278 275.4 273.5 271.9 270.7 270.4 272.1 272.8 273.2 270.4 269.2 269.7 271.6 268.4 267.1 268.7 272.1 271.8 272.1 271.8 269.8 269 267.4 265.9 267.8 268.6 266.5 265 265.1 267.7 270.9 272.1 264.9 260 254.4 262 262.6 268.5 275.1 284.9 295 304.8 315.9 324.7 335 343.9 350.5 353.3 354.3 357.7 356.8 356.6 356.1 357.3 359.1 361.7 366.2 370.8 375.4 381.1 388.1 398 409.8 420.1 429 443.4 449.4 452.1 445 440.3 431.4 418.4 408.2 400 392.4 382.5 372.5 365.2 358.9 353.1 347.4
442.8 437.7 432.4 424.5 415.2 405.1 395.3 385.9 377.9 379.1 381.1 377.8 376.2 372.6 370.5 360 358.6 357.6 356.1 355.2 354 352.6 351.6 350.4 353.1 358.3 358.9 357.7 354.2 345.5 340.7 348.8 350.1 344.9 346.4 349.1 350.5 351.1 351 348.3 346.1 343 339.3 337 335.6 334.2 333.7 333.7 333.8 334 335.2 331.3 325.5 321.5 325.9 324.7 312.1 298.6 298 306 313.5 314.7 320.1 328.5 335.2 343.2 350.2 353 356.5 365.7 376.9 387.2 395.8 397.3 394.6 394.9 388 386 377.7 372.3 370.6 367 360 349.8 341.9 334.1 325.9 320.5 317.3 314.2 310.9 306.8 304.3 303.2 301.4 298.3 301.1 300.7 298.9 298.1 294 295.7 296.8 295.1 293.9 291.3 290.3 289.5 289.2 288.9 288.2 280.4 285.4 289.9 277.1 277.5 276.8 275.4 275.8 274.4 272.8 271.4 273.3 275.5 275.5 273.4 272.7 271.1 270.7 269.9 270 271.5 270.4 267.5 266.8 271.7 272.4 271.3 270.2 268.6 267.1 263.7 263.7 265.1 270.2 267 265.7 264.2 268.5 270.2 271.4 267.6 257 268.1 264 263 270.9 275.1 285.3 295.5 304.8 316.4 325.4 333.5 342.4 347.8 352.9 353.5 354.7 354.3 354.5 354.1 356.1 358.5 361.2 365.3 369.5 374.4 380.6 388.3 397.7 409.1 419.2 427.6 439.6 446.6 443.5 439.7 433.8 419 408.6 401.2 394.5 385.9 377.4 368.3 361.5 354.6 349.4 343.8
447.7 441.2 435 427.6 417.3 404.5 394.6 385 377 389.2 385.3 380.9 375.2 371.5 363.3 358.5 357.2 356.7 355.8 354.8 353.7 352.6 351.2 350.3 358 360.8 361.2 359.2 357.5 349.2 340.3 340 340.7 341.9 344.4 346.3 348.5 347.8 347.7 346.9 345.2 342.8 339.8 336.9 335 333.9 333.4 333 333.7 334.8 335.2 333.9 327 323.9 325.4 319 307.5 303.5 296.4 303.6 319.4 317.2 321.4 329.8 336.8 342.7 352 356.7 358.5 365.8 376.2 384.7 392.5 392.2 392 392.1 386.1 381.6 377.7 376.8 375.5 371.7 366.3 354.6 347 335.7 327.1 321 317.4 313.6 310.3 305.5 304.3 303.2 301.7 298.4 303.8 301.1 298.7 297 292.3 293.5 293.3 293.9 292.4 290.4 289.8 290.4 288.4 285.8 285.6 283.9 288.3 292.5 292.9 286.1 280.7 277.1 274.5 274.2 272.7 275.5 276.6 276.4 275.5 273.3 273 271.8 270.3 269.9 270 270.8 271.2 268.3 266.2 270.5 272.9 270.8 269.1 267.9 266.9 263.7 263.7 266.9 270.1 269.4 267.6 262.7 264.8 263.9 258.1 257.9 264.3 268.6 263.7 266.3 270.8 278.4 286.5 295.8 305.6 315.6 324.8 335.6 341.4 348.2 349.9 352.1 352.9 352.3 352.7 353.1 355.3 358.3 360.5 364.9 368.1 373.3 379.4 387.1 396.4 408.6 417.3 425.1 434.2 443.4 438 434.9 426 412.4 402 394 387.8 379.5 372.1 364.7 357.5 351.4 346.9 341.7
451.1 444.8 435.8 427.2 418.5 405.3 393.1 377.6 385.8 389 385.3 382.7 370.3 362.1 359 357.3 356.1 355.4 354.9 353.8 352.9 352 349.9 357.5 360.7 362.4 362.1 360.5 358.7 352 332.2 340.6 339.4 339.5 340.9 344.8 346.8 348.4 346.9 345.7 343.5 341.4 338.6 336.8 333.8 333.5 333 332.6 333.8 334.3 331.9 329.3 325.3 323.5 321.6 315.5 313 312.5 303.6 289.9 315.9 317.8 324.8 330.4 336.5 341.4 352.8 359.7 362.9 369 379.6 387.3 389.7 389.1 388.1 388 384.1 378.8 380.7 379.7 380.4 375.3 370.5 358.2 350.5 338.5 328.6 322.5 318.8 314.3 310.8 305.2 303.9 302.7 299.4 298.9 305.1 301.4 298.7 295.2 292.2 291 289.1 293 291.4 289.4 286.7 285.5 285.8 286 285.9 285.8 286.2 286.9 290 293 292.7 287.8 281.4 279.1 276.1 275.4 276 276.4 276 274.3 274.9 271.3 270.3 269.2 271 269.6 270.1 269 265.3 270.3 271 270.6 269.1 267.6 267.4 263.7 266.1 269.1 270.4 270.6 269.9 267.4 265.1 262.8 260.9 254.6 268 268.5 266.5 265.7 272.5 279.8 287.8 295.7 303.8 314.7 325.1 333.4 339.9 345 347.8 349.5 350.6 350.4 351.1 352.1 353.9 356.8 359.9 363.1 366.9 371.7 377.9 384.4 395.5 404.9 414.4 420.7 428.1 436.8 433.1 429.7 421.3 409.8 396.4 385.8 378.6 374.1 367.1 361.4 354.1 347.7 343.7 338.3
454.5 447.8 438.6 426.4 416.6 402.3 388.7 377.4 389.7 381 378.8 372.7 361.1 359.6 355.1 355.3 355.1 354.5 353.7 353.1 352.3 350.9 354.9 361 362.9 364.3 363 360.6 358.9 355.3 338.2 335.8 336.6 337.5 340.3 343.4 343.1 344.9 345 343.7 341.3 337.8 335.5 333.6 333 332.7 332.5 332.1 331.1 330.1 324.4 322.5 320.6 319.5 317.6 316.3 313.7 311 301.5 297.9 315.2 317 324.8 329.2 335.5 342.6 355.7 362.5 364.4 371.7 378.5 382.5 385.7 385.6 385.2 384.7 380.5 377.7 380.7 380.5 383.9 378.7 372.4 360.4 354 340.8 331.5 324.9 320.2 315.7 311.8 304.6 303.8 302.2 298.9 300.1 303.5 300.7 296.2 291.3 287.9 289.6 285.2 288.2 288.7 286.8 285.4 285.1 285.8 286.2 286.3 286.3 286.5 286.9 287.8 288.8 288.9 285.6 282.7 278.9 276.5 276 274.7 275.1 274.9 272.6 271.7 270.4 270.6 269.4 269.3 270 270 271.1 265.3 266.5 271.4 270.9 269 267.3 266.1 266.4 269.4 268.7 270.7 268.6 268.6 269.6 268.5 267.4 261.1 253.3 267.8 268.5 262.1 265.7 274.2 279.4 287.7 296 304.7 314.2 323.5 331.5 337.7 342.8 345.4 347.6 348.2 348.9 350.4 351 353.7 356.3 359.1 362 365.9 370.6 377.3 383.4 393.6 400.9 409.3 415.5 419.8 430.7 429 426.9 420.3 408.2 395.6 382.3 373.6 367.9 363.4 357.2 349.3 345.1 341.2 335.4
459.5 452.2 441.2 430.5 414.7 397.8 385.3 378.8 381.5 376.9 369.3 361.8 360 358 354.5 354.3 354.2 353.5 352.8 352.7 352.2 351.4 358.7 363.8 364.6 365 363.1 360.7 358.7 355.4 338.2 331.6 336.4 334.6 336.3 341.6 343.1 340.7 339.3 338.5 337 335.6 334.6 333.3 332.5 331.2 330.6 330.8 330.4 328.9 323.6 318.6 316.9 314.5 313.5 313.9 310.2 296.4 286.6 294.6 309.4 317 325.2 329 335.5 342.8 357.2 362.4 367.3 367.9 371.9 376.9 379.3 381 381.6 381.3 378.4 376.6 378.1 381.2 385.2 378.9 372.7 361.9 360.2 340.7 334.3 326.9 321 316.5 311.1 304.5 303.9 301.6 298.9 302 299.2 295.6 289.5 284.6 284.2 283.3 284.8 287.6 287.2 285.7 285 284.7 285.7 286 286.3 286.4 286.7 289.3 290 289.7 288.9 285.6 282.5 278.7 277 275.9 273.7 273.2 272 272 271.3 269.1 268.4 268.5 268.3 270.2 269.8 269.8 267.6 264.2 268.7 270.3 269 267.1 266.2 265.1 267.6 267.8 267.7 267.4 266.6 266.7 265.9 264.7 259.2 251.4 264.3 264.3 261.9 266.3 270.9 279.5 287.3 295.6 304.1 313.4 322.7 329.3 335.5 340.2 343.2 345.5 345.6 347.3 348.9 351.2 354.7 356.8 358.6 361.3 365 369.6 375.8 382.4 391 397 403.9 409.3 412.6 420.2 424.3 422.9 417.3 405.9 393.5 380.9 369.7 363.6 359.1 354.7 348.7 343.7 337.3 330.3
460.1 451.8 442.8 432 412.5 388.7 381.5 388.7 379.6 374 361.6 366.1 359.7 354.7 353.7 353.3 353.3 353 352.3 353.1 354.3 359.2 364.8 365.8 366.1 365.8 363.4 361 359.4 348.5 332.2 331.3 333.8 334.2 335.1 340.2 339.9 340.8 340.6 338.4 337.5 335.6 334.2 332.9 330.9 329 328.3 329.1 329.7 329.4 326.4 321.1 314.1 317.8 317.4 315.5 302.4 282.3 281.1 295.7 310.9 317.9 324.8 328.5 335.3 343.4 357.7 360.8 362.9 364.1 366.6 372.1 374.2 375.7 376.8 377.3 375.3 373.7 374.9 380.1 386.1 375.9 371.2 362.6 362.4 341 336.3 328.3 324.3 318.7 308.7 304.6 304.2 300.9 299.7 296.9 293.4 289.3 285.8 285.5 285.6 282.1 280.1 286.8 286.5 285 284.7 284.5 285.2 285.7 286 286.3 286.8 290.2 292 293 289.9 286.3 281.6 278.9 276.6 274.4 273.6 273.1 271.3 271.4 268.7 268.7 268.4 268.5 267.7 268.4 269.3 269.1 269.6 267.4 264.2 268.1 268.8 266.8 267.1 267.3 268.5 267.5 266.8 266.4 268.1 265.9 263.8 258.6 256.1 253 261.9 259.2 261.6 268.1 271.9 277.8 286 295 303.8 312.5 320.4 327.2 333.4 337.8 341.4 343.2 343.5 346.5 349.3 352.7 355.8 358 358.7 361.2 364.3 368.8 374.8 381.4 387.2 393 398.8 403.3 406.8 411.6 417.4 416.8 413.7 402.8 391.4 380.4 368.6 359.1 354.6 350.8 346.4 340.7 335.2 328.3
459.5 451.8 444.2 431 410.1 384.7 393.3 391 378.6 369.9 363.5 359.8 354.2 353 353.4 353.3 353.1 353.6 355.1 356.9 365.9 367.7 368.8 368.1 367.6 366.1 363.2 360.6 357.4 344.2 330.9 329.9 330.4 331 333.4 338.3 340 338.7 338.4 338.7 340.3 338.3 334.8 332 328.5 326.6 325.6 328.7 326.9 324.2 321.6 317.3 318 313.2 315.9 315.5 290 278.9 287.9 303.5 310.3 314.4 322.3 328.4 335 342.5 355.4 358.4 359.9 359 361.9 366.9 369.4 370.4 372.1 373 372.1 370.9 371.9 372.7 372.1 370.3 365.9 361.4 360.9 342.8 336.4 328.5 323.5 320.6 307.4 304.3 302.8 299.2 294.7 289.9 288.4 286.5 286.1 286.9 285.9 282.8 278.7 285.7 285.3 284.5 284.4 284.3 284.7 285.2 285.5 285.8 286.5 289.5 292.7 293.5 291.3 287.1 282 278.2 275.2 273.7 273.2 273.1 270.4 270.1 268.9 268.1 268.4 268.2 267.1 268.4 268.5 269.5 270.7 269.4 265 263.4 266.3 268.7 268.7 268.2 266.2 267.6 267.3 267 266.8 264.6 262.2 257.1 252.5 256.1 254.7 256.2 260.5 265.6 272.3 280.1 287.4 294.3 302.4 310.8 317.9 324.9 332.2 336.7 339.9 340.7 344.2 347 350.2 354.1 357 358.6 359.3 360.9 363 367.7 373.3 379.6 384.9 390.2 394 398.2 400.7 405.4 409.7 411.3 407.1 396.7 390.8 380.4 368.9 356 350.3 346.3 343.1 336 329.3 323.9
459.1 451.3 442.7 426 400.3 385.4 396.1 387.5 375.5 363.5 359.2 354.5 353.7 354.8 355.7 355 353.7 355.4 362.2 366.3 369.3 371.7 371.5 369.8 369.2 366.4 363.5 360.3 356.8 345 329.1 328.1 329.3 330.3 332.7 336 338.7 338.4 338.3 341.8 341.5 339.6 337.2 333.9 329.8 328.1 323.3 323.7 325.7 321.9 321.4 318 316.6 315.6 301.6 304.8 287.3 279.5 288.4 303.2 316.2 316.5 318.4 329.4 334 339 347.8 352.1 352.1 349.9 356.1 361.5 363.8 365.5 367.4 368.5 368.2 368.7 369.1 368.1 367.2 367.3 365.3 358 356 340.9 338.3 329.9 325.7 311.5 310.1 304.5 302 298 291.6 289.4 287 286.7 293.9 292.1 286.3 284.9 277.3 282.2 284 284.1 284 284.1 284.3 284.7 285 285.6 287.7 292.5 295.8 296.5 293.5 287.1 281.9 277.3 274.5 273.5 273.5 272 270.8 269.1 267.8 267.9 267.9 267.4 266.6 268.5 268.3 269.5 269.7 269.1 266.4 262.6 265.8 265.3 268.5 267.4 266.2 267.1 265.2 264.5 263.4 262.5 261.6 255.1 250.4 252.9 258.6 259.3 262.6 268.2 272.1 279.1 286.7 292.9 300.6 305.4 313.6 321.1 329 335.3 336 340.9 344.3 347.4 351 356.1 358.2 359.2 359.9 360.8 362.7 365.7 371.4 377.2 382.4 387.2 390.6 393 395.3 399.2 402.9 402.9 399 392.6 389.7 377.9 367.4 356.2 347.1 343 339.4 331.3 327.6 322.9
458.1 450.9 436 414.7 390.7 392.3 390.3 382 368.2 360.3 353.4 354.1 356.1 356.7 356.6 356.7 358 363.7 367.5 371 373.5 374.4 373.9 371.4 369.1 366.2 363.1 359.8 355.8 348.8 335.9 324.2 328 327.8 328.8 333.9 338.6 338.3 338.4 343.6 341.3 339.6 337.8 333.7 329.5 326.6 323.1 320.5 320.8 320.2 315.7 316.8 314.3 310.7 298.1 281.8 278.9 278.3 282.4 301.2 307.5 314.1 316.3 327.2 335 335.1 345.3 350.4 345 343 350.2 355.8 358.1 360.1 362.1 363.9 364.9 366.4 367.5 365.9 364.5 362.4 361.3 355.5 344 342.7 341.1 333.5 328.2 316.9 315.4 305 301.9 300.1 292 287.9 288.6 295.4 294.6 292.7 288.9 285.6 276.7 283 283.5 283.6 283.7 283.6 283.1 283.6 284.3 285 289.1 294.1 297 298.6 294.3 287 281.2 276.2 274.4 273.8 274.2 271.5 272.9 270.3 268.8 266.5 267 266.6 266.1 268.2 269 268 268.3 267.8 266.5 263.4 264.8 263.6 265.2 267.8 266.2 263.8 259.5 260.8 261.3 263.4 258.9 248.3 253 257.8 262.4 262.3 263.2 266.9 271 278.1 283.1 289.6 295.2 303.6 311.3 319.6 323.9 332.8 337.5 340.7 345 348.2 353.5 357.6 358.9 359.8 360.5 361.3 362.8 364.7 368.3 373.1 378.6 383.8 386.2 388.5 390.3 392.9 395.3 393.5 390.3 386.1 380.8 372.8 364.5 355.6 346.3 340.6 337 334.6 331.1 326.9
458.9 446.8 428.8 412.1 397 382.9 378.6 373.7 362.3 353.8 354.2 356 357.3 357.6 357.8 361.3 364.6 367.7 371.7 374.9 376.4 376.9 375.5 372.7 369.5 365.7 362.7 359.4 354.3 348.6 343.5 330 325.5 320.7 319.4 326.5 337.3 337.9 343.6 344.2 341.2 339.1 337.3 332.6 329.3 326.9 321.3 318.7 318.5 315 316.9 314.2 311.5 302.2 287.1 276.6 276.3 277.4 282.8 301.2 309.8 308.7 313.6 323.4 332 333.2 337.2 340.1 338.1 338.8 343.8 349.4 351.7 354 356.7 359.1 361.1 364.1 365.2 365.1 364.4 360.5 355.9 349.6 344.2 349.7 341.8 335.8 325.8 318.6 315.2 305.7 299.5 298.6 290.5 288.3 295.9 296.9 294.6 292.9 289.3 287.6 278.6 281 282.6 282.2 282.4 282.1 280.9 281.6 283.3 285 289.7 297.2 298.9 300.3 293.1 286.8 280.8 276.5 273.9 273 272.3 270.6 270.4 268.9 266.6 265.5 264.9 264.9 265.2 266.4 268 267.9 268.2 267.7 267.1 263.5 261.2 263.7 265.6 268.8 268.4 267.9 261 259.1 259.2 255.8 250.2 250.9 259.9 261.5 262.8 261.4 262.5 265.6 269.4 272.2 282.9 288.6 294.7 304.1 311.6 319.9 327.7 332.2 336.6 340.6 345.5 350.8 355.8 359.1 360.5 360.9 361.5 361.9 363.3 364.5 366.3 369.7 372.3 379.5 383.1 384.5 385.2 386.1 387.9 387 384.8 381.2 375.7 372.4 366.9 359.9 350.6 343.2 338.2 333.7 330.5 327.3
455.3 438.3 419.9 406.8 398.3 391.9 383.3 369.3 356.7 353.8 355.1 356.7 357.9 359 363.2 367 370.4 372.4 375.1 377.8 378.7 379 377.1 373.5 369.9 365.1 362 358.1 352 346.8 343.6 340.4 334.6 332.2 313.4 328.7 335 340.5 345.1 343.9 340.3 338.9 336.8 332.1 328.4 324.7 319 315.6 313.2 311.9 311.5 310 308.2 297 282.8 275.7 275.7 277.1 280.8 298.1 307.8 308.5 311.2 314.2 322.7 327.8 331.6 331.1 332.2 334.2 336.9 341.1 342.4 345.1 349.4 352.9 357 361.7 362.2 358.8 359.8 357.9 354.4 346.4 343.5 348.2 342.8 334.4 329.8 325.4 320 302 289 289.4 288.8 292.5 301.3 298.6 296.9 293.9 289.5 287.8 285.8 273.9 282.7 282.4 282.4 282 280.1 281 283.6 285.4 290.1 297.5 300.4 300.6 292.7 286.1 280.7 276 273.8 272.3 272 270.7 268.6 267.1 265.6 264.1 262.5 263.4 264.5 266.2 268.2 268.1 268 267.4 266.8 265.9 260.9 257.1 260.9 259.2 263.7 264.3 262.6 259.2 258.9 253.5 247.4 254.5 260.3 262.1 260.4 258.8 260.9 264.9 269.8 277.4 284.3 290.8 297.1 303.4 310.5 318.7 325.5 330.9 335.7 341.5 346.5 352.4 358.4 362.5 364.3 363.6 362.6 363.3 363.9 364.5 366.7 369 369.7 375.4 378.1 380 381.2 382.1 384 385.4 385.1 382.3 382.5 377.1 369.8 361 353.7 347.3 341.3 335.6 331.7 328.6
446 427.8 412.8 406.6 398.4 387.2 378.7 360.8 354 354.6 356.2 358.4 361.2 364.2 367.9 372 375.6 376.3 378 379.8 380.5 380.8 378.3 374.6 369.8 364.5 361.2 356.4 350.6 346.2 343.2 340.8 327.8 320.7 315.8 328.1 334 342.1 345.4 343.4 339.4 338.5 335.4 331 327.7 321.4 316.7 313.4 311.7 307.7 308 309.2 299.2 289.4 276.1 274.9 275.3 276 280.7 298.3 303.9 308.6 308.8 311 313.9 318.5 322.6 325.6 326.7 329.2 328.8 332.3 334.8 335.9 337.7 343.7 348.9 358.7 360.3 356.6 353 351.2 348.8 340.8 342.2 348.8 340.9 332.5 333.5 330.4 320.8 298.7 292.9 303.5 299.4 303.3 304.9 301.1 297 293.2 289.6 287.6 285.7 280 273 279.2 282.3 282.8 277.2 281 283.1 285.7 290.6 296 302 300.4 292.6 286 280.5 275.7 274.3 272.1 270.5 270.4 268.1 266.7 264.1 262.5 261.1 262.1 263.7 266.4 267.2 268.1 267.6 267.1 266.5 265.4 261.3 257.3 256.3 260 257.7 263.2 257.1 261.4 257.7 246.8 248.6 258.8 261.5 261.6 260 257.5 257.6 265.4 271.3 278 283.8 289.8 296.2 301.7 309.6 316.6 323.8 330.3 335.8 342.2 348.5 356.5 363.2 366.7 367.7 366.3 364.6 364 364.4 364.3 365 366.9 369.2 371.5 374.7 376.6 377.6 379.6 382.2 383.8 385.3 388.2 384.1 377.5 369.9 362.6 357.2 350.7 343.8 338.8 335 331.7
421.8 412.8 408.2 401.7 392.7 382.7 366.9 354.8 354.6 356.4 357.3 362.5 365.1 368.6 372.6 377.7 379.2 379.2 380 381.4 382.3 381.8 379.9 375.9 370.4 363.8 359.5 355.6 349.9 345.7 342.6 336 319.2 307 321.9 327.1 335.5 342.9 345.1 342.2 337.7 336.6 333.2 328.5 325.2 322.5 315 311.5 308.8 307.1 302.9 301.5 291 282.7 275.8 275 274.9 275.7 282.2 297.5 303.7 306.7 306.8 308.6 309.2 310.3 310.3 314.6 318 318.5 320.6 323.3 326.1 328.7 332.5 332.8 338.5 347.9 352.4 350 349.8 346.9 347.4 339.7 335 334.7 333.4 332.2 331.8 327.9 313.8 296.7 297.7 313.4 313.5 310.4 305.9 301.1 297.7 294.5 289.9 287.7 285.5 284.4 279.2 271.7 273.4 279.1 276 281 282 285.7 290.7 295.7 303.2 299.9 292.7 286.2 280.2 275.8 273.4 271.4 270.1 269.9 267.3 265.7 263.2 261.3 260.4 261.3 263.2 264.9 266.7 267.8 267.1 266.7 266.4 264.7 263.5 258.5 252.6 252.6 255.8 257.6 253.1 253.2 243.8 251.5 256.5 261.9 262.8 260.4 258.9 256.6 256.8 262.9 269.2 276.5 282.8 290.2 295.2 300.6 307.4 314.4 321.8 328.3 335.7 342.7 351.5 362.2 367.8 370.8 371 369.2 367.1 365.7 364.3 364.1 364.1 366 367.5 370 372.6 373.6 375.7 378.9 382 386 389.1 390.5 385.3 378.9 372.1 366.1 359.9 352.8 346.4 341.3 337.4 334.1
401.3 401.2 385.7 382.2 366.8 358.2 356.1 354.9 361.8 364.5 363.7 365.3 368.5 372.8 377.3 382.3 382.1 381.7 382.2 383 383.8 383.4 381.7 376.8 370.4 363.7 358.6 354.7 349.6 345 342.1 337.6 318.1 306.4 319.5 327 336.2 342.3 344 339.8 335 334.1 329.2 324.8 324.2 319.8 313.4 310.1 306.9 305.7 296.8 296.3 286.4 276.3 274.4 274.3 274.8 275.7 285.7 295.5 303.9 304.7 305.1 307.7 309.5 309 309 307.8 307.6 309.4 310.5 309.7 312.4 315.3 320.7 321.2 328.9 333.7 338 337.2 336.6 335.8 333.6 332.6 332.4 331.2 331 327.9 322.1 312.9 298.6 290.3 300.2 317 315.2 311.8 306.9 301.4 298.8 295.2 290.3 289.1 286.4 284.6 282.7 281.2 271 271.8 272.1 276.2 282.1 285.3 289.9 296.4 303 298.6 292.1 286.1 280 275.7 273.5 270.9 269.6 268.2 266.9 264.8 262.1 260.3 259.6 261.1 262.5 263.8 265.5 266.6 266.8 266.2 265.4 263.5 262.4 259.7 253.6 247.4 247.1 255.1 252.4 252.4 244 252.2 253.8 260.5 262.5 260.6 253.7 255.7 255.5 263.6 269.9 276.5 281.9 289 294.4 299.2 305.4 312.4 320.8 328.4 336.1 345.2 355.7 365.7 372.2 374.6 373.7 371.8 369.5 367.5 364.9 363.8 363.5 364.4 365.9 367.2 369.2 371.4 373.9 379.2 384.2 389.9 396 394.5 389.2 381.4 376.1 370 362.2 354.8 348.2 343.1 339.1 335.7
407.8 404.8 373.7 373.1 378.6 356.1 354.5 367.5 371.2 369.2 368.7 370.7 373.7 378.5 382.6 386.4 386 384.3 384.4 384.9 385.7 385.5 383 377.5 370.2 363.6 359 354.5 348.8 343.8 341.3 336.7 319.9 308.7 316.9 327.2 335.4 338.7 339 336.9 330.8 328.4 325.7 322.1 318 313.8 311 308.1 307.9 305 291.9 288.7 279 274.2 273.3 273.7 273.7 276.4 289.4 292.4 299.1 304.1 306.2 311.1 313.6 312.6 309.1 308.4 307.4 306.8 306.3 306.6 306.6 306.8 306.9 307.5 310.7 325.3 334.5 327.1 332.7 331.1 328.5 323.1 322.1 321.8 322.7 315.5 309.7 303 292.4 296 310.3 319.7 316.7 314 307 302.1 298.5 294.4 291 289.7 287 284.9 282.8 281.2 277.7 270.3 270.6 274 281.1 285.2 289.8 297.5 301.8 296.5 290.6 285.1 279.8 275.9 273.6 270.9 268.9 267.5 266.4 264.7 261.6 259.4 258.8 260.3 261.8 263.2 265 266 266.2 265.7 264.6 263.1 260.9 259.8 256.3 246 245.3 251.8 251.3 256.4 241.6 241.3 242.8 256.2 254.5 251.7 248.9 251.5 256 265.2 270.4 275.5 280.9 287.7 293.8 298.6 303.6 311.3 320.4 328.7 337.6 347.4 359.8 370.7 376.1 377.7 376.4 374.4 371.3 369.2 366.2 363.5 362.9 363.2 364.2 365.5 366.8 369.4 373.4 379.4 387.9 396.4 401.1 401 394 386.7 379.5 372.5 366.2 357.5 349.5 345.2 341.4 337.3
407.5 386.8 375.6 383.7 361.5 355.2 365.9 374.5 373.4 371.2 371.5 374.9 379 382.8 387 390.2 389 387.3 386.9 387 387.5 386.7 383.3 377.4 369.3 363.4 359.7 355.3 348.3 343 340.8 332.8 313.2 309.9 315.3 326.3 334 335.3 334.3 331 325.9 323.9 320.7 317.3 314.4 310.7 309.7 307.3 306.2 303.3 291.8 280.4 273.6 272 272.4 272.8 273.1 282.3 292.4 289.6 295.1 297.1 306.8 309.3 311.2 311 309.7 309.1 308.4 308.3 307.5 305.3 305 306.6 309.9 308.2 303.8 314.4 326.2 321 320.4 319.2 314.2 311.7 310.4 307.7 307.6 306.1 304.8 296.8 291.7 307.1 316.8 320.4 320.1 315.4 306.6 304.8 300.8 295.3 291.5 288.9 286.8 284.5 282.8 280.9 278.4 277.1 275.4 269.7 281.5 285.2 290 298.3 299 296.2 288.8 283.4 279.1 275.4 272.9 270.2 268.1 267.3 265.9 263.8 260.9 258.4 257.9 259.7 261.5 263.1 264.9 266.3 265.8 265.3 263.7 262 261.2 257.4 260.4 248.1 244.1 251 254.4 252.5 241.7 240.8 240.3 242.3 245.7 248.5 249.4 249.7 253.1 261.7 269 274.9 280 286.4 292.1 297.7 302.8 310.6 320.8 330 338.5 350.1 365.1 374.7 379.8 380.7 378.9 376.9 373.5 370.6 367 363.5 362.2 361.7 362.2 363.2 364.9 368.1 372.8 379.9 391 398.4 403.9 406.3 400.6 393.3 383.8 374.2 366.7 358.2 351.6 346.6 343.1 340.2
390.3 383.3 384.7 364.3 355.8 361.9 367.8 371.7 372.1 371.2 372.9 377.3 382.1 386.3 389.6 392.5 391.7 390.5 389.8 389.7 389.1 387.7 383.5 376.6 368.6 363.2 359.3 354.6 346.3 343.3 340.7 330.5 310.1 304.5 315.4 324.2 329.3 332.5 331.6 327.9 322.5 318.5 314.6 311.6 310.4 308.7 303.7 303.5 302.8 299.1 286.5 274 270.8 271.3 271.6 272 273 286.6 293.1 289.6 291.4 298.7 305.3 308.6 309.8 311.8 310.2 309.5 309.8 310.2 307 304.1 303.3 303.5 306.5 309.5 305.5 304.1 310.1 310.5 309.4 309.6 303.3 298.3 295.6 294.4 294 293.3 292.8 293.5 307.5 318.5 323 324.9 324.7 314.7 307.6 305.8 303.8 295.6 291.4 288.8 286.1 284.6 282.6 280.5 277.8 276.9 275.7 269.5 281.2 285.4 289.8 296.5 298.1 293.7 286.3 281.3 277.9 274.8 272.1 269.5 267.2 265.7 264.6 262.1 259.9 257.6 257.5 259.2 260.9 263.1 267 267.1 265.9 265.3 263.6 261.4 260 258.7 251.8 241.9 257.5 254.6 252.8 241.5 240.6 239.7 239.4 239.3 243.5 246.5 248.3 248.3 254.8 263.3 269.1 274.6 279.4 284.7 290.6 296.1 301.9 309.9 321.6 330.8 339.1 353 370 378.4 383.9 382.9 381 379.2 375.7 372.3 367.7 363.1 361.1 360.5 360.1 360.8 362.4 366.1 371.6 379.5 390.7 400.3 409.1 411.4 404.8 396.4 386.5 375.6 365.8 358.5 353.7 348.7 344.7 343.1
382.4 387.9 368.9 355.8 361.1 364.3 364.8 365.9 369.3 370.4 373 376.2 382.5 386.9 391.4 393.8 395.2 393.9 393 392 391.2 389.1 384.4 376.7 368.5 362.8 357.3 352 345.7 342 339.9 327.5 306.1 300.7 308.7 322.4 328 328.2 326.6 323.7 318 310.8 310.2 308.8 308.3 306.4 298.4 298.3 299.3 293.7 278.7 270.2 270 270.6 271.2 271.7 281.6 293.2 295 289.8 290 294.6 303.8 307.1 309.1 309.2 309.8 309.5 308.5 307.1 305.1 303.2 302.4 302.1 301.8 302 301.9 301.3 300.7 300 299 298.7 298.6 296.8 295.7 302.2 304.4 304.4 306.9 314.9 320.3 326.6 328.8 329.8 327.3 316.4 310.5 308.3 302 295.3 291.4 288.6 285.7 283.3 281.4 279.4 277.1 276.2 272 270.4 280.8 285.1 290 295.7 295.5 290 284.3 280.8 277.6 274.6 272 269.5 267 264.7 262.8 260.7 258.9 257.1 258.2 259.4 260.4 262.4 264.1 265.7 265.6 265.4 263.5 261.1 258 257.1 257.1 240.7 240.5 245.6 248.3 240.6 239.5 239.3 238.9 238.6 240.8 244.2 245.4 248.7 254.8 263.9 269.6 273.9 279 284.2 289.5 295.4 301.4 310.7 320.6 331.7 341.1 357 371.1 382.8 386.5 385.3 383.4 381.2 377.9 373.8 368.1 362.7 359.9 358.9 358.3 358.2 360 364 369.7 377.5 389.9 400.5 410.9 412.8 405 396.5 387.6 373.5 365.5 359.7 356.2 350.6 347 345.9
383 379.2 359.7 359 365.6 365.4 365.1 365.5 368.1 370 372.2 376 381.8 388.6 393.8 396.6 397.9 395.8 395 394.3 393.8 390.3 386 377.9 367.7 361.8 355.6 349.2 343.4 340.9 338.6 331.9 314.8 300 297.9 305.3 325.7 326.6 325.1 318.3 312.3 307.2 305.9 305.6 304.6 297.9 298.3 297.5 296.1 281.6 272.3 268.7 269.4 270 270.2 276.3 288.1 296.9 298.4 289.8 289.4 293 303.2 306.5 309.2 308.8 309.8 308.1 306.6 306.1 304.9 303.1 301.3 300.7 300.4 300.3 300.5 300.6 300.3 300 299.9 299.3 298.6 298.3 298.4 305.1 311.3 314.6 318.2 324 329.5 333.5 333.9 333.8 327.8 317.2 311.1 310.4 302.6 296.2 292 288.8 285.1 282.4 280.5 279.2 277.8 274.3 267.5 273.4 280.3 284.6 289.9 294.7 292.1 287.4 283.4 280.2 276.6 273.4 270.8 268.8 266.5 264.2 261.3 259.5 258.2 257 258.1 259.1 259.9 261.5 263.1 264.5 264 264.1 263.1 261.1 257.9 254.9 257.2 240.4 240 240.8 250.2 240.4 238.8 238.4 238.1 238.1 239.4 242.4 244.2 247.5 254.2 262 268.7 273.6 278.6 283.8 289.1 295.1 301.6 310.6 321.2 332.2 343.8 358.3 373.5 387.3 389.1 387.7 385.8 383.2 380.1 374.6 368.5 362.7 359.3 357 356 355.8 357.5 361.1 366.4 374.8 387 397 409.7 409.4 401 394.4 383 372.7 365.5 361.1 356.4 351.8 349 348.8
378 363.9 357.2 361 366.3 366.2 367.7 369.3 369.8 371.2 375.7 383 390.4 395.7 399.4 400.4 400.2 398.6 397 396.4 395.4 392.8 387.4 378.5 367.4 360.4 353.4 346.8 343 341 337.8 332.6 325.7 324 312.4 297 310.6 324.4 322.3 316.8 311.8 299.8 297.1 300.7 297.6 297.4 298.6 296.1 287.6 275.6 269.9 268.5 269 269.5 271 284.3 290.9 297.9 297.1 289.2 288.8 292.6 301.8 305.8 309.1 309.5 308.3 306.4 306.5 307.2 304.6 302.1 300.4 299.4 299.2 299.3 299.4 300.9 300.6 300.4 300.6 300.1 300.2 302.7 305.2 305.7 311.9 316.6 321.5 328.1 336.1 336.3 337.4 337.4 328.4 317.7 311 309.5 304.4 297.4 293.1 288.9 284.8 281.6 279.8 278.9 277.1 272.1 267.1 275.3 279.9 284.1 288.9 292.3 290 286.5 282.3 278.6 275.6 272.8 270.4 268.5 265.8 262.8 260.4 258.8 257.7 256 258.1 258.8 259.5 261.2 262.7 263.4 263 262.1 261.2 259.9 256.2 255.5 255.8 243.9 239.2 239.2 239 239.1 238.3 237.8 237.5 237.9 239.3 240.5 244 248.8 257.1 262.6 268.2 273.3 278.1 283.4 288.3 294.6 301.6 310.4 322.4 333.6 344.6 359.9 376.9 389.4 389.9 389.4 387.4 384.8 381.9 375.5 368.7 361.8 358.1 355.6 354.1 353 354.2 357.4 362.8 369 380.6 394.9 404.9 401.6 396.9 388.8 378.1 370.5 364.6 361.4 357.6 352.5 350.4 351.3
369.6 359.1 357.1 357.6 366.6 371.7 373.8 372.3 372.1 375.5 383.8 390.5 397 402.1 402.1 402.6 402 399.4 398.4 397.7 398 395.4 388 378.9 368.2 361.6 355.3 348.6 344 341.6 338.5 334.7 331.2 327 318.4 294.4 315 317.9 317.1 313.8 304.3 298.7 296.4 296.6 296.2 297 296.8 291.5 279.6 271.1 268.4 268.2 268.9 268.9 275.9 286.3 293.6 297.7 296 288.3 288.8 294.1 302.6 305.3 308.7 308.9 307.1 306.5 307.5 307.8 304.7 302.1 299.3 298.6 298.3 298.6 298.6 299.6 301.5 302.9 302.1 302 302.6 306.4 306.3 307.6 313.2 318.8 324.2 332.1 336.4 339.3 338.6 339 330.8 317.7 311.4 308 303.3 297.6 293 289.4 286.1 282.7 279.8 278.7 276.9 270.4 266.5 276.3 280.6 284.3 288.7 290.6 288 284.2 280.9 278 275.3 272.6 269.9 267.2 264.6 262.2 259.7 258 256.3 255.6 257.6 258.4 259.2 260.8 262.4 262.9 262.3 261 259.6 257.6 253.7 250.4 243.1 239 238.4 238.1 238 238.2 238 237.5 236.9 237.6 239.9 241.6 245.9 252.8 258.1 263.6 268.2 272.6 277 282.1 287.5 294.8 302.5 310.9 322.1 334.8 346.2 360.4 378.3 390.4 390.2 391.3 389.5 386.8 383.5 376.6 368.2 361 356.4 353.6 351.3 350.1 350.8 353.4 357.9 363.4 372.7 385 395.7 395 389.3 382.8 375.5 368.1 363.9 361.4 356.5 354.5 352.3 353.2
360.7 358.8 356.9 357.9 365.6 372.1 373.2 372.1 373.9 381.9 391 395.2 400.2 405.8 405.4 405.6 405 401.8 400 399.8 399.7 396.3 387.4 376.3 368.6 362.8 357.2 351.4 345.2 342.3 339 335.2 331.2 325.7 318.8 297.7 299 308.2 312 309.6 301.9 297.4 295.3 296.1 295.8 293.5 292 285.4 274.9 268.9 267.8 268 269.4 276.3 279.3 283.8 292.2 295.9 293.2 286.5 288.2 295.8 301.7 305.6 308.9 309.5 307.5 307.7 308.3 308 305.5 301 299.5 297.8 297.2 297.6 298 299.1 303.2 306.5 305.5 303.9 305.6 307.7 307.4 308.7 313.1 318.5 324.8 331.6 337.1 340.1 338.6 339 330.4 316.2 311.5 308.6 303 298 293.5 289.6 286.2 282.8 280 278.7 276.8 267.5 266.4 275.7 280.2 284 287.3 288.5 285.8 282.8 280.2 277.4 274.6 271.9 269.1 266.8 264.2 261.6 258.5 257 255.1 255.5 256.9 257.8 258.8 260.4 262 261.6 260.4 259.6 257.9 253.9 249.9 246.2 241 238.5 237.8 237.1 237.4 237.8 237.7 237.1 236.6 237.1 239.1 243.4 246.2 251.4 256.8 263.3 267.4 271.5 276.6 282.2 287.5 294 301 311.1 322.3 334.9 347.1 361.1 380.3 389.6 391.3 392.4 390.4 388.7 384.5 377 368.5 359.9 354.9 351.6 348.8 347.4 347.3 349 352.7 357.5 364.1 373.8 384.2 387 381.6 374.4 369.5 366.3 364.1 360.7 357.3 355.8 353.3 354
359.8 358 356.8 358.6 362.1 367.8 369.6 371.4 376.4 387.1 394 399.1 402.6 406 406.7 407.6 405.4 403.2 402.1 403 401.7 396.9 386.4 373.7 368.5 364.1 358.9 353.2 347 343.7 340 335.4 331.2 325.7 318.7 303 290.8 295.9 302.9 297.9 295.2 294.2 294.8 296.5 292.8 293.5 292.7 282.7 274.2 267.9 267.3 267.6 269.5 275 276.6 281.4 289.9 292.6 292 285.2 288.7 296.3 301.9 306.7 308.4 308.4 307.8 308.6 308.5 308.1 303.6 300 299.4 298 296.4 296.8 297.8 300.8 305.6 308 307.8 306.4 307.9 309.3 309 309 312 317.2 323.3 331 334.5 339.7 339.1 334.6 324.4 315.9 312.6 307.5 303.4 297.4 293.1 289.6 285.9 282.8 280.1 278.2 276.3 270.3 265.7 274.6 279.1 282.9 285.9 286.6 284.4 281.8 278.8 276.3 273.7 271.1 268.3 266 263.7 260.8 257.5 256.3 253.6 255.5 256.4 257.3 258.5 260 260.6 260.9 259.2 258.8 253.8 251.6 247.6 243.7 239.1 238.1 237.4 236.8 236.8 237.3 237.1 236.4 236.3 236.7 238.3 243.5 244.5 249.6 254 262.6 266.8 271.4 276.8 281.8 286.8 293.9 302.3 311.6 322.7 336.3 347.8 361.1 377.7 388.2 390.4 391.3 389.9 390.6 384.5 376.8 367.2 358.3 353.1 349.3 346.2 344.7 342.7 345 347.6 351.9 354.8 361.6 369.6 372.6 369.8 365.7 364.6 364.1 363.5 360.9 357 353.6 352.8 354.6
358.8 358.2 357.4 359.5 361.7 363.6 366.4 374.4 381 388.9 398.1 405.2 408.9 410.3 411.1 410.6 408.6 404.8 403.5 405.1 402.3 394.9 384.3 374.4 368.4 364.1 358.5 352.4 347.5 345 340.6 335.8 331.8 326.3 322.6 307.7 298.1 289.9 292.9 295.5 292.9 290 289.1 292.4 293.5 294.6 290.5 282.3 273.5 267.2 266.8 266.9 267.5 271.5 276.6 282.6 286.6 289 288.5 284.3 289.7 296.2 302.1 307.8 308.4 307.1 308.3 308.8 309.2 306.2 301.4 300.1 298.5 297.1 295.8 295.3 296.7 302.5 307.6 310.5 310.1 309.3 309.7 310.7 310.7 309.7 311.5 316.6 324.5 329.3 332.1 334 333.1 329.8 321 316.6 313.3 308.5 302.5 297.1 292.5 289.5 285.9 282.6 280.1 278 276.1 273.8 265.7 270 278 281.5 284.5 285.1 283.5 281.5 278.6 276 273.3 270.5 267.7 265.4 263 259.7 256.7 255.3 253.2 254.9 255.9 257 258.3 259.4 259.7 259.4 258.2 255.7 252.5 249.3 246.1 243.3 242.1 237.9 237.1 236.8 236.2 236.4 236.4 236 235.8 236.2 237.9 243.4 244.4 247.6 253.9 259.9 265.9 272.1 276.5 281.5 286.8 293.7 302.4 311.9 322.9 335 347.6 362.6 375.1 383.7 387.2 389.6 390.4 391.9 381.9 376.3 365.3 356.6 351 346.7 343 341.1 338.9 340.2 342.9 345.6 345 349.3 354.8 358 358.3 358 358.5 360.4 361.3 359.6 356.4 351.7 350.5 355.4
359.7 358.4 358.1 360.8 365.5 367.4 370.7 378.1 385.9 392.9 404.5 412.3 416.4 416.3 415.7 413.5 409.9 405.3 404.7 404.4 397.7 389.4 378.4 370.9 368.1 363.1 357.4 352.1 348.7 346 341.8 336.7 332.7 328.5 321.9 312.9 310.4 300.7 286.8 292.2 290.5 277.9 278.3 293.9 296.6 291 287.4 282.9 272.9 266.2 266.3 266.5 267.6 272.9 278.2 284.3 285 287.7 288.5 284 288.8 297.4 303.5 305.2 306.4 306.8 309 308.5 306.8 302.2 301.3 300 298.4 296.3 294.8 293.6 297.1 302.8 309.2 311.4 311.7 311.4 312.5 311.3 311.8 311 312 316.9 324.4 329.1 331.1 331.4 332.3 327.4 319.4 317.2 315.3 308.1 302.7 297.9 292.5 289.4 285.9 282.7 280.2 278 275.8 274.3 269.4 265.3 274.6 280.1 282.9 283.6 282.5 280.5 278 275.4 272.8 270.2 267.4 265 262.4 259.1 256.3 254.8 252.4 253.9 254.8 256.3 257.9 258.9 259 258.5 257.5 253.9 250 247.6 244.5 242.2 240.2 238.5 236.7 236.4 235.9 235.5 235.7 235.7 235.5 235.7 236.4 242.9 243.1 246.7 254.5 260.8 265.9 270.8 275.3 280.7 286.6 293.7 302.2 311.7 323.2 335.3 347.8 362 373.6 379.8 384.6 387.3 389.5 390.3 378.8 372.1 363.2 354.5 348.5 342.9 339.8 337.7 336.3 335.7 337.5 337.8 340.1 342.9 345 347.1 348.3 350 351.1 352.2 351.9 350.7 347.1 344.6 345.2 353
359.5 358.6 359.6 363.5 369.1 371.9 375.3 381.6 393.6 402.6 412.9 417 421.6 420.5 417.9 415.2 410.6 405.4 402.9 400.3 391.2 382.4 375.4 369.6 368.8 362.7 357.6 352.5 349.9 346.8 341.7 337.1 332.4 327.7 324.4 320.7 314.7 309.9 300.1 284.3 288.5 294.7 289.9 281.6 292.4 289.8 285.2 280.6 271.6 266.9 266.1 266 270.2 279.9 283.2 284.7 286.4 289.1 288.2 283.3 286.8 297.2 300.1 302.1 303.7 304 306.3 304.1 303.4 304 302.1 299.6 297.5 295.1 292.9 293.1 297.6 304.7 310.2 311.7 312.1 312.4 313.5 311.7 312.2 311.7 312.3 316.2 323.8 328.1 327.2 327.1 329.4 323.2 317.9 316.9 315.3 307.5 302.7 298.1 293 289.4 286.7 283 280.3 278 275.6 273.6 269.4 264.8 273 278.9 281.5 282.3 281.3 279.6 277.3 274.6 271.7 269.1 266.7 264.4 261.7 258.4 255.6 254.2 252.3 252.8 253.9 255.6 257.2 257.9 257.7 256.8 253.7 250.6 247.3 244.8 243.1 243.8 238.9 237.5 236.5 236.1 236.1 235.8 235.6 234.6 235 235.1 236 238.3 242.4 247.5 254.1 261 265.9 270.6 275 280.3 286.7 293.4 301.9 312 323.8 334.3 346.6 360.7 372.2 377.4 382 382.9 385.5 381.7 374.1 367.4 359 351.9 345.1 340.8 337.2 334.6 331.7 331.2 332.2 332.8 333.5 334.2 336.2 337.2 337.9 339.6 341 341 341.1 340.1 339.2 339.4 342.1 347.4
358 360.1 360.8 365.3 371.2 372.6 378.4 387.9 396.7 407.2 414.4 420.2 424.4 422.1 419.6 417.2 412.9 404.6 398.9 393.9 383.9 377.3 372 368 366.5 360.6 357.3 353 350.7 348.5 343 337.7 332.2 327.7 324.2 320.2 315.8 309.1 302.7 300.7 296.5 296.3 294.9 279.3 278.1 285.3 284 279.2 274.3 268.9 266.2 265.6 271.3 280.9 283.8 284.7 288.2 289.5 286.9 282.8 284.6 294.3 299.3 301.5 303.3 303.9 304 304.1 303.5 306.3 301.5 299.3 297.3 294.5 291.6 293.7 297.4 305.8 311.5 311.4 312.3 313 313.3 312.5 312.8 311.9 312.8 316 318.8 321.9 322.1 322.9 323.8 320.9 317.2 315.6 314.2 307.6 302.9 298.1 293.4 289.8 286.3 283.1 280.4 277.9 275.5 272.9 266 264.6 270.6 277.8 280.1 280.9 279.9 278.2 276.4 273.9 270.9 268.2 265.8 263.4 260.6 257.8 255.1 253.4 251.6 252.2 253.1 255.1 256 256.6 255.6 253 251.3 250.5 245.8 243.5 242.7 245.5 238.3 237.4 236.4 236.3 236.4 236.1 237.4 243.6 234.8 234.9 235.5 237.4 242 247 253.2 260.2 265.8 270.2 274.8 280.2 286.6 293.8 301.4 312.8 324.3 334.9 345.9 359.5 370.8 375.5 379.6 380.8 382.3 375.8 369.6 362.9 355.7 349.3 342.7 338.7 334.4 331.1 327.8 325.1 327.3 327.6 328.4 328.7 329.2 329.9 331.6 333.5 334.2 333.6 334.8 334.4 335.2 337.4 340.1 343.2
358.5 359.9 360.6 364.1 367.6 373.1 379.8 387.7 397 406.9 414.7 422.7 426.9 422.1 421.8 419 414.3 402.8 393.5 387.2 380.4 373.2 368.5 365.9 364.6 359.1 356.5 354.7 352.7 349.5 343.5 338.1 331.7 327.1 323.4 319.4 314.7 307.7 302.4 301.2 297.5 297.2 294 291 281.9 274.1 269.4 269.2 268.8 267.1 265.2 268.3 272.1 277.7 282 285 288.4 289.5 284.4 282 284.7 293.7 299.5 303.8 303.5 304.3 306 307 308.1 304.5 300.8 298.7 296.6 294.9 291.4 292.3 298.7 308.2 312.5 312 312.5 313.6 313.3 312.7 313.1 312.7 312.5 313.9 315.8 316.8 317.9 318.6 318.8 316.8 314.9 314.9 312.9 307.3 302.1 297.3 293.7 290.3 286.9 283.3 280.4 278.1 274.7 270 264 264.9 271.3 277.1 279 279.4 278.2 276.6 274.8 272.8 270.1 267.2 264.7 262 259.4 257.1 254.3 252.7 251.3 251.1 252.4 254.5 255.4 255.4 252.8 251 249.8 247.5 244.9 242.2 242.5 241.5 237.7 237.2 236.5 236.4 236.8 244.2 248.8 247 236.8 234.8 234.9 236.3 241.4 248 253.1 259.7 266.2 269.5 273.9 279.6 287.4 295.4 303.3 312.1 323.9 334.3 344.3 358.2 368.2 373.6 377 377.7 377.2 371.8 365.5 359.7 352.8 345.4 340.3 336 331.4 327.3 323.4 321.3 320.3 320.9 323.1 321.9 322.3 325.2 326.3 327.4 328.7 328.7 328.6 330.7 333.4 336.4 338.9 341.4
360.2 359.7 359.9 361.9 365.4 372 378.3 386.8 395.6 407.5 416 424.9 425.2 422.2 422.8 419.1 414.3 399.9 389.8 382.8 374.2 370.5 367.1 364.6 361.2 359.5 358.4 357.3 353.6 349.9 343.2 338 332 327.2 323.6 319.9 314.2 307.2 302.7 299.6 297.1 293.8 291.9 292 292.5 287.7 277.3 271.9 266.6 266.2 264.8 269.6 273.8 279 283.4 287.3 287.8 288.4 282.7 281.8 285.6 294.9 302.1 306.3 306.8 307.7 308.7 308.9 308.9 305.5 301.1 298.5 295.8 292.8 289.7 293 299.7 308.9 313.3 312.7 314.6 315.5 314.1 312.6 312.8 312.9 312.6 313.1 314.1 314.1 314 313.9 313.8 313.1 312.6 312.8 310.7 306.2 301.4 296.6 292.9 289.6 286.5 283.3 280.4 277.4 275.1 265.3 264.2 270.6 274.2 276.4 277.8 277.8 276.4 275 273.3 271.2 269.1 266.3 263.5 260.2 258.8 255.7 253.8 251.3 251.1 250.4 250.7 253.6 254.2 253.4 250.1 248.6 249.1 245.5 242.4 239 237.8 237.9 237.6 237.1 236.8 237.3 240.1 246.2 248.8 247 241.3 235.5 234.4 235.3 239.7 247.1 252.4 259.3 265.2 269 273.8 279.5 287.2 296.2 304 312.5 323.4 334.7 342.6 356.1 366.1 372.1 374.7 375.9 370.4 365.2 361.6 356.2 348.1 341.5 336.3 332.2 327.3 323.1 320.1 317.4 316.5 316.9 316.6 315.7 315.9 317.9 319.4 321.3 322 323.1 325.8 329.3 332.9 336.4 338.4 339.2
361.4 360 360.1 361.5 362.8 367.9 376.6 386.1 396.9 407.6 413.6 417.9 421.9 420.7 418.8 415.8 408 394.6 384 379.2 373.6 370.3 368.9 366.4 363.4 361.1 359.5 357.8 354.6 349.7 343 337.5 332.8 327.6 323.2 319 313.4 307.5 303.1 298.5 295.7 293.1 294.8 290 286.1 286 275.7 265.2 265.5 265 264.7 269.7 275.6 280.2 284.1 286.5 285.9 283.8 280.8 281.9 285.7 296.3 303 306.1 307.2 307.6 308.4 308.4 307.9 305.7 301.5 297.9 294.7 292.4 288.2 291.9 300.8 311.8 312.3 313.1 315.2 316.7 314.7 312.8 312.6 312.4 312 312.8 313.5 314.1 313 312.4 312 311.4 311 310.5 307.9 303.5 299.6 295.7 292.2 288.8 285.6 282.5 279.4 276.3 274.1 267 263.7 272.2 273.4 275.5 276.3 276 274.9 273 271.1 269.4 267.2 264 258.4 254 251.7 251.2 252.8 251.3 250.3 250.4 248 250.7 249.9 249 246.5 245.3 243.4 238.4 238.1 237.9 237.5 237.4 237.4 237.2 237.1 239.5 249.4 256.6 255.6 249.2 240.9 235.9 234 235.2 239.1 245.9 253.6 259.4 264.8 268.4 273.2 279.4 287.9 294.5 303 313.2 323.9 333.5 341.2 353.7 363.6 370.6 372.5 369.5 362.5 361.9 357.2 349.8 343.5 337.4 332.3 327.5 323.5 319.2 316.1 312.5 311.6 312.2 310.7 310.1 311.5 311.9 312.4 315.2 317.2 320.4 324.3 329 332.9 336.7 338.7 338.5
362.1 361.7 360.8 362 364 365.8 373.1 382.3 392.6 400.2 406 410.5 414.1 413 409.7 404.7 397.9 389.5 383.7 379.9 375.7 373.8 372.6 371.4 367.1 364.5 361.3 358.5 354.6 349 343.1 337.3 332.2 328.6 323.5 317.5 312.4 307 302.7 299.9 294.5 290.6 291.5 286.9 285.4 280.6 268.2 264.3 264.7 264.6 264.9 271.2 276.2 279.4 283.6 285.3 283.6 280.9 280.5 282.2 286.6 297.4 302.7 305.8 306.7 306.8 307.4 306.7 306.8 305.5 300.9 296.3 292.9 288.9 286.7 290 301.8 312.1 313.7 313.8 316.4 317.8 314.6 312.2 311.9 311.7 311.4 312.8 314.3 315.3 314.1 312.7 311.1 310.3 309.9 308.9 305.9 302.5 298.7 294.9 291.4 288.1 284.9 281.8 279.2 276.5 273.9 269.3 263.2 269.1 271.8 272.3 272.7 273.2 273.7 272.1 270 267.3 263.8 258.2 254.8 255.6 255.4 253.7 250.2 247.9 247.7 247.9 250.9 246.1 246.4 244.1 242.9 239.5 239 238.7 238.1 237.6 237.4 237.3 237.3 237 239.3 249.7 259.2 260.2 257.1 253.1 245.9 235.7 234 234.6 237.9 245.9 254.6 260.3 265.7 268.2 273 279.3 286.6 295 303.7 313.1 323.5 332.5 340.6 351.5 360.8 369.8 367.8 362.8 359.6 358.6 353.2 344.9 338.1 332.7 327.7 322.9 318.4 313.9 310 307.4 302.7 305.9 304.9 304.7 305.7 307.4 311.1 312.7 315.5 319.5 324.2 328.5 332.7 337 339.6 338.3
363.1 362.4 361.6 364.9 369 370.3 373.4 380.2 388.2 395.3 400.6 404.2 405.6 405.2 402.4 399.8 393.5 389.2 386.3 383.1 380.1 379.3 378.3 374.6 369.2 365.8 363.1 358.9 355.1 349.1 341.9 336.2 331.7 328.3 323.3 317.4 310.5 304.6 300.8 295.4 287.6 286.2 289.1 285.1 282.6 268.9 263.8 263.7 263.8 264.4 270.7 274.4 277 278.1 282.4 282.2 280 279.6 279.8 281.1 286.2 297.2 302 305 306.6 307.7 307.1 306.8 307.7 306.5 301 295 290 286.6 284.9 287.5 299.6 308.4 311.2 315.1 317.4 318.4 315.7 311.5 310.4 310.3 310.8 313.2 315.1 315.9 315.1 313.5 311.4 309.9 309.4 308 305.1 301.6 298 294.1 290.6 287.5 284.4 281.6 279 276.5 273.9 271.4 263.8 263.5 265.9 266.4 266.2 266.6 267.9 268.1 267.7 264.3 258.4 255.6 258.1 259 256.6 253.3 251.8 249.5 248.7 245.7 243.6 245.1 242.2 240.9 239.8 239 238.5 238.3 238.1 237.6 237.4 237.5 237.7 237.7 246.1 255.5 262.5 257.4 248 243.8 239.2 235.2 233.8 234.4 236.1 245.3 252.5 258.6 263.3 267.8 272.3 279.5 285.7 295.1 303.8 313.4 322.1 331.8 339.3 349.7 358.9 368.1 361.5 357.7 356.6 355.5 348 338.9 333 327.9 322.9 319 313.7 308.4 304.1 301.9 298.5 300.2 299.3 299.2 301.1 305 308.5 311.5 313.8 318.4 323.7 328.5 332.9 337.6 338.6 337.4
363.8 363 363.3 369.1 373.4 376.1 378.4 383.7 388.8 395 399 402 404.6 403.6 401.2 398.6 395.6 392.4 390.1 388.3 386 384.2 382.7 376.9 370.8 367 364.5 359.3 355.1 348.4 341.6 335.3 331.3 327.5 322.4 317 309.7 304.1 297 292.3 289.7 281.8 280.9 284.4 272.5 269.4 264.1 263.4 263.4 263 267.4 275 277.7 277.8 281.2 278.8 276.1 278.5 279.1 280.6 288.1 297.1 302.1 305.3 306.2 307.5 308.4 309 308.7 304.5 298.3 292.6 289.3 287.1 285 284 296.4 305.2 308.3 313.2 318 318.3 313.7 310.2 309 309.4 310.5 313.6 315.6 316.5 315.2 313.2 311.4 309.7 308.2 306.5 303.8 300.1 296.7 293.7 290.1 286.8 283.7 281.1 278.6 276.2 273.8 271.6 266.4 263.2 262.3 262.7 261.3 261.7 260.1 259 259 256.8 257.1 258.6 257.8 255.2 252.8 252.1 249.5 249.5 249.6 250.4 243.3 241.9 240.8 239.9 239.2 239.9 248.4 240.8 237.4 237.2 237.5 237.3 238.1 243.7 251.4 262.9 258.5 258.1 252.4 240 235 234.1 233.7 234.2 236.9 243 249.9 257.9 262.9 266.9 272.5 280.1 287.2 295.6 304.2 313.7 322.4 331.1 338.8 348 357.3 363.8 356.5 354.8 353.6 350.6 341.2 333 327.4 323.2 318.9 315 308.6 301.5 298.7 297 294.7 294.9 295.2 295.9 298.6 303.2 305.6 308.6 312.2 317.8 323.3 328.8 332.8 334 335.3 337.8
364.2 363.4 365.6 371.3 375.4 380.9 384.2 389.6 393.6 397.4 400.8 403.2 405.9 405.7 404.6 404.3 400.4 396.5 394.1 392.6 390.9 389.4 386.5 379.1 373.1 368.1 364.5 360.3 355.5 349.5 341.5 334.9 331.3 326.9 321.5 316 308.7 301.9 297.5 290.9 291.4 287.7 279.1 273.7 271.4 269 264 263.9 263 262.7 262.9 268.8 278.9 275.3 279.6 275 274.8 277.5 278.2 281 289.4 296.4 301.2 305 306.8 309.3 309 310.8 310.5 304.5 297.7 291.6 289.4 287.1 285.3 283 292.9 302.9 307.6 312.2 318.4 318.5 312.4 308.3 307.9 308.4 310.2 313.4 316.2 316.5 315 312.8 310.7 308.4 306.6 304.7 302 298.2 294.9 292 289.1 286.1 283.2 280.3 277.9 275.4 273.5 271.5 270.1 268.7 265.7 265.5 266.4 266.8 265.4 262.3 261.6 262.3 261.5 259.2 256.3 252.3 252.1 248.6 248.7 245.8 247 243.5 241.9 241 239.9 239.1 238.6 239.5 238.3 237.3 237.1 237.3 237.5 237.3 243.1 246.1 254.5 255.7 257.4 254.1 246.1 237 234.3 234.7 233.7 234 236.2 243 248.8 257.5 261.4 266.5 272.6 279.7 287 296 304.5 313.7 322.2 330 336.7 345.5 355.2 357.9 353.1 351.8 349 343.9 335.1 327.7 322.1 317.7 312.3 306.8 301 297.2 294.5 292.8 290.2 291.1 291.5 293.6 297.3 300.2 303.7 307 312.6 318.1 324 329.3 333.2 336 336.4 335.5
364.6 364.1 368.1 373.4 378.3 384.9 392.7 396.7 399.8 402.2 405.3 406.7 407.1 407.6 408.9 407.3 404 401 398.6 396.9 394.3 393.3 389 381.1 373.8 369.5 365.8 361.6 356.9 348.5 341.6 335.4 331.3 326.6 320.9 315.5 306.1 301.9 293.8 290.4 288.2 289.1 284.7 272.3 269.1 267 267.4 267.3 262.7 262.4 262.6 262.2 274.2 275.3 275.7 273.3 274.5 276.3 279.1 283.2 293.1 298.4 302.4 305.8 307.4 308.1 309 311.2 311.6 306.2 297.5 292.3 288.2 286.2 287.7 282.3 289.5 299.4 306.9 308.6 314 315.6 309.3 306.8 306.4 306.6 309.6 313.4 316.3 316.9 313.8 312.3 309.2 306.6 304 301.8 299.5 295.9 293.3 290.4 287.4 284.5 281.7 279.1 276.5 274.2 271.9 269.1 266.1 260.2 257.7 259 262.1 267.8 267.4 265.9 264.1 262.2 260 256.8 253.2 250.6 248.3 245.2 243.6 243.1 241.3 240.4 240.9 240 239.1 238.6 238.3 237.9 237.5 237 237.1 237.3 237.8 242.3 247 253.8 256.8 253.7 253.9 249.9 241.9 236.5 236 236.2 233.3 233.4 235.2 244.3 252.3 257.3 260.6 266.2 272.9 280.2 288.4 296.2 304.9 313.2 321.9 329.3 335.6 343.7 350.3 352.1 349.9 348.4 343.9 337.3 330.1 323.4 318.7 312.4 307.7 301.1 296.5 293.4 291 289.6 288.2 287.8 289 292.3 294.6 297.6 301 307.1 312.4 319.2 325.8 331 335.4 340.8 337.3 334.4
365.1 365.7 371 375.1 380.9 388 395.9 401.3 405.4 409.2 414 413.8 412.7 414.2 414.8 410.5 406.3 403.7 401.7 401.1 399.9 396.5 390.7 383.3 376 370.8 366.8 362.7 356 348.4 341.4 335.9 331.2 326 319.5 313 307.5 301.1 293.5 291 286.5 285.8 278.4 271.5 268.4 268.1 277.5 271.3 265.8 264 262.1 262.2 262 271.5 271.9 271.1 273.3 276.7 279.8 286.5 293.5 299 303.7 307.5 307.9 306.9 308.1 311.1 310.8 303.2 294.6 290 287.5 287.3 290.8 281.4 289.5 298.7 306.4 310.6 310.5 307.7 306.6 305.6 304.8 305.3 308.7 313.3 316.5 316.5 312.5 310.3 307.6 304.5 301.4 298.8 296.5 293.6 291 288.3 285.6 282.6 279.9 277 274.5 270.6 264.9 257.4 253.7 253.1 253.1 253.3 254.8 261.3 265.9 264.4 262.3 260.2 257.7 254 250.6 248 246.5 243.2 241.3 241.6 246 247.5 240.3 240.9 239 238.3 237.7 237.4 237.1 236.8 237.1 237.4 240.2 248.5 252.6 254.6 256.6 256.5 255.1 244.8 242.6 244.5 237.1 233.1 232.7 233.4 235.3 241.6 250.5 256.3 260.7 265.5 273.2 281 288.2 296.1 304.1 312.8 321.9 328.1 333.2 339.6 347.4 347.1 347 345.1 338.9 331.7 325.8 319.8 314.5 307.8 301.5 296.4 292.7 290.1 288.1 285.9 285.3 284.6 285.8 289.8 291.7 294.9 299.1 305.2 312.3 319.6 326.5 331.4 336 341.4 338.5 333.7
365.3 366.7 373.3 378 384.4 392.1 398.9 404.6 408.9 413.7 418 418.8 418.3 419.2 417.9 413.1 408.7 406.3 406 405.7 404.7 399.9 392.2 384.8 376.8 372.5 368.4 363.9 356.8 347.9 341.2 336.3 331.8 325.5 319.5 313.6 306.6 299.7 290 285 281.6 279.6 275.8 271.5 270.8 272.4 280.6 277.1 270 266.6 263.1 262.9 260.9 268.6 268.9 270 272.4 274 278.8 287.1 293.3 299 303.5 306.5 308.6 307.1 308.4 311.1 308.1 300.4 291.9 288.5 290.2 295.2 291.2 280.8 287.6 297.4 304.6 309.3 311.4 307.3 305.4 303.8 302.9 304.2 307.9 313.2 316.5 315 311.5 309 306 302.8 299.8 297.2 294 291.1 288.6 286 283.4 280.5 275.3 269.9 266.3 259.1 255.3 254.9 257.1 258.7 253.5 252.5 251.5 255.6 263.2 262.2 260.2 257.7 254.5 252.1 248.8 247.5 247.5 243.4 243.1 246.9 250.8 251 247.1 241.2 237.9 237.6 237.4 237 237.1 236.9 237.1 244.3 239.6 255.6 252.7 254.3 257.1 256.9 248 248 253.1 253.4 245 233.8 232.3 233 234.4 241.4 250.2 255.5 259.9 265.3 273.4 281 288.2 296 303.3 311.7 320.4 326.6 331.3 336.5 342.3 342.9 345.2 341.9 334.4 327.2 321.8 316.1 310.2 304.4 298.3 292.7 289.5 287.4 285.8 283.7 282.7 282.1 283.4 285.2 287.5 292 297.3 304 312 320 326.6 331.8 337.2 339.5 335.8 332.6
365.1 368.2 374.7 380.8 387.8 393.7 400.1 406.2 410.9 416.2 420.2 421.7 422.2 421.9 418.6 415 412 409.7 410.3 409.6 407.6 403.4 395.8 386.8 378.9 374.2 370.2 364.9 357.2 348.2 341.8 336.5 331.2 325.5 318.5 310.2 300.3 291.8 288.1 284.1 282.6 279.5 277.6 275.6 274.6 277.8 283.1 282.9 275.1 269.5 265.7 261.8 261.5 268.1 273.6 272.8 272.8 273.2 281.2 286.7 293 300.4 305.4 308.2 306.7 305.5 308 309.8 307 296.4 291.5 290 298.3 296.3 291.3 281 285.2 294.3 301.9 309.6 310.3 306.3 303.5 301.8 301.1 303.2 307.5 313.3 314.7 312.9 310.1 307.8 305.1 301.9 298.5 295.3 291.7 288.4 286 283.1 280.1 276.3 266.7 260 257.3 257 262.6 266.3 266 264.9 262.2 259.7 252.2 250.1 252.3 256.4 254.9 254.5 254.3 251 247.9 246.9 245.7 242.2 247.6 250.9 249.9 250.7 242.6 237.8 237.5 237.4 236.6 237.3 241.7 243.6 248.8 249 249.1 252.8 252.4 253.1 257.3 252.9 256.6 255.2 254.5 254.3 248.9 233.5 232.4 233 234.4 240.9 248.1 254.2 259.3 265.8 273.2 281 289 296 303.5 311.7 318.9 325.1 329.4 334.1 337.6 337.9 343.5 337.7 330.1 322.8 316.9 311.1 305.9 300.3 295.2 290.4 287.1 285.1 283.1 281.3 280 279.9 281.1 282.5 284.3 288.2 295.1 302.6 312 319.6 326.4 331.9 336.5 337 334.8 330
364 369.5 375.7 382.5 389.1 395.6 401.6 407.4 412.2 416.8 421.3 424.1 426.3 424.8 420.1 416.9 413.6 413.1 414.5 412.9 410.2 406.6 397.8 388.8 380.1 375.6 372 365.8 357.5 349.9 342.5 337 331.8 326.4 320.2 311 301.9 295.3 288.9 285.1 282.5 280.6 279 277.7 276.8 283.2 284.5 284.4 280.8 270.2 265.5 261.4 261.9 268.5 272.4 272.3 272.5 275.6 284.5 289 294.2 300.3 306.2 309.1 306.3 304.5 305.1 308.1 302.2 293.7 292.1 297.3 297.4 295.9 293.9 281.1 281.4 290.2 297.2 307.4 307 304 302 300.6 300.5 302.4 306.7 311.3 312.6 310.4 308.5 306.8 304.9 301.6 298.2 293.7 289.4 285.1 280.5 276.7 271.1 269.3 260.3 263.3 267.2 267.7 267 265.6 265 264.5 264.4 263.7 262.5 258.7 249.4 248.4 249.4 250 250.7 251.9 248.1 245.3 244.7 247.1 244.4 247.7 247.9 240.8 235.1 235.6 237.9 236.2 238.1 244.1 245.3 249.5 249.3 246.7 260.2 245.9 250.6 253.7 256.2 257.7 257.4 255.9 254.7 254.4 243.7 232.2 232.3 233.2 234.8 240.1 248.1 253.8 259.1 265.1 273.2 281.4 289.1 296.2 303.2 310.6 317.9 323.4 327.5 328.4 330 335 338.2 332.5 325 318.3 312.4 306.6 301.9 296.9 291.8 287.6 285.1 283.7 281.1 278.9 277.4 278.1 279.4 280.4 282.3 286 294.8 303.2 310.9 317.8 325.9 331.2 333.1 333 333.2 329.2
362.5 369.2 376.1 383.1 390.2 396.9 403 408 412.8 417.4 422.6 426.5 428.4 427.4 424.5 420.9 416.6 417 418.2 416.3 413.8 410.1 400.3 390.7 382.6 376.5 373.8 367.1 359.1 351.7 343.3 338.2 332.7 327.9 320.8 312.3 303.4 296.6 290 286.5 283.7 282.2 281.4 280.1 280.7 284 284.9 283.6 280.7 273.9 267 260.6 261.1 267.6 271 272.1 276 281 286.5 290.1 294.8 300.7 305.9 307.3 306.3 304.1 303.2 304.5 296.7 293.2 293.6 298.3 298.3 295.7 292.2 285.3 280.1 284.4 291.8 298.5 299.6 299.8 299.4 299.3 299.2 301.8 304.9 308.8 310.7 307.8 306.8 306.4 304.3 300.8 296.3 291.5 287.1 279.2 268.8 266.5 264.8 263.7 270.2 271.4 270.1 267.9 266 264.4 263.5 263.1 263.2 262 260.7 259.3 257.8 253.3 246.9 246.7 248.4 246.8 246.5 244.9 242.8 247 243.2 241.8 243.1 235.6 236.2 234 233.3 233.9 242.2 244.9 243.9 245.6 250 257 248.7 246.6 252 257 258 257.7 256.7 256.7 255.5 247.4 234.4 232 232.6 233.5 234.7 240.8 245.9 252.8 258.5 265 273.5 281.2 288.7 295.9 302.6 309.9 316.9 322 325 325.3 325.9 330.6 331.6 327.2 319.8 314.6 309.6 303.3 298.9 294.5 289.6 285.3 282.6 280.5 277.2 276 276.1 276.9 278 278.8 280.1 286.3 295.1 303.2 311.3 318.3 324.8 328.4 330 332.1 330.6 326.4
360.7 369 376.3 383.5 390.7 397.7 403.5 407.9 413.9 418.8 423.2 427.1 429 428.4 424.5 421.9 419.2 421.3 421.4 419.6 417.5 412.2 401.4 392.5 383.5 379.3 377.1 370.2 360.8 351.8 344.1 338.6 333.6 328.3 320.7 312.1 304.2 300.3 292.8 289 286.1 284.2 283.7 282.1 286.2 287.2 287 284.1 279.1 272.4 266 260.6 261.5 268.2 272.4 276.9 280.8 284.2 287.6 290.9 295.2 300.9 305.4 305.5 304 302.6 299.5 297.9 294 293.5 297.3 299.8 298.7 296 293 290.5 279.9 280.2 286.7 293.4 295.7 296.2 296 296.4 297.5 300.3 303.6 306 307.2 306.2 306.5 306.1 302.6 298.2 293 286.2 281.7 275.4 271.1 275.1 277.7 274 272.7 270.7 268.9 266.8 264.8 263.4 262.2 261.7 261.2 259.6 257.3 255.9 254.4 253.3 252.1 246.4 245.1 244 244.7 240.4 240.4 249.3 246.8 244.2 238.7 232.5 233.3 233 232.8 237.9 246.4 252.1 249.8 251.8 246 247.3 246.6 246.5 251.9 257.3 258.1 257.2 256.4 256.3 252 235.3 233 231.7 232.8 233.7 235.4 240.8 246.3 252.9 258.8 265.5 274.1 282.3 289.3 295.2 302 309.9 316.8 319.9 322.2 322.1 322.5 325 326 321.4 316.6 313.4 306.7 300.6 296.3 292.1 287.1 282.6 280.6 277.3 275.4 274.2 274.6 275 276.5 277.5 279.2 286.7 293.6 301.6 311 317.4 323.5 326.8 329.3 329 326.7 323
358 366.9 374.8 382.5 389.3 395.7 401.9 406.8 413 417.6 423 427.5 428.7 428.5 425 422.9 421.6 424.4 424.6 422.3 419.7 415.4 402.1 392.8 384 381.9 379.3 371 361.7 352.9 346.3 341.2 335.9 329.2 320.8 311.8 305.4 301.1 295.5 290.5 287.3 285.4 286.1 287.2 289.4 289 286.1 283.4 279.7 268.6 261.3 260.3 261.9 269.4 274 276.9 280.9 285.2 288.4 290.9 295 300.6 304.2 303.9 302.8 300.2 299.7 295.9 294.9 294.6 299.2 299.9 297.8 296.5 293.2 289.7 285.6 278.9 280.1 288.6 292 292.8 293.1 292.8 295.4 298.3 301.8 303.8 303.8 304.5 305.9 303.5 300.3 295.3 287.2 282 277.3 274.2 275.6 275.9 275.8 273.7 271.8 269.4 267.4 265.4 263.4 262 261.1 260.3 258.8 256.2 253.6 251.9 250.8 248.6 242.8 243.3 243.8 242.7 240.6 241 239.1 248.4 246.5 242.6 236.2 231.3 231.5 232.1 236.6 236.6 236.3 238 241.6 243.3 243.6 243.7 240.9 244.8 253 258.1 257.9 257.2 256.5 256.9 238.8 233.7 232.9 231.5 232.2 233.6 235.7 240.5 246.2 253 258.9 266 274.7 282 288.9 295.8 302.7 309.5 314.9 317.8 319.3 318.7 318.2 318.5 319.6 316.9 314.2 308.7 302.9 298.3 294.3 290 283.9 279.9 277.8 275.2 273.6 272.7 273.7 273.8 275.2 276 279.4 285.3 291.7 302.3 310.1 316.3 321.5 325.6 329.3 327.8 324 320.7
354.8 363.6 372.1 379.5 386 392.1 398.2 404.7 410.4 414.7 420.5 424.4 426.4 426.5 424.1 422.9 423.3 426.4 425.8 424 419.5 413.7 399.9 392.2 386.6 383.9 381.3 371.7 361 353.4 347.2 342.1 336.8 329.5 321 311.5 306.1 303.1 298.7 293.3 288.2 287.3 291.5 290.3 291.1 289 287.7 282.1 271.5 263.4 259.7 260.2 264.1 272.5 277.1 280.5 283.3 286 287.6 290.4 293.5 295.8 299.6 299.3 299.6 298.1 296.5 295.2 295.4 298.1 300.8 300.9 299.5 296.8 293.2 289.5 287.2 283 278.1 280.6 286.3 288.3 287.5 286.8 289.8 291 296.4 300.8 301.9 302.9 303.5 300.4 296.6 290.7 282.7 278.4 278 277.9 276.9 275.3 273.2 271.4 270.3 268.1 265.4 262.3 259.1 257.1 257 256.9 254.4 250.7 249.3 248.5 248.2 244.7 239.7 243.7 242.7 243 243.5 243.8 247.2 246.9 244.3 237.4 231.2 230 231 235.5 234.8 236.1 236.2 236.7 239.2 239.9 240.1 240.6 240.8 245.2 256.2 258.1 255.5 255.5 255 246.1 234.1 233 232 231.7 232 233.5 235.4 241.3 246.9 252.6 258.4 265.5 274.8 282 288.8 295 301.4 307.5 312.6 314.9 315.9 315.1 315 314.6 313.3 312.1 308.8 304.1 299.6 295.2 290.4 285.6 280.1 277.6 274.7 271.9 271.5 270.5 271.3 272.9 273.1 274.9 279.1 283.3 289.5 301.5 309 315.7 319.8 327 329.1 326.4 323.4 319.2
