ncols 200
nrows 84
xllcorner 200000
yllcorner 723950
cellsize 50
168.9 166.5 157.6 151.4 158.5 146 122.8 138.2 137.3 131.3 127.6 136.6 140.1 133.7 130.2 124.8 121.3 116.2 109.2 102 92.8 84.6 80.6 77.6 73.7 67.3 65 63.7 56.1 59.2 83.2 89.4 96.2 90.7 73.9 74.2 85.6 83.5 101.2 118.7 128.7 137.1 144.4 148.5 151.9 153.6 152.7 152.7 153.1 151.9 156.8 159.2 158.5 169.5 179 176.7 189.6 190.8 194.4 197.3 211.5 220.5 226.5 230.6 225.9 217.2 205.8 203.1 208.9 215.8 225.8 227.8 232.9 227.6 231 233.5 232.7 233.5 228.8 222 216.4 231.7 237.2 240 243.6 247.6 233.2 220.2 237.6 235 246.7 238.7 234.7 221.8 214.4 195.7 175.4 138.7 97.9 67.1 43.5 32.7 32.7 47.3 56.1 68.3 81.7 105.2 119.7 138.4 162.3 193.3 228.7 256.2 268 280.3 297.6 313.1 321.5 332.1 337.2 353 379.8 384.8 394.8 391.4 396.7 406.5 422 430 433.8 445 444.3 441.6 455.3 460.4 462.4 474 477 479.6 479.3 482.3 492.9 497.7 506 528 530.8 521 511.7 497.8 486.4 470.2 455.1 437.4 421.6 406.1 387.8 386.1 375.4 366.2 369.2 394.7 395 409.6 433.3 442.6 454.6 466 465.7 490.3 513.6 535.5 556.9 587.9 626.2 652.7 671.8 694 710 723.4 733.9 747 758.1 768.4 779.4 776 776.6 779.3 775 774.7 776.3 782.7 779.4 775.2 775.9 773 767.1 763.2 763.7 762.4
162.9 164.8 157.6 161.4 160.9 156.5 125.2 141.8 146.7 143.3 138.8 135.5 139.2 144.7 148.2 131.7 137.5 124.8 115.4 106.6 100.5 96.9 87.2 83.9 75.9 74.3 76.3 79.1 67.4 52.3 69 82.3 88.1 88.2 75.8 66.9 77.6 81.9 84.7 98.2 121.4 137.6 146.2 150.7 154.3 155.6 154.3 154 153.1 149.5 147.9 152.8 153.5 172.6 180.6 174.8 178.2 190.3 197.6 206 209.1 211.9 228.6 222.6 216.2 208.9 200.5 202.2 206.1 212.2 215.9 221.8 226.9 229.9 231.2 236.7 244 247.1 253.4 236.5 226.5 224.7 235.2 240.8 245.3 247.4 240.6 220.4 237.8 243.8 258.5 261.9 245.3 241.5 241.5 226.2 193.8 150.4 124.7 92.5 67.5 46.3 32.7 32.7 41.4 49.8 62.5 78.6 93.8 115.9 139.7 163 192.4 209.9 230.7 255.8 267.7 277.9 283.8 297 307.8 332.4 361.8 371 372.6 370.2 372.9 393.6 413.2 411.1 414.6 420.7 422.5 428.9 435 449.6 457.1 463.8 462.2 465.1 471.3 471.1 471.7 480.7 499.4 519.3 530.6 517.7 505.1 496.4 481.8 464.4 446.3 434.3 414.3 400.7 379.5 375.8 370.3 361.4 364.3 372.3 391.4 402.3 420.5 428.3 428.2 443.3 452.8 479.2 505.9 530 558.7 590.6 624.2 651.5 670.9 688.2 706.3 714.6 721.9 730.7 742.6 744.6 749.6 751.9 757.4 755.6 752.9 751.2 753.4 761.9 758.1 757.5 756.6 753.4 751.5 748.5 746 744.1
167.4 159.1 158 162.1 156.4 150.2 127.5 141.3 152.8 149.4 148.6 141.6 140.3 146.6 142.9 140.2 137.3 129.8 119.7 112.8 107.9 101.2 95.3 98.8 92.3 75.7 74.2 73.2 71.7 57 55.3 70.1 82.1 84.5 73.4 73.1 80 89 85.3 95.7 113.3 139.8 147 152.3 159.7 160.3 159.4 155.1 153.3 152.4 145.9 145.2 157.1 174.3 176 169.6 170 178.3 191 204 214.2 211.7 202.9 204.4 201.9 199.6 199.3 200.1 204 217.2 224.7 228.6 234 239 240.5 244.1 248.8 253.4 256.7 252.7 237.2 230.9 227.8 236.3 252.8 262.8 259.3 224.3 243.2 258.8 251 265 250 249.5 256.3 239.9 204.7 177.9 149.8 124.3 96.5 68.9 43.6 32.7 32.7 39.1 45.1 58.6 74.1 91.9 113.3 135.7 157.9 180.2 202.1 215.5 228.2 241.1 256.6 268.2 291 314.5 342.2 339.8 346.1 353.4 357.2 380.2 389.6 389.2 395.4 396.8 400.6 407.9 421.6 425.9 446.4 451.5 451.5 452.5 455.2 462.6 463.9 473.2 479.2 488.7 506.7 501.8 495.2 494.8 481.1 466.6 444.2 431.5 412.7 396.2 377 361.8 354.9 350.7 353.9 363.6 376.7 387.6 396.3 407.3 408.9 423.8 442 465.8 494.2 526.5 559.9 594.9 628 652.7 669.2 683 697.3 705.4 710.6 715.8 721.4 724.8 728.1 726.9 728.7 726.2 729.2 731.7 732.4 734.4 732.9 734.8 732.4 733.7 731.5 727.1 722.2 715.5
168.4 158.6 154.4 157.5 151.5 140.5 136.2 144.4 149.7 156.5 158.3 149.4 153.8 143 138.1 134.7 130.5 126.1 121.9 122.7 108.1 99.5 107 109.7 105.8 94.5 78.4 74.4 68.2 60.3 53.9 55 67.7 80.9 67.2 75.1 84.1 89.6 88.4 99.7 103.8 123.2 142.4 150.4 157.4 160.3 158 150.6 152.1 150.9 146.2 144 148.5 163.3 168.2 163.2 163.5 168.4 175.4 186.5 195.9 193.6 192.3 191.1 193.3 203.7 208.7 208.5 207 218 223.6 233 237.2 240.4 243.6 249 252.5 255.8 257.6 253.2 246.6 240 245 241.5 253.7 265.3 262.2 234.5 242.2 251.8 253.6 256.6 252.6 256.3 269.8 251 238 218.1 192.7 163.5 136.5 100.3 68.9 43 32.7 32.7 33.6 44.2 54.8 71.3 87.3 105.2 129.1 151.7 164 181.1 193.9 208.7 226.3 246.4 268.9 294.1 302.2 310.2 322.3 320.7 340.4 365.8 362.1 357.8 364.7 368.3 381.6 398.4 403.5 408.8 432.1 437.7 437.3 437.3 443.2 450.8 450.6 467.8 484.2 491.8 480.3 488.3 481.9 476.8 475.7 466.5 449.4 431.4 418.4 406.7 380.5 360.9 349 339.1 342.5 348.2 357.2 360.3 370.7 379.9 395.1 411.8 432.8 461.4 491.1 527.1 560.6 596.8 631.1 652.4 667.3 680 691.4 695.3 699.4 704.5 708.7 709.5 711.2 708.2 705.8 706.8 708 709.9 712.5 712.1 711.3 709.2 710.3 710.7 705.5 703.4 693.8 688.5
175 164 154.3 146.6 139.7 130.4 145.4 153.2 151.4 157.8 163.9 170.7 157.5 149.3 137.6 135.3 131.8 131.9 125 116.7 104.3 113 117.2 128.3 129.4 122.2 102.5 87.2 86.5 75.6 58 55.4 54.8 68.4 62.2 73.2 80.2 97.9 96.7 101.5 108 114.4 130.8 146.2 153.7 158.6 153.6 143.9 148.2 149.6 142.5 141.9 141.5 151.5 156.3 152.8 150.6 153 157.9 166.7 180.5 192.1 189.7 197.8 198.3 197.6 209.8 217 221.9 217.8 220.4 228.3 237.3 245.5 244.9 248 254.3 256.6 253.6 250.5 247.8 257.4 255 251.8 250.1 258.6 260.2 246.4 237.9 257.4 267.9 259.9 258.1 261 263.6 262.7 261.5 252 236.2 194.5 173.5 132.4 95.1 64.7 37.5 32.7 32.7 32.7 45.6 58.2 72.9 84.9 100.3 112.2 131.1 147.3 164.5 182 201.4 217.9 238.3 262.3 263.1 280.4 283.4 299.5 318.9 322.2 329.8 326.5 332.9 338 362 378.9 381 389.7 404.1 415.8 420.9 424.6 430.9 435.7 442 468.3 480.5 481.6 473.4 467.5 468.2 466.1 468.4 469.2 448.8 426 431.2 409.9 379.7 357.1 342.7 332.2 331.3 336.4 337.7 338.8 350.3 364.7 385.5 407.9 432.6 461.2 493.5 525.6 561.7 599.2 631.3 654.2 667.4 678.2 687.6 687 689.4 692.5 699.1 697.7 696 689 688 688.2 689.9 693.1 691.5 690 687.3 684.9 685.6 688.1 680.4 675.7 675.8 668.8
179.7 174 162.9 151.2 137.3 140.8 149.9 156.5 153.3 156 168 171.3 163.4 145.2 143.1 132.5 128.9 125.1 115.2 110.1 106.6 114.1 125.5 141.1 142.2 133 124.8 109.5 100.9 95.9 71.6 66 63.1 54.9 65.5 75.1 81.4 96.5 103.2 104.4 102.8 108.3 115 126.2 138.1 146.7 144.2 136.2 140.8 133.6 131.6 134.8 140.8 143 149.2 152.1 147 149.2 152.6 164.6 170 176.4 179.3 193.5 201.4 200.3 202.7 217.9 225.5 225 222.5 226.7 231.4 240.5 245.2 241.3 244.6 246.1 251.8 260.5 266.8 271.5 263.2 251.8 246.9 253.8 257.3 239.9 243 259.4 266.2 257.9 259.8 273.7 276.1 273.9 279.9 271.5 255 232.8 208.3 171.6 128.5 89.8 57.5 32.7 32.7 32.7 32.7 47.8 55.3 64.9 77.3 86.8 104.2 119.8 140.1 157.9 174.5 190 213.1 223.1 233.5 249.9 261.9 280.8 284.3 289.6 284.4 291.4 300.8 311.4 336.5 351.1 356.2 372.7 391 400.4 406.3 413.3 419.7 427.4 439 458.6 470.2 473.7 463.4 458.7 450.7 449.6 451.6 458 433.6 428.5 439.3 422.7 391.7 359.5 339.5 326.3 322.4 322.2 322.3 328.9 340.4 359.3 378.9 403.1 431.6 461.6 494.5 528.7 565.3 601.4 625.3 647.2 657.8 674.3 682.6 679.8 677.5 677.6 685.3 684.5 678.8 677.6 675.9 673.3 673.1 678.3 674.6 669.3 669.5 662 659.7 658.2 662.6 653.9 650.5 649.4
179.1 179.3 166.1 150.4 139.3 152.4 149.8 151.7 153 152.9 152 154.7 146.2 139.3 134 134.3 129.7 128.7 126.1 125.6 118.5 113.3 126.5 142.7 149.3 140.5 133.6 121.1 109.4 102.7 84.7 78.6 72.5 56.1 68 78.4 83.1 90.1 100.1 105.6 105.5 106.7 112.3 118.3 121.4 127.8 135.1 127.6 126.2 137.2 154.4 149.8 137.7 141.6 143.2 143.5 146.1 152 158.5 165.6 170.7 185.1 188.4 193.2 194.7 199 205.6 207.6 216.6 220.2 217.2 221.3 232.2 231.1 228.9 229.3 247 260.9 266.1 266.9 264.5 270 265.2 257.9 247.7 253 266.8 251.5 238.2 246 254.3 255.2 264.6 277.6 280.2 280 281 276.4 265.3 246.9 225.5 202.7 167.4 131 98.7 58.9 41.1 32.7 32.7 32.7 40.5 50.4 60.4 68.8 81.5 94.7 113.1 130.2 146 164.6 178.5 191.3 209.7 219.8 235.5 243.7 253.2 255.7 238.3 260.7 269.9 296.9 309.7 324.9 336.6 350.5 382.4 394 399.8 402.9 412.6 411.7 423 439.4 447.6 459.4 455.1 447.9 441.2 434.3 436.4 432.7 419.2 425.7 437.1 428.5 399.5 359.3 340.2 330.2 321 318.8 320.5 326.5 342.8 360.6 383 405.7 435.7 464.6 497.1 533.6 570.8 600.7 619.6 634.8 647.2 659.1 667.6 661.8 661 663.5 664.4 666 661.6 658.4 656.1 655.5 656.2 656.5 657.7 655.2 652.2 644.8 640.7 642.2 644.2 643 639.7 638.3
175.3 177.9 166.8 148.5 151.8 161.9 161.1 157.8 156 154.1 149.9 143.7 139.4 134.8 130.9 132 133 129.1 127 133 127.5 126.2 124.4 140.9 147.1 150.4 149.8 140.1 119.5 103.1 88.3 86.3 78.2 59 62.7 76.7 82.3 87.7 95.4 111.4 119 119.8 117.4 114.8 117.9 118.6 121.9 122.9 127.6 146.4 154.7 155.6 150.5 140.8 143.4 150.5 150.5 149.9 159.3 173.1 176.9 183.9 195.1 205.2 212.1 218 217.3 213.9 213.5 214.4 216.4 226.3 234 233.2 226.6 237.9 253.9 261.8 262 260.9 260.2 268.2 263.1 254.5 249.5 255.2 265.1 268.6 247 243.6 246.4 256.4 277.9 279.9 279.9 276.4 278.3 278.5 266.4 262.5 251.2 224.3 198.9 158.6 120.8 88.3 64.4 38.1 32.7 32.7 32.7 37.5 48 53 61.8 73 85.5 103.4 121.5 137.4 149.3 163.9 179.4 192 204.4 209 218.6 216.8 208.3 227 245.4 267 285.2 300 318.1 338.3 363.2 366.3 374 390.3 398.8 402.7 410.8 418.8 435.8 436.6 430.5 434.1 427.9 429.3 419.4 412.6 409.7 407.1 423.3 416.7 399.2 362.4 342.2 330.8 326.2 319.2 319 330.4 347.2 367 389.8 410.8 443 472.8 503.6 539.8 580 604.4 614.8 627.5 636.6 643.4 652.4 649.1 646.3 647.1 647.5 648.7 644.7 641.4 639.6 640 641 641.2 640.7 639.4 637 630.3 626 627.7 629.4 631.8 637.6 634.9
169.6 173.7 164.7 144.2 153.6 161.5 165.7 164.5 164.1 158.1 155.6 154.8 149.8 143.3 135.5 129 127.9 127.5 127.1 128.8 131.8 137.6 135.6 131.1 151.4 155.9 158.5 147.3 137.4 112.1 97.4 88.3 83.8 68.8 59.4 62.3 79.4 86.7 94.1 119.1 126.7 130.6 125.2 118.2 120 123.6 126.9 127.7 133.7 138 145.4 151.4 150.9 143.9 141.2 154.3 159 159.4 155.8 165.5 180.9 186 199 211 219.7 226.1 230.7 233 227 221.6 217.2 225 225.6 225.7 227.1 229.4 249.6 248.7 250.9 254.1 255.4 257.6 263.3 258.4 258.5 261.9 268.8 269.5 259.1 242.5 241.5 253 269.2 273.4 268.2 266.8 276.3 274.8 268.2 266.7 269 254.2 229.1 177 139.2 118.2 77.9 60.5 36.4 32.7 32.7 32.7 32.9 41 47.8 53.8 62 76.9 91.9 108.2 120.3 136.7 152.3 165.7 173.7 184.3 185.1 181.9 184.7 196.2 210.2 228.2 244.4 273.8 305.7 336.8 347 354 360.7 369.6 376.7 385.4 390.5 397.3 405.3 408 412.4 411.1 410.3 414.7 411.5 398.3 390.3 403.7 396.1 399.7 384.5 363.5 341.6 336.2 328.6 318.6 319.3 331.9 348.4 371.7 392.5 418.7 450 481.3 513.1 550.6 585.2 599.6 608.6 621.5 628.4 632.4 632.6 634.4 631.4 630.7 631.8 631.8 627.2 624.4 624.3 625.3 625.9 625 624 624.1 618.7 618.3 614.1 616.7 619.4 622 628.5 629.2
183 157.8 150.3 144.2 151.5 160.9 166.9 168.9 167.3 162.9 158.6 154.7 151.2 144.4 133.3 129.9 128.2 127.8 128.7 127.7 135.2 145.1 144.1 130.4 142.4 150 154.9 153 134.4 126.4 122.3 101.4 87.4 83.9 67.5 60.2 59.4 75.8 90.6 111.5 120.8 127 129.4 125.3 122.3 124.4 125.4 127.7 133.7 141.3 144.7 147.7 150.8 148.4 141.2 148.2 160.2 164.1 168.3 158 172.1 190.8 194.9 202.2 205.4 219.3 231.8 235.1 233.6 234.3 219.7 219.7 226.5 232.7 233.6 226 236.2 240 245 252.6 256.4 257.6 261.2 266.1 271.4 266.3 269.8 265.7 254.7 240.6 240.8 246.5 255.8 253.7 258.4 260.7 272.1 287 279.9 270.6 264.6 257.3 241.8 197.4 168.8 152.7 111.6 86.5 58.1 38.8 33.7 32.7 32.7 32.7 32.7 40 48.8 54.7 64.3 82.4 94.1 112.5 120.6 133.1 143.2 153.7 150.8 151.9 161.3 169.6 175.1 193.7 218.2 249 275.4 310.1 314.4 316.8 336.9 343.9 355.3 368.1 377.4 382.7 397.5 399 397.8 394.2 392.9 402.4 396.9 396.8 395.3 383.2 382.4 380.1 368.4 358.8 345.6 339 332.4 317.9 316.6 333.1 347.2 366.9 390 420.9 452.4 485.9 522.2 560.5 583.7 591.9 602.9 614.7 618.2 623.7 621.4 621.2 617.5 612.7 612.1 615.5 609.8 606.9 609 611.7 610.3 609.2 606.9 608.8 606.5 606.1 605.7 610.1 610.8 611.8 614 615.3
194.6 172.2 162.2 157 147 159.2 174.3 176.8 176.1 173.3 169.5 165 162.3 152.1 140.1 132.8 130.4 130.8 129.9 129.2 131.6 140.3 141.3 139.9 128.1 140.5 142.7 141.8 139.1 134.3 127.1 115.7 98.9 95 80.3 69.2 60.9 60.1 76.7 93.5 107.6 112.1 118.3 123.3 127.3 128.3 126.9 127.5 135.4 151.6 147.4 153.2 159.9 159 146.2 143.2 158.7 166.8 169.2 165.6 163.4 173.7 189.5 194.5 197.6 206.8 217.3 227.3 229.3 230.2 220 223.8 231.4 239.5 226.9 225.4 236.7 251.5 250.1 249.1 251.3 257.5 262.7 266.6 270.8 265.4 268.8 266.5 259.9 242.7 241 241.3 243.8 249.4 259.5 270.8 277.8 281.3 278.2 267.4 263.7 254.4 257 223.7 214.2 188.7 149.7 114.6 92.4 71.1 56.5 46.1 34.6 32.7 32.7 32.7 35.3 46 52.5 61.1 71.4 84.5 93 106.2 114.2 119.2 118.2 126.9 135 141.9 148.8 161.2 200.7 234.2 256.4 262.9 272.3 283.4 301.9 321.6 335.6 356.2 372.3 383.3 396.8 391.6 388.3 383.4 384.2 384.8 382.2 390.4 401.3 397.7 373.3 368.6 361.4 356.1 342.9 333.9 331.1 316.5 314.1 331 341.7 361.5 387.5 417.9 452.3 491.7 520.7 545.3 560.2 573.2 584.6 593.7 600.3 606.4 607.8 607.9 603.8 598.6 597.3 596.7 595.5 594.5 597.1 599.2 596 594.3 592.3 594.2 595.7 594.6 594.8 598.1 599.8 598.4 597.3 596.4
200.6 185.3 177.9 177.4 165.6 154.4 168.3 179.3 177.4 176.6 177 170.5 165.8 157 148.8 135.4 139.3 136.7 135.7 132.5 136.6 140.3 137.5 133.2 130.6 130.8 131.8 128.1 128.1 137.3 130.3 113.7 97.3 95.9 95.6 82.4 66.9 61.9 64.6 83.6 106.3 121.6 119.8 121.5 134.2 139 135.2 135.9 135.5 142.1 148 149.5 159.9 155 149.7 142.8 154.5 164.6 167.1 174.2 177 174.1 184.3 193.5 197.5 201.6 213.3 219.9 222.7 221.2 215.9 220.7 223.2 219.6 220.3 227.2 233.2 238.9 241.9 250 254.9 263.5 266.5 268.5 272.2 266.2 262.3 265.8 259.8 253.5 241.2 241.4 244.8 256.2 263.8 270.2 274.9 272.5 265.4 262.9 259.9 258.2 260.3 253 251.7 209.8 186.8 150.1 129.8 104.1 86.8 70.1 50.9 34.6 32.7 32.7 32.7 32.7 37.6 47.1 52.6 56.8 66.8 75.2 82.1 83.9 89.9 98.5 109.7 113.2 122 130 160.8 195.9 206.2 213.2 239.7 257.5 274.8 293.6 325.5 337.5 357.9 371 381 375.8 375.4 371.5 371.8 369.1 366.3 373.1 392.4 400.3 381.7 355.7 343.5 345.2 338.1 324.2 328.8 309 309.2 318.2 332.7 349.4 375.8 410.4 446.7 483.6 510 528.3 546 560.1 571.5 572 578.5 586.1 587.4 586.2 584.2 577.8 576.8 574.1 575.1 576.8 579.2 578 575.9 575.9 573.8 572.9 577.3 576.9 577.7 583.2 580.6 578.8 576.8 575.1
202.4 206.1 193 187.2 173.2 165.7 158 175.1 177.9 177.5 178.3 175.6 160.3 155.5 144 148.6 149.6 143.8 142.2 141.4 141.3 144.5 146.6 150.4 138.1 131.8 129.6 126.1 122.7 123.3 119.7 107.1 101.8 104.1 105.9 91.9 81.7 64.4 63.4 80.6 109.2 127.8 132.7 132.2 131.8 137.4 135.8 133.1 136.9 143.6 147.9 147 157.2 169.8 152.1 143.9 147.8 156.2 168.7 178.7 184.8 179.3 185.9 196.3 204.1 202.4 203.5 207.3 215.7 214.7 212.7 217.4 223.9 219 219.5 220.4 223.5 230.1 241.2 248 255.7 259.9 261.2 261.8 266.3 262.6 257.2 261.5 257.8 253.6 243.6 241.5 253.3 256.9 262.6 267.9 273.2 274.8 266.7 263.3 265.5 260.6 259.4 259.5 258.7 243.3 224.1 206.9 167.9 141.2 118.5 97.4 73.9 55.6 37.4 32.7 32.7 32.7 32.7 32.7 39.7 43.9 48.6 53.4 55.2 62.7 68.3 74.6 86.7 90.3 97.3 106.4 125 142.7 156 187.3 218 231.2 244.7 266.1 296.8 313.3 323.2 332 343.2 348.8 351.7 358.4 358.5 352.5 353.6 357.3 372.4 384.6 369.5 359.5 337.3 330.3 327.2 318.5 315.2 303.1 296.6 308.4 325.1 337.6 364.5 399.7 440.3 472.5 499.1 515.6 533.9 548.1 553.2 560.5 566.6 565.2 567.4 563.5 563.1 559.6 557.2 553.4 554.1 556.3 559.2 559.6 559.8 561.4 561.5 558.5 563 562.6 560.8 564.9 560.1 558.4 551.6 548.2
221.6 224.2 209.3 193.6 183.7 177 167.2 157.4 175.3 175.7 175.8 171.2 159.6 153.4 153.2 155.2 159.2 157.2 152.8 153.9 148.7 146.5 150.9 159.1 150.5 141.6 134.5 127.8 124.2 114.9 110.7 109.4 105.7 102.5 110.6 104.3 90 71.7 62.1 69.7 92.3 111.1 133.6 136.9 131.2 132.9 130.4 127.6 136.6 144 146.4 145.8 150.9 155.1 155.3 148.6 147.2 155.5 169.8 181.6 196.2 200.6 186.7 196.3 202.7 205.8 207.9 211.8 216.3 212.6 212.8 221.2 229.5 236.8 221.1 219.4 220.2 229.9 239.4 246 251 254.6 259.1 256.3 262 261.3 255.8 252.1 251.7 249.7 250.5 242.4 248.2 260.3 262.5 268.3 279.7 271.6 267.3 262.9 261.6 263.3 258.5 258.9 252.9 245.8 244.4 240.3 224.7 177.6 147.9 132.7 105 88.6 69.7 50.3 32.7 32.7 32.7 32.7 32.7 32.7 32.7 34.3 39.7 47.5 53.5 59.2 64.5 75.6 78.6 88.2 98.6 110.8 135.3 165.2 183.9 191.4 215.1 241.2 267 273.2 284.6 289.6 297.2 313.9 325.1 335.4 335.5 334.9 337.4 339.2 355.3 361.1 365 338.3 337.3 335.8 312.6 306.3 299 293.3 285.6 298.2 309.8 328.6 358 392.3 432.1 464.4 486.2 504.2 517.8 530.9 534.5 545.5 543.9 543.4 542.8 543.6 544.8 541.4 539 539.1 539.5 539.9 544.1 545.5 545.4 548.1 548.6 549 546.7 548 544.7 546.3 544.1 538.1 531.9 530.4
238.9 236.6 229.4 208.4 207.5 199.3 175.7 164.2 159.8 169.9 176.1 169.9 161.5 163 164.4 159 168.8 173.8 172.1 156.8 147.9 149.3 150.1 155.5 153.4 146.6 139.9 137.7 131.7 123.9 122.5 122.4 109 111.6 113.6 112.8 97.1 77.6 62.1 63.9 86.5 107.1 126.7 137.6 137 125.7 125.4 128.1 135.6 141.8 143.3 145.5 146.6 150.9 151.8 151.1 149.7 152.9 162.5 185.2 201.2 201.7 193.4 189.9 197.2 202.7 213.5 217.8 223.8 226.2 213.5 225 226.1 228.8 230.3 218.7 218.8 229.1 238 242.8 244.9 246.9 252.9 250.7 254.4 262.9 259 251.7 250.3 252.9 249.9 242 241.6 252.3 254.1 265 276.2 270.5 260.7 261.6 258.8 266.1 265.5 253.7 250.7 250.5 247.3 247.5 242.6 223.1 198 173.9 163.6 143.6 105.3 82.2 68 53.7 42.8 32.7 32.7 32.7 32.7 32.7 32.7 32.7 39.6 46.3 54.3 57.8 64.3 72.2 74.9 86.5 102.8 127.9 145.9 160.9 182.3 209.5 230.6 234.6 239.2 256.3 268.7 283.8 295.1 305.2 310.4 312.3 318.8 329.7 344.2 345.7 344.1 330.8 342.3 329.5 319.3 295.7 276.2 271.7 273 287.4 298.2 321.3 349.7 382.6 421.2 450.3 472.6 488.7 501.4 513.6 519.3 525.4 528.2 525.9 524.4 524.5 524.8 523.9 520.9 523.9 526.6 524.7 530.4 529.9 531.4 535.5 533.2 533.1 532.2 533.6 531.4 530.9 525.5 525.7 520.9 516.3
245.4 244.1 235.3 218.1 214.5 216.3 190.7 172.6 170.9 167.6 183.6 182.3 165.1 173.7 177.4 166.8 171.2 181 178.8 166 156.4 153.3 152.3 148.4 148.8 149.8 151.6 148.8 141 134.9 129.8 127.9 133.5 127.8 115 106.2 101.1 86.7 64.6 62.9 86.4 99.5 112.9 126.5 134.7 126.4 125.9 133.3 137.7 142 143.3 143.9 146.7 149.5 150.5 150.9 151.1 149.9 158.2 171.3 191.8 196.6 194 191.7 203.3 212.9 215.6 222.8 224.7 220.9 215.1 218.2 226.3 230.4 229.5 222.3 218.6 221.7 232.7 242.2 246.8 251.5 255.1 253.6 253.2 256.9 260 257.2 252.9 246.9 243.7 243.1 244.5 243.6 251.9 263.4 263 262.1 256.5 255.9 257.5 254.2 255 252.3 255.2 253.4 253.7 256 252.2 243.7 226.9 221.8 207.2 197.7 163 131.2 104.3 86.3 75.4 49.3 32.7 32.7 32.7 32.7 32.7 32.7 32.7 35.5 39.2 43.9 50.4 53.5 56.5 61.9 69.5 84.1 99.8 119.8 139.4 158.8 177.2 187.6 207.4 225 245.3 251.1 260.3 272.3 278.4 292.8 296.6 309.4 320.7 320.8 319.2 319 337 320.4 314 291.4 272.2 263.6 260 277.7 295.8 318.3 344 373.5 411.2 449.2 472.7 483.9 490.2 496.3 500.3 501.2 502.9 504.6 504.1 503 505.5 505.2 505.3 506.1 507.1 505.3 506.7 514.4 515.7 520.7 518.5 519 517.7 522 517.9 517.2 510.3 512.8 505.4 503.3
251.3 246.8 241 226.1 219.7 216.9 200.7 192.7 179 175.2 178.6 187.5 179.8 168.2 174.3 178.5 170.5 185.9 181.6 175.7 172.4 163.1 152.5 148.3 149.7 158.6 159.1 156.9 158.1 158.7 140.6 131.7 135 129.9 119.6 111.6 106.9 92.4 68.1 63 74.8 84 93.9 109.4 121.7 122 121.4 137.2 137.3 142 145.9 143.3 146.7 147.6 150.5 151.5 153.5 152.8 151.7 161.4 179.6 185.1 189.5 190.5 198.3 211.4 211.3 222.8 228.3 231.6 215.5 218.3 227.9 232.3 231.5 230.6 218.9 219.2 231.7 241.2 246.9 252.6 247.9 249.3 256.1 257.8 259.5 254.1 255 256.5 248.9 253.7 253.1 244.1 245.6 252.8 257.6 258.7 255.4 255.9 250.5 249.7 252.3 253.3 252.5 252.6 254.4 259 263.4 248.5 246.1 252.4 254.3 240 218.5 184.1 151.2 130 117.7 88.3 59.8 49.3 37.3 32.7 32.7 32.7 32.7 32.7 32.7 32.7 32.7 32.7 38.8 40.3 41 49.3 62.5 81.8 102.3 119.2 133.5 147.8 169.6 192.5 213.2 217.7 234.2 240 252.3 265.9 270.2 282.2 291.5 288.5 294.4 297.8 324.8 299.3 287.3 270.6 257.8 251.3 248.7 274 292.5 312.2 336.6 387.3 424.9 453.1 462.5 477 487.3 496 500.6 492.7 490.6 492.5 491.6 486.2 482.4 481.3 485.1 486.9 487.7 484.4 488.9 496.3 496.8 500.8 498.8 499.2 504.5 505.6 500.6 500.9 495.9 499.1 497.3 493.7
258.9 253.3 244.5 231.4 216 217 219.9 212.4 191.2 179 171 185 184.4 173.9 174.6 175.8 177.1 180.9 181.9 186 186 175.1 158.9 151.1 155.2 163.5 159.5 165.5 165.9 160.8 149.3 140 129.2 125.7 118.4 121.2 111 96.9 71.1 63.8 65.9 69.7 79 96 108.1 111.3 120.1 125.4 134.5 137.9 144.8 145.3 146.9 146.2 150 155.2 157.4 163.7 151.9 156.2 180.9 187.1 190.4 191.1 189.6 199.9 201.2 213.7 214.3 226.8 220.4 218.6 227.9 235.2 241.3 238.8 220.6 219.5 229 240.2 247.4 247.3 247.7 252.2 257.2 256 254.1 253.7 259 256.9 257 258.2 266.1 262.8 242.3 250.7 260.4 259.6 259.6 251 245 247 258.6 252 251.9 254 250.1 250.6 253.9 258.9 257.9 264.5 262.2 259.3 255.8 231.8 203.7 175.5 161.6 141.5 98.3 84.1 66.5 56.6 47.1 32.7 32.7 32.7 32.7 32.7 32.7 32.7 32.7 32.7 32.7 32.7 34.1 51.2 67.1 84.4 97.3 114.1 140.8 164 180.1 190.7 205.9 207.1 222 232 250.4 260.1 262.2 253.6 266.5 278.5 299.9 291.8 262.4 251.5 244.7 232.9 242.5 270.9 291.9 308.9 340.4 377.9 417.1 441.1 448.5 460.4 470 474.2 480.6 481.1 480.6 490.1 486.8 476.5 467.2 458.6 462.2 464.8 462.6 459.6 467.3 471.4 475.9 479 480.2 477.4 480.9 481 479.8 480.3 480.7 485.9 484.9 479.9
249.1 247.2 236 223.9 229.1 224.5 216.9 216.5 210.8 199.2 175.7 177.6 184.9 177.8 176.7 177.3 176.1 177.6 180.4 188 190.3 191.4 181.4 156.8 162.8 162.3 160.2 163.9 165.7 161.6 158.3 147.2 138.9 129.9 120.1 123.6 125.9 99.9 78.1 63.6 67.6 69.1 73.9 84.5 90.7 105.2 120.9 119 124.1 131.9 140.7 144.3 141 139.8 150 156.6 159.3 160.9 152.4 155.9 171.2 180.3 184.9 189.1 186.9 185.4 195.7 200.6 205.7 211.9 213.7 220.7 229.8 237.4 242.2 244.8 230.2 220.2 224.6 235.1 244.3 245 247.8 251.2 256.7 254.3 252.6 258.1 259.8 259.4 262.3 257.3 270.2 269.6 249 244.7 256.2 255 252.3 245.3 244.1 254 251.7 247 250.2 251 247.2 248.2 251.4 257.8 263.5 272.3 262.1 262.6 268.1 253.7 240.7 224.3 213.8 209.6 160.7 114.8 99.4 92 81 63.1 46.6 38.4 32.7 32.7 32.7 32.7 32.7 32.7 32.7 32.7 32.7 32.7 41.7 52.8 69.4 88.9 112.3 128.4 144.1 157.1 166.1 179.2 189.1 207.5 220.1 226.2 227.1 229.4 246.5 263.1 273.3 268.9 244 236.4 227.1 197.3 242.2 265.7 285.6 311.6 337.6 369.6 404.3 420.4 431.6 437.9 448.7 454.5 463.1 468.1 465.2 470.6 470 461.4 454.3 447.5 440.2 436.4 437.7 437.9 441 443.9 449.6 450.5 451.2 447.5 452.3 447.3 451 453.5 454.7 463.3 462.2 461.3
260.2 242.3 239.4 240.2 238 234.2 226.8 221.9 217.2 205.8 190.9 177.9 178.1 177.8 178.5 179.4 178.3 178.7 181.1 184.8 188.8 197.3 198.6 186.4 166.2 172.8 160.6 166.2 166.2 167 164.2 155.1 146.1 145.2 129.9 122.5 120.3 100.8 79.2 66.8 67.6 73 76.8 80.8 87.3 99.6 112.4 118.6 116.1 126.5 132.6 136.6 134.3 140.1 150.1 155.7 160.2 158.5 152.9 152.8 159.5 167.6 177.1 184.5 180.7 183 186.3 187.8 199.4 215.1 224.9 226.1 229.5 235.1 240.3 238.5 228.4 226.4 221.1 228.5 236.2 242.7 250.1 255.2 252.1 249.4 252.3 255.7 258.6 258.7 265.7 252.7 267.1 264.4 248.8 233.4 238.9 244.3 247 241.3 249.8 251.8 244.8 242.8 243.6 246.3 246.2 246.5 248.5 252.2 258.2 272.7 262.6 261.4 264.1 259.5 257.6 262.4 257.8 241.2 221.4 172.5 135.9 127.5 114.1 95.5 77.1 63.9 51.3 38 32.7 32.7 32.7 32.7 32.7 32.7 32.7 32.7 32.7 32.7 47.7 61.6 79.9 94.5 108.9 117.7 132.4 149.6 161.1 177.9 190.4 191.8 201.5 215.2 226.8 227.4 234.8 231.3 222.1 217 203.3 203.3 241 259.1 279.1 303.3 325.3 356.3 383.2 402.4 413.3 424.4 431.7 437.4 442.2 452.3 449.6 448.6 441.3 437.9 440.2 440.8 440.3 430.7 432.7 424.9 422.5 426.6 431 429.7 429.2 428.1 429.2 426.8 427.5 427.8 430.2 432.9 432.1 431.7
257.6 258.1 247.5 248.3 243.7 239.1 229.9 219.1 216.7 213.2 211 197.2 176 175.1 178.7 186.5 190.4 180.2 182.5 185.1 193.3 198.6 201.4 190.6 172.5 173 163.3 170.3 171 170.3 167.9 154.2 154.5 156.7 152.8 129.7 112.7 101.1 76.2 68.1 67.6 72.9 82.4 90.5 99.3 97.2 103 114.8 113.7 120.7 125.6 126.7 125.2 137.5 147.2 149.3 152.4 152.3 151.3 147.4 150.8 160.8 164.5 173 172 182.4 187.7 186.6 194.3 204.4 215.9 223 225.9 231.3 226 224.9 227.6 228.9 223 227.9 236.5 245 251.8 248.3 244.7 246.7 250.9 253.9 254.3 254.5 256.3 246.7 250.5 242.9 241.1 231.9 232.7 239.5 239 241.2 248.5 246.5 243.6 239.6 244.3 246.6 245.1 245.7 246.2 249.3 261.8 269.5 263.1 259 265.3 265.7 275.5 270.8 266 260 249 242.3 212.3 172.8 151 127.6 107.4 95.3 84.9 75.1 63.8 49.4 44 39.8 32.7 32.7 32.7 32.7 32.7 32.7 32.7 41.7 52.8 65.6 78.8 90.4 108.1 119.7 134.6 147.9 153.1 161 184.3 196 193.2 191 194.2 192.9 194.8 193.8 165.4 203.4 231.8 250 266.9 287.6 307.3 338.7 373 388.5 389.9 403.7 412.6 415.4 422.4 422.8 424.3 431.7 429.5 433.3 437.9 442.9 432.1 420.8 419.5 413.4 408.4 414.3 420.7 428.9 430.6 429 429.9 429.5 426.6 422.2 428.6 428.5 425 427.1
264.5 260.5 248.6 246 242.9 238.1 229.5 222 224.4 218 218.2 218.6 197.7 177.6 176.5 185.1 188.8 180.6 185.1 189.1 190.4 198.4 199.8 197.9 186.6 171.5 168.2 173.8 174.9 165 160.4 156.5 154.1 159.1 159.9 127.4 85.9 83.6 83.6 84.6 81.1 70.2 77.6 93.1 95.3 96.5 97.7 98.7 106.3 106.4 109.2 115.2 118.6 130 136.6 143.2 144.9 146 148 147 149 156.8 157.5 163.6 167.9 176.6 185 188.5 187.5 188.2 200.1 207.7 212.7 210.1 213.1 211.7 212 215.2 219.1 230.9 238.9 244.7 243.6 241.2 243.5 248.1 249.3 249.3 253.6 254.1 248.9 233.9 228.8 234.8 242.9 230.2 227.4 232.1 237.2 244.5 245.1 244.4 243.9 238.5 244.8 246.5 245.6 244.4 247.3 251.7 259.5 265.1 261.9 260.1 260.2 273.6 276 270 264.4 261.7 263.8 258.7 261.4 248 209.1 175.4 149.8 134.2 124.9 114.4 92.7 78.3 70.2 59.9 54.6 48.9 49.2 45.6 34.9 32.7 32.7 32.7 32.7 43.1 53.2 65.3 78 85.9 102.5 114.6 117.1 131.3 151.5 157.3 157.5 159 165.6 165 169.5 167.5 158.2 194.2 215.7 234.8 258.8 270.7 289.4 316.9 345.9 351.8 361.8 372.1 377.9 390.9 401.2 412.3 411.8 419.3 418.3 430.2 432.6 429.9 420.2 407.2 398.4 395.6 396.1 397.7 404.2 416.6 417 418.1 420.6 420.9 420.2 412 414.9 422 416.1 413.4
262.2 257.7 248.9 244.5 236.3 232.2 226.6 230.5 227.9 220.9 217.2 218.4 213.8 183.5 177.5 182.4 179.6 179.4 186.8 185.5 190.7 193.1 197.4 201.9 186.9 171.9 172.8 173 168 161.9 158.3 157.6 157.3 152 121.6 95 99.8 101.9 105.1 105.2 95.4 82.5 75.3 80.5 99.8 101 103.1 96.8 98.1 98.4 99.9 100.6 114 118.5 125.9 137.1 144 144.8 145.5 150.1 151 153.4 161.1 162.7 166.8 171.6 179.6 187.9 191.8 192.8 194.4 198.7 202.2 208 210.2 211.1 214.6 221.5 231.5 226.3 229.9 235.5 237.8 241.2 245 249.7 252.2 250.9 244.7 239.9 224.2 218.6 223.6 234.3 240.6 228.9 226 227.1 233.7 242.9 250 242.3 238.6 239 243.6 243.7 244.1 247.9 251.7 245.5 252.2 260.9 258.9 258.9 261.1 264.8 272.6 272.1 265 266 260.2 258.8 257.2 257.8 253.4 204.2 221.3 190.2 173.2 152.8 150.9 125 107.3 97.7 85.1 77 78.9 76.8 80.8 65.8 32.7 32.7 32.7 32.7 32.7 40.7 52.8 57.4 71.3 81.3 87.6 100.2 111.6 120 120 130.4 136 136.9 143.7 126.5 157.3 182.3 196.7 219.1 235.4 250.1 267.2 286.5 301.8 330.7 354.3 363 373.3 382 385.7 390.3 395.9 405.7 406.5 416.7 413 409.9 405.4 394.3 385.8 383.2 389.3 384.6 387.2 397.1 404.3 409.5 407.7 410.9 414.4 410.9 409.2 403.7 395.8 390.9
261.3 255.9 248.1 243.7 243.9 238.3 232.2 230.1 227.5 218.2 215.8 216 214.9 190 178.3 179 178.4 178.5 180.1 181 192.9 192.3 195.4 194.9 189.3 174.7 174.1 174.1 168.1 160.9 159.5 162.7 154 128.6 96.8 113.9 121.7 122.6 118.2 111.1 109 101.7 88.3 78.3 87.3 96.7 102.2 104.6 102.5 99.6 103.5 102.8 104.1 112.2 109.4 125.9 137.7 143.8 147.6 148 151.6 152.6 156.7 162.3 167.1 169.6 176.3 186.5 192.5 196.6 202.3 205.5 208.6 204.1 209.4 212.2 214.6 224.8 226.5 231.4 225.9 230.6 237.2 241.1 246 250.8 249.1 251.1 246.7 234.7 218 218.1 223.6 232.8 233.6 225.6 227.1 235.4 231.5 240.1 247.8 238.3 234.4 243.2 243.4 237.4 243.3 252.9 241.9 247.1 259 261.1 258.6 258.9 258.9 261.4 272.3 272.7 271.3 264.1 259.2 257.5 256 252.5 248.2 243.5 239.2 231.9 226 201.1 203.5 198.4 167 159.4 137.8 127.7 115.3 111.8 113.9 101.3 58.1 32.7 32.7 32.7 32.7 32.7 32.7 33.4 44.7 52.8 56.2 63.8 71.7 78.2 87.2 99.9 108.9 110.5 118.6 119.7 144.8 161.6 178.2 194.5 212.8 230.3 244.3 265.2 289.7 324.5 346.4 354.6 351.1 358.1 371.1 370.1 370.1 377.5 381.9 388.7 397.6 397.6 393.2 389.7 376.6 377.3 376.2 377.5 375.7 383.4 387.9 393.1 393.8 398.3 404.9 397.4 399.9 400 397.5 381.7
260.3 256.5 259.2 248.7 246.3 239.6 233.3 230 227 214.7 214.3 215.8 214.1 192.5 181.2 180.4 180.1 174.8 181.5 173.6 183.4 185.9 189.1 194.6 185.7 173 177.9 178 178.2 181.7 159.4 148 115.4 106.4 122.6 137.4 136.3 138 128.1 121.2 118.1 109.2 94.9 86.5 86.7 94.7 99.9 106.4 102.7 108.5 110.7 111.5 101.8 104.9 108.4 110.5 126.9 135.5 141.2 144.9 149.1 153.7 156.2 153.5 161.7 168.7 175.4 185.7 193.7 197.2 204.1 205.5 207.4 201.7 199.6 203.3 209.7 217.6 222.3 223.2 224.2 228.4 234.8 239.4 246.1 248.9 246.7 246.3 246 240.9 215 218.2 220.5 222.9 223.3 227.3 231 236.9 235.1 237 238.1 230.4 236.3 241.8 237.7 236.2 248.6 244.8 241.5 255.4 257.2 264.2 261.7 262.2 258.9 260.3 267.1 280.8 277.9 269.9 262.8 257.4 262.5 261.1 249 247.7 248.9 236.8 229.9 219.5 219.6 217.6 201.4 200.3 191.6 174.7 166.1 148.3 150.3 127.8 79.5 39.7 32.7 32.7 32.7 32.7 32.7 32.7 32.7 32.7 32.7 32.7 32.7 42.7 55.6 67.9 79.6 88.7 81.2 99.7 118.2 131.5 149.4 169.1 187.3 207.2 228.7 248.5 293.5 309.5 324.5 335.5 335.1 331.2 345.2 340.7 343.7 352.3 365 376.8 380.4 382.2 376.1 376 376 369.3 368.1 373.1 370.1 362.2 372.3 371.4 382.7 379.7 389.9 378.4 379.9 389.8 382.4 372.5
264.8 260.2 260.1 253 252.9 244.6 241.4 232.9 222.2 217.2 211.7 216.7 211.9 192.9 184.5 186.1 182 178 171.1 172 175.1 176 178.6 182.4 174.2 166.9 170.8 175.6 176.3 172 137 108 115.2 127.8 137.2 144.4 148.2 143.3 134.1 125.5 126.1 119.5 105.3 99.1 88.8 94 102.2 106.1 106.9 113.3 112.6 111.2 105.6 102.7 103.3 103.9 111.4 123.9 133 137.2 144.5 147.3 145.9 150.5 155.1 165.4 177.7 185.6 187.5 191.8 197.7 199 202.2 194.3 196.2 200.2 202.3 210.1 214.7 218.9 226.6 228.5 227.6 233.3 237.5 238.7 244.9 250.3 247.8 230.2 208.2 208.1 214.8 219.3 220.3 223.1 228.9 236.9 238.1 233.7 234.1 228.6 235 230.7 241.1 244.2 244 237.5 255.2 258.7 257.5 258.7 267.6 270.2 258.9 258.9 262.9 280.7 281.6 279.3 264.2 257.2 260.8 253.1 247.5 242.6 236.1 227.6 221.4 214.6 211.6 211.6 213.1 207.7 204.1 195.2 199.3 193.9 186.2 164 120.3 71.8 45.2 32.7 32.7 32.7 32.7 32.7 32.7 32.7 32.7 32.7 32.7 32.7 40.1 47.2 57.4 73 71.8 84.8 96.9 114 132.3 155.6 171.3 185.8 206.4 235.1 269.7 296.7 304.4 307 297.9 305.4 321.6 334.3 326.6 334.6 344 345.5 346.2 354.6 365.2 362.1 365.9 375.3 359.7 363.8 361.3 353.6 348.5 353.2 361.5 359.4 357.8 355.8 359.6 371.9 364.7 352.2
277.5 266.4 259.2 258.9 254.3 248.3 241 230.1 224.1 213.5 208.8 212.6 205.6 191.6 188.8 191.4 184.2 173.2 173.3 168 171.2 171.3 171.9 173.6 164.1 161.1 169.5 164.2 151.7 137.3 106.7 121.3 132.5 141.5 142.3 151.9 154.8 147.4 138.4 144.8 147.7 144.3 127.8 107.5 99.2 96.7 105.5 110.9 112.8 109.4 110.1 110.9 107.3 109.8 112 104.4 104 109.3 124.7 134.9 139.6 141.3 143.1 146.4 153.9 164.7 176.2 184.1 186.9 183.3 184.4 187.4 189.9 190.1 197.1 198.6 197.8 199.5 206.3 216.9 222 223.7 226.8 231.2 234.6 238 239.8 244.5 233.3 220.1 203.8 202.7 212.5 216.6 219.3 213.2 219.6 233.2 239.1 234.8 228.2 227.6 223.8 237.5 243.2 236.9 233.9 243.4 250.3 254.6 254.8 258.4 267.1 263.7 259 258.7 273.9 281.4 284.6 281.9 275.4 262.5 258.3 252.5 242.7 233.4 229.5 223.4 219.9 213.8 211.6 211.6 215.2 209.9 208.6 211.2 204.3 199.8 182.1 180.3 148.2 108.5 75.7 46.8 32.7 32.7 32.7 32.7 32.7 32.7 32.7 32.7 32.7 32.7 36.8 39.1 44.6 50.1 65.9 72.4 82.5 95 119.5 138.3 150.2 168.5 184.4 211.8 235.7 264.8 271.8 281.1 286.9 295.7 306.7 314.3 312.9 313.3 321.3 323.1 333.6 332.9 345.8 345.9 346.7 353.7 348.5 345.7 345.5 345.6 334.3 335.9 338.9 334 337.3 340.4 346.8 349.2 346 333.9
276.2 263.2 261.6 261.4 252.5 249.8 241.9 233.7 225.9 212.3 209.8 215.5 201.5 189.7 191.1 186.5 181.5 172.8 168.7 161.7 166.6 163.1 159.9 160.6 158.9 160.6 152.2 149.1 133.8 105.3 120.2 137.9 141.2 143 148.2 155.1 158.1 155.9 152.6 152.2 158.1 153 144.4 114.4 106.3 102.9 98 105.6 109.4 109 105.9 106.2 107.8 108.5 109.7 107 108 104 112.9 127.9 141.2 148.6 145.1 146.9 149.5 162.1 175.4 181.2 183.1 184.5 185.8 181.7 176.1 182 186.6 189.6 193.3 196.7 200.4 214.3 220.9 223.1 221.8 228.2 230.9 234.4 234.7 230 214.2 211.3 204.4 190.8 204.9 204.7 213.9 202.9 213.5 225.2 231.5 230.9 211.5 209.1 220.8 225.2 222 213.4 220.7 236 243.9 249.7 255 257.7 262.2 262.6 260.9 261.6 273.7 279.7 289.2 289.4 283.3 271.5 259.1 259.4 243.6 227.8 225.4 220.2 211.6 211.6 211.6 211.6 218.1 215.5 211.1 210.5 196.9 191.3 177.2 172.3 162.4 156.2 127.1 88.6 60.5 36.4 32.7 32.7 32.7 32.7 32.7 32.7 32.7 32.7 32.7 32.7 39.1 44 49 57.3 65.7 79.7 99.7 111.8 127 143.6 158.6 182.7 203.6 234.5 256.8 265.9 269.9 279.5 289.9 299.1 290.4 298.7 304.8 308 306.4 317.2 326.3 326.5 327.2 331.2 342.3 332 330.4 334.6 331.3 319.8 315.3 312.9 323.3 320.2 326.4 324.8 328.2 313.3
272.7 266.1 264.3 259.8 253.4 246.9 241.5 235.3 220.2 212.9 204.9 206.6 194.3 187.9 193.4 193.5 181.7 173.7 160.5 157 159 158.8 158.5 152.8 145.3 148.4 147.7 132.8 125.3 107.3 124.4 137.7 148.9 151.7 159 166.1 163.7 162.5 169.2 157.5 156.8 153.4 147.3 135.8 123.4 111 105.9 102.8 103.7 107.8 106.3 106.7 106.6 110.8 115.5 117 111.9 105.9 111.3 122.6 140.3 151.1 148.4 146.8 148.6 150.6 160.5 170.1 177.1 180.1 176.3 175.1 176.9 182.3 182.9 190.9 194 200.2 203.5 205.6 213.5 221.5 215.4 219.8 222.5 221.7 220.7 211.9 204.5 200.6 196.1 184.9 195 191.2 190.8 187.3 203.1 214.5 215.7 215.6 201.7 191.3 199.4 196.3 192.9 193.1 208.3 226.5 236.7 250.8 254.7 258.3 256.2 255.4 258 264 272.4 276.8 289.6 283.8 279.8 274 272.1 250.5 230.8 219.3 215.6 211.6 211.6 211.6 213.1 222.9 219.9 215.5 207.5 199.9 199.3 187.8 177.3 176 175 173.7 161.3 127.9 94.5 68.3 37.2 32.7 32.7 32.7 32.7 32.7 32.7 32.7 32.7 32.7 32.7 39.7 41.5 41.4 47 57.8 71.8 88.2 100.4 117.7 132.9 156 175.6 202.6 232.2 242.4 247 259.8 264.9 266.2 262.6 277.2 284.1 289.2 287.6 296.7 302.4 304.9 308.3 309.3 328.3 338.2 326.2 322.9 317.7 301.4 297.3 299.1 300.4 297.9 298.4 297.8 301.1 290.8
271.7 263.6 266.6 261.6 253.9 248.9 242.8 227.1 212.3 201.7 201.6 194.5 190.4 200.7 205.3 200.9 190.6 188.4 171 150.6 146.7 153.1 156.7 148.2 131.1 131.1 122.8 109.7 107.9 123.3 136.6 146 153 161 164.6 170.5 169.1 171.2 173.7 164.5 156.7 149.8 146.7 153.6 140.2 128.4 121.2 115.3 118.8 122.6 124.2 119.5 107 108.3 115.6 118.2 119.9 112.3 105.3 119 125.9 142.2 150.1 145 149.6 152.3 151.9 163.9 173.4 172.8 170.9 178.4 185.9 189.8 196.6 196.5 198.7 202.3 203.3 204.1 204.6 205.3 209.3 214 215.6 213.9 207.1 201.2 196.4 194.4 191.8 179.5 182.8 181 176.7 174 179 182 184.4 191.8 187.6 177.3 183.1 177.3 175.1 181.8 201.4 218 237.5 244.6 249.3 255.6 251.1 252 254.6 264.6 269.8 275.6 280.9 281 281.2 277 269.5 247.2 229.2 215.5 211.6 211.6 211.6 211.6 219.9 224.6 218.9 213.9 206.6 196.8 193.2 183.7 177 178 182.5 182 163.8 149.7 122 88.8 64.9 39.2 32.7 32.7 32.7 32.7 32.7 32.7 32.7 32.7 32.7 32.7 32.7 32.7 32.7 40.7 50.9 63.7 76.2 92.1 110.5 134.3 147.4 168.4 198.8 203.8 215 225.7 228.8 237.7 242.1 253.9 264.3 266.8 267.2 274 277.3 278.4 281.1 291.6 310.3 320.7 331.7 322 301.3 288.2 277.6 282.8 279.9 281.8 271.7 270.4 271.5 258.3
270.9 259.6 264.8 254.6 250.4 242.9 235.7 227.7 207.5 199.1 195.9 194.7 194.5 206.9 208.9 198.9 193.4 191.2 184.1 162.2 140.1 138.9 149.6 138.7 119.5 113.3 119.4 124.3 126.9 129.4 129.3 142.2 149.5 157.2 163.4 170.7 171.6 173.2 172.1 164.5 161 154.8 159.8 168.8 162.9 147.3 142.7 132.5 131 131 131.2 126.3 116.5 112 112.1 121.8 121.2 126 113.1 105.8 119.3 121.7 132.6 144 155.2 153.6 149.1 155.7 166.5 167.5 179.2 183.7 186.7 190.8 196.3 198.2 200.4 202.7 204.4 195.2 203.3 197.3 205 208.3 206.8 206.5 203.7 198.2 193.8 192.7 186.1 179.4 172.3 172.4 170.5 162.1 166 163.8 164.2 171.6 173.8 171.6 163.4 164.7 166.2 172.2 189.6 208.9 224.6 239.3 249.8 248.8 243.7 248.7 262.1 273.4 271.2 277 283 276.7 280.2 274.9 270.4 248.5 228.3 214.1 211.6 211.6 211.6 215.3 219.2 217.8 215.9 212.7 204.9 195.2 186.9 179.9 173.7 175.9 183.4 192.8 169.4 159.3 140.7 117.2 94.5 66.9 43.6 32.7 32.7 32.7 32.7 32.7 32.7 32.7 32.7 32.7 32.7 32.7 32.7 32.7 32.7 44.4 55.2 69.7 91.5 110.3 121.7 142.4 162.3 165.1 188.3 192.5 194.7 205.5 219.6 233.7 240.9 244.5 241.9 247.4 254.1 250.8 247 269.2 287.9 295.1 306.4 291.7 274.4 269.9 254.4 258.5 256.2 251.2 250.3 245.1 244.5 239.5
264.6 263.9 252.3 253.9 247.5 238.3 229.6 222.6 206.5 204.4 203.3 200.5 198.7 203.3 202.8 197.2 194.6 191.8 181.6 172.8 155.4 131.6 138.8 124.1 120.9 111.1 129.6 140.5 145.7 144.9 146.9 146.8 151.8 163.3 166.8 169.8 170 170 170.6 165.1 163.6 159.7 172.1 171.7 169 159.6 148.5 145.7 139.6 140.4 147.9 149.3 134.9 118.3 114.1 117.1 133.6 132 121.9 110.1 106.3 110 122.3 141 149.1 160.4 146.6 146.7 156.9 172.2 180.5 181.7 184.7 190 194.2 196 197.6 197.5 193.1 188 189.4 194.7 195.5 197.2 200.1 201 209.2 205 194.6 187.4 181 177.1 171.3 164.3 167.2 158.2 155.6 155.6 157.4 160.2 163.9 164.5 157.7 155.8 154.5 161.8 179.7 199.8 212.4 229.4 235.5 237.8 237.3 248.1 264.7 271.1 264 270.2 270.2 271.9 274.2 272.5 267 251 232.6 222.6 211.6 211.6 211.6 211.8 217 216.7 220 217.8 200.7 190.3 184.8 181.2 171.5 173.8 179.7 186.5 165.8 158.6 147.6 128.5 112 85.4 66.5 46.7 32.7 32.7 32.7 32.7 32.7 32.7 32.7 32.7 32.7 32.7 32.7 32.7 32.7 32.7 32.7 44.2 60.4 78.9 93.8 113.4 129.4 140 160.5 156.4 161.3 168.9 190.3 209.4 222.1 219.5 211.6 222.9 230.6 228.1 225.7 239.3 254.6 265.7 274.7 262.8 254.4 247.2 238.1 237.2 231.4 224.7 225.2 241.2 236.3 229.6
261.1 255.2 250.8 242.6 242.9 237.2 235 234.2 226.5 220.2 214.7 207.7 198.1 200.1 201.5 195.4 192.8 184.9 178 172.5 159 133.1 128 130.2 123.3 126.4 136 143.2 146.3 153.6 158.7 161.4 160.1 165 165.4 167.3 167.7 170.9 173.3 163.2 158.6 159.8 163.5 168.1 176.9 176.5 160.2 151 147 148.9 157.3 154.4 144.8 139.4 116.5 119.8 130.2 135.8 124.9 115.3 107.3 107.3 116.4 137.2 146.7 150.4 146.9 145 145.8 162.5 170.3 176.3 178.8 183.9 187.4 195.3 190.5 186.1 183.2 184.4 175.7 178.5 188.2 191.9 193.6 196.7 206.3 216 199.7 190 186.8 183.8 176.4 170.5 161 157.8 153.3 154.6 156.2 157.4 158.9 161.1 155.6 149 148.2 150.6 169.4 186 198.8 210.6 221.5 223.3 235.7 240.8 252.2 249.7 251.9 252.1 254 259.8 266.8 271 268.8 258.6 240.6 228.1 217.9 220.7 213.8 218.1 218.7 211.5 218.1 214.5 195.4 187.3 187.6 185 173.2 170.1 177.7 168.6 162 149.3 137.4 124.5 109.2 93.9 78.2 66.4 52 44.8 36.5 32.7 32.7 32.7 32.7 32.7 32.7 32.7 32.7 32.7 32.7 32.7 32.7 32.7 42.6 53.2 66.2 80.9 91.1 108.6 125.3 124.4 123.9 137.7 157.1 173.8 182.8 175.9 182 198.1 211.7 212.5 205.8 209.7 223.1 237.4 243.9 239.2 226.7 223.1 216.6 215 213.8 203.8 213.3 222.1 218.6 218.2
287.3 265.3 245.2 242.8 242.7 245.1 250.2 243.8 233.2 227.8 220.8 207.1 196.4 191.5 190.2 192.9 191.4 182.1 175.5 171.7 163.1 137.5 129.4 130.3 120.4 134 141.5 150.2 153.5 160.8 165.2 165.2 162.8 160.2 161.1 163 164 165.9 165.3 161.5 159.4 159.2 161.7 165.7 173.8 168 165.1 158.4 159.5 155.7 159.7 160.7 160.9 148.4 127.7 123.7 121.2 129.9 132.2 124 115.6 109.3 113.7 118 132 140.5 145.2 154.6 145.6 147.2 163.7 168.7 170.5 177.9 185.6 188.6 179.2 171.7 161.9 160.5 164.3 171.6 181.6 185.7 194 199.7 192.3 198.3 199.3 191.6 182.6 184.5 176.6 170.6 168.5 163.3 154.6 150.2 154.4 155.7 156.4 153.8 150.5 146.7 144.5 148.2 162.6 175.9 183.7 194.9 203.7 214.3 222.5 231.4 238.2 246.3 246 248.7 254.4 259.4 265.6 271.5 265.9 250.2 239 224.3 223 221.1 216.2 216.2 208 204 208.1 208.7 186.5 181.2 192.4 188.2 179.8 165.8 164.8 162.2 150.5 139.4 129.9 118 110.4 97.1 78.9 68.7 61.3 51.2 53 45.3 32.7 32.7 32.7 32.7 32.7 32.7 32.7 32.7 32.7 32.7 32.7 32.7 32.7 36.4 45.9 55.4 63.5 78.1 88 90.6 95.7 109.1 123.4 135.5 141.6 148.1 160.3 177.5 189.6 188.7 187.9 189.4 198.6 207.4 212.1 207.2 207.1 200 198.1 197.8 196.9 192 196.2 202.6 207.3 208.5
300.2 291 263.4 254.2 254.1 250.2 246.6 245.5 239.8 230.1 219.7 207 199.2 192.4 189 185.9 188.2 188 176.2 172.9 164.5 147.3 123.9 120.8 123.7 135.7 144.6 156.8 162.2 163 165.9 166.2 164.7 161.9 162 161.5 163.4 164.7 163.7 161.9 161.9 165.6 164.3 170.3 173.4 170.6 169.2 172.5 171.5 164.6 170.3 165.8 167.2 156.9 148.7 140.9 121.2 118.9 127.2 127.3 128.4 108.2 110.6 119.6 128.2 143.9 144 150.3 148.8 142.8 148.3 151.3 156.7 168 169.5 162.8 153.4 151.7 153.8 162.2 163.5 165.3 174.3 182.4 195.5 201.4 193.3 185 183.7 182.1 178.3 179.5 174.2 169.5 168.2 168.1 171.1 154.8 148 151.9 152.1 146.2 144.6 143 142.6 144 154.7 164.9 170.6 180 192.3 204.4 213.4 223 227.5 232.6 237.5 247.2 257 258.8 262.4 267.3 258 243.2 230.2 223.3 217.1 212.9 218.9 215.1 210.7 198 195.3 184.5 177.2 173.4 181.7 184.4 186.3 163.7 153.9 149 141.4 132.4 124 114.7 104.7 93.5 78.6 70.5 63.6 54.9 59.1 49.2 43.9 35.9 32.7 32.7 32.7 32.7 32.7 32.7 32.7 32.7 32.7 32.7 32.7 32.7 32.7 32.7 41.6 46.8 54.3 59 66 77.3 90.9 102.4 112.8 121.6 139.8 156 167.3 168.4 167.5 172.3 176 182 191.3 200.7 203.4 190.5 183.1 179.4 179.7 175.1 180.9 186.9 189.4 193.7
301.5 288.3 267.2 262.3 256.7 253.9 249.7 244.9 237.2 232.2 214.9 209 206 198.3 189.5 185 186.5 183.2 177.2 169.2 162 140.2 128.3 138.9 130.1 132.3 146 156.9 167.9 166.5 167.5 169.4 165.5 163.2 167.7 174.4 170.1 167.1 166 167.7 167.5 170 175 174.5 178.4 183.1 191.1 192.9 179.2 171.1 178.7 173.3 173.4 176.6 177.4 162.8 146.6 120 122.1 123.2 124.6 110.6 110.3 114.5 121.7 143.1 149.4 143.9 140.8 142.3 139.7 141.7 145.9 146.5 145.9 146.3 146.7 146.4 148.5 148.4 150 151.6 157.7 167.5 174.4 179.9 179.4 177 171.6 171.4 172.6 176.7 175.5 171.3 167.9 166.5 163.4 154.7 146.6 141.9 141.2 141.2 142.5 141 141.8 143.7 148.9 151.8 161.3 174.4 186.9 195.5 204.7 213.4 223.8 229.3 231.9 234.5 237.5 241.8 250.4 262 250.5 235.4 230.9 221.1 210.3 205.5 209.4 212.4 202.5 185.4 177.1 171.7 167.3 166.3 167.1 169.7 172.2 158.6 150.7 140 131.8 122.5 116.4 107.9 100.8 90.7 85.6 81 72.9 61.2 62.8 55.6 50 45.5 45 32.7 32.7 32.7 32.7 32.7 32.7 32.7 32.7 32.7 32.7 32.7 32.7 32.7 32.7 32.7 32.7 32.7 35.6 46.4 58.5 70.7 83.9 98.6 119.4 133.3 151.1 150.5 150.8 154.3 157.5 164.8 177.7 188 191 183.3 167 164.3 166.7 165.9 171.5 177.7 181.6 172.8
290.7 279.7 270.2 264.8 259.2 258.1 251.1 238.7 237.2 229.1 222.5 213.3 206.1 200.2 189.5 187.3 185 178.4 171.3 162.9 158.5 134.6 138.7 145.6 144.6 133.9 139.4 155.3 161.9 165.7 166.5 167.6 165.7 167.3 172.5 174.2 174.4 174.2 174.1 171.9 173.2 178 183.6 178.9 181.8 189.8 190.5 188.9 182.1 182.7 183.3 181.2 178.7 180.1 182.1 180.8 171.8 146.6 123.6 123.9 119.4 113.4 109.5 111.6 117.6 131.8 144.6 148.9 143.2 136.5 135.7 139.2 142.5 146.1 146.9 146.5 146.8 148.7 141.8 140 142.3 146.2 153.3 162.4 169.7 175 181.9 170.3 159.2 161.2 164.5 168 170.3 171.9 167.4 164.4 156.8 150.9 147.8 144.9 138.4 141.1 139.8 139.7 143.6 143.6 147.6 155.9 166.9 177.7 188.7 197.2 205.7 217.4 226.9 236.8 240.3 245.1 247.6 244.2 238.5 234.9 233.8 228.3 224.4 210.9 206.7 204 205.3 202.8 182.2 175.6 167.6 161.6 159.3 162.4 162.1 157.8 157.9 155.5 152.1 138.7 129.4 120.8 114.3 109.8 100.3 95.3 88.7 77.6 73.9 71.5 74.5 66.5 54.4 46.8 45 43.9 36.7 32.8 32.7 32.7 32.7 32.7 32.7 32.7 32.7 32.7 32.7 32.7 32.7 32.7 32.7 32.7 32.7 32.7 36.7 42.9 56 72.5 91.7 108.7 122.8 129.5 135.1 138.9 142.6 148.4 157.3 170.9 172.7 165.5 153.5 147 148 152.4 156.4 158.1 165.7 163.5
285.7 277.9 270.8 267.9 261.7 253.6 248.1 241.2 229.2 223.9 219.9 217.3 208.4 200.6 187.8 182.6 181.2 179 172.5 164.7 159.3 150.7 132.7 153.6 156.9 153.8 128.8 145.7 154.6 165.9 169.8 172.6 175.4 175.8 177.3 174.7 176.1 177.3 177.9 181.1 180.3 181.8 184.2 180.1 184.7 187.7 189.8 190.1 186.2 187.6 190.5 187.2 185.1 183.2 187.2 186.8 177.5 165.4 146.2 132.1 123.9 116.5 110.7 111.7 118.2 125.1 141.1 148.8 144.1 132.4 130.4 138.7 145.8 149 148.1 146.5 146.5 141.3 137 134.8 138.6 142.4 148 155.2 162.5 171.6 169.2 155.7 148.2 150 151.9 156.3 161.2 166.7 167.1 162.6 154.3 151.2 150.9 141.1 138.7 137 138.3 143.6 150.1 151.4 154.9 161.7 171.6 185.9 193.2 203.4 213.6 223.8 233 237.1 239.9 244.8 245.9 246.1 238.5 228.8 225.4 218.8 216.1 210.4 204.7 204.3 200.4 180.4 176.1 169.9 165.3 162 159.6 152.9 149.6 149.5 150.6 153.3 143.8 134.7 125.9 118.6 112.2 107.2 100.9 96.8 87.1 88.7 79.6 83.5 79.3 70.7 61.6 48.7 45.5 42.8 39.1 36.1 32.7 32.7 32.7 32.7 32.7 32.7 32.7 32.7 32.7 32.7 32.7 32.7 32.7 32.7 32.7 32.7 32.7 32.7 32.7 46.8 64.7 81.7 95.9 107.1 116.3 120.5 123.7 127.7 133.3 143.2 148.7 139.4 137.5 139.6 140.2 138 139.4 142.8 149.2 149.2
280.9 272.9 266.7 263.6 258.5 250.4 244.5 238.4 233.4 225.7 220.9 211.6 201.9 196.2 186.2 180.9 177.6 181.1 177.9 169.8 161.9 141.5 137.4 162.7 163.1 161.6 147.3 140.4 154.5 167.5 171.8 174.6 176.9 178.6 175.3 177.7 181.5 183 180.1 183.5 182.7 183 185.3 180.1 189.2 186.6 188.4 191.5 186.5 185.9 186.4 188 187.1 185.7 188.1 187.3 183.8 180.1 163.5 149.7 139.4 123.5 114.2 112.4 117.6 119.3 117.2 126.1 129.6 130.7 126.8 136.6 143 143 145.1 141.8 141.3 137.9 133 132.6 132.2 139.8 144.6 142.7 150.5 145.6 142 141.7 141 139.4 140.8 148 154.8 160.3 162.6 161.2 155.1 151.9 145.4 143.8 140.8 134.6 136.5 144.2 151.2 157.8 163.1 171.3 182.7 190.1 198.4 209.7 219.6 226.9 229.9 233 242.2 247.1 249.5 241.9 244.5 234.7 227.8 221.1 217.4 210.7 197.6 188.7 180.7 174.4 169.7 164.5 160.9 157.4 153.4 149 146.1 141.6 141.5 141.7 138.9 131.2 123.8 118.7 112.4 107.1 102.5 94.5 95.9 95 84.4 86.3 80 71.2 65.4 53.6 53.4 44 41 43.9 35.5 32.7 32.7 32.7 32.7 32.7 32.7 32.7 32.7 32.7 32.7 32.7 32.7 32.7 32.7 32.7 32.7 32.7 32.7 32.7 39.8 57.6 78.6 89.4 100.1 106.9 107 110.4 112.2 115.7 118.8 120.6 124.4 123.9 130.3 143 143.5 141.3 142.8 140.8
283 276.1 266.7 257.2 251.3 247.5 245.2 239.3 233.2 227.3 221.9 215.1 198.2 189.4 184.9 180.3 178.2 176.1 172.2 164.8 143.2 139.1 150.6 163.9 164.6 162.6 154 139.7 154.2 161.7 167.8 167.6 167.6 173.1 171.9 178.4 186.3 186.5 183.4 185.8 187.8 184.4 181 180.5 183.1 186.4 189.1 189.6 184.4 183.3 186.5 189.1 188.5 188.4 187.4 185.7 184.9 181.5 170.9 167.8 155.4 144.1 135.4 113.5 113.7 115.5 121.6 117.3 117.4 119.6 131.4 126.8 136.4 138 137.8 136 137.9 136.2 136.6 130.1 126.4 126.6 130.2 131.8 134.2 134.2 133 133.4 135.7 132.8 135 145 154.6 155.4 157.9 160.1 159.8 151.4 146.8 146.4 143.2 133.8 136.4 147.1 155.6 161.4 170.8 182.4 194.7 203.6 208.8 211.6 215.7 219.5 223.4 228.6 236.9 241.5 237.8 240.4 238.5 239.1 229.3 219.8 199.3 192.4 184 177.7 171.7 168.7 164.5 158.6 154.8 152.1 148.9 145.1 142.2 140.7 138.3 130.3 130.5 127.2 124.8 121.4 113.2 108.2 101.2 102.7 100.8 97.1 89.1 89.6 83.2 73.1 65.5 60 59.6 49.7 46.7 47.5 46.6 37 32.7 32.7 32.7 32.7 32.7 32.7 32.7 32.7 32.7 32.7 32.7 32.7 32.7 32.7 32.7 32.7 32.7 32.7 32.7 36.2 51.6 67 82.6 87.5 93 96.6 100 103.7 105 115.7 118.4 129.6 141.6 141.1 145.2 145.1 140.3 133.5
283.8 275 262.6 258.2 252.7 244.6 246.1 242.3 236.6 230.2 221.3 217.8 200.1 189.3 184.5 181.9 180 174.9 165.1 148.7 138.5 152.2 155.2 159.8 160.7 160.7 155.6 140.9 150.3 157.9 155.9 157.4 159.6 166.5 169.2 178.2 183.3 185.3 186.7 190.1 189.2 184.4 181.3 181.4 183.9 187.7 190.6 190.3 186.7 183.1 185.1 187 189.3 189.6 187 185 182.2 180.7 176.3 170.8 162.6 155.8 151 135.7 116.2 115.4 118.1 119.8 121.2 118.1 119 120.9 127 130.6 130.9 133.1 135.1 137.5 138.3 134.9 127.5 121.1 122.6 122.5 122.2 122.1 122.3 124.4 129 130 133.8 143.7 148.9 155.2 160.9 162.5 160.9 152.5 145.3 145 141.6 132.1 141.3 152 160.7 165.7 173.1 182.8 196 201.8 207.5 210.5 215.8 222.3 228.4 230.1 234.9 234.8 235.9 237.5 224.9 216.2 205.6 200.7 198.2 186.1 180.1 177 173.3 163.1 159.1 154.2 151.1 153.7 151.7 151.2 149 148.6 144.1 137.3 131.7 125.9 119.2 116.2 112 108.1 108.8 109 102.2 99.7 96.7 96.9 85.8 77 69 62.9 57.3 54.1 55.3 54.7 54.1 45.1 38.5 32.7 32.7 32.7 32.7 32.7 32.7 32.7 32.7 32.7 32.7 32.7 32.7 32.7 32.7 32.7 32.7 32.7 32.7 32.7 32.7 43.9 59 76.3 77.5 82.4 87.8 94.6 98.5 102.5 103.4 113.2 124.7 122.2 130.9 133.2 135.2 128.4
281.3 271.5 261.6 254.7 250.5 244.6 241.6 241.5 236.7 230.8 220.2 213.5 199.8 189.8 186.9 181.9 177.1 172.6 162.1 140.5 154.6 158.9 159.6 160.4 160.2 159.3 159.7 149.8 147.5 156.3 154.8 157.7 159.3 168.4 171.3 173.2 179.5 183.6 187.4 191.1 190.8 184.7 182.1 181.9 185.3 188.7 194.2 188.5 186.7 184.5 186 186.9 188.7 189.2 187.7 185.5 182.8 181 177.1 172 165.1 164.5 161.7 143.4 131.6 121.5 119.3 124.5 131.3 123.3 118 120.2 121.4 124.6 126.6 130.1 128.6 129 129.2 125.5 122.1 119.8 119.4 119 118.7 118.9 119.6 124 130.1 133.1 133.5 136.7 145.8 160 164.2 170.9 175.5 165.2 144.1 140.5 135.4 135.1 146.1 154.8 164 170.4 173.8 180.2 191.8 201.1 210.2 220.5 228.3 236.3 239.6 245.4 245.1 238.6 237.3 220.4 209.8 203.1 200.9 193.9 187.1 184.4 177.6 173.7 166 159.8 162 160.7 160.7 164.1 159.1 156.7 156.3 152.4 152.3 152.4 149.5 152.3 130.7 123.4 117.1 113.8 113.3 110.4 107.4 104.4 101.8 97.6 88.4 82.4 70 67.6 59.4 61.9 59.4 55.6 54.3 48.1 43.8 37.4 32.7 32.7 32.7 32.7 32.7 32.7 32.7 32.7 32.7 32.7 32.7 32.7 32.7 32.7 32.7 32.7 32.7 32.7 32.7 32.7 39.7 60.5 68.3 70.9 76.5 83 83.7 88.3 86 94.7 102.4 109.4 115 125.3 123 124.7
273.7 266.2 259.9 253.9 248.8 241.4 236.1 234 231.9 229 217.3 209.1 197.7 187.6 186.9 183.5 174.1 166 147.9 143.2 162.4 169.4 172.3 170.3 167.1 164.8 164.7 157.4 154.4 161.8 166 164.5 165.9 167.2 168.8 170.3 179.7 186.9 191.9 192.5 190.8 188.5 184.1 183.4 186.5 190.9 194.3 190.2 188.3 186.5 186.9 188.2 186.9 187.5 187.1 184.9 183.7 178.7 178.2 172.6 169.9 168.8 156.7 152.5 148.9 139.3 128.6 125.3 133.1 143.5 119.7 119.8 119.8 123.1 124 123.6 123.7 124.2 125.3 124.7 121 118.6 117.6 117.4 117 117.2 118.6 123.7 130.4 132 130.4 136.9 147.1 157.8 168.2 173.7 175 172.2 145.9 135.9 130 136.5 142.6 153.8 164.2 170.1 178 185.3 189.4 202.3 215.3 224.7 233.3 240.8 245 248.7 250.1 243.9 235.1 204.9 194.7 195.2 193.7 190.6 179.3 172.9 167.9 165.2 165 163.6 164.2 166.8 172 171.6 166.3 164.1 160.9 156.9 157.4 159.4 160.4 150.9 139.7 132.7 125.2 120.2 119 116.3 116 110.3 106.3 102.2 92.3 79 75.8 74.7 67.8 68.5 65.7 59 51.5 48.2 45 41.9 32.7 32.7 32.7 32.7 32.7 32.7 32.7 32.7 32.7 32.7 32.7 32.7 32.7 32.7 32.7 32.7 32.7 32.7 32.7 32.7 32.7 39.6 50.2 54.8 63 66.3 70.5 73.9 73.9 78.3 82.9 92.4 94.6 112.1 111.8 120.5
276.3 270.6 262.4 255 248.9 244.2 235 228.5 221.1 216.3 208.2 198.1 190 181.9 182.7 174.6 149.8 144.7 153.9 166.8 174.4 176.3 178.4 180.4 175.7 172.8 167.6 162.8 154.5 162.9 176.5 178.5 169.9 168.3 168.7 176.2 184 188.4 193.9 196.6 195.4 189.5 188.4 186.6 188.9 192.6 196 194 193.1 189.6 187.4 186.4 183.9 183.3 182.8 182.2 181.5 177.5 174.2 171.7 174.6 165.8 163.9 162.9 156 151 149.2 128.6 132.2 128 124.5 120 120.6 123.6 120.8 121.4 123.3 126.5 124.6 123.1 120.8 120.4 119.1 117.9 116.5 116.5 116.5 122.4 131.3 125.6 131.8 140.4 151.7 160.5 168.5 170.7 177.6 162.3 141.8 139.9 138.9 127 136.9 150.2 163.3 173.2 182.5 190.5 186.6 196.2 210.2 224 234.6 241.1 244.8 247.8 245.2 236.6 220.3 194.7 191.3 185.4 185.5 179.6 166 163.1 167.3 174.1 174.5 171.7 177.6 179.7 185.9 181.2 175.2 172 170.2 175.3 165.4 163.4 159.8 149.3 141.2 136.2 129.5 122.8 119.9 119.8 118.8 109.8 102.2 95.7 86.1 80.5 82.4 77.3 76 74.5 69.3 61.6 55.1 52.6 46.3 41.7 34.3 32.7 32.7 32.7 32.7 32.7 32.7 32.7 32.7 32.7 32.7 32.7 32.7 32.7 32.7 32.7 32.7 32.7 32.7 32.7 32.7 32.7 35.6 40.5 49.5 52.8 57.1 61.8 61.3 60.1 65.3 71.8 78.4 83.4 82.3 104
274.8 270.6 264.9 258.1 250.1 242 233.6 226.1 214.9 204.5 198.8 190.8 186 176.2 170.2 148.3 157.3 161.1 169.4 177.7 183.2 184.1 180.4 183.2 184.2 181 175.1 170 161.4 162.3 180 183.8 175.4 170 173.4 180.1 184.8 189.6 202.3 200.4 198.9 192.8 190.1 191.8 194 197.8 200.2 204.5 199.3 193.8 188.8 187.7 187.1 181 179.8 180.3 176.5 174.5 173 175.1 176.4 170.3 169.6 163.5 158.5 159.3 158.6 144.7 132.3 127.4 121.1 123.1 124.9 120.7 121.5 122.2 124.6 129.4 127.6 124.6 122.9 126.8 127.1 116.8 116.5 116.5 116.5 117.8 121.3 126.8 136.5 148.3 156.1 161.2 158.9 163.1 170.3 147.2 139.9 135.8 131.2 126.2 135.7 147.5 162.2 169.9 172.9 172.7 176.3 183.6 202.7 222 228.2 232.4 231.6 233.1 232.2 227.9 197.8 188.1 180 176.8 171.9 161.8 159.5 169.8 183.1 184.2 178.1 182.5 186.8 189.1 196.9 200.8 187.8 179.9 183.7 187.2 180.1 162.1 152.8 146.3 138.5 133.7 127 125.9 121.8 118.2 115.3 107.8 105.4 100.2 91.6 85.3 82.6 78.3 78.4 75.7 69.6 66 63.7 58.7 51.9 42.1 38.2 32.7 32.7 32.7 32.7 32.7 32.7 32.7 32.7 32.7 32.7 32.7 32.7 32.7 32.7 32.7 32.7 32.7 32.7 32.7 32.7 32.7 32.7 32.7 35.3 39.9 43.3 46.3 48.1 49.9 50.4 52.4 56.3 60.7 63.5 74.6
274.3 270.5 266.8 261.4 250.6 241.9 234.5 221.8 211.1 205.3 200.7 186.1 178.2 168.3 150.3 159.8 166.5 175 181.1 186.2 192.5 191.3 186.9 183.3 188 188.2 187.7 183 172.1 162.1 171.4 185.6 185.6 182.7 181.4 181.4 190.7 193.6 199.8 203.1 199.9 193.4 197.2 197.4 198.3 202.9 205.6 208.3 203.3 196.8 192.4 193.8 189.5 185.2 179.1 178.8 174.3 175.2 177.8 182.4 180.8 168.6 168.6 162.8 163 165.7 162.5 158.1 134.7 132.8 121.9 126.4 125.8 121 123.6 127.5 131.5 137.6 138.7 139.1 138.1 149.8 151 134.6 116.5 116.5 116.5 116.5 125.4 136.9 147.9 153.7 156.8 151.8 153.3 157.4 146.5 137.7 133.3 128.3 123.4 132 136.6 145.5 152.9 155.9 158.2 159.8 166.1 177.7 191.3 208.1 215.3 208.5 210.2 210.1 204 187.2 177.5 174.8 175.1 165.8 155.4 155.3 164.3 176 181.9 182.8 183.2 187.8 195.6 204.8 209.7 207.2 198 186.6 191.7 189.1 182.7 164.3 154.6 147.3 138 134 126.7 123.6 119.1 116 112.4 107.8 109.3 102.6 94.7 92.9 84.8 81.3 80.9 75.8 72.6 68.1 65 62.2 54.5 45.5 43.4 39 34.1 32.7 32.7 32.7 32.7 32.7 32.7 32.7 32.7 32.7 32.7 32.7 32.7 32.7 32.7 32.7 32.7 32.7 32.7 32.7 32.7 32.7 32.7 32.7 32.7 32.7 34.5 35.1 32.7 36.9 39.5 39.9 39.9 40.1
272.7 267.7 265.5 259 250.5 244.1 233.7 217.3 210.9 201.8 195.3 186 164.6 160.4 168.1 169.6 174 180.2 189.2 196.8 194.5 192.9 190.3 192 189.6 193.8 193.5 196.1 181.5 164.6 166.1 186.8 192.2 189.3 184.1 186.1 189.9 194.2 201.3 205.8 201.6 199.4 205.1 207.9 207.4 208.5 209.1 211.9 207.3 201.2 197.2 194.8 193.1 191.5 182.6 179 178.2 181 183 185.8 170.3 169.1 171.7 168.7 171.6 171.7 168.6 163 142.7 132.7 123 122.9 124 124 127.8 132.4 138.6 141 145.7 150.5 155.4 164 175.6 151 122.6 116.5 116.5 116.5 125.3 136.2 148.1 153.8 145 151 156 150.6 139.3 131.7 127.1 121.5 126.8 132 142.1 139.9 143.3 148.6 150.4 153.9 159.3 171 177.4 182.5 185.8 185.8 185.1 186.1 181.4 175.1 165.8 162.1 153.2 146 148.2 152.6 168 177.8 183 187.4 190.7 194 204.1 212.5 217.5 220.2 213.4 198.5 195.4 193.2 187.8 166.1 154.7 148.8 140.6 136.3 129.9 124.4 121.8 120.2 116.2 114 111.1 104.9 104.7 95.4 94.3 86.7 83.5 78 75.3 70.5 66.3 62.2 56.6 49.4 46 43.5 38.4 32.7 32.7 32.7 32.7 32.7 32.7 32.7 32.7 32.7 32.7 32.7 32.7 32.7 32.7 32.7 32.7 32.7 32.7 32.7 32.7 32.7 32.7 32.7 32.7 32.7 32.7 32.7 32.7 32.7 32.7 32.7 32.7 32.7
268 263.9 258.9 251.6 248 241.5 227.9 219.9 209.7 205.2 197.7 185.4 172.7 163.7 173.3 177.1 179.7 184.8 193.8 199.3 197.9 196.5 197.5 198.3 194.5 192.8 199.5 200.4 194 175.8 168.9 177.5 183.4 186 195 192.8 188.8 195.1 202.4 205.1 202.3 206.3 211.5 213.6 210.4 212.4 212.7 214.1 210.9 206.3 202.3 202 199.4 193.1 187.5 182.9 184.5 186.3 181.9 171.9 171 175.4 177.1 174.4 174.7 175.4 175.6 170.6 148 132.9 124.5 125.3 126.9 129.7 137.5 137.9 139.8 143.6 148.4 155.3 165.8 172.4 173.7 150.9 128.8 116.8 116.5 116.5 127.3 138.1 144 140.9 147.2 157 151.4 143.3 134.9 126.2 121.5 121.3 126.6 131.8 137.2 135 138.7 143.9 146.4 150.1 154.9 163.9 172.6 166.8 165.2 164.4 165.9 168.6 165.2 159.8 153.6 143.7 135.9 138.2 142.3 156.5 169 179.3 185.4 187 190.8 195.5 205.6 211.3 220.1 225.2 219.3 207.4 197.4 194.9 182.3 164.7 155.9 147 141.8 141 135.5 127.8 126 122.4 118.6 115.8 111.4 107 103.3 101.3 101 94.7 90.2 91.2 82.7 77 69 65.3 60.3 54 51.2 47.7 42.1 36.3 32.7 32.7 32.7 32.7 32.7 32.7 32.7 32.7 32.7 32.7 32.7 32.7 32.7 32.7 32.7 32.7 32.7 32.7 32.7 32.7 32.7 32.7 32.7 32.7 32.7 32.7 32.7 32.7 32.7 32.7 32.7 32.7
264.4 259.2 251.3 248.1 241.8 232.7 222.8 213.2 207.9 203 197.8 191.7 167.8 170.6 176.9 183.4 187.6 189.3 196.5 193.9 199.9 202.6 201.4 202.1 200 202.1 199.9 200.5 202.7 194.9 176.3 178.8 183.6 189 194.2 195.6 194.7 199.1 201.9 205 210.1 214.3 213.8 217 215.2 214.9 218.8 220.6 216.6 208 207.2 210 205.1 200.6 195.7 192.4 192.9 185 177.5 173.6 174.9 183.5 185.2 181.7 182.4 182.2 181.1 178.6 151.5 135.2 127.5 132 130.5 139.8 147.6 141.2 142.4 145.4 151.6 159.1 169.8 170.4 162.4 141.4 127.6 117.2 116.5 122.2 132.5 137.7 137.5 148.4 153.9 154.5 146.4 138.7 131.3 123.2 120.4 124.7 132.6 130.8 128.2 128.3 137.2 142.2 149.2 151.5 153.8 158.5 164.4 171.9 158.6 151.6 148.3 145.6 145.9 140.5 132.8 132.6 139.1 141.3 148.8 164.2 176.4 184.6 186 186.7 188.4 200.5 210.1 209.7 215.7 224 217.3 204.5 198.3 189.3 171.8 161.6 155 145 146.2 143.4 136.6 135 133.7 132.9 126.6 118.1 113 110.8 110.1 106.5 103.2 97.8 95.6 95.7 87.1 83.6 75.1 71.3 64 58.2 54.3 51 46.7 40.5 34.7 32.7 32.7 32.7 32.7 32.7 32.7 32.7 32.7 32.7 32.7 32.7 32.7 32.7 32.7 32.7 32.7 32.7 32.7 32.7 32.7 32.7 32.7 32.7 32.7 32.7 32.7 32.7 32.7 32.7 32.7 32.7
254 248.2 242.5 243.7 232.5 222.2 218 214.8 210.8 206.4 204.8 190.7 161.5 173 183.2 190.8 192.1 193.3 200 202 199 203.7 206 204.3 204.7 207.8 204.5 203.1 202.8 197.1 180.9 176.3 183.5 191.1 194.3 196.9 200.6 207.3 204.5 215.4 215.6 217.1 217.7 219.6 219.5 223.4 226.7 223.1 218.5 211.6 212.1 212 208.2 208 207.3 203.3 194 183.4 185 176.9 185 186.3 189.6 188.6 188.4 190.3 189.7 188.3 164.3 146.1 138.4 136.1 141.9 144 142.3 141.7 146 147.3 153.8 166.6 164.4 159 146.5 127.1 119.6 117.9 121.2 134.6 130.8 130 137.2 147.2 162.2 152.3 141.8 134.2 127.5 120.6 120 124.3 131.4 125.7 124.1 133.3 142.3 147.6 154.7 159.3 163 165.9 161.3 160.7 160.5 160.1 146.1 140.8 132 123.5 127.8 132.3 138.2 145.9 156.6 170.9 181 184.6 187.1 186.7 190.2 196.9 200.4 205.8 207.4 214.8 210.4 202.1 196.8 185 167.1 158.3 153.4 148.8 148.1 142.3 138.9 140.6 137.6 134.5 129.2 124.8 126.2 113.5 110.5 109.1 104.3 102.1 101.6 99.8 93.5 87.8 78.2 72.9 67.4 61.4 57.5 54.1 50.5 44.5 38.5 32.7 32.7 32.7 32.7 32.7 32.7 32.7 32.7 32.7 32.7 32.7 32.7 32.7 32.7 32.7 32.7 32.7 32.7 32.7 32.7 32.7 32.7 32.7 32.7 32.7 32.7 32.7 32.7 32.7 32.7 32.7
244 238.8 231.5 229.7 222.9 216.5 211.9 211.7 209.4 208.9 199.1 183.9 164.3 180.1 188.8 202.3 200.6 199.4 203.7 205 205.7 201.8 203.3 205.6 211.9 209.9 208.7 204.7 202.6 200.9 186.8 183.2 187.9 195.9 199.8 207 204 204.7 201.8 214.9 215.7 222.3 224.1 228.8 229.8 233.3 229.7 228.4 224.7 218.5 213.9 214.2 214.2 213.7 208.3 198 189.2 188.1 188.3 179.6 189.1 189.2 191.2 192.4 196.4 196.4 198.1 196 169.6 151 142 148.5 147.5 144.5 142.5 142.7 145.2 149.5 161.8 164.2 154.6 144 130 121 118.2 119.7 127.1 124 122.4 124.2 132.1 147.2 161.1 147.1 143.2 131 123.4 118.6 119.3 123.1 127.3 122.8 126.5 137.1 147 153.3 161 162.3 165.4 177.4 187.9 171.8 164 162.1 148.6 129.2 124.6 120.9 126.3 132.3 142 153.6 166.9 173.8 184.1 189 190 192.1 198.2 200.1 199.7 203.4 206 206.7 208.1 202.9 187.5 175.3 164.7 157.6 153.2 150.8 148.8 142.2 141.4 142.7 138.1 136.9 133.6 125.1 122.5 117.1 117.3 112.2 110 106 101.2 99.5 94.2 88.4 79.7 75.7 70.7 65.1 60.1 56.1 52.2 47.3 41.3 35.4 32.7 32.7 32.7 32.7 32.7 32.7 32.7 32.7 32.7 32.7 32.7 32.7 32.7 32.7 32.7 32.7 32.7 32.7 32.7 32.7 32.7 32.7 32.7 32.7 32.7 32.7 32.7 32.7 32.7 32.7
238.8 230 225.4 221.8 215.8 211.4 207.4 203.6 202.2 194.8 191.2 177.6 173.3 191 195.8 197.3 202.6 202.9 203.9 209 209.9 206.2 206.5 207.7 212.3 211.7 209.6 206.7 203.8 200.5 194.3 184.9 189.8 189.9 196.5 194.1 194.7 197.3 198.8 210.9 212.4 220.2 226 231 238.9 237.4 234.4 230.7 228.2 225.2 218.6 220 220.4 216.8 212.1 205.9 203.1 190.3 180.2 187.9 196.1 197 199.2 200.9 200.5 200.4 200.8 195.2 168.3 156.3 154.6 155.2 148.2 143.9 141.7 141.2 142.7 150.2 163.6 166.2 145.9 128.2 121.8 118.6 119.2 126.1 120.7 115.7 117.2 124.8 136.4 146.5 155.3 138.4 135.5 127.2 120.3 118.6 119.1 119.8 123.4 122.7 128.4 137.9 147.3 155.1 164.2 172.3 161.4 169.8 184.6 176.3 164 152.8 137.9 121.8 119 121.2 130.5 139.7 150.6 162.3 170.6 172.5 174.4 177.6 184.8 191.4 200.4 201.5 199.5 202.9 202.6 202.4 199.1 189.6 176.5 169.9 163.1 157.1 155 152.3 146.7 144.4 144.2 141.6 138.9 136.2 135 130.5 129.1 124 121.4 118.7 114 107.4 106.4 103.3 96.6 90.6 87.1 80.7 74.3 69.3 64.1 58.6 52.2 47 43.5 37.4 32.7 32.7 32.7 32.7 32.7 32.7 32.7 32.7 32.7 32.7 32.7 32.7 32.7 32.7 32.7 32.7 32.7 32.7 32.7 32.7 32.7 32.7 32.7 32.7 32.7 32.7 32.7 32.7 32.7 32.7
233.8 224.7 219.5 214.1 211.4 209.6 208.8 203 197.8 188.2 181.8 166 180.4 196.2 200.5 200.2 202.1 204.7 205.3 209.4 210.9 210.7 211.2 211.2 210.7 215.5 214.2 210.5 208.4 206.2 202 181.7 187.1 187.6 194.8 203.4 205.2 202.3 207.8 204.2 212.6 217.7 219.9 231.6 239.9 235.6 235.4 238.8 234.7 229.9 224.6 224.3 223.5 221.8 217 210.9 205.8 199.8 189.9 196.2 200.5 203 204.1 204.3 203.5 203.9 198.7 187.3 168.9 156.9 156.8 154.9 150.9 143.9 141.3 140 141.3 149.3 155 148.1 131.3 122.6 118.6 118.9 124.3 116.6 115.6 115.6 119.9 129 133.1 145.5 140.6 133.5 128.7 121.3 118.7 118.3 119 119.6 120.4 123.7 132.1 139.2 145.2 152.7 158.7 153.2 150.5 162 173.4 162.1 151.1 140.7 129.2 122.1 118.2 124.3 135.2 143.7 154.4 162.5 167 165.6 168.3 170.9 175 182 194.5 197.6 199.8 199.1 197.5 194.5 186.1 177.9 173.2 167.6 162.5 158.3 155.7 151.1 150.9 151.5 153.1 147.9 138.8 137.3 133.8 133.7 132.6 129.5 130.5 123.6 116.7 111 108 104 99.9 93.8 92.1 85.5 77.8 72.1 67.3 60.9 55.3 51.4 47.7 42.7 36.5 32.7 32.7 32.7 32.7 32.7 32.7 32.7 32.7 32.7 32.7 32.7 32.7 32.7 32.7 32.7 32.7 32.7 32.7 32.7 32.7 32.7 32.7 32.7 32.7 32.7 32.7 32.7 32.7 32.7
226.9 218.3 217.3 210.5 205.3 205.9 202.5 198.1 192.3 186.8 170.2 179.5 187.2 196.7 201.8 201.3 204.2 207 207.9 207.6 213 216.6 218.4 215.7 213.9 215.6 215.2 212.3 212.5 208.4 202.3 187.3 189.6 190.5 201 204.7 204.4 204.7 215.1 213.1 207.1 220.3 220.5 228.7 235.7 233 234.6 242.5 244.6 240 231.7 229.5 226.6 225.5 220.7 214.3 210.6 200.4 193.1 197.7 199.3 204.9 210 207.1 206.1 204.1 193.3 181.6 171.8 161 153 153.1 150.5 144 142.9 143 141.6 137.7 132.5 128.8 126 119.1 116.5 115.6 115.6 115.6 115.6 115.6 119.7 129.2 127 136.8 130 128 127.1 119.2 118.8 126.1 125.7 119.7 120.3 124.2 132.1 139.9 143.3 147.6 140.6 135.7 137.7 145.9 146.5 138.6 134 127.5 125.3 119.8 117.6 122.3 127.8 134.6 145.4 148.7 148.3 152.2 158.2 160.7 172.2 176.7 185.5 192.8 198.7 198.9 196.4 193.8 188.2 186.1 179.3 171.5 165 162.6 156.3 153.4 154.3 155.9 158.2 159 154.4 154.6 145.4 137 130.5 128 126.7 124.7 118.3 113.9 111.3 104.4 100.5 95 92.2 86.5 78.8 73.8 74.4 64.3 59 55.6 52.1 48.5 43.8 35.4 32.7 32.7 32.7 32.7 32.7 32.7 32.7 32.7 32.7 32.7 32.7 32.7 32.7 32.7 32.7 32.7 32.7 32.7 32.7 32.7 32.7 32.7 32.7 32.7 32.7 32.7 32.7 32.7
225.6 221 215.8 205.5 199.7 194.3 192.3 188.1 179.2 171.7 173.3 183.3 186.5 192.7 196.8 199.4 204.2 208.9 210.2 209.8 214.4 218.4 220.1 222.3 219.9 214.8 213 213.5 212.8 208.1 199.8 190 196.1 194.8 197.3 199.9 205.3 205.4 207.4 208.8 204.6 207.9 213.4 219 225.9 230.4 238.1 244.9 246.6 246.1 237.8 235.3 233.5 229.2 226.8 219.2 213 204.2 198.1 198.2 199.4 203.1 205.1 206.7 202.8 192.9 189 182.7 173.5 163.4 153.7 149 145.4 143.3 146 150.6 142.6 128.7 121.7 120.2 119.3 120.8 116 115.6 115.6 115.6 115.6 115.6 118.2 121 119.3 124 117.7 117.5 117.6 118 119.3 129.9 136.8 126.2 120.6 121.2 127 131.2 131.1 132.1 125.2 121.9 119.9 118.8 118.6 118.4 118.8 117.6 117 116.8 117.8 120.8 125.5 127.5 130.5 134.7 140.2 145.3 149.4 157.9 166.1 176.6 184.7 190 189.7 192.9 194.2 197.7 204.7 204.4 195.5 180.9 168.6 162.3 158.1 155.6 155.5 157.1 161.7 166.8 163.8 168 158.3 144 131.4 128.5 126.5 126.4 120.2 116.8 111.4 106.4 102.4 96.6 92.3 87.2 80.4 75.6 75.5 67.9 62.8 59.9 56.3 52.2 50.5 42.5 34 32.7 32.7 32.7 32.7 32.7 32.7 32.7 32.7 32.7 32.7 32.7 32.7 32.7 32.7 32.7 32.7 32.7 32.7 32.7 32.7 32.7 32.7 32.7 32.7 32.7 32.7 32.7
234.7 225.2 220.3 213 199.5 195.6 189.5 191.6 178.2 167.4 180.8 184.8 188.4 192.5 195.8 197.3 200.9 207.8 212.5 212.2 213.7 218.8 222.6 223.3 221.4 218.8 213.3 210.7 210.7 210.2 205 199.7 196.5 199.4 200.2 201.1 205.1 206 208.4 213.1 209.3 205.1 213.3 217.6 227.9 234.8 239.8 244.5 247.3 250.6 245.3 237.6 234.8 235.6 234.4 227.9 214.9 205.8 206.1 199.7 197 196.3 198.4 199.8 197.8 189.3 185.9 181.5 170.4 166.5 154.8 143.9 138.4 139.3 146.7 142.5 130 124.4 121.2 119.3 119 118.4 115.6 115.6 115.6 115.6 115.6 115.6 115.6 115.6 115.9 117.2 117.4 116.8 117.1 118.8 122.5 132.3 140.5 131.9 122.9 122 123.6 124.7 124.1 122 123.3 124.4 124.7 121.1 117.1 116.9 116.7 116.5 116.1 116.9 118.6 121.5 123.4 124.8 127.6 131.7 136.9 143.9 150.7 157.9 168.3 177.7 184.8 187.7 191.3 193.2 196.5 198.9 202.5 206.5 207.8 203.9 175.6 166.3 159.5 158.1 156 154.8 157 161.4 168.3 166.8 165.7 152.2 141.2 144 137.8 127.1 123.3 119.7 113 107.6 101.7 98.2 91.2 86.5 83.2 78.7 77.7 71.2 66.3 63.6 60.3 56.4 53.4 48.2 41.3 35.1 32.7 32.7 32.7 32.7 32.7 32.7 32.7 32.7 32.7 32.7 32.7 32.7 32.7 32.7 32.7 32.7 32.7 32.7 32.7 32.7 32.7 32.7 32.7 32.7 32.7 32.7
237.4 230 222.1 215.4 207.2 195.9 183.6 181.1 170 175.4 184 186.7 189.5 193 197.5 202.6 206.5 208 210.3 213.7 215.8 217.6 222.2 221.3 217.5 211.5 209.3 207.8 209 210.8 210.3 209.7 193.9 201.1 202.7 202.9 204.6 206.2 209 210.1 213.6 216.5 210.8 214.5 223.1 225.4 233.1 242.8 247.2 247.9 249.3 245.7 239.8 234.3 232 228.5 222.3 216.5 210.2 208.8 200.3 196.7 195.7 197.9 196 181.6 180.6 179.1 172.1 162.1 151.2 140.9 133.5 132.9 131.3 127.2 123.9 122.1 123 121.5 118.2 116.5 115.6 115.6 115.6 115.6 115.6 115.6 115.6 115.6 116.5 117.2 117.3 117.6 122.4 123.8 128.6 135.8 141.3 146.7 129.2 123.5 124 126.6 127.4 131.2 125.9 128.4 119.2 116.9 116.7 116.6 116.4 116.2 115.9 120.5 123.5 125.6 127.1 127.6 129.2 132.7 137.2 141.9 148 155.6 163.3 170.8 178 186.5 188.9 194.9 199.2 205.8 211.2 213.9 213.5 207.6 177.8 166.8 158.5 155 154 153.3 154.3 160 163.3 161.2 159.2 151.9 148.5 150.8 145.8 132.9 125 122.5 115.9 109 104.5 99.6 94.1 90.2 86.5 82.1 77.6 73.4 69.1 66.2 63.3 59.9 55.8 51.3 44.5 38.7 35 32.7 32.7 32.7 32.7 32.7 32.7 32.7 32.7 32.7 32.7 32.7 32.7 32.7 32.7 32.7 32.7 32.7 32.7 32.7 32.7 32.7 32.7 32.7 32.7 32.7
237.4 229.8 221.6 212 208.2 203.7 190.9 176.8 169.2 182.1 188.6 191 194.1 197.5 201.4 206.3 208.8 212.1 212.4 213 213.9 215.6 219.1 215.1 203.9 203.3 203.3 205.7 206.8 208.9 209.9 209.8 195.9 206.2 208.9 205.7 203.5 205.8 211.3 212.4 219.1 221.9 219.7 222 223.4 221.6 223.9 232.1 238.7 241.2 240.9 243.5 239.6 232.9 229 227.8 225.4 225.8 220.4 208.1 199.4 200.7 190.5 185.8 180.9 176.2 179.1 178.5 179.1 166.4 154.7 144.9 133.6 126.3 123.9 121.3 121.9 123.4 120.9 119.9 116.4 115.6 115.6 115.6 115.6 115.6 115.6 115.6 115.6 115.9 116.4 116.8 116.5 119.6 123.1 126.6 132.3 141 146.9 149.8 131.1 126.5 129.1 128.8 132.7 133.2 125.1 119.4 117.4 116.4 116.2 116.1 116.1 116 115.9 117.5 121 124.1 130.3 130.8 132.5 135.3 137.3 141.1 147.6 154.9 162.5 168.4 177 184.2 190.2 195.7 200.2 203.9 209.4 213.1 216.8 194.4 171.1 162.5 154.2 151.5 150.8 151.6 157 162.4 163.6 162.7 161 156.4 158 161.5 149.5 134.6 125.8 121 115.4 109.4 103 97.8 94.8 88.9 85.4 83.1 77.6 74 70.4 66.4 62.6 59.3 56.3 52 47.8 43.1 39.2 36 32.7 32.7 32.7 32.7 32.7 32.7 32.7 32.7 32.7 32.7 32.7 32.7 32.7 32.7 32.7 32.7 32.7 32.7 32.7 32.7 32.7 32.7 32.7 32.7
231 225.2 217.1 210 205 200.7 190.4 174.4 175.8 185.6 192.1 196 199.5 201.1 204.6 208.8 211.4 216.4 220 218.2 213.4 212.8 214.5 207.3 203.3 203.3 203.3 208.3 208.2 208.8 208.3 205.1 202.2 210.8 205.1 201.9 209.3 207 222.6 223.3 221.7 222.6 221.8 223.1 227.5 232.9 232.8 223.4 227.2 232.4 238.3 243.8 242.5 241.6 227.9 224.7 224.5 224.6 225.5 214.9 200.1 192.1 188.9 183.2 178.6 173.4 175.4 174.7 172.4 165.2 159.3 148 134.8 124.7 121 120.3 119.6 118.8 118.4 118.1 116.4 115.6 115.6 115.6 115.7 120.1 121.6 123 124.6 116.7 116.2 115.8 118.8 122.3 126 132.1 135.6 136.8 145.6 150 133.8 134.4 144 153.3 132.3 126.6 121.3 118 117.3 116 115.7 115.7 115.6 115.4 117.3 118.7 120.6 124.6 126.4 126.9 129.6 133.9 138.9 143.3 149 155.4 162.2 166.5 174.9 182.7 186.1 192.3 199.1 205.8 214.8 216.4 205.5 175.9 162 154.9 150.8 148.3 146.6 152.9 160 165.2 165.3 167.2 165.9 165.6 167.9 161.9 150.3 136 126.7 120.6 114.6 108.6 102.1 98.7 92.5 90.3 85.7 81.4 78.2 74.6 71 68 65 61.6 57.5 52.5 48.9 46.7 44.6 40.2 34.2 32.7 32.7 32.7 32.7 32.7 32.7 32.7 32.7 32.7 32.7 32.7 32.7 32.7 32.7 32.7 32.7 32.7 32.7 32.7 32.7 32.7 32.7 32.7
221.6 215.8 211.4 206.8 201.8 186.7 178.3 176.5 186.4 194.3 201 202.3 203.7 204.5 206.5 210.2 212.7 214.4 218.6 218.1 214.8 207.9 205.8 203.8 203.4 203.3 204.7 208 211.3 212.7 214 217 207.1 201.5 205.9 206 209.3 211.5 218.3 221.4 221.2 223.6 227.2 225.5 228.1 237.9 240.8 244 240.2 238.3 235.7 240.3 242.9 240.4 226.3 224.8 226.8 223.2 217.5 214.3 200.3 188.1 188.7 184.6 170.9 170.7 173.2 169.3 165.8 162.2 157 144.1 133.2 122.3 119.9 119.3 118.8 118.2 117.6 117.1 116.2 115.6 115.6 115.6 115.6 119.7 124.5 128 123 117.4 116 116.5 121 127 132.8 138.8 144.7 145.4 142.7 144.2 134.5 144.2 155.1 151.6 137.9 130.4 123.5 120.3 116.6 115.7 115.3 115.1 114.9 115.9 119.2 119.8 120.4 122.3 124.1 126.1 128 130.4 134.1 137.7 143.7 149.5 158.8 165.4 168.7 177.4 187.6 195.3 197.9 198.7 199.2 188.9 169.2 163.2 153.5 145.9 145.2 144.7 147.2 152.9 157.1 160.8 162.6 163.4 164.6 164.6 170.8 161.5 154.4 138.8 126.2 118.9 113.1 107.7 103.7 98.8 94.2 91.4 86.5 83.7 80.2 77.1 75.2 70.8 66.8 63 57.9 53.1 54.4 52.9 49.1 45.3 38.2 34.7 32.7 32.7 32.7 32.7 32.7 32.7 32.7 32.7 32.7 32.7 32.7 32.7 32.7 32.7 32.7 32.7 32.7 32.7 32.7 32.7 32.7 32.7
224.4 220.6 213.9 203.5 193.6 182.8 177.3 186.3 190.9 196.5 202 207.5 208 209.1 209.4 213.2 216.2 219.4 220.2 223.3 223.5 208.4 205.1 204.8 204.2 203.2 207.2 209.7 211.3 216.1 217.2 212.3 208 204 210.6 212.9 208.3 210 221.3 223.9 221.4 222 223.3 232.5 242.9 240.9 240.8 242.6 243.5 246.8 247.8 237.9 229.7 225.7 224.9 222 223.6 227.1 219.6 205.6 194.9 185.4 180 171.8 168.2 168.9 165.6 162.4 160.4 156.6 151.2 142.7 131.6 120.2 119.6 119 118.4 117.8 117.2 116.8 116.2 115.6 115.6 115.6 115.6 115.6 116.3 117.8 116.3 115.6 115.6 115.9 120 125.7 133 144 151.2 142.4 140.4 141.6 143.6 147.2 149.3 149.7 141.7 133.4 127.9 119.8 119.5 120.4 117.2 114.6 114.4 117.1 119.6 121.1 122.4 123.3 124.3 125.9 127.2 130 132.9 134.9 137.8 143.2 146.9 151.5 160.3 172.6 175.2 181.3 175.7 173 167 162 158.1 153.9 147.6 143 139.2 143.2 149.1 153.2 154.9 155.6 157.5 158.3 156.3 157.8 159.8 158.6 153.8 136.9 123.9 116.7 112.7 107.5 103.5 97.6 94.7 92 88 84.9 81.8 78.6 75.5 71.6 68.1 62.5 57.3 55.2 53.8 53.8 50.2 47 44.1 39.1 35.1 33.8 32.7 32.7 32.7 32.7 32.7 32.7 32.7 32.7 32.7 32.7 32.7 32.7 32.7 32.7 32.7 32.7 32.7 32.7 32.7 32.7
226.9 222 212.8 204.2 197.8 186.5 186.5 190.5 194.4 197.3 198.4 203 208 209.3 212.3 215.3 220.1 226.9 225.8 224.6 213.6 210.1 205.1 206.4 205.7 203.7 202.5 204.4 208.8 214.1 210.5 213 213 204.1 201.7 207.6 209.9 210.8 213.6 218.9 232.4 235.2 229.2 235 248.8 254.2 258.5 255.6 249 248.4 249.2 247.1 243 237.2 227.6 220.1 221 224 218.9 203.8 190.2 187.7 178 169.9 165.7 165.6 160.4 157 155.1 152.1 146.9 138.9 124.6 119.9 119.4 118.8 118.2 117.7 117.3 116.9 116.9 115.8 115.6 115.6 115.6 115.6 115.6 115.6 115.6 115.6 115.6 116.8 121.7 126.4 131.8 138.7 139.1 140.1 141.7 146.3 155.1 153.2 151.2 142.8 134.8 127.8 126.4 123.4 121.5 120.4 116.6 115 115.2 116.8 118.5 121.6 123.7 124.3 124.9 125.2 126.9 130.4 130.1 136.6 141.4 144.2 149.5 150.7 154.8 159.4 162.8 162 161.5 159.3 155.8 152.2 148.9 146.3 141.9 139 140.1 146.5 149.2 152 151 149.8 149.2 147.5 145.8 146.6 152.4 146.7 138.5 131.9 122 113.9 110 105.1 103.1 99.3 95.2 91.7 88.8 86.4 83.7 79 75 68.7 64.3 62.1 56.3 58.5 57.3 55 52.5 50.9 45 41.5 39.1 38.4 34.7 32.7 32.7 32.7 32.7 32.7 32.7 32.7 32.7 32.7 32.7 32.7 32.7 32.7 32.7 32.7 32.7 32.7 32.7 32.7
224 219.9 211 202.6 195.1 186.1 193 196.6 199.6 200 201.1 205.1 208.3 210.3 213.5 216.7 219.5 224.4 227 225 216.3 211 212 209.4 207.5 206.6 207.7 202.9 206.7 209.2 211.1 212.7 209.4 203.1 199.7 200.6 209 209.7 215.2 220.8 229.7 238.2 244.4 243.5 249 259.5 262.5 262.3 264.3 262.5 261.2 255.2 245 236.4 233.5 228.4 218.7 219.8 222.1 200.7 187.3 177.9 172.9 170.4 166.2 157.6 155.2 151.3 149.9 146.9 140.6 132.3 122.3 119.8 119.1 118.6 118.2 117.8 117.4 117 117 116.9 115.6 115.6 115.6 115.6 115.6 115.6 115.6 115.6 115.6 118.4 124.8 130.7 136.2 137.2 138.1 143.3 147.4 150.2 147.7 145.2 141.4 135.5 127.5 121.9 121.6 118.1 117.9 118.7 117 114.2 115 115.4 116.7 118.8 122.3 124.1 124.1 122.2 122.8 125.6 129.8 134.8 140.6 145 149.1 152.6 153.7 156.4 157.4 156.4 153.6 150.4 147 143.9 141.5 140.1 136.9 136.7 139.2 143.8 143.9 143.7 143.7 143.4 142.3 138.9 137.6 133.2 135.2 133.2 130.5 127 121.6 114.9 109.8 105.2 102.8 97.8 93.8 90.6 87.5 85.3 82.2 77.6 70.4 66.9 62.1 59.6 57.4 57 56.4 56.3 54.1 48.1 44.2 41.2 40.3 40 36.7 32.7 32.7 32.7 32.7 32.7 32.7 32.7 32.7 32.7 32.7 32.7 32.7 32.7 32.7 32.7 32.7 32.7 32.7 32.7
215.1 209.7 208.3 201.7 184.6 194.3 198.2 202.8 204.9 204.1 204.6 207.1 210 213.6 213.4 216 218.9 222.1 230.2 232.6 222.3 217.7 218.6 208.3 204.7 206.3 202.9 206.3 212.9 215.8 215.7 211.1 208.3 203 196.2 197.5 202.3 213.8 221.8 227.5 232.7 240.7 252.1 258.4 259 259 264.7 267.6 270.1 271.5 266.8 264.4 258.9 248.6 230.1 224.7 224.5 219.3 209.5 206.6 192.3 176.5 173 170.9 165.7 157.3 153.6 150.6 143.3 139.4 132.5 126.1 123.3 119.5 119.1 118.7 118.3 117.9 117.5 117.1 117.1 117 115.6 115.6 115.6 115.6 115.6 115.6 115.6 115.6 115.6 120.3 126.5 131.9 137.5 139.6 142.6 148.6 154 156.4 152 155.6 142.5 132.1 122.2 119.3 117.3 116.1 116 115.5 114.5 114 114.4 114.6 115.5 116.4 116.9 117.8 118.3 120.8 123.4 126.9 131.5 136.6 141.7 144.7 148 149.3 152.2 153.3 154.2 152.4 149.3 145.1 140.6 137.3 135 134.5 135.9 137.8 140.5 142 142.6 140.7 138.8 137.5 136.4 134.8 132.8 129.8 127.2 126.9 125.7 125.1 120.1 116.4 109.8 107.2 103.2 97.9 94.9 91.4 87.8 83.1 78.4 74 69 66.2 64.7 60.3 58 57.4 56.6 55.9 52.8 48.9 46 42.4 38.8 39 35.7 32.7 32.7 32.7 32.7 32.7 32.7 32.7 32.7 32.7 32.7 32.7 32.7 32.7 32.7 32.7 32.7 32.7 32.7 32.7
208.7 200.7 200.7 200.7 200.7 200.7 200.7 200.7 207.1 212.1 210.5 211 212.4 213.9 214.2 216.4 218.7 219.9 223.7 223.3 224 217.9 205.1 202.9 202.9 202.9 202.9 214.9 217.1 218 212.9 211.4 205.2 198.1 194.6 196.5 203.8 208 218.8 227.1 231.5 243.3 248 256.5 263.8 267.1 268.4 268.8 267.6 272.2 267.7 262.9 256.8 249.4 240.1 239.7 223.7 217.8 210.9 207.4 194.6 177.6 169.1 171 168.5 155.8 152.1 147.2 139 131.4 131.2 125.2 120.7 119.7 118.9 118.7 118.4 118 117.6 117.2 117.2 116.4 115.9 115.6 115.6 115.6 115.6 115.6 115.6 115.6 118.6 124 127.9 131.7 135.5 139.8 143.8 149 151.1 150.5 151.2 145.5 141.5 129.7 121.1 118.5 116.4 115.7 115.2 115.2 114.6 113.8 116.2 114 114.1 114.3 115.2 116.3 117.9 120.4 124.3 128 131.9 136.3 140.7 143.9 146.3 148.6 151.8 154.9 152.2 148.8 145.1 141.3 135.3 131.1 133.8 136 137.4 139.3 141.1 140.9 140.1 137.4 136.4 134.3 132.4 132.4 130.6 127.2 123.9 123.1 121.4 122.9 119.6 117.5 109 105.7 102.2 97.5 94.7 88.8 85.7 84.1 78.7 74.4 70.5 66.3 62.5 60 58.6 58.6 57.2 55 51.7 47.7 44.1 40.4 38.6 39.6 33.9 32.7 32.7 32.7 32.7 32.7 32.7 32.7 32.7 32.7 32.7 32.7 32.7 32.7 32.7 32.7 32.7 32.7 32.7 32.7
209.2 200.7 200.7 200.7 200.7 200.7 200.7 200.7 200.7 210.4 211.2 214.2 215.6 215.8 216.5 218.7 221.2 220.8 214.7 214.5 215.7 202.9 202.9 202.9 202.9 208.1 213.5 216.7 219.5 217.7 212.4 202.5 199.4 197.4 192.6 197.2 200.4 201.7 204.1 210.4 221.1 240.5 248.2 250.7 259.8 271.1 274.6 273 269.3 262.3 261.9 258.6 252.6 244.6 245.8 245.2 237.3 219.7 212.2 207.1 206.5 182.9 169.7 163.5 161.8 154.7 149.5 145.9 139.8 133.1 125.9 122.5 121.5 119.7 118.5 118.4 118.2 118.1 117.7 117.4 116.7 115.9 115.6 115.6 115.6 115.6 115.6 115.6 115.6 115.6 121.8 125.9 128.5 134.4 138.1 142.7 145.9 148.5 151 148.2 145.4 140.1 133.6 125.9 122 118.3 116.4 115.3 115 114.8 114.2 113.7 113.1 113.3 113.5 113.9 114.5 116.3 117.7 120.5 124 128.4 132.4 136.9 141.5 143.2 145.6 148 151.3 151.9 147.4 143.9 142 137.8 130.7 132.2 134.7 137.1 137.4 137.6 137.8 139.1 136.6 133.9 132.8 131.4 129.8 130.5 128.1 124.8 121.4 119.4 119.1 118.4 115.4 113.1 111.6 108.1 105.7 103.2 102.2 96.2 89.4 87.4 81.2 77 71.6 69.5 65 61.6 62.4 58.9 57.3 53.3 51 47.2 44.2 43.1 39.4 36.5 32.7 32.7 32.7 32.7 32.7 32.7 32.7 32.7 32.7 32.7 32.7 32.7 32.7 32.7 32.7 32.7 32.7 32.7 32.7 32.7
202.4 200.7 200.7 200.7 200.7 200.7 200.7 200.7 200.7 200.7 202.1 211.6 216.4 218.6 219 220.3 221.7 217.2 210.7 202.9 202.9 202.9 202.9 202.9 205.6 216 219.6 218.7 219.8 216.2 210.4 203.8 202.3 193.7 193.1 196.9 194.9 197.3 198.6 202 208.5 220.1 234 243.7 253.1 261.8 266.7 268.4 267.6 262.3 258.2 254.8 250.8 237.7 236.4 231.8 226.6 217.2 211.9 206.7 198.6 183.2 173.6 165.7 157 150.1 147.7 142.8 139 132.5 126.3 124 122.9 120.6 118.5 118.1 117.9 117.7 117.6 117.4 117 116.2 115.7 115.6 115.6 115.6 115.6 115.6 115.6 115.6 120.1 124.2 127.8 132.6 137 142.6 147.9 151.5 154.3 151.9 141.6 134.6 129.1 127.1 123 119.2 117.2 116.1 115.3 114.5 114.2 114 113.5 113.3 113.1 113.4 113.6 115.5 117.4 120 123.4 128.1 132.9 135.7 138.6 141.5 144.1 146.7 148.9 146.5 142.2 138.9 137.8 135.5 130.3 131.7 134.1 134.6 133.9 133.8 134.1 135 132 130 131.1 131.4 128.5 126.7 125.3 122.3 119.8 118.6 117.7 116.7 116.1 115.2 113.8 112.3 107.6 106.2 101.3 96.2 92.7 86.8 84.6 80.4 75 72.5 69.1 63.6 66.4 61.9 56.7 51.8 50.4 46.5 44.2 43.4 39.5 36.4 34 32.7 33.3 32.7 32.7 32.7 32.7 32.7 32.7 32.7 33.9 32.7 32.7 32.7 32.7 32.7 32.7 32.7 32.7 32.7
200.7 200.7 200.7 200.7 200.7 200.7 200.7 200.7 200.7 200.7 200.7 200.7 213.7 217.8 220.8 221.8 222.9 213.9 212.4 202.9 202.9 202.9 202.9 202.9 211.2 215.8 220.8 225.5 221.8 218.8 213.3 204.1 198.8 194 188.6 188.2 187.1 188 190.6 195.7 206.6 210.1 214.4 219.3 224.5 232.3 256.9 266.5 270.6 265.6 254.1 242 236.9 234.7 228.4 226.3 223.2 217.3 211.8 208 200.6 179.8 174.7 170.5 157 154.9 154 147.4 143.2 138 133.3 128.9 123.9 121 119.6 118.9 118.1 118.1 118.3 118.6 117.4 116.5 115.6 115.6 115.6 115.6 115.6 115.6 115.6 116.2 121.5 125.7 127.9 132.9 138.3 139.4 143.9 149.4 152.4 140.5 136 131.3 128.9 126.2 126.6 123.5 124.9 128.1 121.7 116.6 115.3 114.6 115.2 113.3 113 112.8 112.7 114.4 116.1 117.4 120.1 125 129.5 132.2 134.7 138.7 141.6 144.3 142.9 140.7 137.2 133.9 133.4 131.8 130.2 129.3 132 131.6 130.7 130 127.8 129 129.9 129.3 128.8 128.5 127.2 124.5 122.2 119.9 117.4 115.4 115.2 114.4 114.9 112 110.2 108.5 105.4 104 99.4 96 93.4 90.9 84.8 81.1 75.8 72.6 70.1 65.3 66.3 59.6 55.8 51.5 48.9 45.2 44.5 42.9 39.4 41.4 38.7 37 37.6 34.2 32.7 32.7 32.7 32.7 32.7 38.3 33.9 32.7 32.7 32.7 32.7 32.7 32.7 32.7 32.7 32.7
200.7 200.7 200.7 200.7 200.7 200.7 200.7 200.7 200.7 200.7 200.7 200.7 209.6 216.9 218.1 216.5 212.8 209 207.8 202.9 202.9 202.9 202.9 209.3 217.7 219.5 222.5 221.2 217.6 217.9 212.6 202.8 200 200.7 192.4 190.7 183.3 183.4 184.3 187.4 193.1 200.1 203.2 206 210.1 219.5 235.6 255 257.7 248.1 234.5 232.2 228.1 225.3 224.9 223 221.1 216.9 207.1 198 186.9 177.4 174.7 168.2 160.9 156.6 157.9 157 151.2 144.5 139.2 134.9 130.9 127.4 122.9 120.1 119.6 118.3 118.5 119 117.7 116.8 116.6 116.1 115.6 115.6 115.6 115.6 115.6 116 121.5 123.2 126.9 130.2 133.3 136.2 137.3 142.6 134.8 131.9 128.6 128.1 128.7 128.6 131.9 132.5 132.4 128.2 123.5 119.2 116.6 116.1 116.6 116.5 113.7 113.7 112.7 113.5 114.8 116.5 116.6 120.4 124.6 127.8 131.1 136.4 140.6 139.6 136.4 134.2 132.8 132 131.1 130.5 129.7 128.4 129.4 128.5 127.3 126.5 126.6 126 126.8 126.6 126 125.2 124.3 123.8 121.3 116.6 113.4 111.9 112.3 112 113.4 109.6 106.1 103 101.9 99 94.3 94.5 88.6 85.5 83 78.2 74.1 70.4 67.9 63.8 59.1 55.8 54.2 50.8 47.7 46 45.1 44 41.3 43.8 42.9 41.7 40.1 36.4 34.5 33.1 32.7 32.7 32.7 32.7 32.7 32.7 32.7 32.7 32.7 32.7 32.7 32.7 32.7 32.7
200.7 200.7 200.7 200.7 200.7 200.7 200.7 200.7 200.7 200.7 200.7 203.4 200.7 208.2 200.7 200.7 200.7 200.7 200.7 202.9 202.9 202.9 205.3 220.6 220.9 221.1 224.7 226.3 219.9 211.9 203.9 200 201.6 195.9 185.9 183.3 183.3 183.3 183.3 183.3 184.2 189.3 192.5 198.4 205.6 213.1 223 237.5 243.6 234.3 231.3 227.2 225.6 219.3 224 223.1 220.5 213.9 203.9 192.2 182.5 176.9 170.7 164.9 160.6 161 161.1 160.5 157.5 154.2 149.1 144.7 139.3 132.3 127 122.2 119.6 119.2 118.4 119.6 117.7 116.5 116.3 116.6 116.7 116.2 115.6 115.6 115.6 117.4 119.7 123.1 127.2 128.9 132 132.6 134.4 128.9 125.9 125.9 126.6 128.1 129.9 132.8 130.8 129.1 125.2 124.2 121.9 119.4 117.5 117.7 117 115.9 114.8 113.8 112.8 113.1 114.2 116.8 118.7 118.4 119.9 123.1 126.3 129.3 133.4 135.8 134.5 134.4 133.6 132.9 132.4 132 130.6 128.4 128.3 125.6 123.7 123.8 124.2 123.7 123.5 123.2 122.5 121.6 120.7 121.4 118.3 114.6 111.2 108.7 108.4 109.3 109.8 105.3 101.9 101.2 99.4 94.2 90.7 89.9 86.6 83.2 79.8 74.5 70.9 67.7 65.5 60.6 57.4 54.3 52.6 50.5 48.4 49.6 47.8 45.3 43.8 43 43.3 42.1 41.4 39.3 38.9 33.8 32.7 32.7 32.7 32.7 32.7 32.7 32.7 32.7 32.7 32.7 32.7 32.7 32.7 32.7
200.7 200.7 200.7 200.7 200.7 200.7 200.7 200.7 200.7 200.7 200.7 200.7 200.7 200.7 200.7 200.7 200.7 200.7 200.7 210.2 209 210.8 219.4 224.2 223 222.7 223.3 221.1 218.5 213.6 201.3 197.7 198.2 188.7 183.3 183.3 183.3 183.3 183.3 183.3 183.3 184.1 191.6 197.5 198.9 205.1 213.8 226.8 232.2 231 227.7 221.5 212.5 214.7 220.4 223.3 219.5 209.2 198.3 187 182.2 175.8 169.7 167.5 168.6 167.2 167 168.2 167.8 165.1 162.2 160.3 147.4 133.3 128.9 124.9 121 119.9 118 117.6 116.3 115.7 116 116.3 116.6 115.9 115.7 116.7 121.8 125.9 124.5 124.2 127.1 128.4 125.5 124.9 126.4 124.4 124.3 126.1 126.6 128.4 129.5 130.1 129.1 126.3 124.6 123.9 121.2 119.3 117.6 117.6 117.6 116.6 115.4 114.1 113 112.7 113.9 117.3 119.6 120 122 124.6 125.9 128.6 130.2 131.8 133.7 134.5 135.9 136.1 135.5 133.7 130.3 128 125.3 125.8 121 120.7 120.3 119.3 118.5 118.1 117.8 116.8 116.5 115.8 113.2 110.6 108.6 106.7 107.6 103.4 103.4 102.5 101.8 97.8 95.2 92 92.1 86.5 82.4 81 76.1 70.8 67.2 65.5 64.1 59 56.8 55 53.8 52.9 53 53.5 51.7 48.1 45 47.3 49.4 51.2 44.7 45.6 39.7 33.4 32.7 32.7 32.7 32.7 32.7 32.7 32.7 32.7 32.7 32.7 32.7 32.7 32.7 32.7
200.7 200.7 200.7 200.7 200.7 200.7 200.7 200.7 200.7 200.7 200.7 200.7 206.7 208.7 200.8 200.7 200.7 200.7 204.4 207.9 212.4 220.1 222.6 225.7 226.9 224.3 218 218.8 216.5 210.3 203.5 199.2 190.9 183.3 183.3 183.3 183.3 183.3 183.3 183.3 183.3 183.3 189.4 192.8 198.5 203.9 206.6 214.6 221.3 219.8 210.4 202.2 207 210.8 215.5 217.9 214.8 207.5 192.9 186.2 180.1 174.5 170.6 172.8 171 171.4 173.3 173.6 172.3 169.7 168.1 163 148.9 136.3 129.3 132.1 127 123.5 119.8 117.3 116.4 115.6 115.7 116 116.1 117.9 119.6 122.8 125.4 127.6 127.7 131.5 130 127.2 125.8 123.5 124.7 125.6 126.4 127.4 126.8 128.5 128.1 129 126.8 125.5 124.2 122.8 121.1 119.4 117.8 117.4 117.9 117.2 117.7 115.2 113.2 113.2 113.2 117.5 120.3 121.8 124.3 126.9 129.9 131.8 133.4 134.5 134.6 134.3 134.3 132.9 132.2 131 128.7 126.7 124.6 121.3 117.6 117 115.8 114.5 115.1 114.5 113.6 113.2 112.1 111.8 109.4 108.2 107.2 105.5 103 105.5 101.8 97.8 100.2 96.2 91.8 91.6 89.7 83.6 78.8 74.6 73.4 67.9 65 63.9 62.2 58.1 55.9 54 54.2 54.3 55.1 57 57.5 51.5 51.9 53.6 56.5 56.6 52.9 45.7 39.3 33 32.7 32.7 32.7 32.7 32.7 32.7 32.7 32.7 32.7 32.7 32.7 32.7 35.4 40.7
200.7 200.7 200.7 200.7 200.7 200.7 200.7 200.7 200.7 200.7 200.7 200.7 210.1 212.6 212.3 203.3 200.7 200.7 200.7 204.6 211.9 217.2 222.3 227.5 230.6 225 215.6 217.6 217.6 209.4 203.7 198.4 185.8 183.3 183.3 183.3 183.3 183.3 183.3 183.3 183.3 183.3 186.8 191 196.9 201.2 200.7 201.7 202.2 199.8 194.3 199 202.8 206.7 210.3 207.9 201.8 195.1 186.5 178 174.7 170.8 169.5 171.7 166.4 169.3 173.4 176.9 177.8 176.1 171.3 166.5 158.2 140.3 140.4 139.1 134.9 128.6 123 117.8 116.8 115.8 115.9 116.1 118.3 120.2 124.7 130.9 136.6 137.3 135.3 136.1 133.1 128.4 126.3 122 127.6 130.4 130.8 125.9 127.4 129.7 126.7 126.7 125 124.8 125 122.4 121.5 119.7 118 117.3 117.8 117.8 118.4 117.5 116 114.3 109.8 116.7 120 122 124.7 128.1 131 133.8 136.4 136.4 134.6 133.7 132.8 132.1 130.8 129 127 124.7 122.4 121.4 119.6 118.6 115.6 111.9 111.1 113.3 112.9 111.6 109.6 110.6 112.6 110.8 109.2 107.7 107 105.2 102.7 102 97.6 94.8 89.8 87.8 85 84.2 76.1 72.8 69.7 66.9 65.6 62.4 59.3 55.7 54.3 53.7 53.8 53.7 54 54.3 56.2 55.8 53.3 51.8 54.1 54.7 49 43 37 32.7 32.7 32.7 32.7 32.7 32.7 32.7 32.7 32.7 33.5 39.4 34.2 37.7 44.6 46.5
200.7 200.7 200.7 200.7 200.7 200.7 200.7 200.7 200.7 200.7 200.7 207.1 207.9 210.6 214.3 206.6 200.7 200.7 200.7 202.1 208.9 214.5 219.8 225.2 226 221.6 212.7 215.3 209.5 201.8 198.9 191 183.3 183.3 183.3 183.3 183.3 183.3 183.3 183.3 183.3 183.3 183.3 189.7 194.4 196.3 194.1 192.5 193.7 191.8 191 197.7 202.4 204.2 201.2 198.1 191.3 185.5 174.7 170.6 168.3 168.4 165.6 163.9 162.7 163.6 165.3 170.1 170.6 167.9 165.2 165.2 156.2 143.1 145.7 132.6 134.8 132.8 126.3 118.9 117 116 117.1 117.1 122 125 129.8 138.8 145 145.8 145.5 146.2 137.5 131.1 131.6 123.9 120.6 124.2 122.6 123.1 124.2 125 125.4 124.7 124 124.3 124.4 123.4 122 120.2 118.3 117.2 118.5 116.8 117.8 117.6 117.4 116.1 110.7 116.6 119.3 120.8 123.5 126.5 127.6 131.1 134.1 137.9 135.8 133.3 131.9 130.5 129.1 127.3 124.3 122.3 120.6 118.2 115.5 114.1 115.4 113.5 110 111.4 111.3 109.6 107.1 107.5 108.1 108.1 106.9 105.8 105.9 103.2 101.9 103.5 98.5 93.1 88.6 84.5 80.6 81.2 73.3 70.3 69.5 66.3 62.4 60.6 56.9 56.6 55.9 54.7 53.7 52.6 51.8 51.2 51.6 52.8 51.4 49.5 48.2 47.6 44.4 39.7 35 32.7 32.7 32.7 32.7 32.7 32.7 32.7 32.7 32.7 34.8 43.6 42.9 41.6 44.8 45.1
200.7 200.7 200.7 200.7 200.7 200.7 200.7 200.7 200.7 200.7 204.3 214.3 214 213.2 213 211.6 207.2 204.6 204.9 205.7 205.7 211.8 218.7 223.9 224.4 220.3 210.1 205.1 202.7 199.9 196.1 187.6 183.3 183.3 183.3 183.3 183.3 183.3 183.3 183.3 183.3 189.4 183.3 183.3 183.5 186.3 185.3 185.9 189.9 189.1 190.8 195.4 201.4 198.9 194.1 187.2 180.2 175.2 168.2 165.9 163.8 162.5 159.9 159.7 159.9 161 159.7 161.3 159.7 158.3 159 156.3 151.4 140.2 145.2 135.7 136.9 133.5 126.3 119.4 117.8 116.4 116.3 118.8 122.7 126.3 132.7 139 144.6 148.5 152.8 147.7 136.4 134.6 132.2 128.3 122.5 120.1 119.8 121.3 122.8 121.6 121.6 122.6 123.6 123.8 123.7 122.6 121.1 121.9 120.3 116.4 116.7 115 115.6 115.9 116.8 115.2 112.5 116.8 118.7 119.8 121.7 123.7 124.1 126.9 129.4 134.2 135.7 135 134.3 134.6 135 136.6 132 129.1 127.5 123.6 121.9 116.9 113.8 115.2 111.2 109.2 109.7 107.6 105 104.7 104 103.5 101.2 100.1 100.1 98.9 97.3 97.6 93.1 88.2 83.8 79.4 79.6 75.3 69.2 67.9 68.2 64.4 61.3 60 58.9 60.3 59.7 58.2 57 55.5 52.6 49.7 48.9 49.4 48.2 44.1 41 42.1 38.8 33.6 32.7 32.7 32.7 32.7 32.7 32.7 32.7 32.7 32.7 32.7 35.2 35.8 37.5 41.5 42.4 41.6
200.7 200.7 200.7 200.7 200.7 200.7 200.7 200.7 200.7 200.7 209.8 212.8 214.7 216.8 215.6 213 210.4 209.8 208.7 209 206.4 208.3 214.4 218.1 216.9 214.5 207.7 202.1 200.9 199.8 189.4 183.3 183.3 183.3 183.3 183.3 183.3 183.3 183.3 183.3 189.6 194.4 192.5 192.3 188.8 184.4 183.2 183.2 185.1 185.8 185.8 187 189.7 189.9 188 184 174.8 168.1 164.5 162.9 161.7 161.5 160.4 162.9 156.6 154.9 152.9 150.4 148.3 151 149.5 147.5 144 145.3 144.8 141.3 136.7 132.2 124.6 120.6 117.9 116.6 118.1 121 124.1 126.8 131.9 139.4 143 150.4 153.5 140.6 140.2 136.9 131.1 127.9 123.5 120.9 118.4 119.4 118.5 119.5 120.3 121.5 122.1 122.6 122.2 120.7 119.1 117.9 116 113.5 113.9 112.6 113.3 112 113.7 110.8 111.2 114.9 116 116.9 117.6 119.5 121.2 122.5 123.6 126.6 128.9 134.7 138.2 139.5 143.9 148.8 147.9 147 138.1 131.9 130 126.4 119.9 112.4 114.1 112.2 107.1 107.3 104.3 102.7 100.4 100.3 99.3 97.3 93.7 93.8 90.1 89.7 85.1 80.5 77.9 75.9 74 69.8 67.4 65.3 63.6 62.5 61.6 60.8 59.9 60.7 61.1 60.2 59.1 56.2 53.8 51 48.3 45.9 44.2 39.3 34.6 32.9 32.7 32.7 32.7 32.7 32.7 32.7 32.7 32.7 32.7 32.7 32.7 32.7 32.7 32.7 32.7 35.2 38.2 37.8
200.7 200.7 200.7 200.7 200.7 200.7 200.7 200.7 200.7 201.6 205.3 213.3 215.9 218.2 217.3 215.4 213.8 216.2 219.9 214.2 210.7 209.5 210.5 213.5 213.6 205.2 202.4 201 196.7 189.4 183.3 183.3 183.3 183.3 183.3 183.3 183.3 183.3 183.3 189.5 190.2 191.4 192.5 196.1 190.7 188.1 183.2 183.2 183.2 184.1 185.9 185.2 186.6 184.6 182.8 180.7 181.9 181.6 177.4 171.8 164.3 162 163.7 167.7 167.5 165.5 162.8 155.4 153 148.2 146.2 145.4 145.6 144.4 142.8 139 134.3 129.1 121.8 118.9 117.3 117.5 117.3 123.1 128 133.6 134.4 135.3 138.6 145.7 144.2 143.3 143.5 137.7 130.7 127.6 123.1 121.6 120.4 116.8 118.1 118.3 119.4 120.5 121.3 122.5 123.3 122.2 119.7 117.4 114 111.9 111.2 109.7 109.1 109.7 109.9 109.7 107.6 112 113 113.8 114.3 114.7 117.1 119.5 120.5 119.8 119.6 125.8 129.9 132.4 135.3 138.4 140.8 141.1 137 138.1 138 137.5 136.2 123.1 116.5 113.9 107.7 107 104.1 99.6 97.8 97.2 96.1 94.7 89.1 86.5 83.8 81.1 78.3 75 71.2 69.9 68.2 66.2 64.3 65 63.2 62.3 61.2 59.9 59 58.6 58.4 58.1 57 55.1 53.4 52 48.8 45 41.3 39.2 35.1 32.7 32.7 32.7 32.7 32.7 32.7 32.7 32.7 32.7 32.7 32.7 32.7 32.7 32.7 32.7 32.7 32.7 32.7 34.8
200.7 200.7 200.7 200.7 200.7 200.7 200.7 200.7 200.7 200.7 200.7 209.8 217.2 218 218.2 217.5 217.5 220.7 222.3 214.9 214.5 215.4 215.2 213.7 207.8 201.8 200.9 198.9 189.1 183.3 183.3 183.3 183.3 183.3 183.3 183.3 183.3 183.3 193.2 197.7 192.1 191.2 191.7 188.8 188.7 183.2 183.2 183.2 183.2 183.2 183.2 184 183.9 185 191.1 192.9 201.2 206.2 211.1 209 182.3 167.4 166.4 174.4 177.7 178.7 177.1 178 159.2 149.1 147.5 148.5 148.7 146.6 142.6 140 131.2 126 120.3 117.7 116.7 117.7 118.1 122.5 126.7 132.2 136.3 139.3 141.9 144.2 143.5 145 142.6 136.6 130.9 126 120.8 116.2 116.1 119.8 120.5 117.9 118.8 120.9 122.5 124 125 123.8 121.8 119.7 117.3 115 111.7 109.6 108.4 107.2 107.8 107.1 104.1 107.8 110 110.7 110.8 111.2 113.6 115.9 118.2 118.9 114.8 114.3 120 122.8 124.9 126.4 127.9 129.8 129.6 132.2 133.6 135.6 136.8 127.9 119.5 113.4 109 105.8 102.3 100.8 93.3 91.4 91 87.9 83.6 81.3 76.8 76.4 71.7 69.2 68.5 60.4 63.6 65 61.6 58.4 59.5 58.4 56.6 57.3 56.3 55.6 55.4 55.3 54.9 52.9 51.1 50.6 46.4 41 37.3 38.3 35.9 32.7 32.7 32.7 32.7 32.7 32.7 32.7 32.7 32.7 32.7 32.7 32.7 32.7 32.7 32.7 32.7 32.7 32.7 33.6
200.7 200.7 200.7 200.7 200.7 200.7 200.7 200.7 200.7 200.7 200.7 211.8 213.5 215.4 216.7 218.3 218.1 218.3 220.3 218.1 219.1 220.7 219.6 218 211.5 203.7 198.6 194.9 185.1 183.3 183.3 183.3 183.3 183.3 183.3 183.3 183.3 193.6 197.7 194 189.7 191.4 194.7 185.1 183.2 183.2 183.2 183.2 183.2 183.2 185.3 186.6 187.9 191.2 198.4 204.6 204.7 205.3 212.8 215.4 191.1 172.1 167.4 177.5 184.2 182.5 187.2 188.9 184.5 157.1 150.5 150.3 149.6 147.4 144.1 140.8 133.1 126.9 121.3 117.4 116.3 117.1 120.8 122 127.2 133.4 140.7 144.6 147.4 149.3 149.5 149.7 142.3 136.1 129.9 123.5 117.9 115.8 118.1 119.8 120.3 119.3 118.5 121.1 123.9 125.5 125.4 124.2 122.9 120.8 119 118.7 120.1 116.5 110 107.8 106.4 105.8 98.1 101.2 105.8 107.3 107.6 107.7 109.7 112.6 115.5 116.4 113.4 109.7 109 111.6 113.6 116.7 118.7 121 122.6 123.4 123.8 123.8 125.3 122.3 114 106.9 102.7 97.4 96.3 90.9 88 86.6 84.5 82.3 78.4 75.5 73.1 72.5 67 64.2 62 60.1 61 61.2 58.9 56.3 56.8 54.6 52 52.5 53.7 52.9 52.4 52.3 52.5 49.2 49.8 48.4 45.3 39.1 32.9 33 32.7 32.7 32.7 32.7 32.7 32.7 32.7 32.7 32.7 32.7 32.7 32.7 32.7 32.7 32.7 32.7 32.7 32.7 32.7 32.7
200.7 200.7 200.7 200.7 200.7 200.7 200.7 200.7 200.7 200.7 200.7 200.7 200.7 210.1 211.5 213.4 214.6 217.3 218.3 217.9 219.7 221.3 224.7 223.6 214.9 208.6 204.3 198 185.3 183.3 183.3 183.3 183.3 183.3 183.3 183.3 186.5 195.9 193.9 190.9 188.9 188.5 187.4 185.2 183.2 183.2 183.2 183.2 183.2 183.2 190 189.2 192.2 193.7 195.3 195.2 197.8 202.7 209.5 207.2 192.7 175.5 169.6 177 186.9 183.3 190.6 190 181.3 162.6 154.7 151.2 148.7 147.7 145.9 142.4 135.4 127.4 120.8 117.2 116.7 117.7 122.2 125.7 134.2 141.4 149 153.3 153.4 154.1 152.7 147.4 138.8 132.7 127.4 121.3 115 115.2 116.9 120.3 118.2 116.1 119.4 121.8 123.9 123 122.6 121.7 120 119.5 121 122.6 124.6 119.8 111.4 107.5 104.9 104.3 100.2 97 101.8 104.1 104.4 104.4 105.4 107.8 110.2 111.6 109.3 108.9 108.5 105.5 102.9 106.5 110.6 111.7 113.1 113.9 115 116.7 118.3 117.9 111.3 100.7 96.7 93.4 91.5 88.4 85.5 85.3 81.8 78.3 75 70 70.2 69.5 63.2 61.8 61.4 57.5 58.9 57.5 55 54.2 53.5 52 49.9 50.5 52.2 50.7 49.6 49.6 50.2 49 46.9 44.1 41.9 39.5 32.7 32.7 32.7 32.7 32.7 32.7 32.7 32.7 32.7 32.7 32.7 32.7 32.7 32.7 32.7 32.7 40.1 42.3 41 37.2 32.7 32.7
200.7 200.7 200.7 200.7 200.7 200.7 200.7 200.7 200.7 200.7 200.7 200.7 200.7 200.7 205.5 206 207.2 213.1 215.8 216.4 217.6 219.6 220.4 219.4 219.7 217.5 213 206.6 190.2 183.3 183.3 183.3 183.3 183.3 183.3 183.3 187.9 188 186.9 189.7 187.3 186 187.9 185 183.2 183.2 183.2 183.2 183.2 188.6 193.8 194.6 190.8 188.8 190.5 191.4 196.8 200.3 200.8 192.5 182.7 172 170.6 174.5 181.7 181.8 187.9 192.9 189.1 169.3 157.2 153.2 148.2 147.2 145.6 143.8 133 125 119.1 117 116.8 120.8 127.7 134.7 143.3 149.6 155.6 160.4 167.6 171.1 157.3 142.6 134.5 128 124.2 120.3 114.7 115.8 119.2 117.9 113.5 116.1 120.9 124.8 126 124.7 121.7 120.3 118.7 116.4 116.1 118.8 120.5 113 108.3 104.7 102.7 100.6 97 95.8 99.3 100.8 101.2 100.6 99.4 101.8 104.6 103.6 102.1 105.5 102.8 102.5 100.7 97.4 100.2 100.9 102.8 105.2 106.5 109 109.8 111.5 99.1 93 89.7 87.9 85.1 86.3 84.3 81.8 79.4 77.3 73.9 68.2 65.3 62.3 59.8 58.7 55 53.5 51.1 52.4 54.4 53.7 53 51.4 48.4 49.3 50.4 48.1 46.7 45.3 46 45.3 42.2 39.2 35.1 32.9 32.7 32.7 32.7 32.7 32.7 32.7 32.7 32.7 32.7 32.7 32.7 32.7 32.7 32.7 36.9 32.7 32.7 36 32.7 32.7 32.7 32.7
200.7 200.7 200.7 200.7 200.7 200.7 200.7 200.7 200.7 200.7 200.7 200.7 200.7 200.7 200.7 200.7 200.7 208.6 211.5 212.8 214.3 218.4 222.4 224 226 229.9 219.9 205.8 190.5 188.6 183.6 183.3 183.3 183.3 183.3 183.3 183.3 184.9 191 193.4 187.8 183.2 185.6 183.2 183.2 183.2 183.2 183.2 188.9 191.3 194 189.9 182.7 181.9 188.6 195.5 201.3 206.2 205.4 186.1 176.5 171.6 169.5 172.6 176.3 176.5 178.2 181.6 167.3 166.7 155.7 152 146.8 144.8 139.6 136.1 129 121.1 118.2 116.4 119.1 124.9 132.2 138.4 147.4 153.2 157.4 161.3 167.5 171.4 151.8 138.3 129.5 124.6 122.1 116 112.2 120.8 123.4 121.6 112.1 117.7 122.8 127 129.9 126.7 121 116.8 115.9 114.3 111.9 110.6 109.4 106.1 103.1 100.6 99.1 95.9 92.5 95.5 96.7 97.8 97.8 96.1 94.8 95.2 97.4 99.4 96.2 98.1 96.6 99.5 97.4 94.5 89.7 91.1 93 95.3 97.5 100.2 99.5 93.3 85.9 83.8 84.4 86 80.5 80.5 80.3 78 73.8 75 69.8 66.8 64 62.3 63.9 61.9 58.5 57 56.8 50.3 50.1 49.9 50.2 47.3 45.8 47 44.5 45.1 45.7 43.4 41.8 41.1 38 34.1 32.7 32.7 32.7 32.7 32.7 32.7 32.7 32.7 32.7 32.7 32.7 32.7 32.7 32.7 32.7 32.7 32.7 32.7 32.7 32.7 39.9 37 32.7 32.7
200.7 200.7 200.7 200.7 200.7 200.7 200.7 200.7 200.7 200.7 200.7 200.7 200.7 200.7 200.7 200.7 201.1 205.5 210.7 214.3 218.7 222.5 223.4 225.3 228 230.3 225.2 211.1 198.4 199.2 190.8 183.3 183.3 183.3 183.3 183.3 185.6 189.8 193.4 192.6 183.2 183.2 183.2 183.2 183.2 183.2 183.2 191.2 198.1 199.6 195.1 182.4 177.9 184.3 190.7 198.3 201.2 202.7 204.1 190 176.1 176.1 168.8 168.4 172.5 167.1 163.7 161.9 161.2 154.4 150 144.7 143.7 139.9 132.5 126.5 121.7 116.4 116.9 118.3 124.4 129.8 137.2 142.9 147.7 151 154.5 161.6 167.4 163.4 144.7 135.4 127.1 122.3 118.4 109.9 110.6 117.6 120.9 115.8 111.7 119.3 125.4 130.1 133 126.9 115.6 110.4 108.2 106.8 105.6 103.3 101.5 99.8 97.3 95.5 95.3 93.1 90.9 92.7 93.9 94.6 94 91.4 89.8 88.6 89.3 92.9 94.2 91 91.9 95 98.8 92.7 88.3 87.1 86.5 86.2 87 89.5 89.6 87.9 82.5 81 80.1 79.4 79.4 77.2 76.7 75.2 73.2 68.9 67.3 65 64.2 63.3 63.2 61.9 61.7 58.5 61.4 53.9 50 48.1 50.9 46 47.3 46.3 44.3 42.1 42.6 42.9 39.6 37.3 34.6 32.7 32.7 32.7 32.7 32.7 32.7 32.7 32.7 32.7 32.7 32.7 32.7 32.7 32.7 32.7 32.7 32.7 32.7 32.7 32.7 32.7 32.7 32.7 32.7 32.7
200.7 200.7 200.7 200.7 200.7 200.7 200.7 200.7 200.7 200.7 200.7 200.7 200.7 200.7 200.7 200.7 202.7 206.9 212 217.5 221.6 218.5 223.7 226.1 226.8 226 221.8 215.9 206.3 197.4 191.3 183.3 183.3 183.3 183.3 184.4 189.1 192.8 193.8 188 186 183.2 183.2 183.2 183.2 184.3 191.7 197.4 201.1 197.4 181.2 176.8 177.5 184.6 189.1 191.8 193.7 196.8 199.5 187.3 176.7 173.8 169.6 165.3 162.6 159.3 155.5 150.4 147.2 145.7 142.7 137.6 131.7 126.7 122.5 118 117.1 119.5 122.7 126.2 129.9 136 142.7 146.2 148.2 150.1 155 157.8 162.2 148.5 140 131.9 124.5 117.6 110.9 103.3 109.7 116 117.9 113.5 113.1 120.8 126.9 130.8 129 122.6 111.2 105.5 103.6 103.2 101.9 100.1 96.5 94.6 93.1 92.2 90.7 91.8 87.9 89.1 88.4 88.4 88.5 87.4 86.6 85.9 85.6 86.1 87.6 87.1 85.7 86.7 87.6 89.5 87.6 86.2 86.9 86.9 87.7 88.2 87.8 84.4 83.8 82.4 79.1 78 79 76.9 74.3 71.8 70.4 70.9 67.4 68.1 68.3 68.3 68.1 62.1 59 57.8 56 55.9 51.6 51 50.5 47.3 50.5 47.7 44.6 43.6 40.7 39 36.6 34.1 32.7 32.7 32.7 32.7 32.7 32.7 32.7 32.7 32.7 32.7 32.7 32.7 32.7 32.7 32.7 32.7 32.7 32.7 32.7 32.7 32.7 32.7 32.7 32.7 32.7 32.7
