ncols 200
nrows 82
xllcorner 300000
yllcorner 311800
cellsize 50
300.9 297.9 295.2 292.5 308.1 329 350.2 355.7 339.7 310.4 282.8 258 238.8 223.5 226.8 230.8 232.1 228.2 220.4 226.5 226.8 225.8 224.5 223.4 219.4 217.7 216.3 216 206.8 194.9 187.5 185.4 185.8 184.8 185.1 184.7 185.7 187.5 191.2 194.7 197 196.7 198.1 199.7 199.4 199.8 199.8 201.2 202.6 204.7 205.8 208.5 213.8 224.6 227.3 225.8 225 223.7 221.2 218.8 217.6 215.2 200 212.9 212.3 211.6 210.8 211.5 210.7 210.7 209 209.9 213.7 215.6 217.2 216.9 217.1 217 216.5 213.6 210.7 213 215.7 220.8 225.7 227.6 230.3 231.6 230.8 230.1 227.8 223.7 216.1 208.4 203.7 201 200.1 192.5 192.8 193.7 194.4 196.7 202.8 212.2 224.8 234.8 246.4 253.9 260.9 261.8 262.9 261.3 262.9 266.9 268.6 267.2 268.2 270.9 271.9 272.4 272.9 273.4 274.2 270.4 272.3 274.7 275.8 276.1 275.8 269 267 263.7 261.3 262.4 266.4 268.2 270.7 271.7 271.3 267.7 263.1 257.5 249.4 240.6 227.8 219.9 211.4 204.3 203.5 210.6 235.2 259.1 261.8 262.3 259.5 253.1 247.6 243.3 241.4 242.3 246.5 252.2 255.9 254.7 251.9 249.3 243.3 241 243.5 246.3 250 254.3 262.2 268.1 274.4 280.3 290.4 300.6 309.1 316.1 320.6 322.6 323.8 322.5 321.9 320.1 316.9 311.1 303.6 300.3 301.3 301.8 298.9 294.5 291 284.5 269.7 253.9 239 229.1
291.1 289.9 286 297.9 324.5 343.9 351.8 336 308.1 288.6 267.6 245.2 223.9 227.5 231.6 234.5 235.7 237.4 234.8 234.3 236.2 239.2 239.1 232.9 230.4 225.9 220.6 218.8 206.3 197.9 194.9 184.4 184.4 184.3 184.1 184.2 183.5 184.4 184.6 184.9 187.9 189.6 192.9 195.1 195.4 197.7 201.2 202.2 202 203.7 203.8 204 204.8 203.2 204.1 206.4 204.9 202.1 205.4 203.4 202.7 201.1 198.8 203.9 204.3 202.7 203 203.9 203.6 202.6 208.8 213 215.7 218.1 220.4 221.6 221.1 219.4 216.2 212 208.2 209.4 212.3 217.1 221.3 221.8 224.7 226.4 226.3 225.8 221.9 219.4 213.4 202 197.1 190.8 191.8 192.3 193.8 194.8 195.6 201.6 217.3 232 246 255.3 262.5 269.8 273.7 274.6 277.1 277.9 279.6 279 276.8 274.2 272.2 275.1 276.8 276.1 275.5 276.2 274.9 272.3 277.4 279.4 279.8 280.2 280 279.9 274.1 267 262.5 261.4 262.9 264.3 265.5 266.3 266.3 263.9 259.2 253.4 244.9 239.3 233.5 223 210.9 203.3 201.6 205 225.8 238.6 243.3 243.5 239.2 233.3 231.1 231.8 237.3 243.3 249.8 251.5 250.7 246.6 242.6 237.6 238.8 243.8 249.3 257.7 264.6 268.2 270 274.1 282.2 287.3 300.5 308.1 312.1 317.7 320.1 320.1 319.6 318.9 318.5 317 314 309.2 306.9 307.3 308.7 308.3 307.2 303.7 301.9 295.8 285.2 271.8 258.6 244.5
278.8 272.7 286.6 316.5 343.8 356.8 340.7 307.7 287.1 268.8 246.3 226.6 230.2 236.4 239.2 239.3 239.9 240.7 241.2 245.6 254.9 261.8 259.8 253.4 247.5 240.1 231 224.7 218.9 210.8 205.7 195.6 184.8 184.1 184.5 184 183.1 182.9 182.7 182.3 184.7 184.7 185.8 189.7 189.6 195.8 200.8 203.9 204.8 204.8 205.2 204.9 205 204.3 201.9 201.2 202.1 201.4 199.2 199.7 197.3 195.8 194 197.1 198.8 199 199.1 199.6 202 205.7 210 214 217.6 221 223.7 224.4 224.1 222.1 215.9 209.3 205.4 207.4 209.8 214 217.1 218.2 220.1 219.3 220.7 220.5 215.8 212.3 200.6 191.5 190.6 192.9 195.4 195.5 195.8 195.7 201.8 213.1 230.3 244.7 254.6 262.6 269.6 276.7 283.5 285.6 288.8 289.1 288 284.9 281.4 278.2 277 279.5 279.8 278.3 277.3 276.1 273.9 275.9 280.5 284.8 286.9 286.7 287.1 285.6 281.5 272.9 267 264.3 261.8 259.6 261.1 260.9 259.8 256.7 252 246.8 240.9 234.3 229 221 211.2 205.9 201.5 200 205.9 214 219.8 220.6 221.3 225.4 231.9 243.1 247.5 249.5 247.9 246.1 241.7 236.9 234.2 235.8 242.2 249.5 260.6 266.9 276.5 282.6 280.7 283 289.3 296.8 305 310.3 312.1 313.7 315.4 315.3 314.1 314 313.3 311.9 310.4 310.1 312.5 312 313.4 312.9 307.2 306.1 302.4 295.9 289.4 287.1 276.3 264.6
268.8 269.1 300.8 338.2 352.6 346.3 319 290.1 268.4 247.4 228.3 227.9 235.1 241.7 242.8 243.9 243.6 245.1 247 257.6 272.4 278.6 276 269.2 261.1 250 238.6 229.5 224.4 220.1 214.7 202.9 195.7 189.9 184.8 183.9 182.8 183.1 182.7 182 182.8 183.3 183.1 183.6 190.1 193.4 200.1 203.6 205.8 208 208 208.8 209.8 209.2 206.5 201.4 203.8 207.5 204.3 197.2 194.8 193.2 190.5 194 195 195.5 196 198.3 202 205.5 211 215.5 220.7 224.3 228 228.2 227.9 226.1 219.7 211.5 204.5 205.5 207.2 209.4 212.7 213.1 214.9 213.4 214 214.1 208.2 198.5 188.8 196.9 199.2 201.1 202.3 199.4 198.4 200.8 212.4 221.9 234.8 248 259 268.2 276.2 283 286.5 289 288.4 288.9 288.3 283.9 279.7 275.9 275.2 276.7 279 275.8 276.4 274.2 275.7 280 285 289.5 291.9 293.7 292.5 290.8 288.6 279.5 272.6 267.6 264.1 259.3 250.6 249.3 249.6 247.3 243 236.8 234 227.4 221.7 214.6 209.1 204.6 201.6 199.6 200.6 204.8 208.3 213.9 221 231.7 239.3 242.5 245.8 245.4 243.6 238.6 234.3 231.5 232.1 236.2 243.8 261.9 275.3 280 285.7 292.7 297.6 296.2 295.9 300.3 306 310.6 312.4 311.7 311 310.6 308.9 309.3 307.3 307.7 309.7 311 312.9 312.7 310.9 308.5 307.5 303.6 298.9 296.6 295.1 291.1 283 273.5
262.5 284.6 313.5 338 333.9 324.1 300.4 275.8 253 231.1 230.1 234.8 239.6 244.5 246.8 250 251.4 251 252.5 267.7 279.2 285.7 285.3 285 271.6 258.7 247.7 237.6 229.6 224.6 213.3 207.6 205.7 200.8 193 183.9 181.8 181.7 182.1 181.8 182 181.5 181.6 180.1 179 179.6 185.9 196.9 203.4 205.1 209 211.3 212.7 213.5 210 202.5 203.6 209 205.2 201.1 195.7 193.4 190.9 187.8 187.7 190.8 192.2 197.4 200.9 204.8 210.1 215.8 221.7 227.1 231.8 233.1 231.8 228.6 221.4 214.4 208.1 203.8 205.6 207.3 208.8 207.8 208.6 208.7 208.2 206 201.9 192.5 193.1 198.8 200.8 204.8 208.2 206.4 203.5 207.4 221 234.2 244.4 255.8 264.6 274.3 278.8 281 281.5 284.4 284.9 284.9 280.3 274.4 274.8 272.1 270.7 273.9 270.8 272.6 273 271.5 274.3 280.3 285.3 289.7 295.3 297.7 300 299.8 294.1 283.7 274.4 268.4 264.1 260.3 255.7 246.7 244.2 237.7 229.9 225.6 224.5 217.2 214.3 211 206.4 203.5 201.7 199.8 198.6 202.6 204.6 213 224.5 231.2 234.2 237.4 238.5 239.2 238.1 232.9 229.3 230.2 231.8 238.3 251.4 273 280.6 287.7 295.8 302.4 308.7 312.5 315 304.7 309.7 312.6 310.7 308.8 308.3 306.6 305.2 305.8 306.6 309.3 309.7 309.6 308.7 308.2 307.1 305.8 303.7 301 299 295.3 292.9 290.7 285.1 279.3
253.7 266.5 287.7 302 306.1 300.6 280.4 256.8 234.2 231.2 236.5 240.5 245.5 250.1 253.6 254.9 258.5 260.9 265.7 276.7 286.2 292.9 296.9 293.9 280.4 266.1 254.4 243.6 234.6 230.1 223.8 221.7 216.5 208.6 199.5 188.8 183.5 182 180.9 181.9 181.2 181.3 180.2 179.4 180.1 179.5 178.8 181.8 199.3 201.8 203.8 205.4 207 209.6 210.6 203 202 205.5 204.4 199.5 195.2 191.8 189.6 187.3 183 187.4 193.1 198.3 200.8 205.6 209.9 215.3 220.7 225.8 230.5 234.4 235.3 230.3 225.1 220.4 211.7 205.8 201.3 203.1 204.4 203.7 204.3 205 205 202.7 194.2 186.3 195 200 204 209 213 212.3 208.1 210.8 219.5 236.4 249.8 258.6 269.2 276.5 278.8 279 280.8 281.6 277.3 275.3 269 266.1 266.1 263.6 265.4 269.5 267.4 267.8 269.6 268.7 271.1 277.4 281.8 285.2 289.9 293.4 294.6 296.6 293.7 285 276 269.9 264.6 260.2 257.2 254.4 248.8 241.7 237.2 235.2 227.9 219 217.5 212.7 205.8 203.4 200.9 199.6 198 199.5 200.7 212 220.8 225.8 228.9 228.8 228.9 227 228.5 232.2 230.4 230.7 233.4 247.1 268.1 279.4 288.7 296 302 311.2 316.7 319.6 319.4 314.9 305.9 309.4 307 305.2 303.5 301.3 302.5 304.1 304.4 306.2 304.5 302.4 302.8 303.4 302.3 300.8 299 297.4 294.2 291.9 290.5 287.2 282.3 276.7
252.1 249.8 256.8 266.7 271.2 267.1 253.8 236.9 234 233.6 241.9 246.3 250.9 255.6 259.8 262.6 266.2 270 274.7 288.1 295.6 301.5 304.5 298.1 289.1 278.1 266.3 255.5 242.2 236.4 231.9 228.3 221.7 214.4 205.8 196.3 190.5 183.5 181.6 182 181.2 180.9 180.4 180.4 180.1 179.7 179 177.6 182.5 192.1 199.2 199.6 201.8 203.7 204.2 203.9 198.3 200.8 202.2 198.7 194.4 190.7 189.3 186.9 187.2 191 194.1 198.2 201.2 204.5 209.3 214.2 219.7 223.2 227.3 231.2 233.1 231.3 227.5 222.7 216 208.6 203.7 199.8 197.9 198.5 200.1 200.1 198.9 190.4 185.1 189.5 197.6 204 209 214.8 218.2 216.5 213.3 216.1 223.6 242.7 255.5 260.5 267.4 272 272.5 270.4 266.4 265.6 262.1 258 255.2 255.8 256.3 256.5 257.7 261.4 258.4 259.1 263.6 263.5 269.8 273.7 277.5 280.9 284 286.9 288.7 290.2 287.4 282.3 275.4 270.7 267.3 266.5 264 260.7 256 247.6 245.6 240.9 232.8 228 226.1 219.3 211.2 204.5 202.5 200.4 197.3 197.5 202.2 208.7 218.1 221.9 213.5 221.1 230.8 238 241.1 241.8 237.8 232.5 247.2 267.3 279.4 287.1 293.3 299.3 308.9 316.8 318.9 316.1 313.5 309.6 299.5 295.4 301.6 303.1 301.1 299.5 298.6 295.7 297.2 298.6 300 300.1 300.2 301.7 301.3 300.7 298.1 293.8 291.6 285.7 282.7 277.6 271.7 263.9
251.1 248 248.5 245.7 242.6 240.3 238.1 236 235.6 240.9 243.6 249.3 254.1 260.9 265.9 270.7 274.8 277.5 284.1 299.3 308.2 312.9 312.4 307.8 299.7 289.9 278.1 266 253.5 244.4 239 232.9 224.8 216.6 209.2 202.8 196.8 188.8 184.4 181.8 181.4 180.5 180.9 180.2 179.9 179.7 179 178.1 177.8 178.8 186.1 195.3 196.1 198 199.8 199.4 195 196 196.2 194.6 192.7 186.7 185 187.6 181.8 187.2 192.9 197.4 200.6 204.5 208.9 212.9 217.4 220.1 223.8 227.1 228.3 228.6 227.5 226 221.5 212.6 208.5 205.2 201.3 196.9 190.8 191.6 181.4 183.2 184.1 195.8 200.7 205.3 210.4 216.5 222.6 222.9 225.4 231 228.8 238.4 249.8 257.4 264.9 268.1 266.7 261.9 259.3 255.9 253.3 249.5 250.5 254.2 255.4 254.1 253.5 250.3 249.6 252 254.5 256.2 262 267.8 271.3 274.3 277.8 279.8 280.3 278.8 279 275.7 274.8 273 270.9 268.5 266 262.4 257.7 253.4 251.6 247.1 241.7 238.2 234.4 228.6 221.5 213.5 207.9 203.3 198.5 196.6 199.9 206.8 214.1 207.2 217.8 231 238 242.8 247.9 248.5 240.7 240.4 258 277.1 278.5 283.6 294.1 301.7 311.5 317.5 314.9 305.4 297 286.9 284.3 286.1 289.3 297.4 298.1 296.6 295.1 293 291.1 293.4 294.9 295.5 299.1 302.2 302.9 302.7 302.1 302 292.9 283.3 275.4 265.2 258 244.2
254.9 250.8 247.9 244.4 242.4 239.9 241.4 238.1 237.2 241.4 245.8 252.1 256.9 263.6 271.8 277 279.6 290.6 300 311.4 319.1 320.8 321.2 315.6 308.2 300.1 285.7 274.1 265.6 250.7 243.5 236.9 228.9 220.9 212.4 203.5 199.7 195 188.5 186.6 186.3 183.6 180.6 179.9 179.6 179.4 178.9 178.3 177.3 177.5 177.1 179.2 188.3 189.5 190.9 193 190.9 188.5 188.2 185.2 179.4 176 174.8 179.1 177.3 192.1 192.7 196.6 198.7 203.6 208.5 212.3 215.5 218.9 222 223.4 224.1 223.4 223 220.5 218.2 213.4 207.5 201.6 195.6 191.4 185.2 182 182 184.4 188.2 197.3 199.5 207.1 212.8 218.8 226.9 233.4 239.6 246.7 252.3 253 248.5 252.7 260.2 259.4 257.7 255.1 253.7 252.3 250.1 245.3 246.8 251.9 251.7 250.1 244.8 252.2 253.1 257.7 259.5 261.3 262.9 264.4 268.2 271.7 274.4 275.4 276 274.5 272.1 271.6 271.4 271.3 270 267.3 264.7 261.1 258.5 255.6 253.6 250.7 246.8 244.6 240.9 235.7 230.1 222 214 208.5 204.1 195.7 197.8 199.1 201.6 215.4 227 236.7 243.6 246.9 250.3 249.3 241.5 241.1 251.8 260.2 267.6 285.8 295.5 301 298.3 292.7 287.7 292.9 293.3 278.6 278.9 279.7 280.4 283 284.9 286.4 288.6 289.5 286.8 290.3 294 296.8 301.2 305.9 305.7 305.5 303.4 302.7 297.2 290.5 280.6 270 260.9 251.9
280.1 270.2 254.6 249.6 248.3 245.8 242.5 239.9 238.6 241.7 248.3 254.2 259.7 267.2 274.6 282 296.3 305.2 315.8 322.6 323.7 325.2 326.1 321.1 316 311 295.1 281.9 275 261.7 247.9 240.6 232.3 224.7 217 206.3 200.7 197.5 193.9 191.4 191 189.3 182.7 180.7 179.5 179.1 178.9 178.2 177.7 175.5 177.4 176.6 176 178.2 179.4 185.3 182.5 175.8 174.2 174.5 175.5 175.3 174.9 174.7 173.5 178.8 191.9 195.5 197.5 199.9 204.8 210 213.4 216.6 219.4 221.3 221.3 220.4 218.1 215.2 211.7 205.1 197.2 194.1 188.5 178.8 179.2 180.7 183.7 187.9 187.7 188.5 196.5 207.2 218.2 222.7 227 230.5 235.3 241 247.5 251 251.6 252.9 254.7 252 250.4 247.9 246.7 246.8 244.6 240 239.2 245.1 244.7 245.8 240.3 245.9 250.2 254.7 258 260.3 263.6 263.8 265.4 267.2 269.9 271.5 271.8 271.8 269.6 270.7 269.8 268.5 267.3 265.2 262.2 258.8 255.8 253.4 252.1 250.7 248.1 246.7 244.1 240.2 234.5 227.1 219.5 213 207.3 198.8 195.2 201.5 207.3 217.2 230.6 240.8 243.7 243.6 244.9 245.2 238.7 235.5 239.6 247 269.8 280.6 288.3 289.6 286 278.1 274.9 273.4 275.8 272.5 273.7 275 277.5 271.5 272.4 274.1 275.8 278.9 279.6 284.7 290.7 300 304 306.3 310.2 307.6 303.1 300.7 293.3 281.6 271.5 261.7 253.5 241.5
298.4 290.1 279 264.4 253.5 250.1 245.8 241.8 240.8 246.1 250.6 255.5 261.8 269.2 279.8 293 304.1 317.3 323.7 328.9 328.5 328.8 326.5 321.6 318.3 308.3 298.5 284.7 278.8 269.7 254.4 244.2 235.8 229.4 222.2 212.1 202.3 198.6 196.3 195.4 193.3 191.6 186 182.1 181.6 180.8 179.9 179.9 179 176.9 176.7 176.7 176.2 175.4 175.6 175.6 175.2 174.3 174.6 174.7 174.5 173.8 173.2 176.5 175.6 173.5 170.9 174.3 193.1 199.4 205.7 210.1 215.7 221.6 224.4 221.8 219.3 217.4 215.2 211.4 207.2 198.5 189.9 185.4 178.1 184.8 190.4 195.7 198.1 196.6 191.6 189.1 194.4 202.1 207.9 220.5 224.3 230.9 235.3 242.8 255 256 254.3 259.6 256.2 250.9 249.2 244.8 242.5 232.9 234.8 236.9 235.6 236.3 232.3 234 237.4 241.6 241 247.6 250.6 253.4 257.2 261.6 264.8 266.8 268.2 269.2 269.4 269.2 268.4 267.9 266.8 264.9 262.6 260 256.8 252.7 249.1 247.4 246 245.8 243.3 242 240.2 233.6 230.5 226.7 221.4 216.5 210 201.5 195.4 196.1 205 214.2 233.4 242.6 242.7 241 241.1 241.2 238.4 235.7 236.7 239.1 249.5 262.9 266.8 269.3 274.4 269.9 269.8 273.7 271.7 271.3 273.8 273.6 276 271.5 270.2 272.4 273.7 274.5 277.2 282.1 292.1 297.3 302.4 307.5 310.8 306.3 298.3 290.5 281.4 274.7 269.5 261.9 254.6 246.8
305.6 303.5 295.1 271.3 261.1 258.7 251.3 244 244.3 250.9 253.3 258.4 263.1 272.1 286 300.2 314.1 325.7 331.2 333.8 330.9 330.2 329.6 321.2 317.7 308.1 299.2 284.7 271.6 262.8 253.4 245.7 239.3 233.6 227.1 217.8 205.8 201.8 200.2 197.9 194.6 191.2 187.6 184.3 182.9 181.1 179.7 179.8 180.1 178.4 176.1 175.7 176.4 176.4 174.4 174.2 175.1 174.4 174.4 175.3 174.4 174.1 185 189.4 187.7 181.9 175.9 169.9 188.3 198 203.2 213 215.3 215.6 218.1 218.1 215.9 212.5 209 206.5 202.7 195.2 185.5 177.5 175 189.3 193 199.4 204.2 202.1 197.7 195.3 193 202.4 215 224.1 226.7 229 232.6 242.9 250 249.3 249.8 251.8 248.7 243.8 239.3 237.3 237.7 232.1 230.9 235.6 227.2 222.8 239.6 242.9 243.8 246.1 248.5 248.7 250.7 257 261.4 263.8 267.3 270.1 270.5 269.6 269 269.7 269 270.6 270 267.4 263.3 257.9 255.3 253.1 250.5 247.5 242.4 236.7 234.2 234.7 232.3 226.8 223.3 220 216.7 215.5 210 205.1 200.7 192.3 199.1 208.2 232 241.3 238.8 237.4 241 244 243 237.4 237 238.4 240.4 247.1 253.8 257.3 258.8 260.1 274.2 284.1 281 278.5 282.8 280.1 278.4 273 268.7 274 277 277.4 283.7 289.7 299.2 305.7 314.3 322.5 318.6 310.8 301.7 293.5 285.2 278.5 270.9 265 258.6 251.8
313.8 305.7 289.4 286 276.1 262.8 249.2 250.6 256.4 259.4 258.9 261.9 269.9 281.2 293.3 307.4 321.1 329.7 333.9 335 332.4 328.2 325.8 317.7 311.1 302.9 293.8 282.1 266.6 255.3 249.8 244.5 239.1 234.6 229.4 219.1 211.5 205.8 201.9 198.9 195.8 192.2 188.2 184.8 182.6 182.2 180.5 179.6 179.3 179.2 177.8 178.7 182.2 184.9 184.1 187 188 191.4 184.8 180.1 180.5 187.6 194.2 195.8 194.3 187.9 183 170.7 170.2 179.9 190.8 203.8 212.2 215.7 215.4 219.5 219.9 216.6 212.1 206.3 200.8 194.1 180.3 174.4 179.6 190 192.9 200.2 205.5 202.6 200.6 200.8 197.8 200.2 210.1 219.3 224.5 228.2 230.7 233.7 234.8 234.2 234.5 234 232.2 229.6 230.5 232.8 234.5 230.7 223.4 232.3 223.3 233.2 239.3 243.6 247.6 250.8 254.4 255 256.7 259.2 262.8 264.5 266.2 268 269 269.1 268.6 269.8 271 271.8 271.3 269.6 264.8 259.3 253 251.1 249.4 248.3 245.9 241.5 235.5 227.2 218.5 218.7 217.7 214.1 210.5 208.4 206 201.1 200.5 195.2 192.4 205.3 228.1 236.3 232.8 234.6 239.8 245.5 247.2 243.4 238.2 238.8 240.3 244 246.4 248.5 252.7 265.2 286 297.3 297.9 293.3 294.2 297.7 297.4 293.2 277 277.7 283.9 289.2 299 306.1 316 318.9 320 321.4 315.5 306.3 297.5 290 282.4 275.8 271.9 266.6 261 253.9
307.1 305.3 300.5 292.5 285 266 251.2 258.2 264.7 267.9 271.9 278 283.4 296.4 303.1 314.7 327.7 335.5 337.2 336.8 332.4 329.6 323.5 316 309.1 295 285 277.9 259.3 250.5 245.8 241.1 236 231.9 226.2 218.2 209.8 208.5 210.1 208.2 201.3 195.5 189.6 186.3 184.4 188.4 187.9 184.9 183.4 186 185.4 185.9 188.3 192.7 195.3 198.7 201.8 202.1 201.6 199.9 195.5 199.7 200.7 200.4 198.8 193.4 187.9 179.8 175.5 168.7 172.2 190.1 216.1 218.7 221.1 220.4 218.2 216.6 213.8 206.2 200.5 193.4 184.1 172.5 180.9 189.8 193 198.7 201.2 199.4 198.1 199.3 196.8 195.5 201.8 205.6 203 205.4 206.8 210.7 213.8 214.4 215 217.6 219.2 217.3 221.2 223.8 224.6 223.6 223.1 227 218.6 229.2 237.9 245.8 252.4 256.1 259.7 261 262.7 263.1 265.5 266.5 267.8 268.6 268.5 268.3 267.4 266.9 266.6 268.5 270 268.6 263.7 255.8 249.1 245.5 243.9 242.5 241.7 238.1 233.6 227.5 218.8 211.3 210 207.6 204.7 201.6 199.2 196.3 196.3 193.1 190.7 203.3 223.5 227.2 226.3 230.4 235.4 242.2 248 249 247.2 242.8 241.4 243.6 246.3 251.3 262.6 281 293 295.8 295.4 294.6 301.9 300.6 294.8 290.1 277.3 265.4 281.1 297.1 309.2 318.4 323.3 326.1 324.2 313.1 305.2 297.1 289.6 284.1 278.8 274.7 268.9 264.3 260.4 255.9
317.1 310.7 303.1 295.1 285.4 270.1 256.4 262.8 270.4 279 289.9 300.3 302.9 309.7 318.9 324.9 333.1 335.9 336.9 336.5 333.5 330 321.5 313.8 305.2 290.9 277.6 263.7 250 245.3 242.7 241.6 233.6 225.9 220.8 223.1 227.2 224.2 225 223.1 218.4 206.6 196.4 190.9 194.6 194.9 195.5 193.7 193.2 192.9 191.5 189.6 194.2 198.3 202.4 203.6 205.9 207.2 207.7 207.1 206.5 205.7 206.6 208.7 204.7 201.1 193.2 187.7 180.4 174.9 167.7 169.1 190.1 210.6 212.6 212 213.2 213.4 208.7 200.5 198.3 192.2 182.8 171.6 176.4 187.5 191.6 195.1 195.1 193.1 194.8 198.5 197.8 196.1 195.7 196.9 197.7 196.8 193.8 198.4 204.2 205 209.7 211.1 210.3 212.1 213.5 210 208.1 211.5 213.7 221.7 232.2 236.1 243.9 249.5 255.4 258.8 261.5 263.3 265.2 266.8 268.4 270 271.6 272.2 271.7 270.8 269.4 268.4 264.9 264.1 266.2 264.9 261.6 255.2 247.1 241.5 237.4 237.4 240.7 237.9 234 228.5 222.7 216.1 204 201.9 199.5 196.1 193 191.2 191.4 187.8 192.3 202.7 216.6 218.6 222.1 226.5 231.7 238.3 245.2 248.5 250.7 252.6 254.1 257.2 256.8 264 274 284.6 295.9 298 298.5 298.2 300.1 299.8 299.1 292.4 277.9 262.9 282.1 292.1 297.3 303.3 311.4 312.7 308.9 303 295.6 289.8 284.9 280.7 276.8 272.1 271.1 267.5 262.3 256.6
324.2 313.5 304.6 296.5 287.9 275.2 263.1 265.8 275.7 291.2 307.5 321.5 324.1 326.5 330.3 331.1 334.7 335 336.1 334.2 331.8 326 319 310.9 299.1 286 263.5 253 252.6 254.8 257.7 258.4 249.8 241.2 239.8 245.3 249.1 241 240.6 238.2 234.7 224.8 211.8 206.9 205.4 203.3 202.3 202.8 204.5 203.3 197 195.7 200 204.7 206.6 207.3 209.6 212.4 215.8 216.5 217.4 217.1 216.6 214.2 208.6 204.3 196.3 188.8 183.1 179.6 175.7 170.8 168.8 179 196.9 205.3 207.9 207.3 200.3 197.1 190.2 189.2 182.6 171.1 173 186.5 190.1 190.5 189.2 190.5 194.4 198.2 200.6 199.7 201.6 202.4 200.4 196.4 191.4 192.3 195.8 198.2 202.1 198.7 199.5 202.1 207.6 216.7 217.3 217.6 219.2 228.7 237.4 246.8 253.7 258.1 263.2 266.2 267.3 268.5 269.5 271.7 274.2 276.7 278.9 279.8 279.8 278.1 276.3 273.2 271.9 266.2 261.7 258.5 255.2 245.8 240.9 238.5 231.5 230.1 231 228.4 226.3 223.7 219.6 211.3 203.2 198.3 195.8 191.1 191.3 186.1 186.3 191.3 197.8 206.1 211.5 213.5 217.6 223.4 228.6 235.5 243.5 253.7 257.2 261.4 265.8 267.4 272.6 275.6 279.5 285.2 291.9 294 294.1 298.1 300.3 298.4 292.4 289.6 276.5 264.2 266.5 278.3 281.6 289 295.6 297.3 297.4 293.1 287.2 283.3 279.5 276.7 275.6 267.6 263.1 259.1 255.2 252.8
329.9 322.1 313.6 303.6 290.4 276.7 265.1 276.6 287.6 303.5 317.4 327.3 333 335.2 331.2 331.2 332.9 331.3 328.5 326.2 322.4 316 308.1 302 284.5 272 260 263.2 262.5 268.3 272.9 275 269 261.9 266 269.3 270.8 260.9 256.4 254.4 251.3 243.6 237 230 225.8 220.1 214 211 211.1 210.5 209.5 206.1 205.5 208.3 210.6 212.7 214.2 216.8 218.5 219.4 218.7 217.3 214.9 211.5 207.2 199.8 193.4 187.7 183.5 182.1 177.7 176.5 175 168.6 173.2 186.3 191.6 194.1 193.1 190.1 184.4 183.2 175.6 170 170.8 184.3 184.8 185.6 189.1 192.2 196.2 201.2 201.1 201.4 200.8 200 193 189.5 190.5 192.1 192.5 194.2 196.9 203.2 206.8 213.1 217.8 222.9 224.5 225.3 223.8 230.3 235.9 247.2 255.4 261.8 266.8 269.5 271.3 272.4 274 275.2 276.8 278.8 280.5 281.2 281.3 281.6 279.9 278.3 275.5 270.1 265.4 260.7 255.2 250.1 245 239.5 235.7 230.1 224.9 216 215.6 211.4 206.7 201.5 198.1 195.9 194.9 196.5 196.8 190.9 185.4 193.8 203.8 211.8 213.7 210.3 215.1 219.9 224.7 232.5 241.3 249.4 258.3 265.7 270.8 276.9 277.8 283.3 286 287.6 292.1 294.5 291.3 296.4 298.1 292 287.2 288.8 280.9 262.4 258.9 262.9 272.4 276.1 283.9 287.8 287.7 283.5 277.1 277.1 272.2 269 264 262.4 263.3 266.1 263.9 260.2
334.6 329.4 319.5 307.7 291.8 276.8 273.7 282.3 300.1 315.8 323.9 334.1 342 342.5 332.7 331.9 331.6 329.5 322.6 313.5 309.1 301.3 289.3 281 271.5 268 267.3 271.9 274.6 279 282.4 280.8 279 274.7 278.9 281.9 273.8 274 272.3 270 267.1 263.1 259 251.5 242 232.3 225.2 220.4 219 217 218.3 219.7 214.1 213.3 214.5 215.7 214.1 213.9 213.7 214.7 214.6 213.7 211.8 207.2 201.7 196.2 192.7 188.6 185.8 183.5 179.2 177.6 179.8 176 168.4 168.7 172.3 183.8 184.5 181.5 178.8 179 173.1 169.5 176.9 178.8 178.9 185.3 190.1 194.1 199.1 203.7 206.3 202.9 200.8 197.5 189.2 187.8 190.1 194.5 197 202.4 204.8 206.1 209.3 214.3 219.9 225.7 229.4 230.4 229 231.3 234.5 240.4 244.6 250 255.6 262.2 266 270.2 272 273.5 274.7 276.8 278.2 279.8 281.9 284.3 285.1 283.1 280.7 276.5 270.5 265.9 261.5 257.7 250.1 243.9 235.3 230.8 228.5 225.2 211.7 207.6 208.8 209.8 212.5 206.4 202.8 201.9 198.6 188.7 183.6 198.1 205.6 210.7 211.3 207.1 211 216.9 223.2 229.5 236.9 243.9 255.2 263.9 270.3 273.4 276.9 282.3 287.2 293.8 295.2 294 282.4 287 289.3 283.7 285.6 287.5 277.6 268.1 255.3 258.6 257.9 270.1 276.7 279.4 280.2 276.5 274.1 270 267.4 265.7 267.9 271.3 266.9 268 267.1 263.5
340.3 330.2 320.1 306.3 289.1 285.7 276.9 291.7 309.3 320.7 325.4 336.5 342.6 337.7 331.1 329.3 325.6 320.9 316.4 310.6 301.9 294.4 283.5 276.3 280.8 277.9 275 279.2 282.6 284.1 285 288.5 288 291.3 288.5 290.3 295.4 299.6 291.5 287.4 285.7 281.9 279.2 270.1 259.8 247.4 236.6 233.2 230.5 230.1 230.2 226.7 222 219.4 218.6 217.7 217 213.2 211.2 210.1 211 209.1 208.3 206.7 204.4 197.9 193.4 188.7 187.2 186 182.7 181.6 181.8 183.1 182.2 179.5 166.1 168.9 168.4 169.8 173.2 173 169 176.2 175.7 176.2 178.1 184.1 189.7 195.4 201.1 206.6 208 202.8 200.5 195.5 187.8 187 198 203.9 208.4 216.2 217.4 218.2 217.3 219.1 221.4 225.9 229.2 229.7 232.3 241.5 249.8 254.3 258.2 261.6 266.3 268.6 268.9 269.6 269.6 270.2 270.4 274 277.2 280.5 284.2 287.7 287.5 284.9 281.3 277.8 273.5 268.7 263.4 257.4 249 248.5 245.9 243.8 239.8 233.1 222.7 212.2 211.6 212 213 209.1 202.9 200.5 192 187.6 190.2 198.4 197 197.1 198.5 195.4 204.9 212.8 223.9 231 236.9 243.1 249.9 260.3 264 267.2 278.4 286.2 293.8 297.5 295.8 292.2 279.6 276.3 276.4 273.2 276.5 277.1 268.5 262.5 256.1 260.1 255.9 263.7 264.9 272 273.6 273.4 274.4 271.1 269.9 272.1 273.9 272.5 264.3 260.2 258 252.9
340.9 334 322.6 308 297.2 293.3 286.1 299.7 314.4 323.9 329 333.8 333 331.1 328 326.5 320.8 316.3 312.8 304.4 289.4 290.8 288.1 284.6 289 288 288.2 290.1 294.1 299.8 302.3 305.4 304.1 307.3 305.3 304.1 307.9 308.4 310.2 304.8 299.5 293.2 287.4 277.6 267.7 255.5 246.8 245.7 242.3 239.2 238.3 232.3 226.1 224.1 223.3 220.1 217.2 213.5 211.6 207.6 207.1 204.1 204.2 202.5 200.2 194.8 189.9 186.5 185.1 186.6 185.2 183.1 183.2 185.3 185.2 184.6 178.1 172.7 167.4 168.2 167.4 168.2 172.6 175.9 174.8 175.3 178.4 184 189.8 194.8 201.4 206.4 204 198.8 194.9 187.1 185.5 187.4 194.9 199.9 201.1 207.9 211.6 214.3 219 221.7 226.6 230.2 229.8 229.7 237.8 250.4 257.2 262.2 265.6 268.5 270.3 271.8 272.3 271.7 271.1 269.7 270.5 272.5 274.5 276.5 282.8 282.3 282.4 281.9 279.4 276.5 272.5 268.3 265.1 260.3 259.6 260.5 261.6 261.3 260.2 249.4 233.3 220.7 214.7 212.7 209.7 205.6 200.5 196 194.4 186 182.9 180.4 181.9 183.5 196 204.6 211.7 220.9 225.1 232.8 237.8 242.9 247.8 256.2 258.8 266.3 284.8 290.6 293 295.5 292.8 285 278.1 273.8 270.6 268.4 265.3 263.2 260.6 257.8 248.2 248.9 259.2 259.1 259.5 262.6 265.1 268.1 269.4 267.6 272 273.9 274.9 271.3 261.8 255.3 251.7 252.4
343.8 335.2 326.4 311.3 304.6 300.8 296.5 308.1 314.8 325.4 330.5 329.4 326.7 324.1 318.9 320.6 315.1 305.9 298.9 299.9 301 301.1 297.5 295.3 298.5 303.8 300.3 304.7 313.7 314.9 315.7 319.4 320.7 322.1 322.9 318.6 315.9 313.6 312.5 307.7 302.2 295.5 289.3 279.2 267.7 258.9 255.7 251.9 247.5 244.8 240.6 235 229.2 224.4 220.8 217.9 215 212.1 209.3 203.9 200.9 196.8 194.5 192.5 190.4 188.6 187 184.7 184 182.9 181.5 179.7 179.5 180.4 180.7 179.8 177.4 173.9 172.6 167.7 165.9 166.8 173.7 178.1 177.1 176.2 178.4 184 189 195.7 201.1 202.1 200.1 191.7 182.4 189 193.3 195.4 192.6 193.9 198 202.9 214.2 219.5 220.7 222.1 225.9 232.7 231.3 228.8 237.5 245.8 253.1 261.1 266 267.5 269.2 269.9 269.8 268.9 268.3 264.4 267.5 267.7 269.5 271.8 276.2 276.2 276.8 279.1 278.2 275.8 273 267.2 262.6 262.9 266.8 268.5 270.1 271.1 269 262.3 248 233.6 223.1 217.1 213.3 207.9 202.5 202.3 203.1 199.6 199.4 200.3 178.3 185.6 204.1 212.8 223.4 229.8 232.6 232.8 239.3 243.9 249.8 253.4 262.1 273.9 288.7 291.9 290.3 288.9 284.3 281.5 275.2 269.3 266.9 264.3 260.9 258.1 257.7 248.9 240.8 242.6 252.6 260.1 264.2 260.9 262.5 264.2 265.9 267.8 271.8 273.7 271.7 266 258.9 257.2 258.4 257.4
344.5 336.7 329.7 320.8 311.1 305.4 300.6 310.1 311.9 319.2 324.3 321.5 320.3 315.4 311.8 310.4 306.8 306.9 307 312 316.3 323.7 322.4 321.7 326.6 332.1 321.3 323.1 326.5 328.5 327.3 327.2 327.2 325.6 322 317.9 317 315.9 315 312.1 304.6 297.9 290.9 280.8 270 263.9 262.2 257.8 252.3 246.9 241.1 234.9 231.5 226.5 223.8 221.3 216.8 210.7 207.6 204.5 199.6 197.1 196.6 194.1 191.4 188.5 186.4 184.5 182.8 181.2 180.2 179.2 177.1 176.2 176.2 175.4 174.7 173.6 172.8 169.8 167.1 165.6 175.3 180.8 182 180.4 181.9 185.3 190 195.8 199 199.7 197.1 187.5 181.1 183.1 188.4 193.9 195.4 195.9 195.7 204 218.4 222.6 224.2 227.6 226.3 225.7 225.7 224.8 229.4 241.2 249.3 253.8 257.9 260.1 261.2 262.9 264.3 263.7 262.8 259.8 263 263.5 265.9 267.8 268.3 270.3 270.6 274.6 276.2 273.7 270.8 268.7 268.6 271 272.9 272.3 269.9 271.5 275.3 261.4 244.2 239.7 234.9 223.7 217.1 208.2 200.9 197.6 194.8 191.9 193.5 183 176.9 200.5 211.7 220.2 231 237.4 239.4 243.1 247.9 250.8 256.6 260.2 267.5 276.1 284.1 286.5 286.4 283.3 279.5 276.9 268.8 268.5 263.7 260.7 259 256.9 255.5 253.8 239.6 239.7 251.1 256.8 264.8 269.6 267.6 267.7 265.5 267.4 268.8 269 265.3 260.4 259.6 262 265 264.2
343.5 337.4 329.9 321.4 312.3 305.6 302.7 303.6 306.4 310.7 313.5 312.7 310.5 309.6 309.3 309.1 312.2 318 327.4 336.2 339 339.2 337.8 333.9 331.8 332.5 325.5 329.1 329.5 324.5 321.8 322.4 323.9 322.4 320 316.6 314.8 317.1 316.2 313.4 306.9 300.5 292.7 281.3 274.5 268.7 264.2 259.5 253.5 246.1 240.7 239.3 237.1 231.1 228.3 225.8 223.1 216.7 212.9 203.6 200.3 201.2 202.5 201.2 197.6 188.1 186.6 184.8 182.8 181.3 180.1 178.6 178.3 176.4 174.4 173.1 172.8 173.2 172 170.1 168.2 165.9 166.5 179.9 185.3 184.6 186.2 188.3 191.8 195.6 197 197.7 193.7 187.3 180 183.2 187.6 192.2 195.8 198.3 199.7 198.9 209.6 212.1 215.4 216.3 217.1 217.9 220 220.4 227.4 238.3 243.2 247.8 252.3 255.7 258.2 259.6 259.2 258.2 257.4 254.5 256.7 259.8 260.9 262.3 262.4 262.9 264.4 266.2 268.4 268.9 270.2 272.8 274.8 277 275.1 274.2 271.9 268.1 263.2 257.1 252.2 249.2 242.9 231.7 218 207.7 200.3 195.7 190.1 185 182 174.8 197.8 207.1 218.4 227.1 234.2 240.3 244.6 248.3 256.9 257.6 260.9 267.2 272.5 275.1 275.5 274.2 273.6 274.4 271.3 267.6 259.7 260.4 257.9 253.6 251.5 249.6 252.5 252.9 251.8 239.4 231.3 241.9 252.6 266.9 271.4 271.1 266.7 262.7 258.7 260.1 258.2 257.4 258.9 263.6 269.5 270.5
341.2 337.2 328.2 319.5 314 310.7 307.8 307.9 306.8 307.2 307.6 308.9 312.1 317.1 321 327.7 328.8 339.9 344.7 344.5 343.2 343.7 340.1 333.7 329.9 321.7 324.4 326.6 320.9 317.6 317.1 318.4 323.4 322.7 319.3 315.8 309.1 304.7 306.4 307.4 302 294.8 287.9 279.8 276 270.5 264.5 256.9 251.6 247.6 246.4 244.8 243.2 238.9 235 231.4 228.3 220.5 211.9 205.1 208.2 208.4 208.5 206.2 201.9 190.9 189.7 187.7 184.6 181.2 180.1 178.7 177.1 176.1 174.7 173.5 172.4 171.3 169.5 168 167.2 166.5 165.9 171.8 181.5 183.7 186.4 190.3 193.1 195.3 196.3 196.9 193.7 189.8 183.3 179.1 185.8 188.8 192.1 195.4 198.6 201.5 199.5 201.2 203.6 206.1 209.9 211.3 214 220.4 230.7 234.2 241 251.2 254.8 257 257.9 258.2 256.9 256.1 254.1 251.2 252.9 256.1 256.4 256.8 257.3 257.4 256.7 258.8 263 265.8 270 274.5 276.9 277.6 277.3 276.2 274.3 271.4 268.5 263.3 254.4 249.5 239.6 228.4 219.5 204.7 195.1 190.9 186.8 181.3 174.7 180 195.7 206.7 218.9 227.9 233.9 239.2 243.8 247.9 254.1 260.9 264.2 267.7 271.6 272.7 272.3 269.8 265.5 260.7 258.1 253.6 249.5 249.4 249 245.4 240.4 238.2 243.3 249.8 251.2 250.4 243 230.5 232 252.5 261.2 270.9 267 262.9 258.9 252.3 250.5 251.1 253.6 256.1 260.3 261.2
338.1 336.3 327.6 318.2 315.4 314.2 314.4 312.3 309.5 309.2 309.6 320.9 334.4 340.7 349.5 353.5 346.3 342.1 341.4 345.1 342.5 339.2 335.6 331.5 319.8 316.8 316.8 315 312.4 312.6 311.6 309.5 315.5 317.5 313.7 310.8 304.8 298.9 294.5 296.1 293.1 286 279.1 272.6 268.9 265.3 259.8 254.2 249.8 248.1 247.8 246.8 244.8 240.3 232.5 221.9 216.7 209.6 215.1 212.7 213 212.6 210.9 208 203.3 195.9 191.1 188 183.4 184.2 189.6 182.9 178.7 176.9 179 176.3 174.8 173.7 172.2 169.7 169.2 166.5 165.9 166.3 174.9 179.1 182.7 187 189.8 193.6 195.8 196.1 193.4 191 185.3 177.9 182.8 186.8 189.9 192.7 196.3 198.4 199.9 202.8 205.2 209.4 212.1 214.6 215.8 219.1 224.7 231.6 238.1 244.2 248.8 252 253.9 254.6 252.8 251.1 249.6 246.9 244.2 249.4 251.5 250.5 250.2 250 249.6 254.2 260.3 264.7 268.1 272 276.3 278.7 277.6 275.3 273.7 271.1 265.4 255.9 246 239.7 231.6 224 213.4 200.5 191.2 185.2 183.4 178.7 171.4 179.1 192.1 203.1 212.8 220.6 226.4 230.7 235.9 243.3 248.1 256 261.8 267.5 266.8 265 263.3 261.3 258.1 254.4 250.6 246.9 243.9 241.9 240.1 238.7 234.7 233.7 236.8 240.5 245.7 249.7 248.5 233.7 220.5 244.1 261.2 267.2 262.9 257.2 254.1 249 245 245.7 247.9 249.3 251.3 251.5
335.3 333.4 327 318.9 316.7 318.6 319.1 318.2 315.3 314.9 324.7 337.4 353.8 358.3 363.8 363.2 359.8 351.3 343.7 341.9 337.6 332.2 328.6 327.3 319.2 315.4 315.2 310.8 305.9 304.7 302.8 301.4 300.2 302.7 301.2 297.1 286.9 282 285 285.2 280.7 274.7 266.8 264.1 261.1 257.3 251.5 247.1 245.1 243.4 243.5 242.6 238.2 229.6 220.6 220 222.5 221.2 218.4 216.6 215.2 213.4 209.7 203.8 199.9 194.6 190.5 187.4 184.9 186.3 191.9 193.9 192.4 186.3 186.7 185.2 182.5 184.7 177.2 174.3 169.3 167.6 165.3 163.5 170.1 174.4 178.4 181.8 183.4 186.2 190.7 195.4 196.6 194.2 189.5 183.7 176.1 182.6 186.5 190.5 193.9 197.1 201 205.2 209 213.6 217.2 220.6 222.9 220.5 224.3 230.1 235.8 239.5 242.5 245.2 247.5 248.1 248.1 246.3 242.6 240.6 239.5 240.7 242.5 242.7 239.6 239.7 243.6 251.6 258.2 262.5 265.5 270.9 274.4 275.7 273.8 271.6 268.3 261.8 257.7 248.9 241.7 231.6 223.3 217.6 212.4 206 197.8 185.2 177.6 174.4 171.5 180.2 195.5 206.4 217 226.6 234 236.6 243.9 253.5 256.3 256.6 260.3 266.8 268.5 268.6 265.6 260.8 255.2 249.5 245.1 240.8 238.2 237.9 237 233.6 229 227 228.5 227.5 227.8 231.6 231.8 223.6 214.7 229.7 239.6 244.4 244.7 244.1 243.1 240.4 238.8 239.2 240.1 241.5 242.7 243.9
331.3 330.4 323.2 318.9 320.4 322 324.2 324.5 320.7 322.6 336.2 342.1 352.2 360.1 363.2 362.2 359.2 358.1 348.8 342.3 337.3 330.5 328.6 324.3 310.5 308.1 306.6 302.1 302.4 301.2 299.3 298.4 298.9 300.2 292.5 291.1 294.3 290.3 285.5 276.5 267.7 263.6 255.7 254.3 249.6 248.1 243.8 242.8 239.5 238.9 238 234.3 225.9 229.5 232.1 228.9 227.1 224.9 221.7 223 217.5 217.8 211 210.8 210.3 204.1 199.2 196.9 194.1 191.9 194.7 198.2 200.8 200.7 199.8 198.8 197.4 195.4 191.5 189.9 180.6 171.4 167.7 165.2 164 165.3 171.3 176.2 178.5 180.2 184.4 189.4 194.4 197 191.6 184.5 176.8 175.5 181.7 189 191.9 197.4 202 206.1 211.1 215.9 220.8 224 224.8 220.6 221.9 224.3 228.2 231.2 233.6 236.9 239.7 239.6 241.5 240.4 237.1 233.9 228.3 232.4 234.8 236.6 229.8 231.3 242.1 248.9 253.2 257.3 263.9 270.3 273.2 272 270 267.3 263.5 257.7 252.7 245.8 236.4 225.1 221.8 216.7 206 196.6 187.4 178.9 173.5 170.8 170.4 178.9 188.9 206.7 219.4 237.3 242.1 248.6 250.5 256 262.9 264.5 265.5 268.1 269.2 269.9 269.4 264.3 259.2 254.7 248.5 242.5 238.2 234.4 229 228.4 225.9 221.9 221.3 220.2 218 216.2 214 213.3 206.8 215.6 222.3 226.9 230.4 232.4 232 232.6 233.1 234.1 233.5 233.2 233.7 236.2
325.7 325.4 322.1 319.6 322 324.7 327.9 329.2 327.7 325 329.4 340.6 355 355.4 355.8 353.4 351.6 350.9 344.2 337.5 333.6 325.7 320.3 310.8 303.2 302.3 302.3 300.5 300.1 298.9 299.4 301 303.2 303.7 303.5 302.7 300.7 294.7 290.8 285.9 276.9 270 262.5 257.8 252 247.5 243.8 241.7 239.1 239.9 236.8 238.3 240.9 238.5 235.4 234.1 231.4 229 228.6 226.6 222.3 223 223.2 222.8 215.8 213.8 209.4 207.1 208.2 202.9 198.7 202.2 206.7 210.3 209.7 208.4 213.9 213.8 205.5 203.7 198.1 189.7 182.4 173.4 165.6 162.5 164.5 166.9 172.2 176.1 180.9 185.3 190.6 195.9 192.1 182.8 176.8 174.2 183.4 187 190.3 195 200 205 210.3 214.7 217.7 220.8 222.6 216.8 212.6 214.9 219.5 221 223.5 227.4 228.1 228.8 229.5 228.9 227.2 222.5 218.7 223 225.9 230.7 226.5 220.9 229.8 234.8 246.7 255.3 262.9 266.7 264.9 263.3 260.9 257.6 254.4 249.7 247.4 238.1 230.3 220.5 212.7 205.9 195.3 192.3 185.7 175.3 171.6 167.4 172.1 179.7 191.8 209.2 225.9 234.4 242.4 255.2 260.8 264.1 266.8 273.7 273.4 275.4 274.9 273.2 272.2 269.8 268.2 260.8 251.3 244.8 240.2 235.7 231.4 227 221.3 219.2 216 212.7 210 208 205.3 202.2 200.4 205.9 214.2 219.2 223.2 226.2 227.1 228.9 229.4 228.5 226.8 224.8 222.1 224.7
320.7 319.6 318.8 318 322.5 326.1 330.2 333.4 332.8 334.6 333.7 340.6 344.5 347.7 350.2 352.2 350.8 348.4 340.8 333.5 327.1 321.3 312.1 305.3 302.6 301.3 300.8 299.5 299.3 299.3 300.9 304.3 306.6 306.9 307.4 307 305 301.8 299.3 293.4 287.4 277.9 270.7 264.6 256.5 249.6 243 240.7 244 244.4 244 244.4 245.4 242.4 242 241 238.7 238.4 234 232.3 234.2 238.2 235.1 233.1 224.7 218.7 221 220.1 217.7 215.1 204.2 205.2 207.2 209.9 210.1 211.1 217.1 219.7 216 215.3 214.2 206.4 201.6 193.2 183.8 172.6 161.3 164.2 163.8 168.9 177 181.7 184.1 190.9 190 183 176 171.9 184.6 186 188.8 193.3 197.4 201.3 207.5 210.1 212.4 214.7 216.1 215.3 208.6 204.4 206.5 211.4 214.2 215.8 218 219.9 220 217.1 215.9 212.9 207.2 213.5 217.3 216.3 210.3 211.9 227.7 239.2 246.9 254.4 260.4 260.6 260.8 260.9 256.6 249.5 244.8 242.5 239.8 233 224.3 215.9 208.9 208.3 207.3 201.6 184.4 174.7 169.1 167.3 178.8 187.8 202.5 213.7 224.7 234.6 243.7 252.9 269 278.7 279 275.7 274.8 278.4 280.8 277.1 275.3 272.5 268.2 263.8 259.2 250.2 243 239.6 236.4 231.7 228.8 224.6 219 215.9 213.2 212 210 207 196.3 194.7 200.5 207.6 214.5 219.2 226.7 230.3 229.7 228.4 225.5 217.9 211.7 208.5
313.6 312 314.2 316.2 321.4 327.8 332.3 335.4 337 339.5 343.3 347.5 349.3 351.4 355 356.3 354.7 350.5 342.8 332.4 322.7 314 308.3 305 301.9 300.6 299.8 299.4 301.3 302.7 303.3 306.4 310 311.2 312.5 311.4 310.2 307.2 304.7 300.4 293.4 282.4 274.3 264.9 255.5 246.3 243.6 246.5 247.5 248.1 246.9 247.1 248.4 248.9 247.6 249.6 245.6 243.4 241.6 242.3 244.7 254.7 251.8 243.8 236.9 227.4 228.7 230.9 227.7 220.8 222.3 217.9 216.4 215.3 214.2 214.7 220.3 227.1 227.5 225 220.5 216.8 212.6 202 195.6 188.5 176.8 162.1 162.3 163.7 166.2 173.8 180 186.7 185.1 181.9 176.3 169.9 179 183.2 186.4 190.2 195.8 199 203.6 205.8 207.6 209.5 209.9 210.1 206.8 200.4 199.9 203.5 205.2 205 207.4 209.2 207.4 205 203.8 197.9 210.5 213 211 208 203.7 215.4 225.2 234.1 242 250.4 254.4 255.1 253.6 252.6 247.2 243.7 239.7 236.8 233.1 227.6 222.8 222.5 221.3 219.3 212.3 204.5 183 172.6 167.6 171.7 185 201.8 215.7 225.1 229.3 236.6 249.9 256.5 262.6 267.8 270.8 275 275.6 285 285.2 281.3 277 273.5 271.4 270.5 262.5 253.3 252 247.7 243.7 240.2 238.5 234.4 227.5 220.9 214.9 210.9 207.5 204.9 200.8 190.2 194 202.4 207.9 214.6 222.3 225 225.4 223.9 218.7 215.6 211.2 208.3
310.9 310.5 311.2 314.4 322.2 329 334.8 338.4 339.5 340.8 343.9 348.3 352 355 357.6 356.7 352.7 348.7 339.1 328 320.5 312.1 307.3 305 302.4 300.1 301.7 304.5 305.9 308.9 311.6 308.3 311.1 314.4 317.1 317.1 313.9 311.3 308.8 301.6 295.3 284 274.7 264.9 252.4 247.4 248.4 250.6 251 252.7 254.1 253 254.6 256.6 259.4 260 258.5 253.5 250.7 250.6 262 267 262 256.2 247 240.1 233.6 234.9 237.6 234.8 230.3 224.4 225 222.7 223.1 223.3 223.6 225.6 227 224.7 225.7 221 214.1 207.1 206.1 195.4 182.6 178.4 163.8 159.4 163 163.6 167.6 174.8 178.6 175.7 174.4 167.2 175.2 181.4 184.8 187.6 191.7 195.8 199.6 202.4 203.4 203.9 205.5 204.6 203 199.9 195.4 194.3 194.3 192.2 192.7 192.2 193.4 194 193.1 194.8 198.6 206.1 206.8 200.5 205.7 214.1 221.8 224.2 228.6 233.2 236.5 238.6 239.2 240 239.9 238.5 236.7 233.2 229 226.5 225.9 223.2 221.9 216.2 208.4 196.2 178.9 171.6 166.4 170.5 185.4 214.6 224.9 230.3 236.3 241.5 244.8 251.4 263.9 271.6 273.8 278.2 272.8 271.2 272.8 273.9 275.8 275.2 274.1 269.9 263 262.9 265.7 261 254.8 248.9 248.8 244.6 235.4 226.6 217.8 211.8 204.3 197.7 194.1 190.3 188.6 196.1 202.5 208.8 214.9 218.3 220.8 221.9 221.5 220.8 218.8 216.3
309.7 310.2 311.8 314.3 321.2 327.7 333.6 334.9 336.8 340.2 343.3 351.7 353.3 358.7 359.8 356.1 352.5 347.3 336.2 323.1 312.5 306.5 305.5 303 300.8 302.2 304.6 306.9 307.8 309.3 310.2 307.7 308.9 312.1 314.5 315.3 312.1 309.8 306.1 300.7 295 287.2 279.6 264.8 252.4 252.3 252.6 254.4 256.8 258.7 260.2 262.3 261.2 263.1 263.6 263.2 264.1 260 257.9 260.4 275.2 277.5 271.6 268.8 263.6 258.4 250.9 242.2 243.8 236.5 233.9 229.8 226.9 226.5 227.7 232.4 225.9 224.1 220.8 218.3 216.5 215.1 213.4 212.2 207.5 197.4 186.3 182.8 180.3 162 158.5 162.5 162.2 163.3 170.7 174.8 166.2 173.5 176.3 178.6 183 185.6 188.1 192.2 194.3 197.5 199.3 199.5 199.3 199.1 197 196 195.1 192.4 190.8 188.4 187.1 186.5 188 189.9 189.7 190.6 191.1 192.9 196.1 197.4 210.6 224.9 224.4 225.5 224.6 223.1 223.2 225.5 228.3 229.2 232 232.8 232.6 233.5 229 223.2 221.7 220.7 219.7 215.9 207.8 196.2 178.8 171.1 167.1 166.3 186 216.1 232.6 239.5 245.2 248.9 250.8 252.9 256 260.1 272.5 273 271.4 276.6 282.7 279.7 279.8 278.8 275.7 272.7 274.1 271.8 268.6 266.9 264.6 259.3 258.4 249.7 240.3 230.3 222.9 218.2 214 207.4 198.2 190.3 182.1 181.9 193.3 200.8 206.8 215.9 222.4 225 225.9 227 226.9 223.1
310.2 311.1 315.3 319.6 325.5 331.3 332.9 334.2 335.5 337.6 340 345.8 350 350.7 351 348.1 344.8 336.5 327.9 318.9 306.6 303.3 302 301.2 300.6 300.7 303.2 303.3 304.3 305.5 307.2 305.5 305.7 308.8 310.8 310.4 308.3 306.1 302.7 298.7 291.7 286.1 279.2 268.2 258.4 257.6 258.4 259.4 261.4 264.2 266 267.7 268.8 268.9 268.3 268.2 268.3 266.9 264.4 271.3 282.3 277.9 275.3 272.4 270 263.4 258.8 254.1 246.4 243.8 238.4 233.5 236.8 237.8 238.5 237.1 234.5 232.2 226.4 219.1 214.2 213.6 205.9 201 198.3 195.6 191.7 185 179.5 171.7 165.4 162.6 158.5 160.4 161.5 167.2 169.2 176.6 180.3 181.6 182.6 184.9 187.4 188.8 191.2 193 193.6 193.1 193.3 193.6 192.6 191.7 191.7 193 192.9 190.7 187 184.9 184 185.8 187 187 188.1 190.5 197.6 210.9 219.2 217.6 222.7 224.6 223.6 223.7 223.1 222 223.5 220.8 219.6 221.2 221.9 221.4 221.5 219.3 209.5 214.5 212.8 209.2 202.1 192.2 178.3 170.5 167 167 185.3 213.6 231.4 238.2 243.9 247.9 254.3 251.1 252.4 250.3 255.4 264.8 270.7 273.4 283.7 291.7 287.5 285.5 281.4 279.5 283.1 284.9 280.8 276.9 274.7 274.4 266.8 262.3 248.7 237.7 233 227.9 224 218.2 206.3 196.9 190.1 181.5 177.9 193.6 205.7 214.5 222.5 231.2 233.1 232.6 228.7 223.3
314.4 315.6 321.5 328.5 333.7 337.7 339.1 336.7 336.6 336.8 339.5 345.9 349 347.9 349.1 347 337 330.9 325.5 317.4 305.9 301.5 301.4 300.9 301 300.1 300.7 301.3 301.5 302.4 304.5 303.5 304.2 306.2 306.9 306.7 304.7 302.4 299.8 296.3 290.5 281.8 274.1 262.7 264 262.6 264.7 265 265.9 268.8 270.9 271.8 273 273.2 273 271.9 272.2 273.4 274.1 284.5 288.4 280.5 278 276.8 271.9 267.9 262.9 259.8 257 251 245.3 242.2 240.7 242.5 244.2 241.9 238.7 233.7 232.1 229.3 222 212.8 206.8 201.4 193.7 193.2 193.2 186 180.6 173.6 169.3 167.1 164.7 162.3 160 160.1 171.5 176.9 182.3 187 189.5 189.9 190.1 190.1 191.6 192 191.2 189.5 189.3 188.6 187.9 187.2 188.1 189.8 191.9 192.4 189.9 186.3 183 183.9 184.7 185.9 188.3 195.7 209.3 219 223.1 225.3 224.5 224.7 228.3 230.3 230.1 226.4 220.5 214.6 212.1 207.2 203.5 203.7 205.8 203.4 199.5 198.9 199.6 198.4 197.5 190 179 171.1 167.1 164.8 180.8 204.8 218.6 222.6 226.3 229.9 232.7 238.7 242.5 238.6 240.1 253.6 267.3 273.8 282.7 291.9 291.5 289.9 285.8 287.9 288.1 290.1 287.1 280.4 280.5 274.9 266.3 259.9 247.7 244.2 239.6 234.8 229 222 211.7 199.7 193.4 182.6 175.2 193.8 203.7 212.5 220.6 227.5 225.1 222.3 220.1 217.2
318.2 320.6 327.1 334.8 340.8 343.2 340.5 335.9 333 335 338.5 341.7 343.5 346 345.5 337.3 330.9 327.5 322.3 314.7 305 300.7 300.9 300.2 300.2 300.8 300.7 301.2 301.9 302.9 304 304.3 304.6 303.2 302.9 303.2 301.5 298.7 295.6 291.8 280.6 273 268.9 269.7 268.7 269.8 270.3 268.7 270.7 273.2 274.9 276.2 276.8 276.8 277.1 278 277.8 278.5 281.8 289.8 293.1 286.8 279.4 279.3 277 274.1 269.7 267.7 268.6 267 264.1 260.4 259.8 255.1 253.9 249.1 243.9 238.2 235.2 230.7 221.6 210.7 203.7 198 191 184 183.8 179.2 173.1 170.7 173.7 166.7 164.7 162.8 162.1 161.3 160.6 172.8 178.6 183.6 192.2 194.1 194.7 196.5 197.4 197.3 195.7 190.4 187.7 186.3 185.2 183.4 183.2 186.8 189.3 189.4 188.4 186.6 183 182.6 184.7 186.8 192.8 207.1 216.7 219.8 219.9 222.3 224.7 227.6 231.1 232.8 229.7 225.2 224 221.9 215.3 209.9 208 205.6 198.5 191 189 188 186.3 185.5 186.3 186 181.5 170.1 166.4 165.1 169.2 187.1 196.9 195 197.9 204 215.8 223.1 229 231.4 231.2 238 248.2 264.4 275.8 282.9 286.8 289.4 287.4 286.9 289.3 290.6 292 285.4 277.1 267.1 259 247.2 238.2 233.1 231.6 228.7 225.2 218.5 209.7 199.3 192.5 179.2 172.6 190.9 201.2 207.3 216.7 219.3 217.5 215 214 209.8
328.9 332.6 336.4 341.9 344.7 343.2 335.4 332.2 331.5 333.9 335.5 336.7 336.2 336.7 333.3 329.1 326.2 322.7 316.5 307.7 302.2 301.7 301.1 300 301.2 301.5 301.8 303.2 304.2 310.8 309.7 307.2 304.6 303 301.1 298.9 297.7 294.8 289.9 286.5 287.6 286.4 282.8 277.7 275.5 275.4 276 276.7 277.1 277.5 278.4 279.2 280.3 281.1 281.5 282.3 283.8 285.3 287.9 290.8 291.6 284.2 285.6 285.8 284 281.7 282 282.4 282.8 280.4 276.6 272.2 271.6 267.3 257.8 252 245.9 240.3 234.6 227.1 219.1 209.3 201.9 193 185.8 179.8 178 176 172.9 170.7 170.4 175.5 167.2 163.2 161.9 161.4 159.8 168.7 173.7 179.2 186 187.3 192.2 200 202.4 203.7 203.4 198.5 193.8 191.2 188.2 186.3 179.6 179.8 186.3 187.8 184.6 184 181.2 186.6 189.2 191.8 202.9 211.3 214.5 215.3 216.6 220.9 225 228.2 231.1 232.6 231.9 229.4 228 226.6 220.4 215.5 212.4 210.2 205.9 193.2 192.6 192 191.5 189 185.6 177.7 170.8 166 165.6 163.1 156.7 171.2 181.2 178.8 185.6 195 204.6 213.5 219.5 231.6 233.5 239.3 245.8 253.5 269.5 287.1 292.3 289.6 286.3 286.3 286.5 287 290.9 286.3 277.8 267.5 257.3 247.6 241.2 232 227 227.1 223.6 216 202.4 195.9 189.5 175.9 168 184.6 194.2 201.2 211.4 208.5 203.9 203.8 206.5 205.6
336.9 342.7 348.4 352.5 351.9 344.7 337.1 331.6 330.4 329.7 331.2 331.3 329.8 330.2 328.4 325.2 321.6 317.2 309.7 303.7 302.6 302.1 301.2 301.6 301.5 302.2 304.6 306.2 310.7 309.6 309.3 307.2 304.9 303.6 302.7 301.8 300.2 298.7 296.1 295.3 295.8 293.5 290.4 286.9 281.3 282.1 282.1 282 281.1 279.6 279 279 278.8 278.8 279.9 282.7 284.5 287.2 289.9 291.9 290.5 287.8 290.6 290.8 289.3 288.7 290.3 289.9 288.3 287.5 283.6 278.2 274.5 271.7 261.2 252.6 245.8 238.9 226.7 217.5 210.6 202.5 199.5 196.8 188 181.4 179.2 175.8 173.8 173.2 173.8 175.6 176 167.6 162.3 161.5 158.6 161.7 166.9 172.4 176.5 180.3 185.9 191.4 196.1 202.3 202.4 199.5 195.6 193.7 190.6 188.7 183.4 177.1 179.3 184.1 183.5 179.2 182.3 189.5 196.3 197.9 204.9 209.8 211.1 212.5 215.8 220 225.5 229.7 233.9 236.4 237.4 236.4 232.5 232.1 230.3 220.8 216.9 212.9 201.2 199.2 198.3 197.8 197.2 195 192.2 187.9 178.8 169.3 167.3 164.6 155.5 159.6 168 185 204.3 211.1 212.5 221 233.3 247.7 253.1 247.9 253.1 260.5 261.4 277.2 284.1 286.6 284.2 281.9 284.9 286 285.9 275.6 278.3 272.1 261.9 251.5 241.1 230.7 225.2 218.9 215 206.4 194.2 190.1 185.5 172.5 159.4 173.6 186.5 196.5 202.1 198.3 194 191.8 202.2 202.4
341.4 346.2 355.3 355.7 352.2 347.9 343.5 335.2 329.4 328.9 328.3 328.4 327.5 327.7 327.2 323.5 319.5 314.2 306.2 304 303.4 302.4 302.4 303.7 310.4 312.3 317.4 323.7 323.1 320.5 315.5 312.8 309.5 308 307.1 306.1 305.1 303.6 302 299.7 299 295.7 292.1 288.1 287.8 288.4 287.9 286.9 285.6 280.1 277.2 277.4 277.8 277.4 277.9 278.6 281.8 285.8 288.2 291.3 291.1 292 293.7 295.2 294.2 293.3 294.7 296.9 293.1 291.9 288.4 281.5 276.9 273.2 263.5 255.7 243.9 240.5 237.1 234.4 220.2 215.8 214.3 203.8 191 190.3 184.4 181.7 179.3 179.6 180.9 184.4 185.2 181.8 170.2 162.7 158.9 159.4 160.3 162.3 168.2 172.5 176.1 180.9 188.1 194 194.7 194.6 191.9 191.5 188.8 186.7 184.6 179.5 175.2 178.5 176.4 181.2 185.2 196.6 202.8 203.1 202.6 207.1 210.1 212.2 216.3 223 228.2 233.6 238.8 242.8 243 242.6 240.5 238.1 235.9 229 221.6 214.7 208.8 206.8 208.5 211.5 212.2 208.9 204.7 198.1 188 177.1 171.1 168.1 163.7 154 165.4 186.2 212.7 225 228.5 233.4 242.7 255.1 271 271.7 258.4 254.1 248.7 250.5 262.4 262.6 263.5 265.9 268.6 266.1 266.3 269.2 273.5 263.2 255.2 245.3 233.9 226.2 220.3 212.3 209.3 199.7 189 181.8 177 170.2 156.5 166.2 180.7 188.6 188.5 187.5 185.6 180.8 190.9 188.3
344.8 349.1 352.7 353.7 349.7 347.3 343 334.7 331.3 328.1 327.6 328.5 327.4 326.2 323.9 320.6 316.6 309.9 305.6 304.6 310.1 319.9 325.2 322.5 321 325.7 330.7 330.1 324.8 324.3 322.2 317.9 315.3 312 310 308.9 308.4 307.9 306.9 304.7 298.5 292.6 289.5 289.8 291.8 293.4 293.2 290.6 287.6 281.1 278.2 275.4 275.2 275 275.5 277.5 278.6 283.1 287 289.6 289 292.7 294.7 297.3 297.3 295.7 298.1 296.7 292.4 291.3 287.2 284.6 280 274.3 266.7 256 253.3 249.9 246.5 242.3 235.7 225.2 217.4 210.2 207.8 202.7 198.3 191.7 188.8 190.9 191.8 192.6 195.6 192.4 187.4 172.3 161 157.7 159.8 159.3 160.5 161.8 166.7 173.5 180 182.7 184.4 186 186.7 186.3 185.1 184.8 185.9 184.2 178.9 172.5 174.2 184.1 189.8 191.9 195.2 199.6 201.6 206 207.8 212 217.7 223.1 227.6 233.2 237.4 242 245.9 247 245.8 244.1 241.4 235.6 230.5 223.6 217.5 217.6 222.7 222.9 221.8 218.4 212.5 205.5 198.2 184 176.7 168.7 162.9 152.3 168.1 184.1 210.4 225.9 231.6 236.6 243.5 254.7 261.8 267.1 260.3 250.5 235.4 225.1 235.7 253 259.3 258.9 252.8 262.5 267.6 275.1 279.4 262.3 253.5 241.1 230.1 227.4 218.8 209.9 203.8 192.2 185.4 176.4 168.2 165.6 150.4 162.7 176.3 177.8 174.8 174.2 172.4 170.7 171.3 170.2
343.7 344.2 346.9 346.6 345.8 343.1 338.3 333.4 328.6 327.6 328 328.7 327.3 326 323.3 321.9 319.2 312.2 307.9 313.1 322.1 330.4 328.7 327.7 332.5 334.5 332 326.8 325.9 325.9 322.7 320.6 318.4 315.7 313.7 312.1 311.3 310.2 309 306.5 300 292.7 289.3 291.5 294.8 297.2 297 292.6 288.6 282.1 280.2 276.2 275.1 274.8 275.2 275.8 276.6 278.9 286.7 289.5 288.4 288.3 290.7 294.1 292.6 290.9 290.9 289.9 286.5 286.8 284.7 282.9 277.3 274.7 269.2 263.9 261.7 260.1 260.2 252.3 243 231.5 226 219.8 222.5 215.4 211.2 207.7 204.4 207.5 210.6 211.9 209 205 200 190.7 166.4 159 159 159.1 159.4 159 158.9 163.3 169.3 171 176.4 183.4 186.2 187.7 188.6 189.7 190.5 189.9 187.5 179.3 169.8 176.7 181.9 183.5 186.1 186.3 192.9 202.2 202.1 207.8 215.8 221.6 227.9 233.7 238.5 243.4 247.8 251.6 250.6 248.8 246.7 243 238.9 232.1 226 227.1 230.2 229.7 226.9 223.3 220.5 215 207.5 199.3 190.4 173.6 166.4 159.7 150.6 170.2 205.9 219.9 225.4 230.8 237.5 240.7 244 247.7 243.9 236.4 224.7 208.6 209.2 218.5 235.3 239.6 245.4 255.4 267.9 268.2 263.7 256 243.6 236 233.2 224.6 218.3 213.7 208.3 196.5 176.7 169.6 162.8 161.1 140.5 156.3 164.6 168 170.8 171.5 170 168.2 163.8 163.2
341.3 344.5 346.1 345 346 341.8 336.9 331.3 327.4 327.5 328.9 329.1 328.2 326.1 322.8 321.8 320.7 314.1 311.5 319.8 329.3 334.3 333.9 334.6 334.5 331.4 330 329.2 329.1 327.6 325.5 323.2 320.6 317.6 314.7 313.1 312.6 311.9 311 307.5 301.8 294 290 291.8 294.8 295.9 295.2 291.5 288.7 282.8 280.2 276.1 275 274.7 274.9 278.9 279.7 288.4 292.8 291.7 290.9 287.7 287.6 287.3 288.3 284.6 284.2 283 282.7 282.5 282.4 281.7 275.5 275.8 275.5 271.5 268 267.7 267.2 263.4 255.2 242.8 234.7 231.9 236.2 229.4 228.1 221.2 218.6 220.3 223.5 226.6 222.9 219.1 215.1 206.2 199.1 183.1 161.2 155.8 157 157.8 158.1 158.1 158.1 162.4 170.8 178.4 182 185 187.8 189.4 191.3 192.5 190.8 184.6 176.4 167.8 169.5 172.9 184.2 190.8 192.6 195.1 198 205.8 213.6 221.8 228.1 232.9 239.7 245 249.4 253.9 255.9 253.7 252.3 250.4 247.1 237.5 236.3 234.5 233.7 232.3 233.6 232.2 227.9 224.4 219.8 212.9 194 177.4 172.9 169.6 163.1 159.1 203.2 217.8 218.8 220.6 221.8 220.7 221.6 221.1 218.8 211.1 207.9 203.5 192.6 193 204.3 217 228.9 239.2 247.6 253.1 250.6 239.2 233.2 230.6 226.9 223.9 221.9 219.8 206.8 196.3 184 164.6 161.6 156.2 138.8 132 140.5 150 159.2 165.2 166.2 166.2 161.7 155.1
334.9 346.5 347.9 343.7 342.5 336.6 331.8 327.4 327 327.9 328.5 328.2 327.5 325.9 324.2 323.1 322.1 317.3 315.9 324.1 334.4 337.3 336.2 334.6 333.2 333.8 333.7 331.1 329 326.4 324 320.9 318.9 316.2 315.1 313.9 313.5 312.9 311.4 309 302.4 298 293 291.6 292.6 292.8 291.9 289.8 286.1 280.9 278.3 275.2 274.8 274.6 279.7 285.1 288.2 291.9 293.4 290.2 288.4 287.6 288 286.6 287.9 288.4 287 283.5 282.7 282.3 281.5 283.1 281.2 279.9 282.2 281.5 277 276.9 277.1 272.3 264.8 254.8 241 240.2 240.3 236.9 238.9 236.5 230.7 230.9 232.9 234.3 231.2 229.5 228.1 224.9 217.6 216 202.5 183 172.6 159.6 156 156 157.5 157.4 159.6 167.5 174 178.5 181.3 183 184 185.4 186.2 183.8 177.9 171.8 164.8 168.9 184.7 195.5 203.3 211.2 213.4 217.4 225.2 229.4 236.6 239.9 240.3 248.8 252.5 255.6 260.2 259.7 258 255.5 252.4 246.8 244 243.7 243.5 241.9 240.2 237.2 231.8 226.5 223 205.8 185.6 177.1 173.8 172.2 150 172.6 203.3 210 213.1 212.5 208.6 206.4 203.7 198.5 195.9 192.4 185.8 185.8 184.6 183.5 183.9 191.3 202.8 210.7 218.4 223.2 220.2 215.9 215.5 224.2 225.1 216.8 208.3 202 192.1 179.7 168.5 151 154.3 156.2 149 148.5 139.2 130.4 143.5 147.2 149 148.8 147.9 136.6
328.1 340.1 338.9 337.7 331.8 328.8 327 326.8 326.9 327.5 326.6 326.4 326.6 326.5 326.2 325.1 324.5 320.8 319.8 323.7 330.7 333.5 334 331.3 334.1 336.3 331.8 328.7 326.1 324 322.2 320 318.9 316.7 315.7 315.3 314.8 314.4 312.3 309.3 304.2 299.8 295.9 292.6 291 291.2 289.1 286.7 282.5 279.6 277 274.9 274.7 276.1 282.2 287.9 286.1 288.7 290.9 284.4 285.7 288.3 287.3 287.2 287.4 288.1 286.9 288.2 286.1 284.1 285.5 286.9 285.2 287.6 288.1 287.8 284.6 284.4 281.5 277 272 264.6 250.7 248.4 249 245.7 245.6 246.7 243.3 241 240 240.5 237.3 236.5 235.3 231.9 228.2 224.2 218.9 208.9 194.3 179.1 166.2 157.4 156.5 157 156.9 156.5 156.9 162.7 170.5 175 176.6 178.9 179.5 177.5 175 168.8 164.4 172.1 184.8 205.4 216.8 221.1 227.2 230.9 232.9 236.7 244.2 249.7 250.3 249.5 252.8 255.3 257.4 259.2 261.1 260.8 257.1 252.6 253.8 248.2 245.9 243.5 240.6 239 233.3 225.9 213.4 189.2 177.2 169.5 170.1 151.8 152.2 191 200.9 203.8 202.5 197.8 193.3 188.1 186 181.1 177.3 173.5 169.8 167.5 164.3 168.1 171.8 173.4 177.5 183.5 188.9 191.7 192.9 191 195.6 198.2 194.9 188.7 182.8 175.8 167.3 158.7 151.1 139 142.1 150.6 128.1 128.3 128.7 117.5 118.1 127.9 127.6 126.7 124.6 121.3
322 328.5 330.1 328.8 327.7 327.1 326.8 326.7 326.8 326.7 326.5 326.1 325.9 326.1 326 327.2 327.3 323.7 322.7 326.4 330.6 330.9 330.7 330.9 331.6 331.5 328.6 324.9 322.3 321.2 319.6 319.2 319.2 319 318.2 317.5 317.3 317.1 314.4 311.3 306.3 302.5 299.5 296.7 294.8 292 290.5 285.9 282.1 278.6 276.2 274.7 274.9 276 280.2 287.2 286.4 286.6 284.9 279.7 286 285.5 283.5 283 285 286.6 288.2 288.9 289.5 289.5 290.3 288.3 288 289.4 290.7 288 283.9 282.5 279.6 275.6 271 263 250.9 250.1 250 248.2 248.3 246.9 246.1 244.5 245.5 246.1 243 239.7 236.2 234 229.8 226.1 219.5 211.7 201.7 189.2 177.3 167.2 162.1 157.5 154 156.7 156.2 155.8 155.2 157.1 160.4 167.7 168.6 169.8 167.8 161.4 170.2 181 189.4 205.2 218.2 230.6 234.9 239.8 241.8 246.3 252.9 255.1 255 253.6 251.8 253.1 254.5 254.4 255.8 258.8 257 252.2 251.9 250.4 249.4 246.3 245.7 239.5 232.3 221.9 209.7 193.5 176.3 164.1 157.2 147.8 175.9 194.6 196.9 191.5 187.3 183.7 179.3 172.6 169.4 165.4 161.6 162 157 153.4 151.4 155.4 156.8 150.6 156.2 161 164.8 166.7 167.6 166.2 170.2 171.5 171.3 164.7 162.1 156.2 150.2 142.2 135.8 125.5 118.7 110.1 113.9 115.3 115.2 114.5 113.5 109.2 108.1 109.8 113.2 113.7
321.3 322.8 324.8 325.7 325.9 328 328 327.1 327.1 327 326.2 325.9 326 325.7 325.9 326.2 325.9 323 327.1 327.6 330.2 330.1 329.2 329.7 329.2 326.2 325.7 322.8 320.1 319.4 319.2 320.5 320.7 320.5 319.4 318.8 318.6 317.1 314.9 311.4 306.5 302.7 300.1 298.9 297.5 296 293.6 290.4 284.1 277.4 274.9 274.5 274.6 276.1 274.2 283.6 284.3 283.3 277.9 274.3 282.1 278.3 279.3 281.5 285.6 286.6 287.7 289.1 290.5 291.8 291.4 289.3 288.5 288.8 286.8 285.5 279.5 277.6 274.6 269.4 265.2 253 243.6 242.4 242.3 241.6 243.2 240.4 242.1 240.6 243.8 241.4 239.9 233.6 230.6 228.4 222.3 215.5 211.4 207.7 201.3 194.8 185.8 176.5 171.9 167.6 162.1 157 152.8 155.5 155.6 155.2 155 154.1 157.3 160.3 157.3 169.3 176.3 182.4 194.9 208.8 222.4 231.4 235.9 241.6 247.3 250.8 253.8 253.9 256.2 258.4 255.3 252.1 254.4 253.2 253 255 252.7 252.5 255.2 252.5 250.1 246 239 233.1 228.8 219.8 205.9 194.7 178.4 163.1 156.4 140.2 160.2 173 182.4 178.1 174.7 171.6 166.1 160 156.3 155.6 154.3 151.9 145.7 139.8 131.9 129.8 132.3 133.2 136.4 141 149.1 148.7 146.5 145.2 144.4 146.4 147.3 144.8 142.9 137.5 130.3 122.9 121.6 110.6 114.1 115.4 115.6 117.1 118.4 124.1 122.2 120.8 115.7 112.9 110 108.2
328.1 327.5 327.1 326 325.7 328.2 328.8 331.1 330.2 328.5 326.6 326 326.2 326.2 325.6 325.8 325.5 326.3 327.1 329.8 330.8 331.6 329.7 328.1 326.3 325 323.9 321.9 319.8 319.3 318.9 320.4 322.2 321.3 320.3 319.8 318.6 315.7 313 310 306.6 299.9 299.4 300.2 300.7 298.7 295.8 292.2 288.2 281.8 275.8 275.1 274.7 277.5 277.6 275.5 281.4 276.3 272.4 272.1 277.3 275.4 279 280.4 280.3 282.2 285.4 288.8 292.1 290.6 289.6 287.2 287.5 281.5 281.3 281.5 272.4 271.9 267.5 261.3 254.1 243.9 238.1 239.3 236.5 233.1 235 234.2 233.9 230.8 232 231.5 227.9 222.7 220.1 216 207.4 202.5 201.2 198.8 193.1 190.5 185.3 180.6 178.6 176.5 172.8 168.8 165.4 158.9 155.1 154.2 154.7 154.6 153.7 153.6 154.3 167.6 177.5 185 193.9 205.4 226.5 232.8 238.8 251.2 258.2 257.3 254.9 253.9 254.4 254.7 254.2 255.8 260.5 260.9 256.6 256.5 254.6 255.6 259.3 258.3 256.9 255.6 250.3 245.9 236.2 228.5 217.3 207.1 196.1 177.3 157 133.2 132.5 145.6 158.8 163.2 159.8 155.3 152.2 150.3 148.7 148.5 147.5 144.8 132.8 120.3 115.7 117.1 119.2 116.2 117.1 123.3 133.6 131 130.5 129.8 130.3 127.5 123.3 123.2 120.3 118.8 117.1 114.3 111.4 116.4 127.3 125.3 128.9 135.8 137.9 137.8 135.9 134.9 133.4 131.4 128.5 125.6
331.2 329.8 326.9 326.1 326.5 329 330.6 332.9 333.6 332.6 330 327 326.5 326 326.7 325.7 328.3 328.6 328.6 328.7 332.2 332.2 328.8 327.4 325.8 324.4 323.1 320.4 319.5 319.2 318.8 320 320.9 320.9 320.2 320 316.9 313.5 310.8 306.5 302.1 298.1 298 298 298.7 298.4 296.1 292.3 288 281.8 275.8 275.4 275.2 276.1 279 276.2 271.9 271.4 271.4 270.6 270.2 273.3 276.5 277.4 277.3 282 285.5 286.7 287.3 287.9 287.6 286.6 283.7 279.2 279.4 273.1 264.9 265.9 259.3 249.2 240.7 234.3 234.6 231.7 228.8 222.2 225 224.3 220.8 219.1 223.1 218.6 212.5 208.6 205.7 200.3 197.1 195.7 193.6 188.2 183.4 181.9 180.3 178.7 177.1 169.8 168.5 167.5 165.8 162.1 158.2 155.5 158.7 155.8 154.4 154 153.3 152.1 162.5 183.3 195.2 206.1 219.7 241.8 248.1 250.3 256.9 260.2 260.6 258.6 257.8 257.9 258.5 259.7 267.7 265.9 265.3 268 263.2 265 269.4 265.4 264.4 260.5 253.1 247.7 241.2 232.9 222.1 205 190.6 178.1 164.5 151.8 143 126.7 145.6 146.1 146.1 146.6 144.5 140.4 138.2 134.8 127.3 121.6 120.8 116.3 121.1 120.3 120.3 119.5 119.1 117.4 115.3 117.6 118.8 119.2 119.3 118.4 117.3 115.9 114.7 113.5 110.2 116.9 133.4 142.4 145.5 145 146.2 145 144.7 145.6 144.5 144.5 145.3 143.1 138.9 134.9
330.5 328 326.7 325.9 328.7 330.5 332.2 332.6 331.8 330.6 327.3 326.5 325.7 326.9 328.3 328.4 331 331.7 332.3 330.2 329.5 328.9 327.3 326.9 325.4 324.5 323.8 321.9 318.9 318.6 318.4 318.1 318.6 318.8 318.1 317.3 315.1 311.8 307.4 301.6 298.4 293.7 295.5 295.5 294.9 294.9 293.5 290.4 285.3 277.9 276.2 275.6 275.5 277.8 282.3 279.3 280.8 278.3 273.9 273.7 269.9 269.4 273.8 276 280.7 285.9 285.9 284.6 285.7 286.7 288.1 284.6 280.9 279.3 272.1 263.4 258.3 257.2 248.9 237.1 230.5 226.5 227.1 223.4 217.1 214.6 211.8 210.6 210.4 205.1 205.4 202.6 202.2 200.2 196.8 196.5 195.7 189.8 184.6 180.9 180.4 181.9 180.3 177.4 171.5 164.1 162.7 161.6 160.3 161.3 161.6 161.2 160.4 159 155.3 153.9 153.9 153.6 153.4 178.3 199.1 206.4 218.8 236.9 260.1 266.2 268.4 268.6 269.4 271.2 271.9 267.9 267 265.8 269.5 273.7 280.1 278.3 275.9 265 267 264.6 258.7 256.4 250.6 245.7 233.9 219 203.5 189.8 179.5 166.7 155.1 147.5 142.4 130.2 141.9 140.8 134.2 128 122 121.7 122 121.5 122.4 116.3 121.6 123.6 124 123.1 128 131.1 129.5 124.6 121 118.2 115.2 115.7 115.7 115.7 115.6 113.1 121.4 134.4 141.5 147.5 153.3 156.4 159.4 160 159.2 159.5 157.8 157.1 157.4 156.1 153.8 147.3 140 134.2
328.5 326.3 326.5 326.2 330.8 330.9 331.6 331 328.9 326 324.1 324.4 324.9 326.6 327.7 329.3 334.2 333.8 333.6 332.1 329.8 328.2 327 326 325.1 324.3 323 320.3 319.1 318.7 317.9 317 317.4 318 316.1 312.7 310.6 306.3 300.3 297.5 293.8 290.9 291.5 292.7 292.2 291.6 289.3 285.1 280.3 278.4 279.3 277.1 276.5 279.8 285.5 283.2 285.2 280.6 277.3 276.5 271.8 269.1 274.5 275.7 279.2 281.8 283.6 285.5 287.2 287 286.2 283.5 280.2 274.4 269 265.2 259.4 251.4 238.2 234.2 234.8 225.7 225.1 224.4 222.7 224 226.5 221.3 213.8 208.9 201.6 202.6 200.3 194.7 188.7 193.5 189.5 185 179.4 181.1 180 178.1 174.2 166.3 165.8 166.6 166.5 165.3 165 163.8 163.1 161.8 161.3 159.2 156.5 154.5 153.1 153.5 151.9 181.6 195.9 206.5 216.5 235.3 253.2 264.3 274.6 277.9 278.1 280.8 280.9 275.5 279.9 281.9 276.1 286.9 282.5 277.3 268.5 257.8 261.7 261.7 256.5 249.6 239.8 225.7 210.5 195.9 182.4 172.9 164 156.1 147.2 133.5 122.9 119.7 119 118.7 118.6 117.8 117.7 117.7 117.7 120.9 129.1 138.3 143.9 141.4 138.2 135.4 136.3 137.4 137.5 136.6 134.7 133.2 131.1 135.7 133.3 131.1 134.5 136.5 138.2 144.4 154.5 164.5 172 174.9 175.4 174.6 174.3 171.2 167.3 165.3 163.6 159.4 153.6 147.6 141.8 137.5
326.9 326.6 328.1 328.9 333.1 331.9 330.3 328.8 325.3 319.7 320.1 321.4 322.9 324.9 327.4 329.2 333.5 335.9 335.8 334.6 331.9 329.4 327.1 325.4 323.9 322.2 321 319.5 318.3 317.3 316.7 316.8 316 314.7 313 311 307.7 304.2 299.7 294.8 291.7 289.8 288.4 289.5 288.7 287.2 282.5 280.8 281.7 281 280.3 279.2 277.7 281.7 284.3 282.8 283.2 279.8 277.3 273.5 270.6 268.1 271.2 274.8 275.7 278.9 281.8 284.1 285.2 284 284.5 282.7 277.2 275.3 269.7 261.9 256.8 248.4 240.7 240.3 229.7 229.4 233.8 229.5 228.3 227.3 226.1 223.1 217.6 213.1 210.5 209.1 203.5 197.9 189.8 183.8 181.4 179.2 178.2 174.2 171.3 176.5 176.3 174.4 176.2 172.9 167.8 167.5 167.7 166.4 167.1 167.1 163.2 160.6 157.2 154.4 152.7 152.4 162.2 176.3 186.3 195.2 203.6 227.5 249.7 268.4 272.9 271.7 273 277 280.6 280.5 280.9 281.6 283.4 283.2 272.9 264 255.3 249.8 256.1 252.4 242.5 227.5 216.9 202.5 186.2 174.9 165 157.3 145.8 129.3 120.3 124.6 129.9 130.8 127.5 126.6 129.7 132.7 137.3 139.4 149.3 158.3 162.4 165.6 164.6 160.3 154 148.3 142.9 142.3 143 143.5 142.5 143.6 143 147.4 148.4 145.6 143.4 147 149.5 162.1 174.8 186.4 189.7 189.8 187.5 184.8 180.9 177.4 171.9 169.7 166.3 160 155.2 150.1 145.3 139.9
327.4 327.1 328 328.2 328.7 328.9 327.2 325.1 319.1 314.2 317.2 319.2 320.9 323.4 325.6 328.2 332 335.2 337.3 333.3 331.3 329.6 327.5 325.2 323.9 322.4 320.8 320.4 319.5 317.8 317.8 318.1 319 318.2 316.5 314.1 311.6 306.8 303.9 297.8 293.8 291.2 289.4 287.5 285.4 285.3 279.5 278.5 277.8 278.5 279 278.8 278.2 280.3 281.8 281.7 280.9 279.6 275.5 270.7 265.8 267.3 272 274.4 276.5 279.4 279 280.8 283 283.2 282.2 279.4 277.6 274.9 268.5 262.5 254.1 247.4 244.1 235.7 232 234.6 231.1 228 228 225.6 224.6 224 222 216.2 215.3 209.6 205.3 203.1 198.2 193.5 188.5 185.1 177.3 173.9 180 186.4 187.9 184.9 183.4 181.2 175.1 171.5 173.1 171.4 171.7 170.9 167 162.3 160.2 154.9 152.9 151.3 154.7 167.8 177.3 184.7 191.5 216.7 241.1 259.7 269.2 274.5 273.7 272 270.9 270.7 272.1 270.8 268.8 266.2 259.6 253.6 244.7 233.2 232.1 225.1 217.9 210.3 196.1 180 166.7 158.8 141.7 123.6 122.7 125.8 137.1 162.9 157.9 155.4 153.1 148.2 151.2 153.7 152.9 158.2 159.3 170.7 174.9 175 175.4 173.8 171.4 167 162 154.2 150.6 149.6 149.4 150.5 150.3 153 157 156.7 157.8 163 167.8 181.3 192.8 200.1 201.1 198.3 195 188.6 185.1 180.2 175.1 172.5 168.8 164.3 158.2 151.3 146.6 140.6
326.4 325 325.1 326.9 326.3 326.1 324.7 320.2 314 310.7 313.9 316.1 318.9 321.7 323.9 326.9 330.5 331.9 332.5 330.7 329.1 327.8 325.2 324.5 323.6 322.7 321.8 321.3 320.5 319.2 319.8 319.5 318.8 317.9 317.1 316.5 313.6 308.6 303.5 298 294.2 292.8 293.4 293 291 289.9 283.7 278.8 277 278.7 281.2 280.5 279.8 279.2 279.3 279.8 277.7 276.4 271 263.5 269.7 267.8 271.6 272.5 274.9 277.8 278.7 280.5 281.7 282.1 282.3 279.6 277.4 272.2 266.8 257.9 251 245.9 239.4 236.9 236 232.4 229.9 227.6 224.5 222.2 223.9 221.8 220.6 218.8 215.2 210.8 206.1 202.7 197.9 193.8 188.6 181.1 179.9 186.3 190.8 193.5 195.1 196.4 191.8 191.2 184.4 176.2 181.7 177.5 175 175.5 171.9 165.9 162.6 156.9 152.9 149.8 152.1 160.9 169.5 176.2 187 202.1 226.4 247.6 265.7 276.6 280.5 277.3 273 270.5 270.9 271.2 271.3 264.3 255.8 245.6 228.2 212.6 210.1 203.9 198.2 188.3 175.5 163.7 154.7 134.7 122.7 129.5 137.4 151.4 164.8 167.9 168.6 170 169.6 167.1 169.1 170.7 172.3 173.5 176.4 181.5 187 188.1 187.6 186.4 184.7 182.5 176.8 173.4 168.9 166.7 165.9 163 161.4 159 163.6 165.5 172.4 183.1 189.8 196.4 207.7 210.7 209.3 205.7 200.9 194.4 191 185 180.3 176.3 171.5 165.8 160.8 156.7 148.5 142.1
324.3 325.4 326.3 327.2 328.3 328.2 326.9 321.1 310.7 306 309.9 314 316.8 320 322.2 325.5 327.9 328 328.4 327 325.5 324.4 324.1 323.9 322.9 322.1 321.3 320.7 320.1 318.9 317.6 317.5 317.6 316.4 316.4 315.8 312.8 307.6 300.2 297.5 296.6 298.1 297.7 297.6 295.8 294.5 291.8 283.4 278.6 272.5 279.5 279.5 278.3 277.4 277 276.4 275.6 273.7 268.7 265.6 262.1 267 269.6 272.7 275.6 277.6 278 278.5 278.4 279.8 278.2 275.3 270.3 266.2 260.6 250.9 244.9 239.2 236.4 235.2 232.7 225.3 222.3 219.5 216.3 215.3 216.6 214.9 215.9 212.3 207.6 202.3 196 186.6 182.1 184.4 186.2 181.4 191.5 195.4 198.6 200.6 201.5 203.8 202.7 198.3 184.9 183.3 184.7 179.6 179.7 178.7 175.4 167.3 162 157.4 153.6 150.1 152.1 152.5 160.6 169.1 178.7 188.1 208.9 229.3 252 265 267.4 266.9 268.7 268.7 266.6 263.3 259.7 254 247.4 233.7 215.8 200.9 197.9 190.8 184.3 181 172.7 161.9 137.2 125.1 134.1 144.7 158.6 164 168.1 172.3 175.1 177.1 182.5 182 188.1 189.6 191.5 192.8 196.4 197.7 197.8 198.6 198.4 197.5 196.4 193.9 193.1 190.2 187.9 187.5 185.3 183.6 180.3 173.2 172.8 174.8 185.7 199.7 209.3 215.2 219.3 219.3 217.6 212.8 207.2 201.3 195.7 189.4 182.2 177.4 173.2 169.3 166 162.7 154.4 139.9
332.5 336.4 338.7 337.5 338.3 336.5 328.9 319.7 314.2 304.1 307.7 310.9 314.3 317.8 319.9 322.8 324.6 324.5 323.9 321.9 321.3 321 323.3 323.2 322 320.2 319 318.2 317.3 315 315 314 315.3 313.7 311.1 309.8 308 305.1 299.4 298.3 298.5 299.6 299.6 300.5 300.8 299 297.1 290.2 282.1 275.5 270.2 272.2 270.7 271.2 271.3 271.7 270.8 269.9 266.6 266.7 265.2 261.1 255.9 263.7 266.9 270.7 275.7 277.1 279.2 276.5 271.5 268.6 264.3 258.4 252.4 246 238 234.7 229.3 225.6 217.4 211.8 208.8 206.5 204.4 199.1 196.5 199.7 199 197.4 190.8 187.2 188.5 193 193.9 198 197 195.2 199.4 203.7 207.1 209.5 209.3 211.2 210.3 194.5 195.1 192.2 189.7 186.2 181.4 180.1 175.6 169.8 161.2 157.4 154.7 150.7 151.4 151.6 155.4 164.2 170.4 176.6 191.1 211.5 232.4 246 248.4 251.5 256.9 260.8 263.7 263.1 259.7 250.6 235.9 213.9 199 188.9 185.2 179.2 173.5 171.1 163.9 143.9 126.3 129.1 152.6 160.2 164.6 166 171.6 180.4 184.7 190.5 191.6 196 201.5 205.6 208.4 208.6 211.8 213.2 213.3 215.4 213.8 211.3 210 203.6 204.9 204.2 203.1 202.5 201.2 203.2 196.7 194.5 193.1 190.6 198.3 214.5 223.5 228.2 227.7 225.8 220.8 215.6 209.5 201.9 194.5 183.5 177.3 173.7 169.7 165.1 162.4 158.8 152.6 146.2
342.4 348.5 346.5 344.2 345.7 341 329.6 320 310.4 302.2 305 308.1 311.8 314.9 317.3 320 321.3 320.2 318.7 314.8 313.5 315.6 319.9 320.8 319.7 317.2 315.7 315 313.9 312.1 311.8 310.3 307.3 307 304.6 305.1 302.5 299.6 295.1 295.7 294.9 294.3 295 296.8 303.7 302.9 300.6 293.3 288.2 279.7 272.4 265.1 263.5 265.3 267.7 270.2 270.7 266.3 259 256.3 256.3 252.1 258.3 262.1 266.8 274.9 277.5 277.3 280.2 275.8 270.8 264.3 254.8 247.3 239.2 232.1 225.6 218.7 213.5 209.2 199.9 199.6 198.4 197 197.8 200.9 201.2 197.6 198.8 198.9 197.6 199.4 202.4 203.8 204.6 205.8 205.6 204.8 206.8 208.5 214.7 216.9 217 215.2 210.8 198.9 207 201.6 200.7 187.8 184 180.2 176.9 169.5 162.9 157.6 155.2 149.1 151.2 150.9 151.4 158.6 164.4 169.7 178.1 195.4 214.2 224.4 230.1 235.9 242.5 246.8 252 253.8 248.7 240.6 220.3 201.4 190.7 183.5 181.1 174.9 170 165.8 155.6 126.8 133.4 152.7 161.6 168.5 169.7 173.5 184.2 198.7 200 206.8 212.7 215.2 218.8 219.2 221.8 223.8 221.9 221.6 224.6 225.4 224.7 225.6 223.5 217.8 220.3 219.5 218.9 217.5 215.9 213.1 211.7 215.5 216.1 213.4 215.1 218.5 231.3 232.2 228.9 223.8 217.7 210.2 202.5 192.1 183.1 176.7 172.6 168.9 164.3 160.2 156.3 148.5 142.5 141.5
348.1 352.1 349.7 354.1 353.9 343.7 334.1 318.5 306.3 301.4 304.9 309.2 312.9 316.4 318.5 320.3 320.3 315.6 311.3 304.7 304.5 308.5 311.7 311.8 310.6 310.9 310.4 309.9 308.5 306.9 305 304.1 302.4 301.1 298.4 298.1 294.3 292.7 289 289.7 289 290.3 291.5 292.9 295.5 294.2 290.9 289.4 287.7 283.3 277.8 271.3 264.8 260 265.9 269.5 272.2 271.2 265.9 260.8 253.5 243 262.1 271 273.9 276 275 275.7 273.7 270.2 261.5 252.7 244.9 236.6 227.8 217.7 214.6 206.6 202.9 200.9 204.7 205.9 206.8 204.2 205.7 207.4 208.3 207.1 205.9 206.7 206.6 206.9 211.1 211.7 212.1 212.5 213.6 212.4 214 215.6 218 219.1 217.3 210 206 207.7 207.4 205.7 204.1 194.1 184.8 179.8 173.6 169 166.8 159 154.5 149.6 151.5 150.8 150.6 150.9 159.9 165.1 170.2 180.5 202.3 210.3 216.3 219.9 226.9 236.5 242.1 239.6 232.2 214.7 198.6 187.3 185.2 181.6 174.3 171.2 167.6 162.1 138.8 138.4 150 154.5 159.5 169.7 179.4 185.2 196.7 204.5 208.4 213.9 222.3 227 227.2 231.7 232.9 234.6 230.7 234.1 233.3 232.2 231.1 236.8 234.3 228.5 229 234.2 236.5 234.8 234 228.1 229.3 234.6 233.4 228.3 228.6 223.2 226.2 225.9 222.1 216.6 209 197.9 185.8 180.7 174.4 171 168 163.8 160.6 157.6 149.8 149.1 149.2 148.3
357.1 353.2 350.7 355.5 350 341 326.7 314.1 304.7 300.8 306 310.4 314.5 316.8 314.7 314.2 314.3 310.8 305.5 297.8 297.5 300.9 301.7 304 304.3 303.4 303.2 302.3 300.9 299.4 298 297.1 296 293.8 290.8 287.1 286.7 282.3 282.4 282.2 284.2 285 286.6 287.7 287.1 285.9 285.1 284 281.9 276.5 272.6 267.7 263 249.5 265.4 269.4 271.3 270.2 269.4 260.7 251.3 245.1 265.2 271.4 274 270.4 275 270 266.1 261.3 250 239.3 235 226.4 218.6 212.3 205.7 204 205.4 205.4 210.1 212.5 214.6 215.2 212.1 213.4 214 213.5 212.2 212.6 210.8 215.5 217.9 218.3 221.6 220.4 221.5 222.5 223.1 219.8 221.9 222 220.1 214.6 221.7 221.2 216.2 211.9 210.6 202.4 197.1 185.6 178.5 170.5 162 158.2 154.6 150.3 151.1 151 150.3 150.1 152.7 162.2 165.8 172 186.6 210.1 215.6 219.5 228.4 229.9 231.1 222.6 204.8 190.3 179.6 178 182.3 179 171.6 165.8 159.7 156.1 132.7 147.3 157.3 160.9 168.9 176 187.2 193.9 204.1 217 223.3 222.7 226.9 231.4 234.1 233.7 247.1 247.9 244.9 240.3 237.3 234.1 230 229.4 228.3 228.2 228.5 231.7 235.9 238.9 239.4 235.7 232.8 236 227.5 221.4 217.3 210.9 207.4 209.1 208 200.4 192 182.1 175.9 173.1 169.4 166.3 162.9 160.3 158 154.8 153.8 156.2 155.6 155.3
353.3 350.7 350.4 352.5 344.4 334.8 320 310.9 302.7 299.9 304.8 307.9 308.9 309.5 308.4 308.3 308.5 305.3 301.3 292.9 291.3 294.1 296.5 298.7 298.1 298.2 297.2 295.8 293.5 293 290.8 290.6 289.3 287.4 283.4 281.2 280.2 276.6 276.2 277.4 279.5 280.6 282.1 281.8 280.6 282 281.5 279.7 274.8 269 265.2 258.4 253 245.6 259.7 262.9 263.4 263.6 264.3 258.7 249.5 241.8 260.9 262.8 264.8 265.1 265.2 262.8 258.3 251.6 241.8 230.8 222.6 216.4 210.8 205.8 207.4 209.2 210.5 212.4 216.2 217.8 219.7 221.1 220.8 219.6 219.6 219.7 219.3 218.6 219.6 222.7 225.4 226.3 226.9 228.7 226.8 227.3 227.6 226.5 226.4 225.3 223.3 223.4 229.4 231.3 230.3 227.8 221 213.6 209.8 203.9 187.1 176 164.2 159 156.3 150 150.7 150.8 150.2 150.2 150.9 157.9 161.4 165.4 180.9 198.4 217.4 233.9 231.5 223.5 212.5 198.4 184.6 177.4 171.6 172.7 175.5 172.4 166 162.6 156.3 145.7 128.4 152.3 164.7 174 181 186.4 185.9 196.9 205.4 217.6 226.1 231.3 232.9 236.7 238.8 244.4 239.1 240.7 241.8 239.7 236.2 236.3 237.3 233.8 227.8 227.6 228.1 233 235.7 235.4 234.8 231.7 228.4 225.3 218.7 211.8 209.4 205.2 198.5 194.1 191.1 185.7 181 173.9 171.1 169.2 164.7 162.5 160.8 158.2 155.2 156.3 159.7 162.3 164 162.9
351.3 349.3 353 348.5 343.5 331 316.6 307.8 301.7 296.6 301.7 303 303.7 303.5 302.5 302.6 301.9 301.3 298.3 291.2 287.5 288.7 291.3 293.4 294.8 294.9 294 292.2 289.6 286.4 284.6 284.2 283 281.1 276 275.8 271.7 268.9 270.9 273.9 275.9 276.5 277.8 276.3 276.7 278.1 276.4 273.9 269.9 259.7 252.5 248.6 246 244.6 242 244.9 246.3 251.9 252.5 248.3 243.8 242.1 253.3 256.7 256.6 256.3 256.3 255.3 250.4 242.6 232.7 222.7 213.6 208.8 207.2 209.8 213.7 217.6 216.3 217.8 221.9 223.2 224.7 226.1 226.8 226.8 226 227.9 226.8 226.1 226 228.4 230.6 232.5 234.2 234.3 237.3 233.3 232.1 231.1 232.7 232.5 234.7 235.9 237 240.5 235.9 237.8 232.2 223.4 222.4 218.1 200.9 180 169.7 164.7 159.3 148.7 150.4 150.3 150.2 148.9 149.4 152.6 156.7 159.1 162.7 177.7 195.1 209.4 209.8 202.9 192.1 182.4 175.7 168.7 166.3 166.2 166.2 162.3 160.1 158 152.6 144.3 130.6 133.9 149.2 159.6 164.4 165.7 172.6 180.5 191.6 209 225.8 230.1 243.9 247.9 247.1 249.7 244.1 243.1 244.3 242.7 236.9 232.5 231.4 231.2 227.2 226 225.4 224.7 224.8 229.1 229.5 232.1 228.1 225 213.2 208.3 206.5 208.7 206.4 199 192.7 187.3 180.4 177.4 171.7 164.3 162.1 161.9 160.6 160.6 161.6 165.1 168.8 169.6 170.6 171.1
345.3 349.6 351.6 344 341.1 326.3 312.7 305.9 301.8 298.7 297.8 299.5 299.1 298.1 296.9 296.8 296.4 296.3 294.5 286.5 284.7 286.9 290.8 292.7 292.2 292.6 291.2 289 287.3 284.9 279.8 276.2 275 274.4 271.4 271.2 267.6 264.2 268.3 270.7 272.6 273 273.4 273.3 273.1 274.6 273.1 266.6 264.2 258.5 261.1 258.2 259.8 256.3 243.7 240 238.9 237.6 237.2 236.1 234.2 238.2 243.8 244.2 242.7 241.5 241.6 240.7 238 228.3 217 211.7 210.8 209.1 210.3 213.8 217.8 222.1 222.1 222.5 227 227.9 230.4 232.1 233.6 234 233.5 233.1 233.1 232.4 232 237.7 237.5 239.6 241.9 243.7 243.1 242.2 237.8 236.5 237 239.3 242.6 241.4 244.2 245.8 247.1 249.1 246.3 237.3 233.1 231.2 217.1 192.1 178.6 174.7 162.4 153.4 148.5 149.4 149.3 149.2 148.9 150.3 150.7 154.7 156.4 160.4 177 186.9 189.6 185.2 178.9 171.6 166.3 163 162.1 161.3 158.1 151.8 148.1 141.6 139.1 129.9 141.9 144.4 142.8 144.1 143.6 142.9 151.6 162.4 174.1 193.8 214.6 234.4 236.4 243.8 244.3 243.8 243.2 243.3 243.2 243.5 248.3 243.3 236.5 232.4 236.1 230.3 225.7 225 225.1 226.4 224.8 223.9 222.7 218.2 211.3 208.8 207.3 207.3 206.9 201.1 196.1 188.8 175.5 171.1 170.3 168.5 167.9 168 170.8 174 169.7 175.8 185.2 186.2 182.7 179.6
344.5 338.7 336.9 339.3 334.5 321.2 308.2 303.2 299.3 296.2 290.3 294.2 294 293.4 294 292.7 291.8 291.5 290.9 282.2 283.8 287.4 288.5 288.1 287.4 288 286 282.8 281.4 279.4 276.4 269.9 270.1 270.4 268.3 266.5 265.4 260.6 263.5 265.3 268.1 267.7 268.8 269.9 276.4 277.7 275.5 270.1 265.3 262.8 264.6 266 265.5 261.6 256.8 251.5 248.6 242.9 241.2 240.3 240.1 237.4 234.1 234.6 227.1 227.3 228.8 225.8 221.5 215 219.3 220.6 213.6 210.2 211.9 216 219.4 223.7 226.4 222.3 229.1 232.4 236.5 238.8 239.2 239.5 237.4 236.7 237.6 238.4 239.3 242.9 245.7 247.3 249.9 251.3 251.4 250.1 247.4 243.9 244.8 244.7 246.7 249.7 251.1 252.6 260.7 260.5 258 250.7 244.4 237.1 220.9 205.9 191.7 180.8 167.1 158.3 152.9 148.8 148.3 149.2 148.8 148.7 149.2 149.5 149.6 149.7 156.5 161.7 166.5 168.9 167.7 163.3 163.5 159.9 160 158.6 153.2 146.4 138 133 133.1 131.6 145.9 149.4 149.8 147.5 144.8 143 143.6 149.4 157.6 169.2 196.1 218.7 234.5 249.5 248.7 247.3 245.6 243.9 246.2 249.2 246.6 248.1 247.8 238.2 235 235.6 231.8 226.2 230.8 237.5 238 234.6 229.5 223.8 222.2 216.6 211.7 208.3 202.6 197.5 193.1 184.8 185.1 182.8 178.8 178.2 178.2 179.5 185.7 189.7 179.8 186.2 198.8 197.5 197.1 192.5
337.5 336.4 327.4 325.3 320.8 307.7 303.3 298.7 297.3 293.2 288.1 288.5 289.4 289.3 289.6 289 288.5 287.5 283.9 277.4 281.6 282.8 282.3 282.2 282.5 282.1 281.2 278.2 275.6 271.9 270.3 266.5 264.9 266.5 263.8 262 260.8 257.3 263 269.9 273.2 271 270.8 272.9 274.9 277.3 274.9 272.4 269.2 266.8 266.9 267.8 266.7 264.3 260.3 253.4 253.2 253.6 249.5 247.1 243.1 240.4 237.7 235.6 229.7 228.6 228.7 226.8 225.1 224.6 225.5 227.1 222.1 212 214.3 218.4 222.9 227 228.6 230.2 230.3 232.3 236.3 240.4 243.7 245.7 245.1 242.5 243 244.6 245.8 248.5 249.8 252.2 254.5 257.3 257.8 257.6 258.1 256.6 254.7 255.3 254.2 256.2 261.8 266 272.5 274.2 273.4 265.6 254.8 244 231.2 216.9 201.5 187.1 175.2 161.6 155.8 151.6 148.9 147.7 148.7 148.5 147.8 148.9 148 148.8 148.6 152.3 154.2 155.9 153.8 150 147.2 146.1 152.1 149.7 145 138 135.8 133.1 137.1 137.1 140.3 150.7 152.4 152.7 148 144.8 145 142.1 151.7 158.8 176.8 200.1 225.1 245.4 266.1 272.2 260.6 253 260 267.2 265.6 263.8 255.6 251.1 247.5 244.1 238.6 228.6 229.6 239.6 243.6 240.5 234.3 230 227.5 221.8 216.2 208.8 202.3 196.9 192.1 196 195.8 191.5 188.6 188.2 188.4 192.4 198.7 202.6 188.9 195.4 206.9 205.8 204.5 201.8
334.4 333.6 323.3 314.5 302.4 297.3 294.2 294.4 296.6 291.6 285.3 283.8 286.2 286.4 285.9 285.2 284.1 281.2 273.5 273.4 277.2 276.5 276.5 276.1 275.6 276.5 274.5 270.8 269.9 266 265.1 262.1 258.9 260.7 258.3 257.2 255.4 256.9 266.6 270.5 272.6 273.5 271.9 272.2 272.9 272.8 273.1 272.9 271.3 268.9 269 266.5 266.4 264.2 261 260.4 259.1 256.5 253.2 250.4 247.4 245.4 242.8 239.8 234.9 233.6 234.3 234.3 231.5 231 231.4 232 228.2 218.4 219.8 223.3 227 231.6 234.1 234 234.7 234.6 236.5 240.1 244.4 248.2 249.5 250.2 249.9 250 250.3 251.8 253.6 255.5 258.6 261 262.2 262.1 263 265 262.7 262.4 263.4 264.5 266.4 273.7 277.7 278.1 275.4 273.1 268.8 255.2 245 230.8 218.5 203.9 186.6 168.8 158.2 155.6 150.5 148.4 147.5 148.2 148.7 148.7 147.5 146.8 148.7 153.6 151.6 150 150.1 147.2 143.8 138.6 133.4 133.9 134.1 133.5 133.2 135.2 141.5 145.3 146.2 148.4 154.5 155.1 151.6 147.9 146 142.4 147.7 152.6 163 181.1 202 224.9 252.7 273.4 281.4 274.6 268.6 271.7 270.7 273.7 271.1 255.1 253.7 250.1 243.1 232.7 231.7 231.9 236.6 235.3 230.6 226.3 223.3 218.1 214.3 209 206 203.4 201.7 200.3 201 200.5 200.4 201.7 206 208.7 210.3 213 210.6 202.1 213.2 212 210 207.8
334 326.9 315.8 308.6 301.6 299.2 296.6 289.7 284.5 281.7 280.5 279.6 279.3 277.1 280.4 281.1 279.2 273.4 268.8 267.1 270.5 271 270.8 271.3 270.1 269.5 266.5 263.9 263.6 259.7 259.8 256.7 252.6 254.9 254.3 253.9 255 257.2 261 265.6 267.2 269.8 270.5 271.7 271.2 271.7 273.3 273.3 273.1 273.7 274 271.1 266.5 265 264 263 262.3 260.1 254.6 252.1 250.1 248.2 245.9 245.2 244.4 240 238.9 238.6 241 239.8 238.2 237.1 233.6 227.2 224.1 227.3 230.6 235 240 242.9 243.3 245.9 245.6 247.5 247.5 248.4 253.9 255.9 255.9 256.5 255.9 256.6 257.3 259 261.9 264.3 265.9 267.6 270.5 270.3 271.6 270.3 273.2 274.8 275 275.6 278.7 279.9 280.1 278.9 278.5 270 259.6 242.5 228.7 219 195.6 172.6 162.7 156.6 152 148.3 148 148.1 147.8 147.1 147.3 146.7 147.8 156.9 155.2 150.7 151.2 150.2 146.1 137.2 136.1 137.1 136.5 137.6 139.8 140.7 149.4 148.6 146.9 150.8 153.3 156.4 152.8 148.7 145.9 142.8 144.3 148.9 155.7 169.1 186.9 207.2 231.3 260.1 281 281.2 283.4 275 274.4 276.1 279.9 275.8 267.4 260.1 253.6 246.8 237.7 231.4 229.1 227.1 224.6 223.8 226.3 225.8 224.1 222.6 223 221.5 218.7 214.5 214.7 213.3 213.3 216.1 218.8 219.7 220.7 220.9 220.1 215.9 221.1 218.6 217.7 213.2
330.6 319.9 311.2 308.4 305.9 309.2 303.7 296 289.4 286.6 282.7 280.5 280.4 277.2 272.9 269.3 271.1 263.8 261.9 257.7 260.8 261.4 263.3 263.7 264.3 261.9 257.3 256.8 255.2 254 252.1 248.5 248.8 248.3 249.5 250.5 254.8 257.4 260.5 263 265 267.4 267.8 268.4 269.7 270.3 271.4 272.6 273.8 274.9 275.8 275.4 272.8 267.7 266.1 265.3 265.4 263.5 259.4 255.3 252 249.5 248.5 249.8 249.2 248.7 246 248.5 249 247 245.5 240.4 235.6 228.9 228.7 231.4 234.3 242.5 248 254.6 256.6 257 255.8 254.1 254 251.8 254.4 255.9 256.9 255.9 256.5 257.6 260.4 262.3 264.6 267.5 269.9 272.9 275.6 276.7 277 279.2 280.3 280.8 281.1 280.6 282.8 284.5 282.6 277.7 274.1 270.2 262.3 247.5 237.1 224.6 207.8 187.8 169.5 158.6 154.2 149.4 148 147.7 147.6 147.7 147.4 147.4 147 147 150.4 147.6 147.5 148.6 145.6 134.5 138 137.8 137.4 145 150.9 154 156.7 166.9 158.8 155.8 154.9 154.7 153.2 147.9 144.4 142.7 144.2 148.2 153.6 161.8 177.4 198.7 220.3 243.5 260.2 271.2 275.4 273.9 272.8 273.3 273.2 270 265.1 259.7 255.7 249.2 242 236.7 232.9 229.7 227.8 230.1 236.1 234.8 231.3 229.8 229.2 228.5 225.6 222.5 222.4 223.7 223.8 224.8 224.4 223.9 222.2 221.4 220.2 219.4 222 223.7 222.5 216
325.6 317.7 311 309.9 310 311.6 307.5 307.5 304.7 296.9 290.4 288.7 285.9 281.3 278.6 271.6 267 265 259.3 248.9 254.4 255.7 257.3 258.8 258.4 257.2 252.5 251.3 250.5 249.5 247.4 242.3 242.2 243.9 248.6 254.1 259.2 261.4 263.8 266.6 268.7 268.6 267.3 268.3 269.8 271.3 272.3 272.8 273.9 275 275.6 275.5 274 271.4 267.6 265.3 265.1 265.1 262.5 259.9 258 253.8 252.2 254.7 254.5 251.9 250.7 251.5 250.9 249.8 247.6 243.3 237.6 231.6 235.5 243 250.1 252.5 252.2 258.7 263.4 262.6 260.2 259.2 258.7 257.4 256.2 256 255.8 255.9 256.9 258.2 261.4 263.9 266.9 269.4 271.4 274.4 277.6 279.8 281.4 284.2 284.7 286 285.2 284.4 284.7 285.1 284.8 279.4 277.2 266.5 257.4 252.1 245.1 238.6 231.1 208.7 183.8 163.3 159.3 155.9 152.1 146 146.7 147.3 146.6 146.3 145.8 145.9 143.6 147.6 144.9 146.8 146.3 142.2 139.6 138.4 142.4 152.8 161.8 165.6 169.7 176.1 180.9 166.6 161 154.8 149.4 146.8 143.9 142.6 143.4 146.4 150.2 154.9 166.5 184.8 203.8 228.1 246.6 262.8 271.6 270.5 267 266.5 268.3 266.6 263 259.1 254.7 249.5 244.5 238.5 234.4 232 236.8 240.5 243.2 242.6 238.4 234.8 233 230.8 227.2 223.5 224.6 225.3 225.2 224.6 223.5 221.8 221.1 221.1 221.9 222.9 223.6 225 225.5 221.7
318 308.3 305.2 306.4 311.9 310.6 309.5 301.9 294.8 293.8 289.4 286.2 281.4 278.9 274 268.3 262.6 258.9 258.5 255.4 241.3 247.1 251.8 254 255.1 253.2 250.3 248.2 247.5 246.1 244.6 239.2 241.8 245.7 251.9 258 263.3 266.4 268.7 271.3 272.5 271.2 268.3 266.9 268 270.3 271.9 272.9 272.9 273.7 273.2 272.9 272.4 271 267.3 264.6 262.6 261.6 261.4 260.1 259.5 258.3 255.7 256.6 255.2 253.3 251.8 250 247.3 246.3 245.2 240.8 238.7 239.4 243.6 253.9 268 272.8 273.4 272.6 272.7 269.6 267.5 266.1 263.4 265.2 266.7 266.6 265.4 263.2 258.3 259.2 262.7 266.6 269.7 272.5 277.4 281.7 284.2 285.3 288 289 292.8 297.8 293.7 290.3 290 294.6 301.1 296.3 287.5 276.7 269 259.5 262.3 249.7 237.3 223.9 202.3 182.3 166.7 161.8 158 151 146.5 146.7 145.4 146.5 146.2 146.4 144.5 151.4 155.3 158.2 155.9 155.4 155.1 150.2 155.8 161.6 170.4 174 174.6 176.8 185.9 180.9 171.8 162.2 151.6 144.1 142.8 142.3 142.2 143.9 146.1 148 152.2 166.9 185.7 204.2 222.8 234.9 244.6 251 251.7 254.6 255.6 256.1 253.8 250.9 248.2 244.6 239.4 235.1 231.8 233.1 236.7 241.8 245.5 245 238.6 233.8 231.5 228 223.3 222.9 224.3 224.3 224.3 224.6 224.6 224.2 224.7 224.4 225.4 226.4 227.9 229.6 230.1 225.8
307.8 299.8 301 303.9 307.8 302.7 297.1 292.1 291.2 287.2 283.9 280.8 276.6 271.1 266.4 261.2 259.3 255.9 251.9 247.2 242.9 235.6 246.4 250.2 251.7 249.7 246.9 246.1 245.2 243.7 241.3 237.8 241.1 246.1 251.8 256.4 260.7 265.3 269.9 273 273.7 270.5 267.8 266 264.9 267.5 269 270.2 271 271.7 272.1 271 270.4 269.1 266.6 264.2 261.5 259.8 257.3 257.3 257.3 256.5 254.8 253.2 252 250.5 248.4 244.1 243 241.1 242 244.9 246.6 248.6 255.2 266.7 279 284.5 285.4 286.3 286.7 283.2 281.5 280.2 276.1 279.1 281.4 285.5 288.2 284.5 277.8 274.7 271.2 270.1 276.9 282.3 285.8 292.1 294.7 296.3 297.1 297.9 303.4 307.9 302.6 298 301.6 308.5 306 304.9 296.7 285.3 273.5 267.7 265.3 266 260.6 244.5 225.9 197.1 180.4 170.5 162.5 159.4 154.1 147.7 151.8 150.6 149.1 149 150.7 154.8 158.4 161.8 165.3 165.5 164.4 166.4 167.3 172.3 174.9 177.1 177.5 177.2 184.6 185.8 175.8 165.9 153.3 143.5 142.9 142.3 142.2 142.2 143.7 145.1 149.2 158.4 173.7 192 203.7 212.4 220.8 227.6 229.4 236.2 240.2 242.2 242.6 242.7 241.2 238.5 234.7 230.7 227.2 227.3 226.7 227.9 231.4 233.8 231.8 230.8 227 222.7 224 232.2 232.6 231.1 229.5 229 228 227.3 227 227 227.4 228.6 230.5 230.7 230.5 229
303.1 297.4 295.3 293.4 292.1 289.4 288 284.6 280.6 277.5 278.1 272 266.4 263.3 260.4 257.5 256.4 249 240.8 239.1 236.1 223.4 242.8 248.1 249.6 250.5 248.6 244.8 241.6 239.3 238.3 235.2 241.7 245.6 250.6 254.8 258.8 262.1 265.4 268.7 268.6 269 265.4 263.7 262.4 260.8 262.7 264.4 265.7 266.2 266.6 267.3 266.6 264.9 262.3 260.7 259.7 257.4 255.2 253.8 253.2 255.2 253.1 251.1 248.4 246.2 244.2 243.7 243.5 245.4 245.7 252.1 255.7 261.5 272.5 282.7 287.2 289.9 291.2 293.5 292.6 291.2 289.6 288.8 286.2 288.7 289.4 292.1 298.9 298.3 292.1 283.4 281.2 278.4 283.2 289.3 295.5 299.1 301 304 305.7 305.4 310.8 309.5 310.3 311.2 308.1 309.8 316.2 310 302.4 292.3 281.9 275.8 270.7 269.7 268.7 259.1 241.2 216.3 196.3 185.1 174.4 165.7 162.7 160 157.4 155.3 156.5 157.2 159.4 160.2 160.7 165.4 169.4 170.8 171.4 176 174.4 176.5 178.9 181.3 183.6 182.2 182.4 182.6 176.6 169 155.7 144.4 143 142.6 143.5 143.2 144.3 145.4 148.6 151.6 162.6 179.5 193.8 202.6 209.2 214.9 220.8 225.6 230.1 235.8 238.6 238.4 236.8 235.8 232.8 228.9 224.7 222.1 219.5 216.4 217.4 218 218.7 218.4 219.2 223.2 229.5 232.2 232.7 232.3 232.3 231 229.9 228.4 227.6 227.4 227.2 227.1 227.3 226.7 226 224
301.4 297 292.7 287.6 285.4 281.5 278.1 275.1 271.1 270.3 267.1 263.7 258.5 258.3 256.4 248.8 245.2 240.5 231.2 227 221.4 237.2 245.9 250.2 253.7 253.7 251.7 248 243.7 239.4 237.1 234.6 239.5 244.6 248.8 252.3 255.7 258.2 260.8 262.4 263.1 262.8 263 262.2 261.5 260.8 259.3 258.6 259.3 260.9 260.9 261 258.7 254.4 252.4 254.1 255.7 256.9 254.9 254.3 252.1 251.2 250.8 249.6 246 245.7 245 246.5 247.6 250.7 250.3 254 262.2 272.2 279.7 293.7 297.1 300.1 300.9 303.8 300.1 298.1 299.1 296.8 294.2 300 299 299.9 303.7 304.8 298.9 290.9 288.9 287 290.8 294 299.6 303.6 306.5 309.6 312.8 313.1 315 312.1 313.7 315.2 311.4 304.6 305 300.2 296.3 291.3 284.2 278.1 278.5 277.7 268 257.7 242.7 226 207.2 192.6 185 181.4 172.3 170.3 163.9 160.6 159.4 160.7 163.7 167.9 177.9 182.4 185.5 186.9 185.7 181.4 183.8 185 184.7 186.6 190.4 191.2 184.6 180.1 174.2 163.5 156.8 146.7 143.7 142.8 143.1 143.4 144.9 147.4 148.9 152.7 157.4 167.5 181.7 193.9 202.7 209.4 216.5 219.2 221.8 225.4 229.5 232.2 234.6 237.2 236.5 234.4 229.9 228.3 223.4 217.7 213 216.6 219.1 221.1 225.4 229.5 232.4 233.3 233.9 233.4 232.3 230.8 228.2 226.8 226.5 226 225.7 225 223.6 222.9 221.9 218.9
297.7 292.7 288.2 282.9 278.5 275.4 271.6 266.6 265 261 257.7 255.5 255 253.4 246.2 240.2 235.7 229.1 222.3 216.6 234.6 241.1 246.3 251.3 255.3 256.3 253.8 249.2 242.4 238.1 235.1 231 235.4 242 246.3 249.2 251.7 254.8 255.5 257.5 258.5 258.5 258.6 260.4 260.9 260.9 259.2 259.8 259.1 256.2 255.9 258.3 257.2 254.4 246.4 251 254.2 254.5 254 253.5 253.6 252 249.3 248.7 247.8 247.3 248.6 250.5 252.5 255.2 257.7 260.6 265 275.8 281.8 294.2 298.7 303.7 303.3 304.4 304.6 303.3 304.5 301.9 302.3 308.4 305.7 307.1 311.5 310.7 301.5 294.8 292.3 291.6 293.9 297.6 301.7 306 309.5 312.4 316.6 317.3 315.7 313.8 313.7 310.5 305.3 298.4 293 293.1 291.3 291.2 289.1 284.4 280.6 274.3 263.3 251.5 236.8 223.3 213.5 200 194.3 190.1 183.3 180.1 176.9 174.5 167.8 163.9 164.6 167.9 174.4 181 185.3 188 193 193.3 193 194.8 194 193.7 194.9 200.9 191.7 182.8 170.3 161 153 145 143.2 143 142.9 143.7 144.5 146.8 148.2 152.2 156.5 161.7 168.7 179.1 193 200.8 208.3 211.4 213.5 215 216.7 218.7 220.3 223.6 224.8 226.4 223.3 221.2 216.8 214 214.7 217.7 222.3 225.2 227.9 231.4 232.1 232.8 232.9 232 231.1 229.7 228.4 225.7 223.4 224.3 223.2 221.4 219.5 216.8 213.7 213.4
289.1 284.3 280.5 277.3 272.4 266.9 261.4 258.3 256.4 254.5 250.7 250.5 249.6 247 240.7 234.4 231.2 223.9 214.2 226.9 237.1 240.2 244.7 249.3 251.1 249.9 248.4 245.4 237.4 234.1 229.9 229.1 232.1 237.7 242.7 246.2 248.8 251.3 251.9 252.4 254.4 253.4 254 254.3 254.6 254.2 254.4 255 255.4 252.6 246.4 248.5 248.8 246.7 243.1 242.2 246.8 252.1 254.4 255.1 252.7 252 249.9 250.1 250.4 252.6 254.5 256.5 258.5 263.6 265.5 269.4 274.9 280.4 289.6 296.5 300.7 305 306.1 309.7 310.4 309.2 309.6 306.2 306.1 311.6 315.8 312 319.7 316.1 304.4 300 295.3 292.9 295 299.2 304.2 309.9 313.3 316.8 319 322.6 321.7 314.7 312.7 306.8 297.9 289.6 283.3 287.6 290.2 281.9 277.3 273 267.5 261.7 253.9 245.9 238.9 234 222.5 212.4 205 198.8 194.1 192.9 188.8 182 172 167.4 167.4 167.9 170.1 177.1 185.4 193.5 194.6 196.7 198.6 201.1 206.6 209 200.7 206.7 201.5 189.5 173.4 160.2 149.9 144.5 143.1 142.9 142.9 144.1 143.9 144.8 147.4 149.7 153.2 157.6 162 165.9 175.2 183.8 190.2 193.8 197.9 200.7 202.3 203.8 204.2 205.5 206.6 208.6 209.2 209.3 208.3 205.5 211.4 215.5 219 223.6 227.8 230.8 231.2 231.9 231.3 229.3 229.4 228.7 227.8 226.4 223.8 220.8 219.5 216.7 212.6 211 211.4 210.1
277.8 275.2 274.8 269.3 261.7 253 253.1 252.7 250 246.4 244.3 243.6 243.8 239.5 234.3 227.4 224.2 217.6 209.8 228.1 233.2 236.4 241.3 245 244.5 243.2 241.6 234.9 231.4 228.7 227.1 227.4 229.6 234.9 239.2 242 245 245.8 247.4 248.7 248.8 248.2 249.4 248.7 247.8 248.3 248.9 248.1 245.6 244.4 242.4 243.2 241 240.8 240.8 243 241.9 245.3 249 250.2 251.9 252.6 254.3 253.7 254.8 255.6 259.5 262.5 266 269.8 272.7 276.4 284.2 285.6 295.8 302.8 306.4 307.5 310.7 314.2 316.6 315.9 315.3 315.9 313.4 314.8 320.2 318 319.3 316 307 300.8 298.1 296.8 297.1 300.2 305.8 311 313.4 314 314.1 311.4 311.8 312.4 311.2 305.1 297.9 289.1 281.4 273.7 270.6 268.7 267.4 264.2 261.9 258.4 255.9 251.9 248.3 250.1 245.1 234.1 224.7 218.7 217.4 214.1 200.6 190.3 179.5 173.4 175.8 172.5 173 180.5 191.1 194.9 201.7 205.9 207 208.2 208 209.2 211 209.4 198.3 186.1 171 157.4 147.5 144.4 143.9 143.1 142.9 143.3 143.4 144.1 145.8 148.3 150.8 153.8 157 161.8 167 171.3 174.8 178.5 184.6 187.7 191 194.4 195.8 198.6 200.4 202.1 203.6 203.7 203.6 203.4 204.5 210 215.9 224.1 227.7 228.5 228.2 227.3 226.2 225.7 228.4 225.8 225.4 224.3 223.3 217.9 213.9 211.8 209.2 211 217.3 220.4
267.7 266.8 258 252.1 249.3 241.4 243.1 240.3 238.2 238.3 239.4 238.5 237.1 232.7 228.9 224.1 219.5 210.7 216.1 224.5 228.4 232.5 238 238.7 237.4 237.7 236 231.2 229.5 227.3 226.3 226.1 227.5 231.9 235.5 237.2 238.8 241.8 243.9 243.4 243 242.5 242.1 241 240.5 241.9 242.4 238.9 238.9 238.7 239.5 239.5 240.2 240.7 240.8 240.7 241.7 244.8 250 254.6 255.7 258 259.8 261.4 261.6 263.6 266.9 269.7 273.3 276.9 280.1 284.5 289.3 296.1 301.8 308.4 311.1 312.7 314.9 316.5 317.2 317.2 317.4 316.2 316 317 320.6 319.6 316.2 313.5 305.3 299.5 296.9 296.4 295.9 299 302.5 305.3 306.7 306.1 306.8 306 307.3 307.6 303.2 297.9 292.2 284.7 277.7 270.8 265.3 265.7 264.4 266.9 266.3 264.9 263.5 261.6 262.1 263.6 260.6 249.1 247.2 246.6 239.3 227.2 215.6 208.6 196.7 190.3 188.8 183.3 178.3 186.2 206.1 212.5 215.2 218.7 221.8 226 229.6 224.2 214.3 208.4 197.9 185.8 168.8 155.9 148.2 145.2 143.7 142.8 142.9 143.1 143.3 143.5 144.4 146.1 147.8 150.4 153.3 158.1 162.2 166.7 170 173.5 177.9 181.3 188.2 193.1 195.4 197.9 200.5 203.2 202.6 202.8 202.1 201.8 202.7 207 217.4 221.7 223.6 223.1 220.9 220.3 219.6 221 224.8 219.4 216.2 216.2 215.9 213.3 210.3 207.8 211.2 215.8 220 222.5
260.9 253.2 237.9 234 233.9 233.4 235.4 234.1 233.2 231.2 229.7 228.6 226.7 224.3 223.2 216.5 210.7 203.3 216.3 220.4 224.4 228.7 232.7 234.1 233.1 234.1 235.9 236 234 229.3 226.8 224.5 226.5 227.7 230.9 232.3 232.4 233.4 237.2 238.9 237 237.9 236.3 235.3 235.2 234.2 236.7 233.8 237.2 238.3 240.1 241.7 242.1 240.8 240.9 240.8 241.4 245.3 249.2 251.2 252.5 254.6 255.8 256.8 257.8 260.6 266.2 270 273.9 277.8 282.8 287.4 292.1 297.3 304.4 310.7 315.1 318.1 319.9 319.7 319.4 318.1 317.7 317.4 317.4 317.1 318 319.1 316.9 312 302.3 299.6 297.8 297.5 295.7 297.2 299.4 300.7 300.6 299.8 299.3 300.8 302.9 302.6 298.4 293.7 289 282.6 276.2 267.9 261.5 259.7 259.4 259.2 260.8 262.4 263.8 265.8 271.5 272.7 270.1 268.2 269.1 267.2 264.4 247.9 235 223.6 210.8 200.9 195.9 196.2 190 190.8 196.4 206 215.8 226.6 231 233.6 237 236.1 227.1 215.6 201.5 184.5 168.6 156.4 151 146.1 144.3 143.5 143.7 143.9 143.8 144.6 144.5 145.1 146.2 147.9 150.5 154 158 161.5 164 168.4 173.1 177.4 183.1 187.9 193.3 195.9 199.8 202 203.4 202.6 200.5 200.2 204.1 206.9 209.7 212.5 213.8 213.3 213.2 212.6 214.4 217.3 219.2 216 213.2 214.4 215.2 211.1 207.2 207.7 210.5 214.1 218.5 222.1
246.9 232.6 224.9 226 220.4 230.2 231.7 230.7 229.6 226.7 226.6 225.1 222.6 219.8 216.8 209.7 205.2 203.8 211.9 216.7 220.5 224.5 228.4 231 233.4 236.1 236.9 236.7 233.5 229.6 226.6 225.1 222.2 225.4 226.7 228.2 227.9 229 230.1 232.5 230.8 229.2 228.9 228.3 228.3 227.9 233.2 238.2 241.8 243.4 244.4 245 245 243.5 241.4 241 241.5 243.8 246.1 247.6 248.9 249.6 249.8 251.7 252.9 255.5 262.1 266.6 271.2 276.9 282.7 287.8 292 296.7 302.6 308.3 316 327.2 329.5 326.9 325.1 323.3 323.8 323.5 322.7 320.1 318 318.3 318 312.8 307.2 302 299.6 297.9 295.4 295.3 296.3 297 295.7 294.3 294.6 293.1 293.5 292.6 290.1 286.5 286.7 283.9 278 269.4 261.9 257.5 257.1 259.4 262.1 267.7 267.7 273.6 281.6 285.1 278.6 275.7 274.7 272.8 265.8 258.7 252.6 242.8 229.4 217.2 205.5 199.4 196.4 194.5 197.9 203 210.3 219 219.2 219.3 221.8 221.6 222.9 215.3 202.7 188 170 158.1 151.5 147.1 145.3 144.8 145 144.7 144.8 144.6 144.4 144.6 145.6 147.8 150.2 153.1 155.9 158.6 159.9 165.5 168.6 172.4 177.7 181.3 184 187.9 191.9 195.5 200 201.6 199.7 199 201.1 205.5 208.9 208.3 207.2 206.8 206.6 209.7 212.1 211.6 210 209.3 204.8 204.5 206.8 206.3 204.8 207 210.3 215.6 220.2 222.9
226.3 217.4 212.3 212.5 208.3 224.5 228.1 227.1 225.8 224.5 221.2 220.8 218.8 216.3 211.2 206.3 201.5 198.6 203.3 212.5 218.6 223.8 228.3 232.5 235 235.3 236.2 236.8 232.8 228.9 226.5 224.4 224 219.6 223.4 225.2 224.7 225.2 224.7 222.8 224.2 223.6 222 218.6 226 229.6 235.2 240.4 244.4 246.3 246.9 249 247.9 246.3 244 242.3 240.8 240.7 243.4 244 243.9 244.5 246.4 248.2 249.6 254.2 258.6 260 263.7 275.1 281.6 286.4 293 297.6 301.8 307.6 315.7 324.4 324.1 324.4 321.5 323.3 323.8 324.7 320.8 315.1 310.5 309.3 308.7 310.1 306.5 308.1 304 298.8 296 295.9 294.5 290.9 290.3 287.4 287.6 284.9 283.3 280.5 280.6 281.2 281.4 282.4 278.6 272.7 265.9 257.3 254.6 257.3 265.4 272.7 275.5 280.8 282.2 284.1 283.3 280.2 276.8 272.6 267.8 261.5 254.3 245.2 239.4 233.9 219.4 205.4 205.4 203.7 205.8 212.6 218.3 221.7 223.8 222.9 219.3 213.7 213.1 207.7 199.6 183.2 170.8 161.3 153 149.8 147.4 146.6 145.9 145.8 145.2 144.7 144.3 144.2 145.4 145.7 147.5 150.6 153.1 154.3 156.4 161.5 164.2 166.4 171.2 174.8 178.7 181.1 185.9 188.7 192.7 195.9 194.6 197.4 201.4 205.1 207 206.7 205.9 204 203.2 203 204 205.6 205.1 204.7 202.1 201 202.3 204.1 207.9 207.6 209.4 214 217.3 218.1
212.5 204.2 198.2 197.3 200.3 209.3 217.9 225.5 222 222.4 220 217 216.7 217.3 216.3 208.9 200.4 194.9 199.8 210.9 218.1 223.5 229.8 233.1 235.4 235.4 235.1 232.6 230.2 227.8 225 224.5 225.1 225.2 221.6 221.8 221.2 220.3 218.2 218.2 219.5 217.9 214.6 222.8 227.6 233.8 239.1 242.6 247.6 249.7 251.3 251.4 251.1 248.8 244.6 243.5 242.8 241.2 238.1 239.7 239.7 241.3 241.7 243.5 246.1 247.7 249 258.7 270.1 278.9 283.1 287.1 292.7 298 303.9 312.6 318 321 322.8 321.4 321.4 321.4 320.6 319.6 314.8 304.8 296.3 293.5 292.7 292.2 293.3 295.4 296.1 296.5 295.2 290.7 287 282.1 280.9 281.9 280.1 276.9 274 272.9 273.4 275.5 276.7 280.4 278.3 272.5 267.1 262.4 253.9 254 263.8 269.7 277.1 281.7 280.6 281.8 282.3 277.5 273.9 269.4 264.5 259.4 253.7 248.2 248.7 245.7 239.4 220.7 219.1 219.1 210.3 211.3 214.2 217.6 220.7 223.8 222.7 216.5 211.3 204 198.4 187.8 172 159.7 155.7 151.3 149.1 147.4 146.4 146.5 146.2 144.9 144.9 144.9 145.5 145.2 145.4 145.7 147.4 149.3 150.3 156.1 159.4 162.6 166.3 171.1 173.3 176.7 180.8 184.8 188.2 189.3 191 196.6 201.3 202.1 201.3 202.1 202.2 200.5 197.9 199.1 199.4 199.8 199.7 201.2 201.2 200.7 201.5 203 206.5 209.8 210 210.8 211.8 211.4
196.8 192.1 189.2 189.7 197.1 207.5 213.1 216.7 213.6 213.7 209.6 212.5 212.7 214.8 214.8 214.3 200.7 191.5 198.6 210.4 217.1 225.3 232.4 233.7 232.9 232.7 231.8 230.2 227.9 226.8 224.4 225.1 225.2 225.8 223.7 221.5 214.8 220.3 217.5 212.5 212.8 211.8 214.8 223.1 230.3 235.7 240.6 245.8 248.2 249.4 251.7 251.1 249.3 246.2 243 242.6 240.6 238.4 235.7 236 234.3 237.4 236.9 239 241.2 239.2 237.3 250.1 256.2 265.6 275.6 283.7 292.4 299.4 307.6 320 321.4 321 323.9 318.4 321.9 324.5 320 314.8 304.1 298 295.2 292 292.2 291.1 288.6 287.5 290.7 289.4 288.8 286.1 280.3 277.5 273.7 270.3 269.3 268.4 265.2 264.4 266.9 268.4 273.2 277.2 276.4 272.7 265.5 260.3 254.1 251.1 256.2 263.1 270.9 271.4 271.3 272.2 271.5 269 267.8 265.7 260.3 255.1 251.8 250.5 249.2 246 240.1 228.7 216.2 214.4 209.2 205 209.7 215 213.8 216.7 220 220.2 213.7 201.7 194.2 184.7 172.2 163.8 160.8 154.8 150.4 147.9 147.3 146.3 145.5 145 145.2 144.6 145.3 145.6 145.2 145.4 146.5 147.7 149.1 150.7 154.3 159.7 164.4 167.3 169.6 171.7 176.4 179.8 182.8 182.7 183.3 189.1 192 192 191.5 192.1 193.2 193.6 192.3 191.8 194.5 193.6 195.4 199 201.2 202.8 203.6 205.4 206.5 207.6 206.7 205.7 204.6 203
189.9 186 185 185.7 185.2 193.6 206.3 212.1 206 200.6 195.2 201.2 209 213.7 214.7 208.1 201 189.5 199.4 209.3 220.3 228 231.1 229.9 229.1 228.5 227.7 225.5 224 224.1 223.7 223.4 224 223.7 221.5 217.4 215.3 211.3 211.2 211.2 210.2 205.6 212 222 228 236.9 240.7 242.7 245.7 249.5 249.2 248.9 246.8 243.3 241.7 240 239 239.3 240.7 240.1 237.5 230.5 231.4 235.4 233 226.6 237.5 238 247.3 261.7 267.5 277.3 294.3 297.7 303.1 305.6 308.4 313 316.7 317.5 325.6 323.3 321.6 314.2 305.9 300.5 294 288.8 290 283.1 280.5 279.2 274.8 274.5 271.6 269.7 267.2 263 255.6 255.6 258.6 260.2 257.9 257.9 260.4 263 268.7 271.2 272.7 270.6 262.7 257 253.6 244.6 249.5 251.6 260.3 264.2 266.1 265.1 263.7 261.6 260 256.3 251.9 248.7 247.1 245.1 243.5 241.7 238.6 230.2 216.3 210.4 204.4 202.9 206.1 212.4 215 217 221.8 222 215.4 203.6 194.4 185 172.1 167 160.6 156.1 152.1 148.7 148.4 147.4 146.8 146.3 147.1 147.9 147.1 148.5 148.4 147 146.6 147.1 149.8 152.6 155.2 155.9 158.5 163.6 165.7 168 170.8 172.8 175.4 173.2 176.8 181.3 181.8 180.7 181.7 183.2 183.1 183.6 184.7 184 187.1 191.9 197.5 200.6 203.1 205.6 206 204.7 202.7 202.4 200.7 197.4 195.2 197.8
184.9 182.5 182.3 182.6 181.7 182.5 192.8 200.3 196.9 190.4 189.8 195.7 211.4 209.6 209.5 204.4 193.9 188.9 199.4 209.1 219.6 224.2 225.2 225.3 223.6 224.3 223.8 221.7 222.1 223.2 223.9 225 225.1 223.8 223.4 221.5 220.7 220.7 220.3 218.3 214.6 210.8 205.9 215.4 227.6 232.5 238.9 241.8 245.1 243.1 244.2 247.2 247.6 247.1 246.5 245.4 243.5 243.3 242.2 241 236.8 229.4 220.1 217.2 230.7 237.2 233.1 234.6 238.5 250.3 261.5 270.5 281.7 287.3 291.7 299.4 304.1 308.1 311.3 320 325.7 321.2 313.2 309.8 302.8 295 288 281.2 277 275.8 275.5 271.2 269.7 268.1 262.7 260.6 256.3 252.6 246.6 249 253.5 254.2 251.8 253.6 255.9 258.4 262.6 264.7 266 265.6 260.5 254.3 249.8 245 235.2 241.4 250.9 252.3 253 253.1 252.6 250.8 249.9 246.1 244.7 243.7 243.7 242.7 241 237.5 234.5 229.7 225.9 220.3 207.5 201.9 202.5 215.9 222.4 226.6 225.4 218.9 211.7 205.7 196.4 187.4 180.5 171.3 162.4 157.9 155 151.5 152.3 153 154.2 152.8 152.6 153.8 154.7 155.5 154.3 153.8 150 148 148 149.2 151 151.6 152.9 159.5 161.4 162.9 165.5 165.1 166.5 167.9 170.2 170.3 169.2 167.6 169.3 171.9 172.4 172.8 173.4 178.6 183.5 188.4 192.1 195.7 197.8 199.6 201.4 201.3 196.9 195.2 193.7 188.8 196.1 197.1
182.8 181.2 180.5 179.9 180.3 179.9 180.4 186.4 188.3 184.5 184 186.6 194.8 197.5 200.7 195.9 186.6 190.7 200.5 211.1 217 219.5 218.6 218.8 219.7 222.1 221.3 222.1 223.8 227.3 233.3 235.1 235 233.5 230.7 228.8 227.4 226.4 224.7 221.5 217.8 216.8 208.3 202.4 218.1 230.4 237.3 239.8 238.2 240.1 244.6 245.2 244.8 245 244.1 243.9 241.7 240.8 242.2 240.8 237.9 232.1 229.3 211.3 235.6 244.4 244.9 236.8 236.6 241 253.3 263.6 269.1 271.2 282.9 292.1 297.9 299.5 316.7 322.2 320.1 311.3 306.1 298.8 289.7 280.6 276.2 271.2 266.7 264.9 264.8 260.1 255.7 251.7 249 250.1 245.1 243.8 237.7 242.4 246.1 244.2 246.5 249 250.8 253.2 257 257.8 258.8 256.5 254.7 249.4 246.4 243.6 232.2 226.7 232.2 238.1 242.4 241.6 241.2 240.6 236.7 233 238 240.6 241.5 242 239.3 235.9 235 234.2 230.9 226.9 220.2 209.6 198.2 210.7 227.6 234.1 231.3 224.4 219.3 211.2 204.3 196.3 187.7 177.7 168.2 161.5 154.6 154.9 157.1 158 160.7 162.5 162.9 162.4 163 162.3 161.4 160.9 160.8 158.8 155.7 154.6 152 150.2 149.9 154.8 157.1 158.6 158.2 159.3 161.9 162.4 161.5 157.1 156 157.1 158.6 158.7 159.5 162.1 169.3 176.9 181.1 184.6 188.4 190.2 191.1 191.1 191.7 190.2 185.9 183.4 181.8 184.7 189.2 193.8
