ncols 200
nrows 81
xllcorner 260000
yllcorner 755850
cellsize 50
355.8 353.8 352.7 351.5 349.7 346.2 342 336 329.7 323.5 319 315.1 310.8 303.9 289.1 282.2 280.5 278.9 284.5 283.3 273 263.2 257.2 251.3 264.3 258.6 253.9 248.3 258.4 267 275.7 283.2 289.9 296 301.1 310.7 316.9 325.9 331.7 336.3 344.6 353.8 372.6 359.8 356.5 364.8 361.7 353 347.6 345.2 340.4 331.2 322.1 315.7 310.6 307.3 303.6 297.5 291.2 283.4 273.4 267.4 264 262.5 261.7 259.2 255.1 255.9 261.2 262.7 264.5 266.8 272.3 277.5 283.5 284.1 285.8 293.9 305.8 314.1 323.9 332.4 341.5 346.7 354.6 367.5 379.7 392.3 404.9 417.5 432.2 451.7 468.3 483.6 500.9 510.6 517.8 534.9 549.8 556.7 554.9 552.3 553.8 558.7 566.4 575.2 581.1 583.1 581.4 581.3 583.2 584.7 584.7 585.7 580.3 564.6 551.9 535 522 506.5 497.9 489 472.3 459 451.1 455.1 455.1 454.9 458.5 463.2 467.6 473.5 479.9 487.7 496.5 509.6 516.2 522.5 535.6 561.1 586 582.4 556.5 536 530.7 526.3 519.4 525.6 522.3 520.1 522.1 521.5 522.8 520.9 519.6 516.2 512.3 511.5 507.3 505.7 496.9 495.6 497.8 503.6 504 504.6 504.3 499.8 494.2 487.7 489.3 489.7 494 502.4 511.7 525.7 539.4 542.1 521.9 496.7 486.6 471.5 453 449.7 438.5 422 401.9 378.3 357.9 335.6 322.5 305.2 299.5 296.1 288.4 281.7 276.2 269.6 261.7 261.5
356.2 353 351.3 350.4 347.8 343.9 338.3 331.6 325.8 320.4 316.7 313.7 309.2 301.6 290.5 280 275.2 277.2 280.8 277.6 270.3 260.6 255.2 248.4 259.7 255.3 250.9 246 256.6 264.7 273.4 279.5 285.8 293.8 299.8 307.7 317.5 324.6 332.8 339.8 347.5 359.2 355.3 344.1 346.8 353.7 348.3 347.2 341.8 336 335.3 325.3 316.5 313.9 309.7 307 305.3 299.3 289.3 279.3 271.7 266.6 266 263.9 260.6 258.3 254.9 253.4 254.6 255.2 259.7 260.2 267.1 272.7 277.6 282.7 280.4 284.7 296.4 307.6 316.5 324.6 331.7 338.1 344.2 354.8 370.3 382.4 395.5 409.8 426.5 442.5 459.2 474.8 492.6 500.3 508.6 523.9 544 546.7 549.7 544.4 547.1 548.5 555.9 569.1 579.8 580.8 572.3 573.2 573.7 574.4 576.1 575.7 570.2 554.1 540.5 525.8 511.7 500.8 491.6 483 463.3 454 445.1 442.6 445.9 448.1 450.4 454.9 459.4 466.5 472.7 480.4 488.7 500.8 509.8 520.9 540 567 586 579.5 551 528.3 523.9 520.7 511.6 518.2 520.6 514 513.5 513.9 511.5 513.2 511.5 511.4 508 504.2 498.7 497.8 492 484.7 485.9 489.4 492.7 490.2 491 487.7 482.6 478.7 477.4 480.4 484.3 492.6 502.4 516.7 527.8 532.3 518.2 489.9 472.9 460.3 459.9 448.9 436.6 413.5 384.9 360.8 338.5 318.7 306.5 298.9 291.5 291.1 283.2 270.9 269.2 262.2 253.9 252.9
353.9 352.8 350.8 347.6 345.2 340.3 333.1 327.2 321.4 316.4 313.8 310.5 307.1 302.5 292.5 280.5 271.3 270.5 273.8 272.2 266 257.7 245.2 249.6 258.9 253 245.1 243.5 255 262.6 270.6 275.8 283.4 291.5 297.8 307.7 318 324.4 332.6 339.4 349.6 347.5 337.4 332.8 336.7 340.1 340 338.5 332.3 326.6 322 319.1 318.1 316.5 312 308.4 302.6 294.3 285 277 270.6 268.6 267.2 262.5 258.4 257.2 254.5 246.6 247.4 248.9 252.1 254.6 259.3 265.3 273.3 279.1 273.3 277.8 288.6 299.7 310.2 317.5 322.4 327.6 335.2 342.4 356 370.6 385.5 399.2 417.7 432.3 448.6 462.1 479.4 487.2 495.6 515.2 536.2 539.7 547.1 536.9 540.4 538.2 544.5 557.1 571.1 574.7 559.6 556.2 559.2 561.2 563.6 564.6 557.9 546.3 534.2 513.3 503 493.3 480.8 464.4 447.7 445.9 436.8 432.8 439 442.3 442.1 446.7 452.2 458.6 465.2 472.3 480.3 491 504.7 517 536.3 566.1 582.5 568.8 539.8 518.5 513.4 512.1 504.7 507.6 512.2 505.8 500.8 501.6 498.5 500.8 500.5 504.6 505.2 503.6 494.9 487.6 481.5 474.3 474.6 475.2 477.1 477.1 474.8 473.5 468.7 463.6 464.1 471.4 475 485.8 494.8 506 517.7 518.4 509.1 482.6 462.2 458.7 467.9 438.5 428.6 405.3 374.8 350.4 325.4 307.3 295 286.1 286.1 283.7 274.9 265 260.9 256.6 249.8 247.2
355.4 353.6 350.1 346.4 340.9 334.3 328.4 322.3 316.4 312.5 309.7 306 302.6 298.5 291.8 282.7 270.9 265.7 267 265.5 260.2 252.3 240 250.4 253.5 245.6 241.3 242.7 253.4 260.6 266.3 272.5 281.7 289.9 295.3 305.9 313.8 321.5 329 338 346.3 334.9 323.8 324.2 328.7 328.7 327.9 327.3 322.8 322.1 319.1 317.1 315.7 311.5 306.5 302.5 296.2 289 279.5 273.9 272.4 269.7 264.2 258.2 257 254.3 250.5 244.6 240.8 242.6 243 246.6 251.5 255.5 262.7 268.2 267.5 273.5 283.2 293.6 303.2 308.4 314.4 314 323.5 334.3 346.1 360.8 375.9 389.2 406.3 420.7 434.5 447.8 463.9 474.6 484.9 513.5 527.5 532.6 536.2 525.6 530.3 530.1 537.3 543.8 553.5 560.4 544.1 540.7 541.3 547.1 551.8 550.7 546.1 536.4 522.8 506.3 493.7 481.3 464.8 446.6 443.2 436.9 425.3 428.9 431.6 434.7 434.9 440.7 447.3 454.4 459.9 465.8 475.2 489.3 498 510.6 527.6 556.3 575.9 560.8 529.9 509.5 503.8 499.9 496.1 494.8 500.4 498.4 492.2 488.2 489.6 489.5 492.3 494.5 493.8 494.2 488.7 477.7 472.4 465.1 466.1 464 464.8 462.4 461 460.6 455.3 446.4 451.4 461 463.3 478.1 486.2 493.7 497.6 500 494 483.2 459.2 452 448 431 407.2 388.9 364.8 340.1 315.6 298 286.2 278.7 279.8 277.1 269.2 259.1 253.2 251.2 247.2 243.8
355.9 352.1 347.4 342.5 335.5 329 323.1 317.8 313.1 308.9 304.8 301 297.8 294.1 289.2 282.5 272.7 264.1 261 258.5 252.1 241.7 236.8 251.7 246.8 242.7 238.8 242.4 252.4 258.6 263.3 269.7 279 287.4 294.6 301.8 309.6 318 329.1 338.6 327.2 318.3 314.1 317.6 317.5 316.9 316.1 318.4 318.8 317.4 318.1 316.1 309.7 304.1 299.5 294.1 288.2 282.6 279.4 275.3 272.9 265.7 257.1 254.4 253.4 250.9 246.8 242.4 238.4 236.7 238.1 239.8 242.8 250 258.4 260.4 263.3 270.7 279.9 285.3 292.3 299.5 305.3 308.7 316 325.1 337.6 350.5 366.7 380.5 398.4 411 424.1 434.6 447 461.4 478.3 506.7 518 520.5 525 516.8 519.6 521.1 524.7 535.4 540.4 538.2 531.5 529.3 530.5 536.9 541 540.7 531.9 520.5 509.7 495 480.9 465.1 448.1 437.4 436.7 429.8 422.4 427 426.9 426.2 428.3 433.1 439.2 446.6 451.4 459.7 470.4 481.4 490.9 502.9 523.9 549.6 569.7 550.6 519.9 502.9 496.4 490.1 486.4 479.2 481.9 486.6 482.9 476.1 476 477.7 480.2 482.8 485 485.1 483.9 471.2 463.8 458.7 453.4 452.6 452.2 448.8 447.4 449.4 444.9 434.8 444 451.4 453.4 463.9 477.3 484.4 487.3 492 489.3 466.6 451.4 445.9 437.6 416.6 390.8 371.1 351.4 332.1 311.8 293.7 280.3 270.1 269.6 271 263.4 255 249.1 246.1 243.4 240.5
351.8 348.5 343.3 337.4 330.3 324.2 318.4 313.9 309.5 304.4 302.1 297 292.6 288.3 283.7 278.7 274.3 261.4 255.2 251.9 245.6 235.1 247.2 252.3 248 246.1 236.5 243 252.2 257.5 262.7 267.8 275.8 284.2 290.3 297.1 307.3 316.8 331.1 321.6 312.5 308.1 308.5 307.6 306.3 305.9 306.8 307.7 309.4 308.5 305.9 301.9 298.8 295.8 290.6 286.1 280.9 277.3 275.7 274.3 265.4 257.1 253.8 251.6 249.4 247 242.1 239.3 237.6 234.8 232 235.6 240.4 247.8 252.5 254.3 259.8 267.8 274.4 279 286.6 291 296.7 300.6 307.4 317.6 329 340.1 355.1 371.4 389 399.8 413 422 434.6 447.2 476.1 502.1 502.8 506.1 511.8 510.3 507.2 508.8 509.4 519.3 531.4 536.7 520.9 514.9 516.4 523.8 526.2 524.2 514.2 500 490.8 476.3 462.5 450.6 436.3 429.1 432.9 423.3 417.1 423.3 422.1 420.1 422.6 426.8 433.4 437.9 444.1 451.4 466.9 477.6 484.9 495.1 517.3 543.5 556.7 543.5 514.7 497.2 492.5 484.6 472.4 469.8 458.1 463.6 466.3 467.6 460.7 464.2 464.7 469.4 472.4 471.5 474 465.9 460.6 450.3 442.1 443.6 440.6 438.1 435.2 437.5 434.1 428.1 435.3 442.5 445.5 453.9 468.5 474.9 478.3 476.4 467.9 456.2 438.4 430.8 429.3 411.2 384.5 364.9 347 330.2 309.1 289 273.9 265.9 261.3 261.7 255.2 248 245.2 241.2 238.7 236.2
347.4 343.1 337.8 331.5 324.9 319.2 314.3 309.1 304.9 300.4 295 291 287.5 282.4 278.3 274.6 267.7 255.4 251.8 248 239.5 234 251.1 245.6 244.6 245.6 234.4 241 249.4 254.7 260.5 265.9 274.1 281.5 287.8 294.1 304.8 320.6 321 307.8 304.5 304.6 302 300.2 294.4 296.4 300.6 298.7 299 296.9 295.9 293.2 291.5 287.4 282.1 277.7 274 273.1 273.8 267.1 258.5 252.6 248.1 245.2 242.8 242.4 238.7 237.3 235.6 233.5 229.8 229.3 238.3 244.6 243.4 249.2 256.6 262.9 268.5 272.4 279.9 283.7 287.2 295.9 300.9 308.7 319 330.8 342.5 358 375.6 385.4 398 409.7 421 437.4 466.2 493.2 487.9 490.6 495.4 500.1 492 494.3 498.1 504.3 515.6 514.7 507.7 495.4 498 505.8 506.6 505.1 496.5 484.1 468.4 457.9 446.9 436 426.5 420.5 423.9 419 412.3 420.3 415.3 412.5 414.9 420.4 427.8 432 438.3 445.3 457.4 468.2 476.3 489.7 511.1 539.2 548.8 541.2 510.9 493.5 490.1 481 460.5 455.1 449.1 445.3 451.5 460.5 454.6 453 454.1 458.8 462.9 461.8 457.7 452.3 450.5 441.9 431.8 430.9 429.1 424.6 422.9 426 425.3 418.7 425.9 433.8 437.9 444.8 457.8 469.7 468.9 464.5 464.1 455.7 433.4 425.7 415.1 401.1 379.6 360.5 344.1 329.4 305.3 285.7 268.4 258.1 248.9 248.1 245.7 242.8 239.4 236.3 234.4 233.4
339.7 334.6 330 324 318.1 313 307.5 302.6 298.5 293.2 288.9 285.1 281.9 279.1 273.9 268.6 260 251 247.1 246 231.8 233.9 246 245.3 239.1 237.6 230.3 238 246.5 251.4 257.7 263.7 270 275.7 284.3 291.8 306.6 315.3 303.3 295.8 295.1 294 293 288.7 285.6 286.2 288.6 289.4 288.2 287.3 286.3 285.4 283.3 277.5 272.9 271.1 268.6 266.7 264.8 259.4 252.5 245.2 241.3 238.1 238.9 238 235.9 233.6 231.5 230.7 227.3 227.3 233.7 236.6 240.5 247.8 253.5 256.8 262.8 270.1 275.3 277.4 279.8 286.2 292.7 299.2 308.3 319.7 330.9 343.6 357.8 369.4 383 395.1 408.9 429.9 453.7 479.7 474.4 475.9 482.1 491.5 477.9 476.9 486.4 488.8 492.3 493.3 489.7 480.4 482.5 490.6 488.9 481.4 475.7 471.7 454.3 438.6 429.7 421.8 413.7 407.1 408.6 412.6 410.5 411.4 406.6 404.8 408.4 413.8 421.2 425.5 431.7 437 446.7 458.4 469.1 481.5 505.7 537 542.9 537.1 503 487.6 486.6 468.7 448.5 441.5 438.8 430 434.6 441.8 443.8 437.8 443.4 448.3 452.6 450.2 445.9 443.5 439.8 433 421.9 416.2 414.7 411.3 411.1 412.4 414.8 410.4 417.4 426.7 433.3 437.8 451.5 461.6 462.2 470.7 473.7 446.8 425.2 413.8 406.8 393.7 367.4 352.1 340.2 322.8 297.8 278.1 262.8 251 243.8 241.6 241 236.6 233.3 232 231 230.5
329.2 323.9 320.5 315.7 310.8 305.8 300.4 295.4 291.9 287.6 284.1 280.9 278 274.8 269.9 264 256.8 248.2 242.4 235.5 229.1 229.5 236.9 237.7 237.6 231.7 228.1 236.8 246.9 251 252.7 260.2 265.7 272.4 280.4 291.6 307.1 294.1 289.1 288.2 286.4 284.3 283.8 279.3 275.4 275.5 277.3 279.1 279.7 278.5 277.6 276.5 273.5 268 264.1 263.5 261.1 259.8 255.8 249.7 243.5 238.9 235.4 234.2 232.1 232.8 231.2 227.8 227 226.7 224.7 226.1 230.6 236 241.2 246.9 250.2 252.8 256.6 260.7 267.6 272.4 274 275.7 283.2 290.4 298 307.5 318 329.4 341.1 354.3 367.6 381.7 400.5 417.7 437 465.8 458.3 456.1 463 472.4 461.9 456.5 467.9 469.7 472.4 473.8 474.9 470.8 464.5 466.2 468.9 460 452.2 444.9 431.7 420.2 413.9 409.2 401.4 397.1 399.9 405 396.1 401.2 397.3 393.4 398.6 408 412.8 416.2 422.7 428.1 437.5 451.2 466.2 481.9 502.4 532.5 538.6 527.4 494.7 477 474.8 452.9 426.3 425.2 425.5 416.4 418.3 422.3 426.1 426 426.1 429.6 435.6 437.4 434.1 430.8 429.2 421.9 412.5 404.9 402.5 397.5 396.9 399.5 403.1 401.5 408.7 422.2 429 432 441.4 453.4 458.6 465.6 459.6 439.6 412.5 400.7 391.8 384.6 364.2 345.7 334.5 317.6 293.6 272.5 258 246.2 239.6 236.2 234.3 230.5 228.9 228.9 229.7 229.4
318.3 313.7 309.6 305.4 302 297.9 293.7 289.9 287 281.8 278.7 274 272.1 268.8 263.7 257.4 250.5 243.2 236.6 235.8 225.9 225.8 232.2 233.7 236.3 226.2 229.8 239.4 244 251.4 251.6 255.4 262 269.2 277.8 292.1 283.2 281 281.2 280.7 278.9 275.4 272.8 269.2 268.4 268.2 270.4 270.5 271.6 270.6 269.4 266.5 262.6 260.5 257.6 255.2 253 250.6 245.2 238 233.7 230.2 227.2 226.8 227.6 227.9 226.5 222.1 220.3 220.2 222 225.9 228.3 233.3 238.6 242.7 245.5 245.5 247.3 252.2 256.3 261.8 269.1 272.6 274 281.3 289.6 297.7 306.2 315.3 326.3 338.7 353.7 372.1 390.8 403.1 418.4 440 439.1 438.5 445.8 447.5 446.4 436.3 445.4 453.4 453.2 455.4 456.8 458 448.4 450.7 448.6 437.6 435.8 431 417.4 404.3 396.9 396.2 389.8 388.3 390.5 394.9 390.7 390.4 389.1 378.6 382.7 396.5 403.2 407 411.5 418.5 427.2 443.4 459.8 482.5 505.7 525.4 533.1 518.9 486.4 471.1 454.7 431.2 410 398.8 405.7 398 394.2 402.3 406.4 410.1 410.8 412.6 419.1 422.3 420.8 421.6 418.7 411.8 400.3 386.9 389.6 385.3 384.4 384.2 387.6 390.3 400.3 416.1 420.9 424.5 433.3 444.9 452.3 450.6 441.6 427.8 403.2 388.4 382.5 370.4 356.7 339.7 322.2 307.6 289.8 270 254.5 243.6 235.5 232.1 229.1 226.3 224.9 227.5 227.9 227.7
308.1 302.9 299.7 296.9 294.7 291.8 287.8 284 281.3 276.7 271.8 270.5 266.7 262.4 255.8 249.3 243.7 236.6 231.1 230 223.8 227.5 230.5 230 230.1 223.2 230.1 234.9 240.7 247.2 251.8 251.5 256.5 264.5 275.7 275.4 269.4 270.3 271.7 272.7 272.6 269.3 266.1 263.8 262.1 261.9 264.5 263.9 263.6 262.8 260.1 254.7 252.5 250.5 249.4 245.4 240.5 239.1 235.3 230.1 227.5 225 223.1 222.5 222.6 221.9 220.3 217.3 216.7 219.4 220.1 224 225.2 229.9 235.1 238.8 240.3 239.2 241.3 243.9 247.1 251.8 258.7 265.4 265.9 273.5 281.2 288.3 294.8 302 313 324.1 339.3 356.8 374.7 386.9 405.2 427.6 423.6 415.7 425.8 429.1 429.5 418.8 419.6 428.8 434.2 434.2 433.4 436.9 435.1 442.3 438.9 425.6 412.6 405.9 397.4 386.7 381.5 376.8 375.8 375.7 379.4 382.4 377.1 375.5 376.5 363.1 362.8 380.1 392.3 394.2 399.5 405.6 418.6 436.8 453.6 483.2 502.6 522.2 521.7 507 483.1 455.2 432.2 415.6 397.5 384.6 383.3 385.1 375.8 384.9 388.8 395.5 401.7 399 404 407.1 407.1 404.7 403.3 398.6 390 381 375.7 373 372.5 369 375.8 381.5 391.7 409.4 413.8 416.7 425.3 432.3 438.2 440.8 432.2 412.9 395.6 376.2 368.4 361.7 349.7 335.5 316 298.7 288 268.6 252.4 240.1 231.8 228.3 226.4 224.2 223 223.4 228.6 226.9
298.3 294.5 291.6 288.7 285.3 282.5 278.4 277 272.6 268.8 265.4 264 259.9 256.6 248 241.2 238.3 234.9 227.6 221.5 222.1 228.2 226.4 223.6 223.1 220.7 224.8 231.4 236.5 241.1 244.9 248.3 250.7 255.6 260.9 257.9 257.2 260.7 262.5 261.4 260.6 261 259.7 256.4 255.6 257.2 258.3 259.2 258.3 256.3 252.1 248.2 245.1 243.6 241 236.1 232.6 230.5 226.4 222.1 220.5 217.5 217.8 217.9 215.9 215.5 215.2 214.3 213.7 215.1 217.3 219.9 223 226 230.7 233.3 234 231.7 234 236.5 241 243.5 247.5 254.1 260.6 266.9 273.2 279.6 285.9 292 301.5 313.4 327.5 341.5 358.4 372.1 390.1 408.7 406.6 398 406.6 408.6 411.3 399.5 397.4 403.7 411 413.4 417.4 421.6 420.4 424.6 423.8 412.7 397.7 392 384.3 371.2 363.6 359.8 357.3 359.8 362.8 363.7 360.4 358.1 356.4 345.6 347.8 371.3 377.4 379.6 385 393.5 406.6 422.9 446.2 481.5 496.3 518 513.9 498.4 481.3 447.6 425.8 410.7 389 375.5 370.9 376.1 371.9 371.4 373.8 379.6 387.4 386.6 388.1 387.3 390.7 389 385.8 386.8 377.3 371.3 362.1 358.7 361.7 359.2 364.1 376.5 383 401.1 407.6 411.4 417.7 421.2 416 419.1 419 396.2 381.1 368.3 362.7 357.1 346.3 332.7 309.6 294.1 283.9 272.2 253.4 241.9 232.7 227.9 225.1 222.4 220.8 220.4 225.1 226.7
288.6 285.4 282.4 279.5 276.9 273.8 273.4 269.9 267.2 262.5 258.1 255.6 254.7 249.7 243.5 237.4 230.8 226.6 218.6 219.1 228 228.4 221.4 219.2 217.8 219.5 222 228.9 233.4 236.7 240 240.1 241.2 246.8 251.6 251.1 250.4 251.8 252.1 252.1 250.8 250.2 250.5 249.6 248.9 251.7 253.7 251.2 249.2 246.2 241.8 241.4 239.1 236.1 232.6 230.7 228.2 224.2 219 214.4 213.6 212.1 212.5 212.6 210.4 211.5 212.2 211.2 210.5 211.7 215 216.4 215.2 219.9 223.3 226.4 226.3 224.6 226.3 227.2 231.9 236.9 239.8 243.6 251.4 259.4 265.1 269.9 275.8 284 293.1 302.9 313.7 326.4 340.7 353.8 370.7 389.3 387.5 381.9 383.2 389.5 392.5 382.3 375 379.4 385.6 393.2 399.2 400.9 402.7 403.1 406.2 401.1 385.8 376.6 365 353.3 348.4 346.1 341.3 341.1 343.3 343.2 341 340.8 338.1 328.3 336.3 359.5 361.6 366.9 374 380.6 391.6 405.2 433.5 470.4 490.2 509.7 508.3 501.2 476.1 436.8 415 394.5 389.8 375.7 366.5 356.7 354.8 351.5 353.4 360.9 369.2 372.5 370.9 368.9 373.8 372 370.6 366.4 360.7 353.8 346.1 343.8 345.6 346.5 353.8 371.7 373.9 390.4 397.5 401.8 414.1 417.1 409.6 407.7 407.4 398.2 376.3 366 358.5 353.7 343.2 326.4 303.9 291.5 282.5 271.7 256.2 244.2 231.7 226.3 222.9 220.4 219.5 219.5 219.6 221.6
280.4 277.6 274.4 271.2 268.7 269.6 267.4 262.4 257.8 255.6 249.8 247.5 248 243.7 237.4 231.4 224.8 224.3 225.5 215.4 215.3 215.3 217.2 215.7 216.9 218 220.5 226.5 229.6 233.5 235.2 236.6 236.3 235.8 243.3 244.7 243.7 243.3 242.8 242 243.2 241.1 240.3 240.9 242.9 244.3 242 238.6 238.2 235.7 232.5 234 231.5 229.2 226.7 226.1 222.5 218.3 213 210.3 209.4 209.4 209.1 208.1 207.8 209.3 210.7 209.4 208.7 208.7 209.4 209.6 212.7 214.9 218.9 219.3 219.5 220.6 220.5 221.3 226.1 227.4 230.9 238.1 243.3 250.3 255.2 260.7 267.8 275.4 284.1 291 297.4 309 322.4 334 348.5 364.4 365.6 363.1 364.8 369.8 371.6 364.9 356 354.6 358 370.2 381.3 381 379.4 380.3 383.1 381.4 371.7 359.4 348.9 337.9 334.8 331.5 325 322.9 321.5 323.6 321.1 322.1 319.6 312.1 325.6 337.1 343 352.6 358.7 369 376.2 388.2 413.5 445.7 475.7 495.3 486.8 473.6 451.3 420.1 396.6 375.4 369.4 370.4 367.2 361.5 346.5 340.2 335.1 346.2 344.1 348.7 349.8 355.5 358.8 358.3 355.5 349.5 346.4 342.5 334.3 329.4 334.6 333.3 349 361 363.2 382.7 394.9 398.6 414.2 412 406.6 407.2 410 397.1 375.8 364.6 352.5 348.9 340.2 315.9 298.5 288.6 279 269.1 257.6 243.4 231 224.1 220.3 219.2 219.2 219.2 219.2 219.6
271.9 270.7 268.1 263.6 261.8 261.8 259.2 255.1 250.8 245.8 241.2 238.9 239.9 235.6 231.7 225.8 223.4 223.2 220.1 218.6 215.4 214 213.7 214.1 215.9 216.7 219.6 222.9 225.4 229.5 227.7 231.5 233.9 231.7 234.3 237 236.7 235.1 233.2 233.4 235.3 233.4 232.1 230.5 231 231.6 229.9 229.5 229.8 224.8 226 225.9 223 222.6 221.8 219.8 215.1 210.7 208.4 208.1 208 207.5 207.2 207.6 206.9 207.2 208.3 208.3 207 206.2 206 207 209.6 212.7 213 213 214.6 216.2 216.6 217.9 219 221.7 224.7 229 234.7 241.2 245.4 250.7 257.7 265.7 272.1 276.4 280.9 291.9 304.7 315.2 327.1 336.6 340.2 339.8 344.8 348.4 348.1 343.9 334.5 332.3 334.2 347.4 357.2 360.8 359.1 356.7 355.5 351.9 346.7 338.1 330.9 323.4 319 315.4 309.6 306 305.7 305.3 300.6 302.8 299.7 305.2 314.3 320.1 325.3 333.6 337.7 345 356.9 372 393.9 415 437.3 459.7 458.9 431.1 407.5 390.7 376.3 357.7 359.2 352.4 337 336.6 340.8 333.9 319.6 329.3 332 334.4 339.5 342.9 345 344.5 341.8 337.1 333 330.1 325.6 319.5 322 325.1 342.2 348.4 352.5 370.9 385.8 396.6 410.1 409.6 404.7 400.3 405.7 391.2 386.6 375.2 352.6 342.1 328.9 307.8 293.7 282.3 274.8 266.5 254.3 245.7 236.5 228.6 221 218.9 218.6 218.4 220.8 220.8
263.3 261.1 259.6 255.4 253.6 252.7 249.2 250.4 242.8 236.7 232.5 232.5 233.5 229.5 224.9 219.7 221.6 222.2 216.4 215.9 214.1 211.5 211.4 212.8 214.3 214.9 217.1 216.9 220.9 218.5 220.5 223.6 225.4 226.2 225.3 228.7 228.5 227.2 225.9 227.6 227.2 226.3 224.9 222.3 221.5 220.7 219.9 222.6 221.8 219.5 219 219.1 218.7 217.8 215.2 213 209.3 208.4 207.2 206.6 206 206 206.1 205.5 205.4 205.4 205.4 205.7 204.8 205.4 205.4 205.4 205.4 205.4 206.5 206.8 208.6 209.9 209.7 210.5 211.5 213.3 216.3 220.5 225.3 231.7 236.7 240.5 247.1 253.4 258.6 262.8 266.9 276.1 285.1 291.6 303.3 311.6 315.2 313.9 320.2 324.5 325.5 322.3 314.9 318.7 317.6 327.4 336 339.6 340.1 337.9 333.7 328.2 320.8 316 310.2 303.8 302 297.6 292.6 288.9 288.8 286.3 283 284 284 293.8 302.9 302.4 308.3 314.6 321.1 331.5 341.1 356.6 372.6 392.1 417.2 427 422.7 405.7 370.8 352.9 343.6 335.4 333 325.1 313.7 314.3 326.8 327.9 326 307.2 312.4 323 327.7 330.9 332.1 331.4 329.5 326.1 323 317.8 318 313.9 307.1 326 334 334.3 337.5 351.8 376.3 389.5 403.5 407.6 408.8 396.2 396.5 394 399 371.4 345.2 329.9 324.8 298.6 290 277.6 273.3 265.6 249.4 246.7 239.9 235.5 226 221.5 218.4 217.5 218.8 219.1
254.1 250.1 247.3 244.5 246.5 245.5 243 239.4 234.8 227.9 224.5 224.7 223.7 220.3 217.3 214.3 217.5 215.8 215 213.8 213.5 210.9 211.3 211.6 212.8 213.3 213.7 214.6 213.5 212.3 216.7 217.7 222.2 221.2 221.3 222 221 218.6 220.8 221 218.2 217 217.2 215.9 214.7 213.9 213.6 214.7 215 214.5 213.2 212.4 212.8 213 210 208.6 206.4 206.5 206.1 205.7 205.4 205.4 205.4 205.4 205.4 205.4 205.4 205.4 205.4 205.4 205.4 205.4 205.4 205.4 205.4 205.4 205.4 205.4 205.4 205.4 205.4 205.4 205.7 209.1 215.3 218.9 224.5 227.6 233.3 239.3 243.2 247.6 252.1 259.9 265.2 268.8 277.1 286.2 290.4 291.1 292.1 298.6 300.9 299.9 295.5 298.2 299.1 306.2 313.3 317.1 318 316.7 312.5 305.9 300.1 296.5 290.7 285.8 284.3 279.6 274.3 272.6 273.2 270.2 266.7 266.8 272.6 280.8 284.5 282.7 290.4 296 304 312.2 322.2 336.4 352.2 370.4 405.1 405.3 375.2 350.7 337.1 322.6 308.4 304 297.1 297.3 296.7 298.3 312.7 316.7 315.2 312.1 292.1 307.9 313.3 316.5 317.1 316.2 316.1 312.4 309.5 307.3 306 304 298.4 316.4 323.2 324.4 330.4 337.3 364.5 379.8 389.6 396.4 399.7 387.8 393.6 389.4 383 359 326.4 315.5 315.2 287.5 274.6 271.4 277.4 262.3 236.2 226.5 223.3 225.1 224.4 224.5 222.1 219.7 217.9 215.7
247.1 241.9 238.6 236.5 238.7 238.5 236.4 232.6 227.7 220.5 216.4 217.1 215.9 212.2 210.6 210 209.9 211.2 213 213.4 207.3 207.4 210.5 210.9 211.3 212 212.1 211.4 209.4 209.4 211.2 213.8 213.5 216.3 215.4 214.7 213.4 214.1 214.2 213.1 211.3 211.4 211.5 210.9 210 207.6 207.8 208.5 209.3 209.6 208.4 207.5 207.4 208.1 206.6 206.2 205.5 205.4 205.4 205.4 205.4 205.4 205.4 205.4 205.4 205.4 205.4 205.4 205.4 205.4 205.4 205.4 205.4 205.4 205.4 205.4 205.4 205.4 205.4 205.4 205.4 205.4 205.4 205.4 205.4 208.1 212.3 214.3 218.8 224 226.8 229.9 234.6 240.7 247.4 250 253.3 260.2 267.1 267 266.2 270 274.9 275.9 276.5 275.9 279.7 283.1 287.8 291.8 291.6 291.5 289.6 283.3 279.3 275.9 273.4 270.9 266.6 262.4 258 260.3 259.6 256.3 251.8 253.1 258.3 262.9 265.8 264.5 271.9 278.7 284 290.2 300.6 313.3 328 345.2 383.6 375.1 329.3 312.9 299 292.6 283 279 282.7 283 280.6 282.7 294.5 297.8 296.9 294 279.3 293.2 298.9 300.2 301.7 299.5 301.9 299.5 296.1 294.9 293.2 291.8 293.1 303.6 308.9 315.3 319.6 326.1 345.4 364.4 365.9 371.9 378.8 379.9 385.8 382.3 369.4 341.3 309.9 301 303.6 282.7 263.4 259.3 257.6 244.4 223.9 207.9 207.6 213.4 220.3 224 221.6 221.3 216.4 214
236.8 232.3 232.1 229.8 231 230.3 227.3 222.1 217 212.6 209.2 210.6 210 207.5 206.6 206.4 206.5 207.2 209.1 206.1 208.7 209.1 209.4 209.8 209.9 210.5 209.9 208.4 207.5 207.2 207.5 207.8 208.1 210.2 208.1 207 206 206.4 206.8 206.3 206.3 207 206.7 206.6 205.9 205.4 205.4 205.4 205.4 205.4 205.4 205.4 205.4 205.4 205.4 205.4 205.4 205.4 205.4 205.4 205.4 205.4 205.4 205.4 205.4 205.4 205.4 205.4 205.4 205.4 205.4 205.4 205.4 205.4 205.4 205.4 205.4 205.4 205.4 205.4 205.4 205.4 205.4 205.4 205.4 205.4 205.4 205.4 205.4 208.8 212.2 215.1 217.6 222.3 226.6 231.2 233.9 239.5 244.5 245.8 243.7 243.5 248.9 249.7 254.6 254.7 257.1 257.1 260.3 264.1 262.3 263.5 264.8 259.8 257 256.4 253.7 252.5 248 246.1 243.9 246 247.2 242.4 237 236.1 243.1 246.4 248.7 247 252.9 260.4 262.3 269.8 278.9 287.9 301.6 316.2 339.8 331.4 300.2 280.5 269.9 262.1 260.9 257.5 267.4 274.4 265.2 266.3 269 271.8 274 273.3 265 279.1 283 284.6 286.8 285.7 284.5 283.7 282 280.5 278.4 278.1 283.6 289.8 294.1 297.7 302.6 308.3 327.7 342.4 352.3 350.9 356.2 362.5 366.8 369.8 357.6 318.6 294.7 280.4 281.7 270.1 250.2 234.9 227.6 219.5 210.7 203 203.9 209.7 215.5 221.2 220.5 217.4 214.1 213.2
228.3 228.1 226.2 224.7 222.9 219.5 214.1 211.2 206.5 205.4 205.4 205.4 205.4 205.4 205.4 204.9 205.1 205.6 205.5 205.4 207.5 207.9 208.2 208.6 208.7 208.7 207.9 206.9 206.5 206.2 206.2 206.6 205.9 205.9 205.4 205.4 205.4 205.4 205.4 205.4 205.4 205.4 205.4 205.4 205.4 205.4 205.4 205.4 205.4 205.4 205.4 205.4 205.4 205.4 205.4 205.4 205.4 205.4 205.4 205.4 205.4 205.4 205.4 205.4 205.4 205.4 205.4 205.4 205.4 205.4 205.4 205.4 205.4 205.4 205.4 205.4 205.4 205.4 205.4 205.4 205.4 205.4 205.4 205.4 205.4 205.4 205.4 205.4 205.4 205.4 205.4 205.4 205.6 207.7 209.9 213.1 215.5 219.1 225.5 228.1 228 226.4 229.5 229.6 233.7 236.3 237.5 235 230.7 236.7 236.5 238.5 242.1 240 234.2 236 237.2 234.9 232.3 230.3 231.1 229.2 229.9 226 220.6 221.1 225.3 228.5 230.8 228.7 232 238.6 240.4 248.9 255.3 263.4 271.1 281.5 290.2 297.1 262.7 250.8 243.6 240.1 245.1 241.8 254.7 254.4 253.5 250 251.7 253.3 255.9 258.7 257.6 265.2 264.7 267.6 270.1 269.8 266.4 267 265.7 263.1 260.5 262.2 267.4 275.2 278.5 280 283 287.8 298.5 320.1 331.2 332.4 333.5 339 348.4 346.8 334.6 299.2 272.3 261.5 255.8 247.1 234.7 217.4 205.5 200.8 200.2 200.5 203.5 206.1 210.2 215.7 215.1 212.7 212.6 212.1
219.9 221.2 222.8 219 211.8 206.2 205.4 205.4 205.4 205.4 205.4 205.4 205.4 205.4 205.4 205.4 204.8 205.4 205.8 205.9 205.4 206.8 207.1 207.3 207.5 207.6 207.1 206.6 205.9 205.4 205.4 205.4 205.4 205.4 205.4 205.4 205.4 205.4 205.4 205.4 205.4 205.4 205.4 205.4 205.4 205.4 205.4 205.4 205.4 205.4 205.4 205.4 205.4 205.4 205.4 205.4 205.4 205.4 205.4 205.4 205.4 205.4 205.4 205.4 205.4 205.4 205.4 205.4 205.4 205.4 205.4 205.4 205.4 205.4 205.4 205.4 205.4 205.4 205.4 205.4 205.4 205.4 205.4 205.4 205.4 205.4 205.4 205.4 205.4 205.4 205.4 205.4 205.4 205.4 205.4 205.4 205.4 205.4 207 211.4 213.5 211.8 213.9 214.7 217.1 222.3 221.4 217.5 214.5 216.1 215.5 219 223 224.5 220.8 219.7 223.4 221.7 218.7 216.5 216.8 213.9 214.2 214.6 209.6 212.7 211.1 210.4 211.6 213.5 216.9 219.3 221.3 225.3 229.8 235.6 241.2 245.1 253.4 249.9 236.5 227.7 220.6 220.1 220.4 224.5 229.1 237.5 238 238.9 241.1 243.9 247.8 249.6 250.2 254 255.1 253.7 252.1 250.4 249.5 248.4 245.4 245.1 245.5 247 250.9 257.5 262.8 262.4 263.2 268.8 275.1 286.3 298.7 304.8 306.4 304 312.5 316.6 301.5 275.3 257.2 240 232.7 226.7 220.5 208.3 198.4 197.3 197.9 198.6 203.3 205 205.7 210.2 209.3 208.5 212 210.5
213.9 214.1 211.4 207.2 205.4 205.4 205.4 205.4 205.4 205.4 205.4 205.4 205.4 205.4 205.4 205.4 205 205.4 205.6 206 205.7 205.9 205.9 206.1 206.1 206.2 205.4 205.4 205.4 205.4 205.4 205.4 205.4 205.4 205.4 205.4 205.4 205.4 205.4 205.4 205.4 205.4 205.4 205.4 205.4 205.4 205.4 205.4 205.4 205.4 205.4 205.4 205.4 205.4 205.4 205.4 205.4 205.4 205.4 205.4 205.4 205.4 205.4 205.4 205.4 205.4 205.4 205.4 205.4 205.4 205.4 205.4 205.4 205.4 205.4 205.4 205.4 205.4 205.4 205.4 205.4 205.4 205.4 205.4 205.4 205.4 205.4 205.4 205.4 205.4 205.4 205.4 205.4 205.4 205.4 205.4 205.4 205.4 205.4 205.4 205.4 205.4 205.4 205.4 205.4 208.6 205.4 205.4 205.4 205.4 205.4 205.4 210.6 213.5 213.9 213.6 215.3 213.6 212.8 212 211.3 210.5 210.6 211.2 208.8 209.3 207.5 206 205.8 206 207.1 206.1 205.5 206.6 205.3 207.3 212.6 215.9 220.5 222.9 216.5 211.8 206.2 206.1 206.7 210.9 210.4 218.4 224 228.2 232.4 239.1 243.2 244.4 245.8 246.6 247.2 246.5 244.6 242.1 238.8 232.8 228.6 227.9 227.6 227.5 233.8 236.8 244.5 241.7 243.6 250.2 257.1 262.8 265.4 272.7 277.8 270.3 272.7 275 267 250.4 237.8 221.5 221.3 219.3 214.5 205.7 198 197.3 197.3 197.3 199.9 203.3 205 208.5 206.6 203.6 205.3 205.2
206.9 205.5 205.4 205.4 205.4 205.4 205.4 205.4 205.4 205.4 205.4 205.4 205.4 205.4 205.4 205.4 205.4 205.4 204.8 205.7 205.1 204.9 205.4 205.4 205.4 205.4 205.4 205.4 205.4 205.4 205.4 205.4 205.4 205.4 205.4 205.4 205.4 205.4 205.4 205.4 205.4 205.4 205.4 205.4 205.4 205.4 205.4 205.4 205.4 205.4 205.4 205.4 205.4 205.4 205.4 205.4 205.4 205.4 205.4 205.4 205.4 205.4 205.4 205.4 205.4 205.4 205.4 205.4 205.4 205.4 205.4 205.4 205.4 205.4 205.4 205.4 205.4 205.4 205.4 205.4 205.4 205.4 205.4 205.4 205.4 205.4 205.4 205.4 205.4 205.4 205.4 205.4 205.4 205.4 205.4 205.4 205.4 205.4 205.4 205.4 205.4 205.4 205.4 205.4 205.4 205.4 205.4 205.4 205.4 205.4 205.4 205.4 205.4 206.6 208.8 208.7 210.4 210.7 210.9 210.7 209.9 209 208.7 208.7 208.4 206.9 206.4 204.8 205 203.4 201.6 201.6 202.6 202.1 201.6 201.1 201.2 201.1 202 202.6 203.4 204.1 204.7 205.2 205.4 205.8 205.8 207.1 213.3 218.9 227.9 236.4 241.5 239 238.7 239.5 239.8 237.3 236.5 234.9 232 226.6 223.5 219.7 217.1 216.7 216.9 214.8 218.9 222.8 225.7 230 235.7 241 243 243.5 247.4 244.9 237.7 236.5 231.4 226.3 218.7 211.2 208.2 213.5 210.2 203.2 197.3 197.3 197.3 197.3 197.3 197.3 201.9 206.1 203.4 200.3 197.3 198.6
205.4 205.4 205.4 205.4 205.4 205.4 205.4 205.4 205.4 205.4 205.4 205.4 205.4 205.4 205.4 205.4 205.4 205.4 205.4 205.4 205.4 205.4 205.4 205.4 205.4 205.4 205.4 205.4 205.4 205.4 205.4 205.4 205.4 205.4 205.4 205.4 205.4 205.4 205.4 205.4 205.4 205.4 205.4 205.4 205.4 205.4 205.4 205.4 205.4 205.4 205.4 205.4 205.4 205.4 205.4 205.4 205.4 205.4 205.4 205.4 205.4 205.4 205.4 205.4 205.4 205.4 205.4 205.4 205.4 205.4 205.4 205.4 205.4 205.4 205.4 205.4 205.4 205.4 205.4 205.4 205.4 205.4 205.4 205.4 205.4 205.4 205.4 205.4 205.4 205.4 205.4 205.4 205.4 205.4 205.4 205.4 205.4 205.4 205.4 205.4 205.4 205.4 205.4 205.4 205.4 205.4 205.4 205.4 205.4 205.4 205.4 205.4 205.4 205.4 206.6 207.2 207 209.4 209.2 209.3 209.3 208.6 208.6 208.7 208.2 206.7 205.4 203.7 202.4 201.4 204.7 206.7 206.6 206.8 206.7 206.2 205.9 205.8 205.4 202.3 201.2 200.8 201.4 202.1 203.1 203.6 204.5 205.8 207.5 211.5 224.3 237.9 240 238.7 230.6 231.5 232.3 232.2 231.1 229 225.7 221.3 219.5 216.4 211.7 211 208.3 206.5 204.8 208.7 208.4 208.5 212 217.6 222.8 224.9 227.5 218.1 216.2 211.1 204 203.9 205.6 207.2 203.1 207.7 205.3 201.1 197.3 197.3 197.3 197.3 197.3 197.3 197.3 201.1 202.4 197.3 197.3 197.3
205.4 205.4 205.4 205.4 205.4 205.4 205.4 205.4 205.4 205.4 205.4 205.4 205.4 205.4 205.4 205.4 205.4 205.4 205.4 205.4 205.4 205.4 205.4 205.4 205.4 205.4 205.4 205.4 205.4 205.4 205.4 205.4 205.4 205.4 205.4 205.4 205.4 205.4 205.4 205.4 205.4 205.4 205.4 205.4 205.4 205.4 205.4 205.4 205.4 205.4 205.4 205.4 205.4 205.4 205.4 205.4 205.4 205.4 205.4 205.4 205.4 205.4 205.4 205.4 205.4 205.4 205.4 205.4 205.4 205.4 205.4 205.4 205.4 205.4 205.4 205.4 205.4 205.4 205.4 205.4 205.4 205.4 205.4 205.4 205.4 205.4 205.4 205.4 205.4 205.4 205.4 205.4 205.4 205.4 205.4 205.4 205.4 205.4 205.4 205.4 205.4 205.4 205.4 205.4 205.4 205.4 205.4 205.4 205.4 205.4 205.4 205.4 205.4 205.4 205.4 205.7 206.1 206.8 207.7 207.6 207.6 208 208.8 208.8 205.4 203.2 202 204.9 208.2 208 209 208.5 207.5 207.3 207.4 206.8 206.6 206.4 206.3 206 203.4 202 202 200.8 201.6 202.8 203.1 204.3 205.3 205.9 217.4 227.5 241.4 237.2 227.3 221.6 224.7 224.3 223.2 220 218.5 214.5 211.2 207.1 205.1 206 205.6 204.3 203.4 202.4 200.9 199.8 199.6 199.8 201.7 204.1 202.9 200.4 200.9 200.1 197.8 197.7 200.9 201.7 200 202.4 202.1 199.7 197.3 197.3 197.3 197.3 197.3 197.3 197.3 199.7 198.4 197.3 197.3 197.3
205.4 205.4 205.4 205.4 205.4 205.4 205.4 205.4 205.4 205.4 205.4 205.4 205.4 205.4 205.4 205.4 205.4 205.4 205.4 205.4 205.4 205.4 205.4 205.4 205.4 205.4 205.4 205.4 205.4 205.4 205.4 205.4 205.4 205.4 205.4 205.4 205.4 205.4 205.4 205.4 205.4 205.4 205.4 205.4 205.4 205.4 205.4 205.4 205.4 205.4 205.4 205.4 205.4 205.4 205.4 205.4 205.4 205.4 205.4 205.4 205.4 205.4 205.4 205.4 205.4 205.4 205.4 205.4 205.4 205.4 205.4 205.4 205.4 205.4 205.4 205.4 205.4 205.4 205.4 205.4 205.4 205.4 205.4 205.4 205.4 205.4 205.4 205.4 205.4 205.4 205.4 205.4 205.4 205.4 205.4 205.4 205.4 205.4 205.4 205.4 205.4 205.4 205.4 205.4 205.4 205.4 205.4 205.4 205.4 205.4 205.4 205.4 205.4 205.4 205.4 207 205.7 207.8 207.6 207.2 206.6 207.4 206.8 204.5 201.4 205.9 208.1 208.9 209.1 209.3 208 208.6 207.5 207.4 207.4 207.5 207.2 207 206.7 206.5 206.2 205.9 205.6 205.1 201.5 201.1 202.5 203.5 203.9 204.3 209.2 218.9 230.7 233 223.6 216.9 217.1 213.3 214.4 214.1 211.3 207.4 201.9 201.1 202.2 202.7 203.3 203 202.3 201.2 199.9 199.5 199.3 199.1 199.1 198.2 197.3 197.3 197.3 197.3 197.3 197.3 197.3 198.8 197.3 198.4 198.7 198 197.3 197.3 197.3 197.3 197.3 197.3 197.3 197.3 197.3 197.3 197.3 197.3
205.4 205.4 205.4 205.4 205.4 205.4 205.4 205.4 205.4 205.4 205.4 205.4 205.4 205.4 205.4 205.4 205.4 205.4 205.4 205.4 205.4 205.4 205.4 205.4 205.4 205.4 205.4 205.4 205.4 205.4 205.4 205.4 205.4 205.4 205.4 205.4 205.4 205.4 205.4 205.4 205.4 205.4 205.4 205.4 205.4 205.4 205.4 205.4 205.4 205.4 205.4 205.4 205.4 205.4 205.4 205.4 205.4 205.4 205.4 205.4 205.4 205.4 205.4 205.4 205.4 205.4 205.4 205.4 205.4 205.4 205.4 205.4 205.4 205.4 205.4 205.4 205.4 205.4 205.4 205.4 205.4 205.4 205.4 205.4 205.4 205.4 205.4 205.4 205.4 205.4 205.4 205.4 205.4 205.4 205.4 205.4 205.4 205.4 205.4 205.4 205.4 205.4 205.4 205.4 205.4 205.4 205.4 205.4 205.4 205.4 205.4 205.4 205.4 205.4 205.4 205.6 205 206.1 207.2 206.5 206.3 206 204.5 203.5 209.1 209.5 209.5 209 208.7 208.2 208.4 208.6 207.9 207.7 207.7 207.8 206.4 206.4 206.3 206.2 206.1 205.7 205.5 205.4 205.1 202.1 200.9 201.9 202.3 202.8 203.3 208.1 215.6 222.9 216.1 212.6 210.7 209.2 206.1 205.8 207.5 202.5 200.5 200.1 200.8 202 201.9 201.6 201 200.3 199.3 199.2 199 198.4 198.2 197.6 197.3 197.3 197.3 197.3 197.3 197.3 197.3 197.3 197.3 197.3 197.3 197.3 197.3 197.3 197.3 197.3 197.3 197.3 197.3 197.3 197.3 197.3 197.3 197.3
205.4 205.4 205.4 205.4 205.4 205.4 205.4 205.4 205.4 205.4 205.4 205.4 205.4 205.4 205.4 205.4 205.4 205.4 205.4 205.4 205.4 205.4 205.4 205.4 205.4 205.4 205.4 205.4 205.4 205.4 205.4 205.4 205.4 205.4 205.4 205.4 205.4 205.4 205.4 205.4 205.4 205.4 205.4 205.4 205.4 205.4 205.4 205.4 205.4 205.4 205.4 205.4 205.4 205.4 205.4 205.4 205.4 205.4 205.4 205.4 205.4 205.4 205.4 205.4 205.4 205.4 205.4 205.4 205.4 205.4 205.4 205.4 205.4 205.4 205.4 205.4 205.4 205.4 205.4 205.4 205.4 205.4 205.4 205.4 205.4 205.4 205.4 205.4 205.4 205.4 205.4 205.4 205.4 205.4 205.4 205.4 205.4 205.4 205.4 205.4 205.4 205.4 205.4 205.4 205.4 205.4 205.4 205.4 205.4 205.4 205.4 205.4 205.4 205.4 205.4 205.5 205.8 205.5 207.9 206.2 206.6 205.6 203.7 204.6 209.4 209.3 209.5 209.6 208.2 209.2 208.8 208.6 208.3 208.1 208 206.7 206.3 206.2 206.2 206.2 205.9 205.6 205.4 205.3 205.1 204.6 201.5 200.6 201.3 201.9 202.5 203.2 205.9 211.4 212.7 209.6 207.7 206.4 204.6 203.9 203.1 200.7 200.3 199.9 199.6 201 200.6 200.2 199.6 199.3 199 198.8 198.6 197.7 197.3 197.3 197.3 197.3 197.3 197.3 197.3 197.3 197.3 197.3 197.3 197.3 197.3 197.3 197.3 197.3 197.3 197.3 197.3 197.3 197.3 197.3 197.3 197.3 197.3 197.3
205.4 205.4 205.4 205.4 205.4 205.4 205.4 205.4 205.4 205.4 205.4 205.4 205.4 205.4 205.4 205.4 205.4 205.4 205.4 205.4 205.4 205.4 205.4 205.4 205.4 205.4 205.4 205.4 205.4 205.4 205.4 205.4 205.4 205.4 205.4 205.4 205.4 205.4 205.4 205.4 205.4 205.4 205.4 205.4 205.4 205.4 205.4 205.4 205.4 205.4 205.4 205.4 205.4 205.4 205.4 205.4 205.4 205.4 205.4 205.4 205.4 205.4 205.4 205.4 205.4 205.4 205.4 205.4 205.4 205.4 205.4 205.4 205.4 205.4 205.4 205.4 205.4 205.4 205.4 205.4 205.4 205.4 205.4 205.4 205.4 205.4 205.4 205.4 205.4 205.4 205.4 205.4 205.4 205.4 205.4 205.4 205.4 205.4 205.4 205.4 205.4 205.4 205.4 205.4 205.4 205.4 205.4 205.4 205.4 205.4 205.4 205.4 205.4 205.4 205.4 205.5 206.1 205.4 206 207.4 206.4 204 203.5 208.1 209.9 209 209.3 209.3 209.9 209 208.7 208.3 208 207.5 207.1 206.8 206.4 206.1 206.2 206.4 205.8 205.5 205.3 205.1 204.9 204.5 204.4 203.8 200.6 201.3 202.1 202.4 202.4 203.6 207.6 207.3 205.8 204.4 205 202.9 201.6 200.6 200.3 199.8 199.4 199.2 199.3 199.7 199.4 199.1 198.7 198.2 198 197.3 197.3 197.4 197.7 198.2 197.9 197.3 197.3 197.3 197.3 197.3 197.3 197.3 197.3 197.3 197.3 197.3 197.3 197.3 197.3 197.3 197.3 197.3 197.3 197.3 197.3 197.3
205.4 205.4 205.4 205.4 205.4 205.4 205.4 205.4 205.4 205.4 205.4 205.4 205.4 205.4 205.4 205.4 205.4 205.4 205.4 205.4 205.4 205.4 205.4 205.4 205.4 205.4 205.4 205.4 205.4 205.4 205.4 205.4 205.4 205.4 205.4 205.4 205.4 205.4 205.4 205.4 205.4 205.4 205.4 205.4 205.4 205.4 205.4 205.4 205.4 205.4 205.4 205.4 205.4 205.4 205.4 205.4 205.4 205.4 205.4 205.4 205.4 205.4 205.4 205.4 205.4 205.4 205.4 205.4 205.4 205.4 205.4 205.4 205.4 205.4 205.4 205.4 205.4 205.4 205.4 205.4 205.4 205.4 205.4 205.4 205.4 205.4 205.4 205.4 205.4 205.4 205.4 205.4 205.4 205.4 205.4 205.4 205.4 205.4 205.4 205.4 205.4 205.4 205.4 205.4 205.4 205.4 205.4 205.4 205.4 205.4 205.4 205.4 205.4 205.4 205.4 205.4 206.1 205.4 205.2 206 205 203.5 207.3 209.8 210 210.2 209.6 209.3 209.8 208.6 208.4 207.9 207.8 207.3 207.2 207.1 206.8 207 207.5 206.9 206.3 205.4 205.2 205 204.7 204.4 204 203.8 202.4 200.9 200.7 201.4 202 202.2 206.5 206.2 204.4 203.7 203.9 202.2 200.9 200.7 200.4 200.1 199.9 199.6 199.7 199.5 199.2 198.9 198.4 198 197.5 197.4 197.5 197.7 197.9 198.7 198.7 197.3 197.3 197.3 197.3 197.3 197.3 197.3 197.3 197.3 197.3 197.3 197.3 197.3 197.3 197.3 197.3 197.3 197.3 197.3 197.3 197.3
205.4 205.4 205.4 205.4 205.4 205.4 205.4 205.4 205.4 205.4 205.4 205.4 205.4 205.4 205.4 205.4 205.4 205.4 205.4 205.4 205.4 205.4 205.4 205.4 205.4 205.4 205.4 205.4 205.4 205.4 205.4 205.4 205.4 205.4 205.4 205.4 205.4 205.4 205.4 205.4 205.4 205.4 205.4 205.4 205.4 205.4 205.4 205.4 205.4 205.4 205.4 205.4 205.4 205.4 205.4 205.4 205.4 205.4 205.4 205.4 205.4 205.4 205.4 205.4 205.4 205.4 205.4 205.4 205.4 205.4 205.4 205.4 205.4 205.4 205.4 205.4 205.4 205.4 205.4 205.4 205.4 205.4 205.4 205.4 205.4 205.4 205.4 205.4 205.4 205.4 205.4 205.4 205.4 205.4 205.4 205.4 205.4 205.4 205.4 205.4 205.4 205.4 205.4 205.4 205.4 205.4 205.4 205.4 205.4 205.4 205.4 205.4 205.4 205.4 205.4 205.4 205.4 205.4 205.4 205.4 205.4 205.5 208.7 210.7 210.1 210.3 208.9 208.5 209.1 209 209 208.5 207.6 207.3 207.3 207.2 207.2 206.3 206.1 206.3 206.3 205.5 205.3 205.2 204.6 204 203.6 203.5 203.8 202.8 201.5 200.3 201 200.4 204.5 205.1 202.9 202.3 201.4 201.1 201 200.7 200.5 200.2 199.9 199.7 199.4 199.5 199.1 198.7 198.4 198.1 197.8 198.2 198.2 198.2 198.2 198.6 197.8 197.3 197.3 197.3 197.3 197.3 197.3 197.3 197.3 197.3 197.3 197.3 197.3 197.3 197.3 197.3 197.3 197.3 197.3 197.3 197.3 197.3
205.4 205.4 205.4 205.4 205.4 205.4 205.4 205.4 205.4 205.4 205.4 205.4 205.4 205.4 205.4 205.4 205.4 205.4 205.4 205.4 205.4 205.4 205.4 205.4 205.4 205.4 205.4 205.4 205.4 205.4 205.4 205.4 205.4 205.4 205.4 205.4 205.4 205.4 205.4 205.4 205.4 205.4 205.4 205.4 205.4 205.4 205.4 205.4 205.4 205.4 205.4 205.4 205.4 205.4 205.4 205.4 205.4 205.4 205.4 205.4 205.4 205.4 205.4 205.4 205.4 205.4 205.4 205.4 205.4 205.4 205.4 205.4 205.4 205.4 205.4 205.4 205.4 205.4 205.4 205.4 205.4 205.4 205.4 205.4 205.4 205.4 205.4 205.4 205.4 205.4 205.4 205.4 205.4 205.4 205.4 205.4 205.4 205.4 205.4 205.4 205.4 205.4 205.4 205.4 205.4 205.4 205.4 205.4 205.4 205.4 205.4 205.4 205.4 205.4 205.4 205.4 205.4 205.4 205.4 205.4 206.5 206.8 210.1 211.6 210.7 209.3 208.3 209.4 209.1 209 209 209 207.7 207.2 207.2 207.2 207 206.8 206.6 206.7 206.2 205.8 205.7 205.3 204.6 203.8 203.1 203.3 203.5 203.1 203 200.6 200.5 199.9 202.9 203.4 202 201.6 201.2 200.9 201 200.8 200.6 200.3 200 199.6 199.1 199.4 199.1 198.9 198.9 198.6 198.7 199.1 199.1 199 198.9 198.5 197.3 197.3 197.3 197.3 197.3 197.3 197.3 197.3 197.3 197.3 197.3 197.3 197.3 197.3 197.3 197.3 197.3 197.3 197.3 197.3 197.3 197.3
205.4 205.4 205.4 205.4 205.4 205.4 205.4 205.4 205.4 205.4 205.4 205.4 205.4 205.4 205.4 205.4 205.4 205.4 205.4 205.4 205.4 205.4 205.4 205.4 205.4 205.4 205.4 205.4 205.4 205.4 205.4 205.4 205.4 205.4 205.4 205.4 205.4 205.4 205.4 205.4 205.4 205.4 205.4 205.4 205.4 205.4 205.4 205.4 205.4 205.4 205.4 205.4 205.4 205.4 205.4 205.4 205.4 205.4 205.4 205.4 205.4 205.4 205.4 205.4 205.4 205.4 205.4 205.4 205.4 205.4 205.4 205.4 205.4 205.4 205.4 205.4 205.4 205.4 205.4 205.4 205.4 205.4 205.4 205.4 205.4 205.4 205.4 205.4 205.4 205.4 205.4 205.4 205.4 205.4 205.4 205.4 205.4 205.4 205.4 205.4 205.4 205.4 205.4 205.4 205.4 205.4 205.4 205.4 205.4 205.4 205.4 205.4 205.4 205.4 205.4 205.4 205.4 205.4 205.4 207.8 207.7 207.2 209.8 210.8 209.7 209.2 208.9 209.6 209.5 208.8 208.5 208.5 208.4 207.8 206.8 206.8 206.7 207 205.9 206.4 206.8 206.2 206.1 205.3 204.7 204.2 203.7 203.2 203.1 203.2 203.2 202.6 200.8 199.9 201.1 202.4 201.8 201.6 201 200.7 200.8 200.9 200.7 200.4 200.1 199.6 198.9 199.1 199.2 199.2 199.1 199.1 199.6 199.9 199.8 199.6 199.4 198.2 197.3 197.3 197.3 197.3 197.3 197.3 197.3 197.3 197.3 197.3 197.3 197.3 197.3 197.3 197.3 197.3 197.3 197.3 197.3 197.3 197.3 197.3
205.4 205.4 205.4 205.4 205.4 205.4 205.4 205.4 205.4 205.4 205.4 205.4 205.4 205.4 205.4 205.4 205.4 205.4 205.4 205.4 205.4 205.4 205.4 205.4 205.4 205.4 205.4 205.4 205.4 205.4 205.4 205.4 205.4 205.4 205.4 205.4 205.4 205.4 205.4 205.4 205.4 205.4 205.4 205.4 205.4 205.4 205.4 205.4 205.4 205.4 205.4 205.4 205.4 205.4 205.4 205.4 205.4 205.4 205.4 205.4 205.4 205.4 205.4 205.4 205.4 205.4 205.4 205.4 205.4 205.4 205.4 205.4 205.4 205.4 205.4 205.4 205.4 205.4 205.4 205.4 205.4 205.4 205.4 205.4 205.4 205.4 205.4 205.4 205.4 205.4 205.4 205.4 205.4 205.4 205.4 205.4 205.4 205.4 205.4 205.4 205.4 205.4 205.4 205.4 205.4 205.4 205.4 205.4 205.4 205.4 205.4 205.4 205.4 205.4 205.4 205.4 205.4 205.4 207 208.7 207.8 207.9 209.4 209.9 209.6 209.8 209.3 209.9 209.8 209.3 208.6 208 208.7 208.2 207.1 206.6 206.7 207.2 206 205.8 205.9 206.5 206.1 205.9 205.4 204.9 204.5 203.9 203.8 203.8 203.7 203.3 201.5 201.2 199.8 201.9 200.6 201.5 201.1 200.5 200.6 200.7 200.8 200.5 200.1 199.5 199 200.2 199.2 199.2 199.2 199.5 199.6 199.6 199.2 198.8 199 199.1 197.3 197.7 197.3 199.1 197.3 199.1 197.3 197.3 197.3 197.3 197.3 197.3 197.3 197.3 197.3 197.3 197.3 197.3 197.3 197.3 197.3 197.3
205.4 205.4 205.4 205.4 205.4 205.4 205.4 205.4 205.4 205.4 205.4 205.4 205.4 205.4 205.4 205.4 205.4 205.4 205.4 205.4 205.4 205.4 205.4 205.4 205.4 205.4 205.4 205.4 205.4 205.4 205.4 205.4 205.4 205.4 205.4 205.4 205.4 205.4 205.4 205.4 205.4 205.4 205.4 205.4 205.4 205.4 205.4 205.4 205.4 205.4 205.4 205.4 205.4 205.4 205.4 205.4 205.4 205.4 205.4 205.4 205.4 205.4 205.4 205.4 205.4 205.4 205.4 205.4 205.4 205.4 205.4 205.4 205.4 205.4 205.4 205.4 205.4 205.4 205.4 205.4 205.4 205.4 205.4 205.4 205.4 205.4 205.4 205.4 205.4 205.4 205.4 205.4 205.4 205.4 205.4 205.4 205.4 205.4 205.4 205.4 205.4 205.4 205.4 205.4 205.4 205.4 205.4 205.4 205.4 205.4 205.4 205.4 205.4 205.4 205.4 205.4 205.4 205.4 209.1 208.1 209.1 208.7 210.1 211 210.8 210.5 209.6 210 210.1 209.7 208 207.8 208.6 208.2 207.4 207.6 205.9 206.2 207 207.1 206.4 205.9 205.5 205.4 205.3 205.1 205 204.8 204.4 204 203.7 203.4 201.4 201.3 200.9 199.9 199.6 199.5 201.3 200.1 200.2 200.5 200.7 200.6 200.1 199.3 200.1 200.3 199.7 198.7 198.8 198.5 198.1 197.8 197.8 198.7 198 198.8 199.2 200.2 197.3 197.3 197.3 197.3 197.3 197.3 197.3 197.3 197.3 197.3 197.3 197.3 197.3 197.3 197.3 197.3 197.3 197.3 197.3 197.3
205.4 205.4 205.4 205.4 205.4 205.4 205.4 205.4 205.4 205.4 205.4 205.4 205.4 205.4 205.4 205.4 205.4 205.4 205.4 205.4 205.4 205.4 205.4 205.4 205.4 205.4 205.4 205.4 205.4 205.4 205.4 205.4 205.4 205.4 205.4 205.4 205.4 205.4 205.4 205.4 205.4 205.4 205.4 205.4 205.4 205.4 205.4 205.4 205.4 205.4 205.4 205.4 205.4 205.4 205.4 205.4 205.4 205.4 205.4 205.4 205.4 205.4 205.4 205.4 205.4 205.4 205.4 205.4 205.4 205.4 205.4 205.4 205.4 205.4 205.4 205.4 205.4 205.4 205.4 205.4 205.4 205.4 205.4 205.4 205.4 205.4 205.4 205.4 205.4 205.4 205.4 205.4 205.4 205.4 205.4 205.4 205.4 205.4 205.4 205.4 205.4 205.4 205.4 205.4 205.4 205.4 205.4 205.4 205.4 205.4 205.4 205.4 205.4 205.4 205.4 205.4 205.4 208.6 209.2 211.2 211.8 209.8 210.9 209.4 210.9 210.6 210.2 209.6 208.1 206.9 207.4 207.3 207.8 207.4 207.7 207.6 207.3 207.7 207.9 207.5 206.8 205.8 204.9 204.7 204.6 204.5 204.4 204.6 204.4 204 203.7 203.4 202 201.9 201.7 201.3 200.9 201.7 201.8 200 199.7 200.1 200.3 200.7 199.8 199.7 199.7 200.2 199.8 197.7 197.6 197.8 197.3 197.3 197.3 197.3 197.4 198.5 198.6 197.3 197.3 197.3 197.3 197.3 197.3 197.3 197.3 197.3 197.3 197.3 197.3 197.3 197.3 197.3 197.3 197.3 197.3 197.3 197.3 197.3
205.4 205.4 205.4 205.4 205.4 205.4 205.4 205.4 205.4 205.4 205.4 205.4 205.4 205.4 205.4 205.4 205.4 205.4 205.4 205.4 205.4 205.4 205.4 205.4 205.4 205.4 205.4 205.4 205.4 205.4 205.4 205.4 205.4 205.4 205.4 205.4 205.4 205.4 205.4 205.4 205.4 205.4 205.4 205.4 205.4 205.4 205.4 205.4 205.4 205.4 205.4 205.4 205.4 205.4 205.4 205.4 205.4 205.4 205.4 205.4 205.4 205.4 205.4 205.4 205.4 205.4 205.4 205.4 205.4 205.4 205.4 205.4 205.4 205.4 205.4 205.4 205.4 205.4 205.4 205.4 205.4 205.4 205.4 205.4 205.4 205.4 205.4 205.4 205.4 205.4 205.4 205.4 205.4 205.4 205.4 205.4 205.4 205.4 205.4 205.4 205.4 205.4 205.4 205.4 205.4 205.4 205.4 205.4 205.4 205.4 205.4 205.4 205.4 205.4 205.4 205.4 205.4 209.6 209.6 210.9 210.8 210.6 211.5 209.3 208 207.4 207.4 207.2 207.3 206.8 206.8 208.4 206.9 207.6 207.5 208.3 207.9 207.5 207.9 207.7 207.3 206.3 205.6 206 204.9 204.1 204.4 204.6 204.4 204 203.7 203.4 202.6 202.6 202.4 201.7 201.3 202 200.8 201 200.7 199.6 200.2 201 200.1 200.1 200.1 199.4 199.1 198 197.4 197.3 197.3 197.3 197.3 197.3 197.3 197.4 197.4 197.3 197.3 197.3 197.3 197.3 197.3 197.3 197.3 197.3 197.3 197.3 197.3 197.3 197.3 197.3 197.3 197.3 197.3 197.3 197.3 197.3
205.4 205.4 205.4 205.4 205.4 205.4 205.4 205.4 205.4 205.4 205.4 205.4 205.4 205.4 205.4 205.4 205.4 205.4 205.4 205.4 205.4 205.4 205.4 205.4 205.4 205.4 205.4 205.4 205.4 205.4 205.4 205.4 205.4 205.4 205.4 205.4 205.4 205.4 205.4 205.4 205.4 205.4 205.4 205.4 205.4 205.4 205.4 205.4 205.4 205.4 205.4 205.4 205.4 205.4 205.4 205.4 205.4 205.4 205.4 205.4 205.4 205.4 205.4 205.4 205.4 205.4 205.4 205.4 205.4 205.4 205.4 205.4 205.4 205.4 205.4 205.4 205.4 205.4 205.4 205.4 205.4 205.4 205.4 205.4 205.4 205.4 205.4 205.4 205.4 205.4 205.4 205.4 205.4 205.4 205.4 205.4 205.4 205.4 205.4 205.4 205.4 205.4 205.4 205.4 205.4 205.4 205.4 205.4 205.4 205.4 205.4 205.4 205.4 205.4 205.4 205.4 205.4 208.2 210.8 210.9 209.3 209.5 209.1 208.6 208.1 209 208.1 209.5 210.1 209.9 209.6 209.2 209.6 207.9 209 209.1 208.9 207.9 208 207.8 207.6 207.1 206.5 206.3 205.7 205 205.4 205.6 205.1 204.4 203.9 203.3 203.4 203.4 203 202.3 201.7 201.9 201.6 202 200.8 199.7 200.1 201.2 200.7 200.5 200.2 199 198.9 198.2 197.3 197.3 197.3 197.3 197.3 197.3 197.3 198.5 197.3 197.3 197.3 197.3 197.3 197.3 197.3 197.3 197.3 197.3 197.3 197.3 197.3 197.3 197.3 197.3 197.3 197.4 197.3 197.3 197.3 197.3
205.4 205.4 205.4 205.4 205.4 205.4 205.4 205.4 205.4 205.4 205.4 205.4 205.4 205.4 205.4 205.4 205.4 205.4 205.4 205.4 205.4 205.4 205.4 205.4 205.4 205.4 205.4 205.4 205.4 205.4 205.4 205.4 205.4 205.4 205.4 205.4 205.4 205.4 205.4 205.4 205.4 205.4 205.4 205.4 205.4 205.4 205.4 205.4 205.4 205.4 205.4 205.4 205.4 205.4 205.4 205.4 205.4 205.4 205.4 205.4 205.4 205.4 205.4 205.4 205.4 205.4 205.4 205.4 205.4 205.4 205.4 205.4 205.4 205.4 205.4 205.4 205.4 205.4 205.4 205.4 205.4 205.4 205.4 205.4 205.4 205.4 205.4 205.4 205.4 205.4 205.4 205.4 205.4 205.4 205.4 205.4 205.4 205.4 205.4 205.4 205.4 205.4 205.4 205.4 205.4 205.4 205.4 205.4 205.4 205.4 205.4 205.4 205.4 205.4 205.4 205.4 205.4 205.4 208.4 207.7 209.7 209.2 209.3 209.8 210.5 211.4 211.5 210.2 210.1 210.6 210 210.1 209.1 210 209.4 208.9 208.4 208 208.6 208.3 207.2 206.8 206.4 206.4 206 205.9 206.4 206.6 205.9 205 204.4 204.2 204.2 204.2 203.6 202.9 202.3 202 201.8 201.5 201.3 200.7 200.3 200.9 200.3 199.8 199.8 198.5 198.7 197.9 197.4 197.3 197.3 197.3 197.3 197.3 197.3 197.3 197.3 197.3 197.9 197.3 197.3 197.3 197.5 197.6 197.6 197.8 197.9 197.9 197.6 197.5 197.4 197.6 197.8 197.9 197.8 197.7 197.9 198.1
205.4 205.4 205.4 205.4 205.4 205.4 205.4 205.4 205.4 205.4 205.4 205.4 205.4 205.4 205.4 205.4 205.4 205.4 205.4 205.4 205.4 205.4 205.4 205.4 205.4 205.4 205.4 205.4 205.4 205.4 205.4 205.4 205.4 205.4 205.4 205.4 205.4 205.4 205.4 205.4 205.4 205.4 205.4 205.4 205.4 205.4 205.4 205.4 205.4 205.4 205.4 205.4 205.4 205.4 205.4 205.4 205.4 205.4 205.4 205.4 205.4 205.4 205.4 205.4 205.4 205.4 205.4 205.4 205.4 205.4 205.4 205.4 205.4 205.4 205.4 205.4 205.4 205.4 205.4 205.4 205.4 205.4 205.4 205.4 205.4 205.4 205.4 205.4 205.4 205.4 205.4 205.4 205.4 205.4 205.4 205.4 205.4 205.4 205.4 205.4 205.4 205.4 205.4 205.4 205.4 205.4 205.4 205.4 205.4 205.4 205.4 205.4 205.4 205.4 205.4 205.4 205.4 205.4 205.4 206.1 210 209.4 211.5 212.1 212.5 212.5 212.1 211.1 209.7 210.4 209.7 209.5 210.2 212.2 208.9 208.3 207.9 208 208.2 209.8 208 206.9 206.6 206.7 206.4 206.8 207.3 207.6 206.7 205.6 205.3 205.2 205.1 204.5 204.2 203.5 202.5 201.9 201.2 200.9 199.9 200.6 200.9 201 200.6 199.5 199.4 197.9 198.9 198.5 198.1 198 197.9 197.7 197.5 197.3 197.3 197.3 197.3 197.3 198 197.6 197.5 197.7 198 198.1 198.3 198.5 198.6 198.5 198 197.8 197.8 198 198.2 198.4 198.4 199.2 200 199.9
205.4 205.4 205.4 205.4 205.4 205.4 205.4 205.4 205.4 205.4 205.4 205.4 205.4 205.4 205.4 205.4 205.4 205.4 205.4 205.4 205.4 205.4 205.4 205.4 205.4 205.4 205.4 205.4 205.4 205.4 205.4 205.4 205.4 205.4 205.4 205.4 205.4 205.4 205.4 205.4 205.4 205.4 205.4 205.4 205.4 205.4 205.4 205.4 205.4 205.4 205.4 205.4 205.4 205.4 205.4 205.4 205.4 205.4 205.4 205.4 205.4 205.4 205.4 205.4 205.4 205.4 205.4 205.4 205.4 205.4 205.4 205.4 205.4 205.4 205.4 205.4 205.4 205.4 205.4 205.4 205.4 205.4 205.4 205.4 205.4 205.4 205.4 205.4 205.4 205.4 205.4 205.4 205.4 205.4 205.4 205.4 205.4 205.4 205.4 205.4 205.4 205.4 205.4 205.4 205.4 205.4 205.4 205.4 205.4 205.4 205.4 205.4 205.4 205.4 205.4 205.4 205.4 205.4 205.4 208 210.4 212 213.2 213.4 213.3 213.1 212.6 212.2 211.5 210.7 210.6 210.3 210.5 217.5 215.9 208.9 208.1 208.5 216.9 223 225 215.6 207.4 207 206.8 207.7 208.2 208.6 207.5 206.5 206.3 206.2 205.2 205.1 204.4 203.4 202.3 202 201.3 200.6 200.5 200 200.9 200.3 199.8 199.5 198.9 198.4 199.4 199.2 198.8 198.7 198.5 198.1 197.8 197.6 197.9 198.4 198.6 198.4 198.2 198 197.8 197.9 198.2 198.6 198.9 199.2 199.2 198.9 198.5 198.1 199.1 199.1 199 198.8 199.1 201.1 202.2 203.1
205.4 205.4 205.4 205.4 205.4 205.4 205.4 205.4 205.4 205.4 205.4 205.4 205.4 205.4 205.4 205.4 205.4 205.4 205.4 205.4 205.4 205.4 205.4 205.4 205.4 205.4 205.4 205.4 205.4 205.4 205.4 205.4 205.4 205.4 205.4 205.4 205.4 205.4 205.4 205.4 205.4 205.4 205.4 205.4 205.4 205.4 205.4 205.4 205.4 205.4 205.4 205.4 205.4 205.4 205.4 205.4 205.4 205.4 205.4 205.4 205.4 205.4 205.4 205.4 205.4 205.4 205.4 205.4 205.4 205.4 205.4 205.4 205.4 205.4 205.4 205.4 205.4 205.4 205.4 205.4 205.4 205.4 205.4 205.4 205.4 205.4 205.4 205.4 205.4 205.4 205.4 205.4 205.4 205.4 205.4 205.4 205.4 205.4 205.4 205.4 205.4 205.4 205.4 205.4 205.4 205.4 205.4 205.4 205.4 205.4 205.4 205.4 205.4 205.4 205.4 205.4 205.4 205.4 205.8 208.3 211.2 212.9 213.2 213.6 213.7 212.9 212 211.2 211.6 211.4 210.7 210.6 215.5 227 230.5 211.4 210.6 222.2 232.9 236.1 232.4 220.4 208.7 207.2 208.2 208.8 209.1 209.6 209.1 207.8 207.3 207 206.1 205.2 204 203.1 202.4 202.2 201.4 200.5 200.4 200.4 200.1 199.6 199.1 198.7 199.4 199.1 198.9 198.6 199.3 199 198.6 198.3 198 198 198.3 198.8 199 198.8 198.6 198.4 198.2 198.2 198.4 198.8 199.5 199.8 199.8 199.4 198.9 198.6 199.7 199.6 199.5 199.3 199.8 201.9 204.3 208.1
205.4 205.4 205.4 205.4 205.4 205.4 205.4 205.4 205.4 205.4 205.4 205.4 205.4 205.4 205.4 205.4 205.4 205.4 205.4 205.4 205.4 205.4 205.4 205.4 205.4 205.4 205.4 205.4 205.4 205.4 205.4 205.4 205.4 205.4 205.4 205.4 205.4 205.4 205.4 205.4 205.4 205.4 205.4 205.4 205.4 205.4 205.4 205.4 205.4 205.4 205.4 205.4 205.4 205.4 205.4 205.4 205.4 205.4 205.4 205.4 205.4 205.4 205.4 205.4 205.4 205.4 205.4 205.4 205.4 205.4 205.4 205.4 205.4 205.4 205.4 205.4 205.4 205.4 205.4 205.4 205.4 205.4 205.4 205.4 205.4 205.4 205.4 205.4 205.4 205.4 205.4 205.4 205.4 205.4 205.4 205.4 205.4 205.4 205.4 205.4 205.4 205.4 205.4 205.4 205.4 205.4 205.4 205.4 205.4 205.4 205.4 205.4 205.4 205.4 205.4 205.4 205.4 205.4 206.1 208.3 212.2 213.7 212.9 215 214.4 214.2 212.3 213.3 213 212.4 212 214.2 230.9 244.6 240.2 223.3 224.5 238.6 248.7 249.6 242.5 228.4 212.1 208.4 209 209.8 210.4 210.7 210 208.9 208.8 207.4 206.3 205.7 204.6 203.4 202.8 202.3 201.3 200.4 200.5 200.8 200.1 199.6 199.1 200.2 199.9 199.5 199.3 198.8 199.3 199.1 198.8 198.5 198.1 198.3 198.6 199.1 199.2 199.2 199 198.8 198.6 198.4 198.6 199 199.7 200.4 200.3 200.2 200.1 200.1 200.1 200.1 199.9 199.7 200.5 202.8 206.5 210.2
205.4 205.4 205.4 205.4 205.4 205.4 205.4 205.4 205.4 205.4 205.4 205.4 205.4 205.4 205.4 205.4 205.4 205.4 205.4 205.4 205.4 205.4 205.4 205.4 205.4 205.4 205.4 205.4 205.4 205.4 205.4 205.4 205.4 205.4 205.4 205.4 205.4 205.4 205.4 205.4 205.4 205.4 205.4 205.4 205.4 205.4 205.4 205.4 205.4 205.4 205.4 205.4 205.4 205.4 205.4 205.4 205.4 205.4 205.4 205.4 205.4 205.4 205.4 205.4 205.4 205.4 205.4 205.4 205.4 205.4 205.4 205.4 205.4 205.4 205.4 205.4 205.4 205.4 205.4 205.4 205.4 205.4 205.4 205.4 205.4 205.4 205.4 205.4 205.4 205.4 205.4 205.4 205.4 205.4 205.4 205.4 205.4 205.4 205.4 205.4 205.4 205.4 205.4 205.4 205.4 205.4 205.4 205.4 205.4 205.4 205.4 205.4 205.4 205.4 205.4 205.4 205.4 205.4 206.7 210.7 213.9 214.1 214.7 215.7 214.7 212.9 212.9 214.1 213.6 213.6 217.9 227.8 240.4 253.2 256.7 240.3 242.4 254.2 265.1 264.2 252.9 237.1 223.8 217.5 215 211.7 211.5 212.1 210.7 209.3 208.5 207.9 207 206.3 206 206.6 202.6 202 201.4 201.1 200.9 201.1 200 199.6 199.1 198.8 198.8 198.7 199.2 199.6 199.4 199.3 199 198.6 198.5 198.6 198.9 199.3 199.4 199.5 199.3 199.2 199 198.8 198.9 199.6 200.8 201.2 202.1 202 203.9 205.2 202.9 202.6 202.1 202.3 202.1 205.8 209.8 215.9
205.4 205.4 205.4 205.4 205.4 205.4 205.4 205.4 205.4 205.4 205.4 205.4 205.4 205.4 205.4 205.4 205.4 205.4 205.4 205.4 205.4 205.4 205.4 205.4 205.4 205.4 205.4 205.4 205.4 205.4 205.4 205.4 205.4 205.4 205.4 205.4 205.4 205.4 205.4 205.4 205.4 205.4 205.4 205.4 205.4 205.4 205.4 205.4 205.4 205.4 205.4 205.4 205.4 205.4 205.4 205.4 205.4 205.4 205.4 205.4 205.4 205.4 205.4 205.4 205.4 205.4 205.4 205.4 205.4 205.4 205.4 205.4 205.4 205.4 205.4 205.4 205.4 205.4 205.4 205.4 205.4 205.4 205.4 205.4 205.4 205.4 205.4 205.4 205.4 205.4 205.4 205.4 205.4 205.4 205.4 205.4 205.4 205.4 205.4 205.4 205.4 205.4 205.4 205.4 205.4 205.4 205.4 205.4 205.4 205.4 205.4 205.4 205.4 205.4 205.4 205.4 205.4 205.4 208.4 212.7 215 216.1 216.3 215.8 214.2 215.3 215 216.5 221.4 227.1 235 244.9 253.3 262 265.3 260.9 259.3 265 278.1 279.7 260.3 243.5 229.1 224.8 219.9 214.8 213 212.8 211.3 210.9 210 209.1 208.8 219.1 220.6 214.8 203.4 202.5 202.9 204.9 201.2 201.5 200 199.6 199.2 199.6 199.6 199 199.3 200 199.5 199.4 199.2 198.8 198.8 199 199.3 199.5 199.6 199.8 199.7 199.5 199.4 199.3 199.8 202.2 201.5 203.2 204.1 207.6 211.5 215.2 210.2 210.6 211.4 212.7 210.8 215.6 217.1 220.5
205.4 205.4 205.4 205.4 205.4 205.4 205.4 205.4 205.4 205.4 205.4 205.4 205.4 205.4 205.4 205.4 205.4 205.4 205.4 205.4 205.4 205.4 205.4 205.4 205.4 205.4 205.4 205.4 205.4 205.4 205.4 205.4 205.4 205.4 205.4 205.4 205.3 204.8 205.6 205.5 205.4 205.4 205.4 205.4 205.4 205.4 205.4 205.4 205.4 205.4 205.4 205.4 205.4 205.4 205.4 205.4 205.4 205.4 205.4 205.4 205.4 205.4 205.4 205.4 205.4 205.4 205.4 205.4 205.4 205.4 205.4 205.4 205.4 205.4 205.4 205.4 205.4 205.4 205.4 205.4 205.4 205.4 205.4 205.4 205.4 205.4 205.4 205.4 205.4 205.4 205.4 205.4 205.4 205.4 205.4 205.4 205.4 205.4 205.4 205.4 205.4 205.4 205.4 205.4 205.4 205.4 205.4 205.4 205.4 205.4 205.4 205.4 205.4 205.4 205.4 205.4 205.4 207 210.6 214.6 216.2 216.5 216.9 221.8 226.1 228 230.2 231.7 237.6 244.3 250.2 262 268.4 274.2 279.2 277.4 277.6 279.4 282.8 276.1 259.3 246.3 232.1 229.3 224.9 217.8 215.2 211.3 213.9 213.9 213.6 216 234.9 239.9 226.4 219 205.9 206 208.8 208 206.4 202.7 200.4 199.6 199.8 200.1 200.2 199.5 199.5 200.3 200 199.5 199.3 199 199.1 199.3 199.6 199.7 199.9 200.1 200.5 200.1 200 200.2 201.4 210 208.1 208 209.2 212 219.6 224.2 218.6 220.7 226.2 229.9 225.3 227 224.9 227.6
205.4 205.4 205.4 205.4 205.4 205.4 205.4 205.4 205.4 205.4 205.4 205.4 205.4 205.4 205.4 205.4 205.4 205.4 205.4 205.4 205.4 205.4 205.4 205.4 205.4 205.4 205.4 205.4 205.4 205.4 205.4 205.4 206.2 206.2 207 206.1 207.1 205.2 206.1 206 204.9 205.4 205.4 205.4 205.4 205.4 205.4 205.4 205.4 205.4 205.4 205.4 205.4 205.4 205.4 205.4 205.4 205.4 205.4 205.4 205.4 205.4 205.4 205.4 205.4 205.4 205.4 205.4 205.4 205.4 205.4 205.4 205.4 205.4 205.4 205.4 205.4 205.4 205.4 205.4 205.4 205.4 205.4 205.4 205.4 205.4 205.4 205.4 205.4 205.4 205.4 205.4 205.4 205.4 205.4 205.4 205.4 205.4 205.4 205.4 205.4 205.4 205.4 205.4 205.4 205.4 205.4 205.4 205.9 207 207.7 207.3 208.4 210 209.3 210.3 211.1 215.9 220 219.5 221.9 224.9 229.9 235 238.6 242.9 244.1 249.5 255.8 263.7 272 279.3 286.3 291.1 295.3 295.5 297.9 298 297.6 274.8 258.1 249.2 241.3 235.3 229 218 215.1 212.3 216.3 216.2 220.9 235.9 258.8 253.1 235.5 228.3 218.1 214.3 214.6 214.2 211.4 208.4 203.7 201.9 201.1 200.9 200.3 200 199.7 200.6 200.5 200 199.4 199.3 199.5 199.5 200.2 200.6 200.8 201.2 202 201.5 203.5 203.1 207.6 224.2 222.9 221 219.6 217.9 227 232 227.7 229.8 236.3 244.6 238.9 238.1 237.7 241.7
205.4 205.4 205.4 205.4 205.4 205.4 205.4 205.4 205.4 205.4 205.4 205.4 205.4 205.4 205.4 205.4 205.4 205.4 205.4 205.4 205.3 205.5 205.9 206 205.6 205.4 204.8 205 205.4 205.4 204.8 208.3 208.2 208.6 208.6 207.7 208 207 206.5 206.3 205.6 204.8 205.4 205.4 205.4 205.4 205.4 205.4 205.4 205.4 205.4 205.4 205.4 205.4 205.4 205.4 205.4 205.4 205.4 205.4 205.4 205.4 205.4 205.4 205.4 205.4 205.4 205.4 205.4 205.4 205.4 205.4 205.4 205.4 205.4 205.4 205.4 205.4 205.2 205.3 205.9 206.4 206.9 206.7 205.9 204.9 205.4 205.5 206 205.4 205.5 207.6 207.9 207.7 207.2 207.3 207 209.3 210.3 210.2 209.3 210.1 209.2 209.5 208.9 210.2 210.4 210.9 211 212.3 215.1 218.4 220.6 221.1 222.5 223.7 226.4 229.9 235.4 238.9 241.7 244.3 247.6 251.1 254.6 256.7 259.9 265.8 273 282.9 294.8 304.9 307.9 308 314.6 314.5 318.3 313.7 300.1 280.9 264.5 253.8 247.2 241.9 231.6 217.2 214.8 214.1 222 228.4 244.3 259.9 271.2 259.4 246.6 239.7 231.1 227.4 226.9 223.8 213.6 213.5 208 205.3 202.7 203.5 204.5 203.7 201.7 201 201 200.6 200.4 199.7 200.2 201.3 201.5 202.6 203.2 202.8 204.2 208 212.1 212.8 211.8 224.6 231.5 233.2 232.7 230.3 233.6 237.8 237 238.1 244.9 252.5 250.3 250.7 254.8 257.8
205.4 205.4 205.4 205.4 205.4 205.4 205.4 205.4 205.4 205.4 205.4 205.4 205.4 205.4 205.4 205.4 204.8 205.7 206.8 209.3 210.8 211 210.3 210 210.5 210.3 209.4 210.6 209.7 210 209.6 209.4 209.6 210.1 209.6 209.4 209.2 208.1 207.2 207.2 206.1 205.1 204.7 205.4 205.4 205.4 205.4 205.4 205.4 205.4 205.4 205.4 205.4 205.4 205.4 205.4 205.4 205.4 205.4 205.4 205.4 205.4 205.4 205.8 206.6 207.5 207.4 207.3 206.2 205.8 205.2 205.4 205.3 205.4 205.1 208.4 209.1 211.2 210.9 211.3 210.6 211.2 210.5 210.5 209.3 208.5 209.1 209.6 211.9 213.1 214.8 216.6 216.9 216.8 220 219.3 218.1 221.6 221 219.1 217.5 217.2 216.7 217.5 216.4 218.3 221.6 224.1 227.4 230.1 234.5 238.1 239.7 239 239.8 241.7 247.2 252.2 257.3 259.9 261.1 263.4 264.3 268.1 270.6 273.4 277.5 282.5 291 305 320.4 329.3 337.1 335.4 341.2 334.2 343 329 306.2 292.1 274.9 259.8 250.8 248.3 238.1 221.4 220.9 221.7 231 246.3 261.2 279.1 285.3 269.9 253.4 249.8 244.8 240.6 238.1 234.5 224.7 215.1 211.1 208.4 208.9 208.9 209.5 209.2 208.8 206.9 203.7 204 204.4 205.7 206.4 204.6 203.7 204 204 204.2 208.6 212.4 217 218.6 219.1 228.1 236.8 240.6 242.7 241 244.1 243.4 244.9 246.7 253.9 260.2 264.9 268.3 271.9 277
205.4 205.4 205.4 205.4 205.4 205.4 205.4 205.4 205.4 205.4 205.4 205.4 205.4 205.4 205.1 207.2 208.1 208.8 211.2 212.7 214.6 215.2 213.9 215.3 214.8 215.3 215 215.2 212.1 211 211.7 212.3 210.8 211.6 211.2 211.2 210.1 209.9 208 209.2 207.9 206.5 205.6 204.5 205.4 205.4 205.4 205.4 205.4 205.4 205.4 205.4 205.4 205.4 205.4 205.4 205.4 205.4 205.4 205.1 205.4 206.8 209.2 211.7 211.5 213 213.3 211.6 211.5 211.6 212.9 212.4 213.9 216.5 217.4 215.1 216.2 218.4 217.1 217 215.5 215.8 216 217 216.9 217.8 220.3 222.7 223.3 225.9 228.1 228.1 229.7 232.9 233.2 234.4 236.4 235.5 232.9 230.7 228.4 230.3 231 231.9 233.5 235.2 237.1 241.1 246.9 252 255.9 259 260 260.4 261.5 262.6 270.5 278.6 282.8 283.6 287 288.2 288.2 289.4 290 293.3 298.4 304.4 312.4 322.9 334.5 351.5 364.9 365.2 356.2 354.9 368.6 349.3 328.7 307.7 286.2 268.8 262.3 255.4 245.2 229.4 222.3 235 252.4 260.7 274.9 292.7 301.8 277.4 268.4 261.1 250.3 247 243.7 240.6 234.6 229.3 223.9 217.6 216.3 214.6 210.8 211.3 211.4 208.8 211.1 211.2 211.8 212.9 210.8 208 206.8 205.6 205.4 205.7 210.8 214.7 217.8 220.6 225 230.7 241.1 248.2 252.8 251.5 252 251.2 253.2 257.4 265.3 273.2 277.5 281.8 285.7 289.2
205.4 205.4 205.4 205.4 205.4 205.4 205.4 205.4 204.8 205.4 205.4 204.7 206 207.1 208.9 210.7 212 214.3 215.8 216.9 217.4 217.6 219.6 219.3 221.5 221.7 218.6 216.5 215.1 217.7 216 214.8 214 213 213 213 211.8 210.1 209.7 210.8 210 208.2 206.4 206.2 206.1 205.3 205.8 205.4 205.4 205.3 205.7 205.2 205.4 205.2 205.1 205.4 205.4 207.6 208.6 209.6 209.3 212.7 215.6 216.3 216.6 218.9 219.2 219.3 218.7 219.3 221.5 222.2 224.8 228 228.6 226.3 227 226.8 224.8 224.6 222 222.4 223.5 222.9 227.4 230 232.6 234.8 237.3 239.6 238.9 240.2 244.8 248.8 251 252.2 252.1 247.5 242 241.9 242.1 245.2 245.7 249.7 248.4 253.1 256 259.7 268.6 277.1 283.9 286.4 282.2 284.3 283.8 287.8 299.5 307.1 311.6 313.3 311.8 313.2 317 313.1 307.5 309.6 314.5 321.6 330.7 343.7 356.1 369.8 378.1 384.3 366.3 365.8 388.3 386.4 347.2 319.4 297.8 281.9 270.2 260.7 249.5 237.6 230.9 248.7 268.6 276.6 286.5 303.6 312.9 290.9 280.1 271.3 258.7 249.7 248.3 246.7 243.4 233.2 231.6 224.7 223.5 220.3 218.7 218.5 215.2 215.8 219.4 223.2 221 219.3 218 215 209.6 208 207.5 206.9 214.4 217.5 220.9 223.9 232 235.5 243.9 253.5 264.3 264.5 263 257.7 257.5 268.8 279.1 287.7 294.2 297.9 299.7 297.7
205.4 205.4 205.4 205.4 205.4 205.4 205.3 206.9 206.5 206.2 206.7 208.6 209.5 210.5 211.8 212.3 214.1 218.2 221 222 222.3 222.7 224.1 224.6 226 224 221.3 220.7 223.4 221.9 219.3 215.9 215.7 214.7 214.5 214.3 213.2 210.3 212 211.9 210.2 208.5 208.4 207.3 207.8 207.7 208 207.3 208.4 208.9 207 206.1 207.7 207.5 205.9 206.2 209.5 212.6 213.8 214.2 214.5 217.5 220.8 220.9 222.9 225.3 226.8 229.5 229 230.9 232.8 235.5 237.9 239.5 240.5 239.5 238.7 237 235.9 236.8 239.4 240.2 239.4 233 237.5 240.3 242.9 245.1 250.6 252.5 250.8 255.6 260.2 264.6 267.3 269.6 262.9 256.9 256.9 254.7 254.2 257.9 261.2 263.6 268.9 270.6 275.3 282.7 290.7 302.9 307.7 306 312.2 314.5 311.3 319.6 330.4 338.2 347 348.6 343.9 340.1 334.6 327.8 322.1 324.3 330.1 341.7 352.6 365.4 380.8 395.2 396.7 398.7 375.5 375.6 383.6 382.2 352.2 322.2 303 287.1 274.7 263.5 253.7 236.8 241.8 259.3 278.7 290.6 294.5 312.5 324.8 298.5 286.3 279 267.4 260.4 256.1 252.2 246.8 238.2 231.8 228.9 225.4 223.2 224.6 223 221.4 222.6 228.8 232.4 226.8 223.7 222.5 218.5 212.4 209.5 208.5 210 214.8 219.5 223.1 229.1 236.5 241.5 246.9 259.1 272.3 274.2 272.6 268.7 262.1 276 289.5 300.6 307.7 313.8 317.2 318.2
205.4 205.4 205.4 205.4 205.9 207.4 208.1 209.8 210.2 210.7 210.2 211.5 212.8 214.5 214.3 216.8 217.9 221.3 224.6 226.9 227.7 226.2 231.1 230 227.3 226.9 227.4 228.3 228.9 225.7 222.8 224.1 220.9 219.7 218.3 216.2 212.4 214.2 213.9 211.8 211.6 214.5 215 213.8 212.8 209.6 210.3 212.6 213.4 211.3 208.8 209 210.7 208.3 208.8 213.3 216.3 217.9 221 223.5 225 226.5 228.2 229.3 230 232.2 234 240.2 242.8 243.6 247.3 249.1 251.5 252.9 252.7 252.7 253.8 255.7 256.8 256.8 256.9 254.9 252.9 244.3 245.7 252.5 252.6 259.8 264.5 266.8 267.8 268.6 273.7 277 275.7 276.4 273.1 274.6 275.4 271.2 268 275.3 277.2 282.9 289.3 294.8 303.2 310.4 314.9 324.7 327.2 342.3 352.5 342.4 341.9 358.2 363.8 376.4 386.5 384.8 375.4 361.1 348.6 343.1 335 343.9 350.4 362.4 373.6 384.5 397.4 404.4 410 400 379.5 375.8 378.8 369.9 349.5 321.2 302.8 289.1 275.8 262 248.1 235.2 251.9 265.9 284.2 292.8 301.2 320.5 328.9 305.5 289.1 284 274.5 264 261.7 255.5 250.8 245.5 238 234 232 230.9 230 226.9 226 228.6 233 236.4 232.7 229 223 219.4 213 211.8 211.3 212 219.8 224 229.5 235.5 242.9 248.6 251.5 263.5 273.7 287.9 283.9 281.7 276.2 279 297.4 310.2 320.7 330 335.2 338
205.4 205.4 205.3 207.3 210.9 211.5 211 212.2 213.1 214.7 214.4 214.6 216.4 217.2 218.1 221.4 223.2 225.6 227.9 231.3 233.4 233.7 235.1 232.8 231.3 233.6 236 237.5 235.3 230.6 230 228.9 225.1 219.3 218.4 215.9 214.9 215.1 213.8 212 216.6 217.2 217.2 215.6 213.1 212.5 213.9 213.4 213.6 211.7 212.2 212.7 214.7 215.3 216.4 220.4 223.1 224.9 225.3 228.5 231.7 234.5 236.2 236.8 237.7 240.5 245.7 251.2 256 259.5 262.2 265 266.7 268.3 269.3 272.3 273.6 274.7 273.8 271.6 269.6 266.6 264.4 260.2 249.8 261.6 269.4 277.5 280.8 280.5 282.5 285.8 287.8 287.7 291.3 293.2 289.5 293.4 292.7 287 284.4 291.2 295.1 301.6 313.9 323.3 332 337.2 339.5 342.1 359.2 374.9 373 365.6 380.1 387.7 402 418.8 416.8 406.9 389.5 366.3 355.8 350.1 344.9 354.6 366.9 378.1 386.1 396.9 405 409.7 411.4 394 377.3 370.7 373.9 358.5 340.9 319.3 298.5 285 270.5 253.9 237.3 250.1 263 276.4 281.5 295.8 308 326.2 339.6 316.5 301 288.5 277.6 265.2 262 266.9 262.9 252.8 244.7 241.3 237.2 234.4 231.9 229.4 230.8 233.5 234.7 233.7 231.1 227.3 223.8 217.7 214.6 217.4 217 221.8 227 234 238.5 240.6 249.9 254.5 256.4 266.5 278.8 294.9 298.9 295.1 290.8 288.1 303.8 317.8 332.7 344.6 351.3 354.3
205.4 205.7 209.3 212.7 217.1 219.2 217.6 214.8 215.7 216.5 217 219.1 220.6 222 226.2 229.5 232.2 234.2 234.2 236.6 237 237.2 236.8 239 241.9 243.6 245.3 246.9 246.3 242.9 237.9 232.3 227.4 224.4 219.6 216.4 217.4 216.8 216.6 216.1 218.2 219.3 218.4 215.3 214.5 215.6 215.6 215.1 214.3 213.2 215.7 219.4 220 224.1 226.1 227.3 231.2 232.3 231.1 233 237.3 241.1 245.4 245.8 248.5 254 259.8 265.2 270.6 273 277.7 280.8 282.3 283.2 287.4 289 288.8 288.5 286.2 282.1 280.2 276.5 274.4 269.7 260.8 279.7 289.7 295.6 298 298.1 302.5 307.5 302.6 304.2 310.9 312 317 313 309 304.3 304.4 306.7 309.2 323.3 336.9 348.1 357.1 363.3 362.6 369.7 385.2 392.3 388.4 402.2 413.3 420.3 439.1 440.3 431.1 413.8 392.2 371.3 361.8 358.7 360.2 362.9 377.8 387.7 394.5 403.7 406.4 407 398 387.2 369.5 363.6 370.6 352.1 334.9 311.3 291.2 277 260.4 238.6 256.2 268.4 275.3 288.8 295.6 300.3 316.4 336.4 352 331.2 315.4 298.6 287.9 274.8 280.7 290 281.4 268.3 255.5 249.4 242.3 237.2 236.6 234.8 234.7 236.7 236.9 236.6 232.9 230 224.1 218.2 217.6 221 226.6 231.1 234.2 240.1 244.5 247.1 256.1 260.8 266.1 275.1 285.8 298 308.1 309.2 305.9 299.5 309.2 326.2 342.4 356.2 363.8 366.1
207.2 209.3 212.8 217.8 223.4 226.4 224.1 220.7 220.8 221.9 222.1 223.7 225.5 228.5 232.4 236.1 239.3 241.2 240.4 241.4 242.5 243.9 247.2 250.2 252.7 254.4 255.7 257.8 256.7 250 240.6 232.5 226.2 223 220 216.6 218.7 219.5 220.1 221.3 221.1 220.4 217.9 217 217.4 217.6 217.4 216.7 216.5 220 222.5 224.2 226.3 231.3 233.2 234.3 237.8 239.6 240 241.1 246.1 252.3 254.6 256.8 262.8 268.8 274.1 279.4 282.5 287.8 292.5 294.5 294.5 298.4 304 304.6 303 299.3 295.4 293.8 292 289.1 292.3 285.9 286.6 301 307.4 309 310.3 314 316.6 314.9 318.3 325.8 328.6 336.8 336.1 332.7 326.7 323.7 321.5 320.7 327.8 345.4 359.5 369.5 378.6 381.4 389.8 397.9 402 409 410 433.8 441 459.6 463 455.9 440.8 422 399.7 379 368.8 370.1 372.7 369.8 383.3 390.6 397.6 403.1 397.7 391.9 392.4 377.6 362.6 357.3 359.8 347.4 330.9 309.6 288.5 268.2 244.2 258.3 272.6 285.9 289.7 297.7 307.8 316.8 322.2 346.2 366.9 358.4 333.7 311.8 298.3 299 311.1 312.7 299.6 281.3 266.6 254.8 244.7 241.5 240.9 240 238.7 238.1 239.3 239.4 237.6 231.4 229.3 222.4 219 224.6 229.7 235.2 239.1 244 249.3 252.8 261.4 267.3 273.8 283.4 295.1 308 319.2 321.5 317.9 312 315 332.1 350.5 364.7 372.8 375.4
209.4 213.2 216.6 222.1 229 230.9 228.8 225.1 226.5 226.7 229.1 229.7 232.3 233.8 235.8 240.3 243.3 245.6 245.8 249.8 253 253.9 258.8 260.3 260.2 260.9 262.4 261.8 257.2 250.1 241.2 231.3 227.4 224 219.9 217.9 221.4 221.2 223.2 222.4 222.4 221.2 220.6 220.3 220 221.7 222.7 219.3 223.9 228.8 229.6 231.2 235.5 236 236.7 237 240.8 244.4 248.1 252.5 257.9 261.9 265.1 269 276.7 283.2 289.1 293.2 297.5 303.8 306.6 305.7 307.2 315.2 319.2 316.3 314.8 312 308.5 307.1 306.5 310.6 308 302.3 309.4 327.2 320.9 328.1 327.9 329.6 331.7 328.7 337.2 341.3 349 353.9 348.8 346.4 342.3 340.1 335.3 337.9 351.2 369.1 380 391 394.9 403.3 417.3 419.4 418.7 422.1 433.8 455.4 472 478.9 477.5 468.9 455 435.9 416 394.6 378.3 381 376.9 378.2 381.4 386.2 385 388.7 387.3 386.1 385.3 372.8 358 351.6 350.2 340.8 324.8 305.7 284.1 259.5 253.4 275.2 287.6 298.5 300.1 303 318.5 330.9 332 344.8 369.7 385.3 355.3 331.3 328.5 337.7 346.2 334.9 318.4 295.3 278 262.5 251.4 252 251.9 253.5 249.7 244.4 244.4 246.4 239.5 233.8 230.1 227.6 223.3 223.1 226.6 230.2 234.1 246.2 251.4 254.3 263.1 269.7 277.6 287.9 299.7 311.2 325.1 331.4 330.3 326.6 324.8 337.1 354.8 369.1 377.9 381
212.1 215.6 221.7 229.6 237.8 236.6 231.4 230.7 233.3 233.4 234.8 237.5 239.3 241.2 245.2 248.4 250.2 250.9 254.9 258.8 261.1 262.2 264.6 265.3 266.1 266.9 266.6 263.5 257.8 249.8 240.8 233.1 229.2 225 218.5 221.4 224.4 223.4 224.7 223.8 223 224.8 224 224.1 225.6 227.6 228.9 230.1 232.9 235.3 237.5 237.8 241.6 239.4 240.8 243 247.5 253.6 258.8 263.4 267.8 271.4 276.4 282.1 289.1 296 301.9 307.6 313.7 318.8 320.6 321 326 332.2 333.9 332.1 329.6 325 323 322.2 319.6 320.6 325.1 326.9 325.6 332.9 337.6 347.2 342.5 347.9 351.2 348.4 354.2 359.6 369.1 363.9 361.6 359.7 356.6 354.2 350.7 359.2 374.4 388.9 398 406.2 414.7 429.3 438.6 436.5 443.2 449 464.4 479.4 488.5 492.5 487.2 475.8 462.4 444.2 429.4 405.9 390.5 394 382.1 385.1 383.7 375.3 374.3 375.4 377.8 380.3 379.5 368.2 355.7 345.2 339.6 331.6 317.1 298.9 274.6 249.5 272.3 289.5 296.7 309.2 311.6 318.9 326.2 343.3 339.4 351.1 373 395.7 382.2 366.5 367.7 374.9 369 355.7 331.4 310.1 291.5 273 266.1 269.5 273 268.3 261.5 254.8 251.2 248.5 245.6 240.1 236 229.4 225.3 226.5 231.5 235.1 240 242.1 251.9 257.7 262.9 269.8 277.3 286.7 298.8 311.9 328.3 337.1 341.1 339.5 337.6 338.4 355.6 369.9 379.7 383.3
215.5 220.5 227.8 235 239.6 238.6 236.3 237.6 239.1 239.4 241.6 244.2 245.6 249.3 252.5 254.2 256 259.4 263 265.3 267 268.2 269.8 270.3 271 270.3 269.2 264.6 257.5 248.7 238.5 234.7 230.3 225 224.7 225.8 227.2 225.4 225.4 225.2 227.9 230.2 228.6 230.6 233.2 235 237.9 239.6 238.3 240.1 243.6 246.7 246.9 246.6 247.7 251.7 256.4 262.2 268.5 272.9 273.7 279.3 286.1 293.2 301.9 308.2 315.9 321.9 327.2 332.1 332.7 339.3 343.9 347.1 348.7 347.7 346.5 343.9 341 337.3 335.8 338.7 343.9 342.7 341.1 348.9 356.5 352.1 357.3 364.9 365.2 366.2 369.1 376.5 380.3 376.2 374.9 371.9 369.4 369.7 366.2 383.4 396.8 408.5 415.8 422 434.5 448.9 453.8 454.4 465.9 471.2 482.7 493.6 500 500.8 494.9 485.6 472.8 458.1 442.6 417.2 408.7 404.1 389.8 384.9 379.3 375.3 372.8 372.2 372.6 371.9 374.2 363 356 346.7 339.2 326.9 310 290.6 264.4 266.7 296.9 303.9 314.2 315.3 322.3 330.1 335.8 346.7 349.3 366 386.9 401.4 406 400.1 401.8 398.6 388.7 368 341.3 319.6 301.1 289.2 285.3 285.6 286.4 278.3 270.8 263.6 261.9 258.9 253.9 247.2 241.4 231.6 230 233.3 232.5 239.3 244.9 252.5 249.4 255.8 264.1 271 279 288.3 298.1 312.1 323.7 337.1 349.8 349.8 348.4 343.7 351 367.3 378 384.2
222.3 228 234 240.5 242.3 239.3 239.1 243.4 243.4 245 247.6 250.6 254 256.6 257.7 259.1 261.2 265.6 268.2 269.1 270.3 272.8 274.6 275.7 274.4 272.8 269.8 263.3 255 244.4 238.6 235.3 229.7 225.3 227.9 229.4 228.6 227.3 227.2 229.2 233.6 234.2 233.5 234.3 239.2 241.7 243.7 244.8 244 248.6 251.2 252.6 253 252.8 255.2 261 265.2 269.7 276.5 281.5 283.4 289.4 293.6 304.4 313.7 322.1 329.6 334.9 338.3 344.6 350.4 355.1 357.5 358.7 362.6 362.9 362.4 362.4 364.1 360 359.1 357.9 353.6 352.6 353.2 359 364.6 367 373.8 376.4 378 380.8 384.3 389.2 387.9 388.1 391.4 390.1 386.8 388.6 387.7 401.4 414.5 425.1 432.6 437.8 455.7 465.5 466 474.1 478.2 491.7 498.8 503.1 507.8 507.2 500.3 493.5 482.1 468.9 455.5 436.5 423.3 410.1 398.7 388.1 379.7 376.8 375.2 370.9 369.8 368.8 371.3 362.4 354.6 347.2 339.9 323.3 301.4 281.4 256.1 289.9 308.3 313.1 317.9 321.8 331.3 339.6 346.7 350.4 358.5 378 398.5 411.6 424.5 435.8 429.5 427.3 410.6 381.9 351.4 326.5 307 313.8 304.7 297.1 298.6 290.9 280 276.5 275.8 268.9 262.1 252.7 243.2 235.2 234.3 238.3 236.8 238.9 246.5 253.8 256.2 255.2 262.4 273 281.8 290.5 300.5 311 324 334.3 347.8 357.3 356.7 352.3 350.7 364 375.3 381.3
227.7 232.8 236.6 241.4 241.4 240.9 245 248.2 250.4 253.2 255.2 257.7 261.5 261.9 262.7 265.5 267.1 270.6 272.5 272.8 274.2 275.8 277 276.1 275.7 273.1 268.1 260.3 250.9 243.4 240.4 235.9 229.1 226.9 229.7 230 229.8 229.3 230.7 233.8 237.5 238 241.5 241.4 243.9 245.7 249.1 248.4 252.7 254.7 256.7 256.2 257.1 260.1 266 270.6 277.8 281.3 286.5 290.7 292.6 297.1 303.9 314.1 324.5 333.4 341 344.9 350.7 358.2 365.6 368.6 370.8 372.1 377.5 378 384.2 385.5 384 380.3 372.7 365.4 367.6 369.1 359.6 371.9 374.2 381 385.7 387 391.5 393.5 398 398.9 401.2 406.9 408.4 402.4 403.5 409 408.5 414.5 429.1 438 445.8 455.5 476.9 486.3 481.1 487.9 503.9 510.1 511.8 515.4 519.1 514.6 501.9 494.1 484.9 474.4 460.2 450.2 437.5 423.2 404.8 392.5 385.4 382.4 379.2 375.6 371.1 362.9 361.8 358.6 350.6 347.4 339.5 324.2 304.9 273.3 270.5 299.2 321.9 323.3 325.2 329.2 336.8 348 351.4 357.9 367.3 386.6 410.2 425.5 432.7 445.2 450.2 444.8 426.8 395.6 360.4 334.8 324.8 329.4 318 315.9 309.5 302.1 293.8 294.3 291.2 284.2 271.9 260.1 247.7 241.4 244.4 246.2 243.2 245.8 252.5 258.5 262.2 261.9 267.1 275.1 282.6 292 302.9 312.9 322.3 333.1 345.8 362.5 365.1 362.1 359.2 363.1 372.7 379.6
231 235.9 237.2 242.9 242.9 246.5 252.3 254.4 258 260.3 262.5 264.1 266.6 268 269.4 271.7 273.1 274.3 276.4 278 278.2 277.6 278.8 278.2 276.8 272.6 264.6 254.3 244.6 243.4 240.3 234.6 227.9 228.1 230.3 231.4 231.4 233 238.2 241.7 244 246.7 248.4 248.9 251.1 252.7 253.8 255.9 261.1 262.7 262.5 262.3 266 272 276.7 280 285.2 289.5 292.5 297.5 301 306.8 316.1 325.4 335.8 343.8 350.3 356.2 365.4 372.2 377.5 381.8 386.7 391.7 397.3 402.4 397.5 395.1 396.5 388 386.8 382.1 381.6 373.5 373.2 384.2 388.8 397.9 396.7 407 405 406.7 410.1 408.8 413.8 423.1 416.9 416.6 425.8 422.8 420.9 428.5 444.4 454.1 456 474.6 486.9 494.8 496.2 508.3 520.3 526.3 528.8 532.5 526.9 514.9 505.9 494.8 486.2 475.4 462.7 452.3 441.4 430.2 411.6 398.1 394.5 388.3 383.4 378.6 375.3 369.5 358.1 349.4 338.1 338.6 333.3 315.5 292.9 286.9 278.2 303.3 330.8 331.2 334.5 337 344.3 355.7 358.2 371.3 379.1 399 420.7 435 437.1 444.1 451.7 453.4 434.5 406.3 371.4 351.4 350.8 346 333.5 332.2 323.7 313.4 310 311.5 307.3 294 280.6 268.2 256.3 258.4 257.1 255.5 253.1 256.1 260.9 265.6 269.6 270.9 270.2 279.6 286.7 292.8 304.6 313.5 325.5 333.7 347.8 366.5 372.3 373.1 370.5 366.4 373.6 380.4
235.9 239.6 242.3 245.6 245.4 252.2 257.9 260.6 264 266.5 267 270.1 272.3 273.8 275 275.3 277 278.7 281.3 281.2 279.6 279.7 279.4 280.2 275.9 269.6 258.5 250.6 246.7 243.8 238 230.9 231.8 233.4 233.3 233.4 236.2 239.6 245.6 249.1 249.5 250 254.1 255.7 256.6 258.3 259.8 264.2 268.4 269 266.8 271 276.2 284.1 288.4 289.4 293.3 297.2 302 305.6 310.1 320.3 329.3 339.3 346.9 354.5 361.9 372.3 380.4 385 389.1 394.8 407 416.5 425.2 430.1 419.3 406.3 399.4 400.4 392.2 389.2 382.9 386.4 380.1 396.7 404 406.7 409.4 414.5 417.3 423.5 421.9 423 426.7 430.3 430.1 438.3 440 431.9 434.8 444.4 461.2 467.5 480.4 490.5 496.6 509.3 512.1 525.9 534.2 539.2 542 543.6 539.7 527.6 513.6 503.9 492.8 479.6 463.5 453 444.1 429.5 416.8 405 403.9 396.8 389.4 382.9 379.4 372.6 361.7 354.6 337.5 326.3 325.9 307 317.8 306.9 285.9 297.9 326.6 335.6 339.9 343.1 353.3 362.2 366.1 380.3 393 421.5 433.6 440 442.9 444.9 449.5 459.2 444.2 414.5 392.3 375 377.4 359.9 356.1 356.5 339.4 327.3 324.8 322.6 313.9 303.1 290.4 275.7 266.4 270.3 273.5 267.9 264.3 265.4 269.9 274.3 278.1 279.4 274.4 285.7 293.4 299.6 309.1 317.7 329 337.9 352.6 365.7 377.2 381.8 380.4 378.4 379.3 383.9
239.7 243.5 247.1 249.9 254 258.7 262.3 265.7 269.1 272.2 273.2 276.4 278.6 279.7 280.1 280.5 281.7 284.6 285 282.2 280.6 280.2 279.9 278.4 277.8 265.9 257.1 252.7 248.1 241.1 232.8 232.7 234.4 234.5 235.4 235.5 240.3 245 250.7 255.5 254.7 253.9 256.5 257.2 262.4 265.9 267.9 267.9 273.5 274.6 273.1 281 286.2 295.7 298 299 301.6 302.6 309.7 314.2 321.9 333.2 343.4 352.1 358.6 366 377.9 387.6 392.6 399.4 409.1 417.4 432.9 442.4 450.5 436.8 424.3 416.8 410.1 400.2 399.8 392 399.5 396.5 389 408.8 414.2 414.4 422.2 426 435.4 437.5 443.8 441.6 441.9 440.8 443.2 453.3 449.4 445.1 449.2 458 475.4 481.1 495.6 501.6 513.2 520.7 530.8 538.8 544.7 548.2 549.1 547.3 540.4 531.1 519.8 508.6 504 485.2 461.8 452.4 443.7 431 419.7 417.8 409.6 403.2 394.1 388.3 384.3 374.7 363.1 354.7 339.3 332.9 324.2 325.5 332.8 319.1 301.1 289 323.8 342.9 343.8 355.1 360.8 370 378.1 387.1 408.1 425.4 445.4 457.8 452.6 459.5 450.2 452.4 453.1 434.1 417.6 399.2 399.4 385.2 380.9 374.1 354.5 344.6 340.1 336.1 327.5 315.1 296.8 291.3 279.2 287.1 286.6 282.1 276.8 275.8 278.2 280.2 286.5 287.1 276.3 293.2 301.9 312 318.6 325.5 334.3 343.8 357 369.6 383.2 387.9 389 386.4 383.2 387.1
243.9 247 250.9 253.4 260.1 264.8 268.7 272.4 275.4 278.3 282 284 285.4 286.5 287.2 288.3 289.5 290.1 287.7 283.4 282.1 280.6 279.3 278.6 272.3 262.7 258.4 253.5 246.6 237 235.9 235.1 236.1 235.5 236.9 239 244.4 250.9 256 260.4 262.7 261 261.2 265.3 270.8 275.2 275 272.8 276.6 278.3 280.9 290.7 297.4 304.6 307.3 305 306.3 309.4 316.7 325.1 335.8 345.5 357 363.4 371.9 384.5 395.4 402.2 410 423.3 434.9 444.1 454.1 464 458.5 446.1 435.1 424.2 416.5 409.2 401.7 403.6 403.2 404.6 399.7 419.2 422.4 425.6 433.5 435.1 443.8 450.3 457.1 452 453.9 453 457.3 464.8 460.6 458.8 469.8 480.1 486.6 498 507.2 516.5 523.9 533 540.6 545.8 549.7 553.1 551.2 544.2 537.8 529.6 522.7 511.3 506 487.6 461.9 451.5 444 436 428.8 425.6 414.7 406.7 397.6 392.5 387.2 378.8 365.9 356.7 354 352.2 347.2 347.1 347.6 329.2 309.4 289.1 321.7 341.9 351 358.9 366.1 378.6 385.1 392.4 413.4 433.9 452.4 461.4 464.9 466.4 465.6 455.3 452 451.9 425.9 415.3 416.5 408.8 406.6 389.1 368.3 356.9 354.1 350.9 345.4 321.8 309.5 302.7 296.1 303.3 302.8 297 294.5 288.9 290.4 294.3 294 292 283.7 298.3 308.6 316.9 326.4 334.1 342.4 351.4 361.7 370.5 386.2 392 395.2 393.7 386.5 391.7
250.1 252.8 256.1 259 265.2 270.3 274.3 279.1 282.1 286.3 289.2 290.3 291.2 293.8 294.4 295 294.7 293.7 289.9 286 284.5 283.1 279.9 275.6 267.9 262.8 258.1 251 242.7 239.4 239 238.3 238.3 238.3 239.1 243.2 247.9 254.2 260.5 265.6 268.2 266.7 265.1 268.9 277.8 283.9 284.9 283.6 283 281.7 287.5 297.8 306.3 310.2 313.5 312.3 315.8 317.6 327.3 339.1 350.4 360.9 369.6 377.6 389.3 401.5 410.9 420 437.5 450.7 461.4 469.3 478.4 473.1 466.8 461.6 452 444.6 432.1 420.8 411.5 409.2 413.5 414.9 411.2 418.6 426.7 432.1 440.7 444.8 453.2 460.7 466.3 466.4 468.3 467.3 471.6 476.5 472.9 480.8 489.4 497.2 499.3 512.6 521.3 529.2 533.4 542.9 544.9 546.3 547.7 550.9 547.9 542.3 534.8 525.4 520.5 508.8 501.9 486 463.2 452.5 447.6 440.8 435.9 430 420.8 412.1 399.1 394.9 388.4 381.5 375.2 369.9 369 366 362.5 360.1 356.4 334.2 313.7 288.2 324 345.8 357.9 363.2 372 384.4 390.8 397.3 415.3 437.8 458.3 468.1 473.4 472.3 475.6 468.8 465.5 450.8 439.7 430.1 432.9 434.4 425.6 398.8 379.9 373.3 369.4 364.2 360.1 335.7 321.7 316.9 315.7 320 320.1 311.8 307.8 308.8 304.9 306.7 306.2 303.8 288.7 301.4 311.8 322.2 332.8 341.2 350.9 361.7 364.6 372.9 386.1 396.2 400.3 400.3 397.6 394.8
256.3 258.2 261.7 266.3 271.3 276.8 280.6 285.3 289.4 293.9 296.6 297.2 297.7 299.4 299 297.8 297.8 296.7 292.7 288.2 285.9 283.2 278.6 271.4 264.9 261.5 252.9 245.5 239.2 241.7 243.6 243 240.9 239.8 242.6 248.5 251.9 254.8 263.1 268.4 271.4 270.4 270.9 273.6 284.7 289.8 291.6 290 288.1 290.2 299.8 307.2 312.4 315.5 319.3 319 320.3 327 339.5 353.4 364.6 373.8 382 394.6 407.1 417.1 429.1 444.2 459.9 474.9 487.9 492.9 488.3 493.2 484.8 473.8 460.3 447.3 442.2 431.1 422.5 418 421 420.7 417.9 430.3 437.8 443.9 448.2 454.4 464.9 472.9 481.2 480.7 484.1 486.4 493.2 492.7 491.8 494.7 505 510.7 512.9 527.4 539.3 540.9 543.3 545.5 546.3 546.9 545.8 546.5 540.5 538.3 532 521.5 515.3 505.8 496.9 481.5 464.7 455.9 452.6 445.7 438.9 432.2 426 414.6 403.2 397.5 391.1 380.3 376.3 375.4 373.9 370.2 367.4 363.8 346.2 338 321.8 291.6 318.9 349.5 364.2 369.1 378.3 390.8 396.6 405.9 420.8 444.3 462.3 476.7 481.8 476.7 484.6 478.2 483.8 456.1 448.5 452.9 455.3 452.5 440.1 411.6 391.9 387.5 386.3 385.1 373.6 352.1 336.8 334.2 333.9 338.3 335.3 330.3 325.4 327.5 317.9 317.1 317.4 315.4 307.9 302.6 317.9 329.5 339.2 347.6 359.3 368.3 368.6 374.8 384.1 399.4 403.5 404.7 401.4 397.2
260.3 261 266.3 272.7 277.3 282 286.6 292.5 297.6 301.3 302.9 303.5 303.2 302.4 301.5 302.5 301.7 298.6 295.8 289.4 285.7 279.7 272.9 266.2 261 256.8 249.6 241.5 243.6 242 245.7 243.8 242.4 245.4 250.2 255.3 257.1 262.1 269.9 273.2 273.9 277 279.8 284.1 290.1 294.1 294.4 293.7 292.6 300.9 307.9 314.7 319.1 321 321.5 326.2 333.7 341.2 353.8 366.6 376.9 383.2 394 408.1 422.7 433.9 452.2 469.2 486.9 501.5 503.3 507.1 510.9 510.1 511.3 495.4 470.7 465.1 459.9 448.5 439.6 430 429.4 428.5 428.9 438.2 451.2 453.9 457.6 468.7 479.5 487.6 492.4 493.8 498.4 511.7 509.3 505.2 505.5 509.6 518 523.9 527.1 542.9 552.9 552.6 550.3 553.2 553.9 552.8 545.3 539.4 534.9 536.1 527.1 518.3 513.6 503.1 492.4 479.3 466.5 460.2 454.6 446 438.1 433.4 427.2 417.3 409.8 399.6 388.9 379.6 381.1 378.3 374.7 374.5 373.6 368.7 364.1 345.3 326 301.5 316.3 351.4 367.6 376.7 383.5 395.2 406.3 414.4 428.8 448.9 463.1 479 486.1 485.1 485.2 487.2 487.6 466.6 457.4 458 462.1 468.5 452.2 422.6 407.9 401.9 396.6 395.2 385.2 368.8 356.3 350.5 348.8 350.3 348.5 346.5 339.8 341.5 331.7 326.8 327.2 325.7 319.2 318.6 320.9 334.9 346.9 356.2 364.7 373.6 374.4 382.8 387.2 404.2 407.7 410.9 408.1 400.6
264.2 264.7 273.6 277.2 279 283.6 292.2 299.1 304.8 307.3 309.1 308.6 306.4 304 304.9 305.6 303.2 299.1 294.7 289.6 283.1 275.4 269.8 265.6 258.8 252.7 244.9 247.1 246.7 243.6 246.1 246.1 248.9 253.5 258.6 261.3 263.7 270.5 276 278 278.1 282 285.4 287.7 294 296.3 297 298.1 301.5 308 315.8 320.2 324.7 327.2 328.4 334.9 344.8 354.5 368.1 379 386.4 394.1 408.9 424.8 437.3 456.1 476 498 517.3 519.3 523.7 530.1 534.1 538.2 525.2 504 488.1 487.8 478.6 466.6 449.9 443.5 445 441.9 433.7 449.8 460.3 462.1 470.9 482.1 489.9 498.2 504.4 507 512.9 523.9 520.2 518.1 521 523.6 529.8 537.9 543.1 554.9 564.1 562.8 557.9 558.4 558.1 556.9 549.5 536.6 528.5 528.8 525.2 516.2 508.9 499.9 488.6 476.8 468.9 463.6 457.7 449.6 442.1 434.4 429.3 420.2 413.9 406.9 393.4 396.6 396.1 393.9 390.8 388.2 383.6 374.5 361.5 347.8 331.4 302.7 316.4 350.9 372.7 384.3 390.1 399.4 412.6 424.2 436.4 452.4 467.5 481.4 489.2 491.6 486.6 493.7 494.2 472 462 463.4 467.4 474.7 463.9 439.8 425.9 413.1 407.1 403.2 397 382.7 370.7 366.7 365.7 363.9 364.1 361.4 350.9 354.3 342.6 337.4 336.1 334.7 331.2 329.9 335.1 339.8 351.5 361.3 371.1 378.7 380.9 386.5 390.5 405.7 418.1 424 419.9 406.8
268.5 272.5 278.7 280.5 282.9 289 298.5 306.4 310.4 312.8 313.7 311.9 309.1 308.6 308.9 306.6 302.5 297.4 292.3 285.5 277 270.7 268.1 264.4 258.5 250.7 245.6 250.1 249.9 246.5 249.5 250 255.4 260.3 264.8 267.2 271.7 277.2 281.5 282.3 285.2 286.2 289.8 293.2 296.4 300.7 304.2 305.5 310.3 316.9 320.6 327.8 330.6 333.3 335.2 345.3 356.7 369.6 379.7 389.8 397.3 406 424.8 439.2 455.7 477.4 505 527 535.3 540.9 545.8 545.8 553.8 557.2 538.8 518 516.1 502.4 488.4 467 462.7 466.3 459.2 455.1 446.5 459.6 465.8 471.8 481.8 492.1 503.6 511.8 515.8 519 534.9 534.7 531.8 533.8 540.5 540.4 543.3 552.5 559.5 568.2 572.4 571.9 571.6 567.5 561.4 556.3 549.4 539.5 529 525.2 522.3 514.4 504.8 497.2 489.2 480.4 475.3 469.1 461.1 455 446.7 440.6 434 420 410.9 408.6 403.5 399.5 398.6 395 391.5 389.2 382.8 380.3 374.8 352.8 334.7 310.1 316.1 352 376.4 390.3 397.8 408.8 422.4 432.4 443.1 458.6 469 484.7 496.7 501.3 494 497.7 501.2 482.2 470 470.1 473.8 481.2 475.9 463.5 446.9 431.1 418.5 417.4 410.3 396.4 384 378.6 379.4 382.6 379.6 377.7 367.2 364.7 355.8 348 345.4 343.1 342.5 341.9 348.2 346.6 355.8 367.4 373.7 382.5 385.7 391.4 394.9 406.5 422.8 434.6 431.1 417.4
271.8 279.6 283.8 286.3 291.8 299.3 306.5 312.6 315.7 316.8 316.3 313.7 310.9 311.6 309.5 305.4 299.9 294.3 288 281.1 273.3 270.7 266.6 261.6 255.3 251.1 252.8 255.1 252.6 250.4 253.2 255.8 261.6 266.9 269.8 274.1 279.5 283.9 286.5 287.6 291.9 293.2 294.6 296.6 304 308.6 311.6 313 315.4 322.9 327.6 334.4 339 341.9 345.5 354.8 369.1 381.3 391.7 399 406.8 423.1 438.6 454.1 475 497.6 526 541.8 552.6 565.9 577.2 581.1 576.1 560.1 553.8 538.8 530.4 510.5 491.8 477.6 479.2 470.6 470.2 464.2 455.9 466.9 474 483.3 491.8 503.6 513.5 519.7 527.8 533.1 546.5 545.7 547.4 553.4 557.8 561.6 571.6 569 573.1 579 581.9 584.1 583.4 576.4 565.9 556.8 552.1 544.9 531.5 525.1 521 516.4 509.8 504 495.3 491 483.6 474.9 468.6 461.2 452.8 446.3 439.5 429.8 427.1 416.5 410.4 407.7 407.1 399 397.7 395.9 394.5 387.4 369.2 352.5 335.2 315.2 314.1 347.9 375.8 393.8 403.9 417.3 433.7 440.2 449 463.6 474.8 486.9 501 506.4 504.4 500.8 497.6 491.9 483.1 477.8 480.5 492.1 489.7 477.2 466.3 451.2 433 429.2 420 410.3 399.4 392.3 392.9 398.6 395.9 388.8 380.4 375.5 367 357.5 357.5 354.9 352.8 351.2 357.1 361.3 361.2 370.8 380.9 389.2 393.5 394 397.9 407 420.1 432.8 434.7 427.7
274 283.8 287.9 292.9 298.9 305.4 312 316.9 320.2 320.4 319.3 317.1 313.7 311.6 308.5 301.9 295.7 288.6 281.3 275 273 267.9 262.8 259.6 253.8 252.1 257.6 258.7 254.6 252.3 258.3 263.4 267.3 270.2 273.5 279.5 284.3 287.3 290 293.5 297.7 299.4 300.6 307.2 312.1 316.1 317.9 319.2 321.1 327.9 334.2 339.4 346.5 351.2 354.9 365.8 380.1 389.8 399.7 408 419.4 437.2 451 471.4 491.3 514.2 536.7 549.6 569.2 590.6 594.5 596.1 593.3 582.6 562.4 552.1 533.9 521 508.9 493.8 484.1 485.5 475.5 467.7 466.8 477.5 485.1 493.8 503.5 512.4 521.7 528.3 534.7 545.5 556 558.7 563.6 568.7 577.3 584.5 586.9 585.8 583.9 588.9 592.6 595.7 592.8 585.1 572.9 564.3 556.7 548.7 539 532.5 527.9 524.4 519.8 511.7 504.1 497.7 491.6 483.5 475.4 469.1 462.9 456.5 449.2 438.7 433.6 428.1 423.3 419.7 413.2 410 410 406.4 402.1 390.8 374.9 357.7 339.6 315.7 316.7 347.9 373 394.3 411.4 428.6 442.5 445.3 456.3 470.3 481.7 494.9 505.5 508.6 507.8 498.4 502 494.6 488.2 485.8 495.1 502.2 502 490.6 479.7 462.9 454.8 443.7 432.8 419.4 411 406.3 406.8 407.4 407.2 402.5 396.5 390.4 377.5 371.6 369.6 366.3 363.7 361 363.9 369.8 367.4 375.3 382.5 393.2 397.5 398.9 401.3 408.3 418.2 427.8 437 436.6
277 287 292.8 298.2 304.9 311.2 316.3 320.7 322.2 323.5 322.2 319.8 316.3 311.7 305.6 298 290.1 282.6 275.8 275.6 271.9 265.6 260.9 255.4 254.3 259 261.3 262.2 258.8 254.8 262.4 268.4 273.1 275.8 277.9 283.6 287.6 290.1 293 299 301.9 305.3 309.1 315.6 320 321.8 324.2 325 326.7 336.7 340.9 345.8 352.2 356.8 363.7 378 389.7 397.7 407.6 419.9 433.1 448.8 465.4 483.6 502 523.9 541.4 558.7 581.7 598.9 604.3 607.2 597.3 588.7 576.8 555.5 544 529.8 523.1 506.5 504.4 491.7 481.1 470.4 479.9 488.5 498.1 505.9 513.3 522.3 531.4 537.3 543.4 557.4 565.1 574.2 579.5 587.1 596 600.1 598.9 597.1 593 604.4 607.7 606.6 602.2 593.3 577.8 573.6 565.1 558.3 553.2 546.5 539.1 536.2 534.7 526.8 515.8 506.1 498.1 491.8 483.4 476.4 470.7 465.2 457.1 446.7 440.1 434.5 430.5 427.3 423.7 419.7 415.8 411.6 405.4 392.4 376.9 359.8 343.1 318.1 318.6 346 371.6 395.3 415.4 432.8 455.3 462.3 467.7 490.1 494.1 508.2 514.7 516.1 510.1 499.5 500.1 498 497.4 493.8 502.3 507.8 509.7 500.5 490.3 471 464.1 455.5 444.6 432.2 424 417.8 418.6 417.4 421.1 416.6 411.3 411 393 384.4 379.7 377.1 375.9 373 373.2 378.8 376.7 377.8 387.9 393.2 399.2 404.3 408.9 414.2 424.5 433.7 441.3 446.8
282.5 291.1 296.9 303.5 310.8 315.9 320.4 323.9 325.9 326 324.6 320.7 315.3 308.4 301 295.6 286.6 281.7 278.5 275.5 271.5 265.6 259.9 257.9 261.8 264.8 266.3 264.6 261.4 256.9 264.4 272 276.7 278 282 287.5 291.1 292.7 297.7 302.7 306.2 310.8 317.5 322.6 325.9 326.1 330.1 332.4 334.9 341.7 346.2 353.4 358.9 366.7 375.4 387.1 397.3 405 416.6 428.4 442.9 458.1 477.7 498.1 513.9 536.8 547.6 567 591.1 602.9 610.5 609 605.6 606.3 584.5 570.6 552.5 541.1 534.4 526.9 513.3 500 484.9 479.8 492.8 497.6 509.7 516.7 524.5 533.4 541.7 547.3 553 568 577.4 585.7 593.2 602.4 614 618.1 615.1 609.7 608.4 616.7 623.2 621.5 613.5 603.5 590.7 587 578.7 572.6 566.1 558 551.7 550.7 547.9 539.8 527.2 515.9 506.4 498 492.5 485.5 479.8 472.5 464.8 447 442.9 439.5 436.2 431.5 427.7 423.9 420.1 416.1 406.8 395.9 381.8 362.9 342.6 323.6 324 349.9 370 393.7 421.9 439 457 476.1 485.5 506.4 504.8 517.1 522.2 518.2 510.6 501.2 500.8 508.1 505.5 503.3 511.5 516.2 516.2 516.6 503.1 487.1 471.7 458.5 453.4 447.6 440.9 435.2 432.6 432.4 438.5 430.9 423.4 417.7 418.4 400.1 390.8 386.7 387.9 385.1 381.6 388 387.9 387.9 392.6 398.9 405.1 407.3 411.5 418.8 429 440.9 445.6 455.2
290.2 294.8 302 308.8 315.4 320.3 323.9 326 326.8 326.2 324.2 318.4 311.2 304.8 297.7 292.8 287.6 285.3 281 277 269.5 261 258.1 262.7 267.1 269 269.4 266.1 264 262.9 265.4 273.8 278.6 281.6 285.5 290.6 293.8 297.8 303.4 306.2 310.1 316 323 328.3 331.1 333.6 336.1 338.3 342 348.4 352.7 360.2 367.5 375.7 385.4 395.7 405.5 413.9 426.6 439.2 451.6 470.1 489.4 505.9 528.3 544.5 550.6 571.9 590.2 602.2 611.5 618 616.6 608.8 594.1 579.2 563.4 555.8 542.7 536.2 520.2 505.7 501.8 498.3 509.3 512.1 518.2 526.1 533.7 543.5 553.4 558.5 565.3 577.3 587.7 597.7 606.9 620.1 631.7 631.5 630.5 626.1 624 628.7 633.4 630.7 623.3 611.5 603.4 599.2 591.3 583.8 576.2 567.9 564.5 563.9 559.4 555.6 543.4 530.2 518.6 508.8 500 493.9 489.6 481.3 470.8 460.8 453.1 443.2 438.1 434.7 431.6 428.1 423.8 415.6 408.5 398.5 380.6 362 344.5 323.6 330.5 353 372.4 400 423.5 442.2 461.3 478.4 500.2 520.5 518.2 530.2 535.7 530 510.9 503.4 505 514.4 510.5 513.6 523.2 527.6 525.4 526.4 515.1 498.9 482.9 475.9 466.6 457.3 453.4 451.6 450.7 446.5 446 446.1 436.6 428.9 423.1 415.8 409.1 401.2 397.1 396.1 391.3 396.8 397.2 398.6 400.9 405.9 411.2 413.7 417.2 421.2 429.7 439.8 448.2 458.8
293.4 299.5 306 312.9 318.8 323.1 325.8 325.9 326.1 324.5 322.8 316.7 306.7 302.2 299 296.4 293.4 288.6 283.2 275.1 266.3 260.7 267.8 271.4 273.7 273.5 270.9 268.3 269.3 270.2 268.6 276.1 279.7 285.2 291.5 294.9 299.4 303.7 308.2 312.2 316.2 321.5 328.3 333.8 336.5 338.1 341.2 344.1 347.3 354.6 361.4 366.5 373.8 384.4 392.7 402.1 408.7 421.6 433.8 445.7 458.6 477.1 494.2 509.7 534.3 547.9 549.5 566.6 588.2 599.9 614.4 619.2 617.6 612.5 597.4 585 572.6 559.7 556.7 541.4 525.2 515.8 517.9 509.9 524.7 525.5 530.2 537.6 546.4 553.6 561.4 568.4 576 586.7 597.1 607.1 619.5 635.6 643 641.8 640.1 640 642 647.2 644.6 641.9 632.9 621.6 614.7 609.2 600.4 592.8 585.8 580.9 578.1 573.7 571.3 570.6 557.6 543.8 531.1 522.3 510.9 503.8 499 491.2 479.4 469.8 460.8 450.6 441.9 435.1 432.1 428.3 422 412.9 406.7 399.4 381.6 364.1 343.1 321.5 336.9 360 379.5 405 430.6 443.8 461.2 477.9 505.9 530.9 538.5 537.1 552 540.9 513.5 510.3 513.9 518.6 518.8 523.9 531.2 536.8 532.1 535.4 526.9 512.5 499.9 494.3 481.9 469.1 462.3 458.7 457.1 456.5 455.8 453.5 447.2 441.1 437.9 433.5 423.1 419.3 415 408.2 401.7 407.1 405.7 408.2 409.7 414.1 418.6 421.7 425.7 428.9 434.3 442.1 451.7 459.8
297.6 304.1 309.6 315.4 320.9 324.1 324.6 324.8 323.5 320.9 318.5 315.8 308.8 307.6 306.1 301.3 297.1 289.7 281 269.7 261.9 268.8 276 280.5 279.8 275.6 272.3 271.6 275.7 278.1 274.8 277.1 283.5 289.7 294.4 298 302.4 307.3 311.9 316.4 320.8 326.8 333.1 337.5 340.1 343.4 346.5 350.4 353.3 361.4 369.2 374.3 383.2 391.8 399.6 407 416.2 424.9 440.5 452 464.1 478.5 493.2 509.9 527.2 539.3 549.8 564.1 587.7 605.7 614.2 616.3 617.4 611.7 596.6 587.4 574.8 571.3 560.6 542.3 533.2 531.2 534.9 535.5 536.4 535.7 543.2 549.3 557.1 567.3 574.1 581.4 588.8 597.1 606 615.5 629.1 647.1 650.8 651.1 659.2 661.6 663.9 661.1 659.2 648.8 639.9 631.5 625.3 618.3 609.1 602.5 596.5 593.1 590.2 585.1 581.4 579.4 565.9 551.6 540.4 531.3 522.3 515.6 509.4 503.2 488 478.8 465.1 458.4 449.5 440.6 431.5 428.2 423.5 411.3 402.7 396.4 375.9 355.3 338.7 324.1 343.2 366.7 388.4 407.8 430 446.7 462.9 478.2 506.6 534.3 554.8 563 565.4 554.3 524.1 516.6 523.2 521.5 524.8 528.8 535.8 544.4 542.4 544.5 541.6 528.8 515.6 505.8 494.1 482 473.4 467.6 466 465.3 464.6 462.9 458.1 449.9 447.6 446.3 438.6 433.7 424.7 417.7 410.5 415.1 416.8 417.7 422.4 422.8 425.6 431.5 433.3 435.4 437.8 446.1 451.5 459
300.4 305.4 310.6 316.8 321.1 322.3 322.8 322.7 321.9 317.1 314.1 317.4 316.4 314.3 310.3 304.5 297.5 287.6 275.7 263.9 269.7 278.7 284.5 285.9 281.9 278.2 276.7 279.1 283.2 286.1 281.5 276.9 284.6 291.4 296.2 301.4 306.1 310.9 315.4 319.4 324.6 331.1 337 340.8 343.6 348.3 353.3 355.7 361.4 367.9 376.3 383.9 387.8 395.6 405.1 412.8 421.8 431.5 444.7 458.6 468.2 480.1 493.2 508.3 526.4 538.3 551.9 563.8 591.1 606.2 612.9 615.1 615.7 609.8 593.2 586 582 576.4 562 549.2 540.9 542.4 544.6 542.9 537.9 547.6 554.1 561.5 567.2 576.2 583.4 590.7 597.3 604.5 611 622.7 637.7 653.2 658.6 671.3 674.4 677.8 679.9 676.3 672 660.5 647.5 637 631.2 624 615.7 611 605.9 601.3 599 593.9 589.9 588.4 572.7 558.4 546.2 535.9 530.2 523.3 517.8 509.6 496 481.4 466.4 459.5 452.2 445.4 440.7 433.8 424.4 411.6 403.8 388.8 373.5 350.2 331 335 352.3 371 391.7 413.1 431.5 451.2 464.3 480.8 507.6 535.6 561.1 581.8 576.9 564.5 536.3 527.2 531 528.3 533.5 543.8 547.1 552.7 553.9 559.6 553.3 541.2 527.2 517.5 506.7 494.4 486 478.8 475.9 475.7 473.5 471.9 467.2 465.2 462.6 459 450.2 442.8 436.2 429.3 419.7 420.9 426.2 426.3 429.9 431.9 433.7 439.8 442.9 441.6 444.2 450.6 456.7 465
303.6 307.9 312.4 316.5 320.8 321.4 323.1 323.2 323.8 323 321.9 322.2 321.1 316.8 310.5 303.3 293.5 281.4 267.3 272.4 282.4 289.1 290.2 288.9 284 282.6 285.7 289.3 293.3 293.7 292.6 288.7 284.7 292.5 298 303.8 309.7 314.2 318.3 322.4 328.3 334.9 339.8 343.5 347.4 352.6 357.5 360 367.3 374.5 382 390.1 396.6 402.6 411.5 418.4 426.2 438.7 448.9 461.6 472.5 485.7 497.8 514.8 533.8 542.4 554.5 571.6 590.9 603.1 611.7 615 620.5 609.4 595.1 594.4 581.5 576.2 560.5 553.6 549.7 551.3 551.9 550.5 543 555.5 561.6 569.1 575.4 582 589.2 596.6 604.2 611.1 617.4 627.9 639.3 654.2 669.5 682.2 685.5 688.4 685.5 682.9 681.9 673.7 656.2 641.5 636.4 629.9 621 614.2 612.2 607.3 606.2 600.3 597.5 593.2 575.9 561.4 550.2 544.9 541.6 535.5 529.4 517.5 500.6 482.9 469.5 456.9 451.9 447.1 442.5 434.3 423.2 414.2 403.7 384.9 365.4 342 333.8 349.3 364.4 378.9 397.4 416.6 434.5 451.5 462.4 479.2 509.1 533.8 562.8 582.4 586 574.2 542.8 537.7 542.4 537.2 539.5 549.4 556.8 562.5 566.2 572.8 567.8 553.1 540.5 527.3 517.7 507 496.9 489.2 484.5 486.4 484.8 478.6 476 476.4 473.7 469.6 462 454.7 446.6 438.7 434.2 433.5 435.2 436.9 439.8 439.2 443.7 446.5 452 451.5 452.2 456.2 462.5 468.4
307.1 311.4 314.4 317.4 321.1 324.1 326.8 327.4 329.6 329 328 324.9 321 316.3 308 297.6 285.5 271.1 274.5 288.8 296 299.9 299.6 295.8 293 293.5 297.3 300 300.2 300.8 300.3 296.7 288.5 293.1 300 307.5 312.5 316.4 320.7 325.5 332.2 338 341.6 347 352.2 357.8 360.7 366.2 372.9 379.8 388.9 395.2 402.8 411.5 418.2 424.5 433.7 441.3 452.7 465.9 477.4 490 500.8 519.1 530.3 541.2 557.3 576 597.7 607 610.3 615.6 620.7 607.7 606.7 596.3 584 571.2 565.3 561.7 567.5 565.1 561.4 557.5 553.5 559.9 567.5 574.5 581 587.4 593.9 600.5 606.9 613.5 623.7 634.5 642.6 655.9 673.4 687.6 690.3 691.7 689.6 691.3 691.5 684 665.6 645.1 634.6 629.8 621.9 615 612.8 608.8 607.2 601.2 597.8 592.5 575.8 562.1 556.8 552.9 549.1 544.7 534.6 519.2 500.3 482.4 469.7 460.2 451.9 446.1 439.2 436 421.4 412.1 398.3 379.3 359.2 335.4 343.7 360 374.2 387.2 401.4 418.3 436.6 453.1 464.8 483.5 508.7 536.1 560.8 579.3 593.8 576.9 551.9 553.1 554.4 546.2 547 556.4 560.6 569.7 576.4 582.5 574.5 562 548.9 536.3 527.3 519.1 507.4 498.9 494.3 495.6 495.2 490.1 487.8 486.3 484.9 479.8 474.9 468.6 459.1 450.5 445.2 444.7 445.2 448.2 449.4 451.1 451.9 453.3 459.5 461.4 462.5 464.7 469.1 474.1
311.5 315.4 317.9 320.2 322.8 328.8 333 334.4 334.6 333.6 330.3 324.7 319.3 311.2 300.7 288.3 271.8 278.5 293.6 303.4 307.5 308.2 307.1 304.7 305.1 307.3 308.2 308.4 308 307.3 306.3 302.8 293.5 293.1 300.4 308.4 315 318.9 322.6 328.6 336.4 341.9 344.3 349.7 356.3 362 369 374.6 380.3 386.1 395.7 404.5 410.8 417.9 426 432.1 438.2 450 457.8 464.8 479.9 492.1 505.1 518 528.7 543.2 556.4 580.1 600 605.8 607 620.7 622.1 618.3 613.7 598.2 586.9 580.3 577.9 575.2 575.1 573 569.2 567.6 566.8 567.1 574.1 580.8 587.5 594.3 600.3 605.3 612.1 619.9 630.1 639.4 645.9 657.2 673.2 684.8 689.3 690.2 691 696.9 695.7 685 669 646.9 631.4 626 618.7 611.5 608.2 603.6 599.5 595.9 589 584.5 571.3 563 559.1 556 552.4 544.7 532 517.1 498.6 484.3 470.8 458.9 452.3 445.6 445.1 430.2 418.9 407.7 385.2 369.3 348.9 341.6 353.6 365.8 381 393.5 404.3 420.3 437 453.8 466.3 483.5 508.5 535 559.8 577.5 599.6 588.8 565.5 570.2 566 559.1 560.6 561.5 572.1 572.6 579.4 582.5 582.1 570.6 557 545.2 537.2 527 517.7 508.1 502.6 503.8 505.1 503.3 501 500.3 497 492.5 486.7 479.6 471.7 464.2 458.7 454.9 454.7 456.3 459.3 459.4 456.1 460.2 465.4 469.7 472.4 475 477.4 480.9
