ncols 200
nrows 85
xllcorner 340000
yllcorner 303200
cellsize 50
88.8 87.5 88.3 88.8 88.8 88.7 88.4 88.5 87.8 87.8 87.6 87.6 87.8 87.6 87.7 87.4 87 87 86.6 86.4 86.2 86.1 87.7 92.5 95.9 99.8 100.1 99.4 98.6 98.7 98.7 98.1 97.7 98.1 98 98.6 100.5 100.4 100.9 100.9 99.6 98 97.8 98.3 99.4 101 99.8 100.1 101.7 102.9 102.9 102.2 100.3 100.1 99.2 99.1 99.5 100.2 99.8 98.8 97.9 97.9 98.1 98.3 98.3 97.9 98.1 99.2 99.9 102.1 102.5 105.6 108.1 109.8 111 113 113.9 114.9 115.7 114.8 114 113.4 113.7 113.9 114.3 112.1 112.5 113 113.7 113.8 110.6 107.7 105.9 104.4 103.2 101.8 99.7 99.5 101.2 106.1 110.1 113.3 115.3 117.2 118.9 119.5 119.9 119.9 118.9 118.4 117.8 116.2 113.7 111.1 109 108.2 108.4 108 109.1 111.9 114.5 117.3 119.5 121.9 126.7 131.3 133.4 134.8 136.6 138.2 139.8 140.8 141.7 142.8 143.5 143.9 142.9 141.7 141.7 142 142.8 143.6 143.9 144.4 145.3 146.1 146.8 146.8 146.7 146.4 146.2 146 146.5 146.8 147.4 146.7 144.7 140.4 136 131.7 117.5 110.3 104.2 97.7 91.8 88.2 85.5 85.7 88 84.8 83 82.8 81.7 81.6 83.5 85 85.9 85.3 84.6 84.2 84.2 84.5 84.7 82.3 82.5 83.1 83.9 84.4 83.8 88.1 84.1 81.9 80.6 78 79.5 77.8 76.7 75.8 83.6 81.9
88.3 88.5 88.5 88.4 88.4 86.3 86.2 87.9 87.7 88.2 88.1 88.2 88.3 87.3 87.5 87.8 87.4 87.1 86.8 86.7 86.4 88 92.3 96.9 96.8 97.9 99.6 100.2 99.1 98.6 98.4 98.5 98.2 98.1 99.5 102.8 103.5 102.9 102.8 102.7 101.7 100.1 99.6 100.3 102.2 102.7 100.6 100.6 102.2 102.6 102.5 101.8 101.2 100.9 101.2 101.9 101.6 102.4 102.5 101.4 101 101.9 102.2 101.7 101 99.8 99.2 99.6 99.6 102.4 103.3 104.2 107 109.7 112.8 114.4 114.3 113.9 114.9 115.6 114.5 113.3 113.5 113.9 114.3 112 112.1 113.4 114.8 113.8 109.9 106.2 104.6 103.6 102.8 101.3 100.8 100.6 100 104.6 108.2 111.3 113.7 115.1 117 118 118.8 119 118.6 118.1 117.3 115.9 114.2 112.6 110.7 109.8 109.3 109.5 111.1 114 116.3 118.5 120.6 124.2 130.3 134.2 136.4 137.5 138.6 140.1 141.6 142.5 143.3 144 145 144.9 144.2 143.9 144.1 144.4 144.9 145.7 146.7 147.4 147.8 148.3 148.6 148.7 148.7 148.3 148.2 148 147.2 146.6 147.1 148.8 145 138.9 134.5 129.8 115.6 108.7 103.6 97.1 90.4 87.8 85.8 87.3 87.4 87.1 83.4 82.9 81.7 81.9 83.5 85 86 85.6 84.8 83.5 82.9 82.9 82.5 82.8 82.9 83.7 84.9 84.5 83.8 91 80.9 81 75.8 75.8 75.8 75.8 75.8 75.8 86.2 84.2
88.2 88.1 88.1 88.3 88.2 87.7 87.5 87.9 88.2 88.6 88.7 88.9 89.1 88.7 88.6 88.1 87.4 87.3 87.3 87.7 88.6 90.9 96.1 99.2 99 99.1 100.9 101.2 99.8 98.4 98.1 98.1 98.4 101.1 102.5 104.4 104.9 104.7 105.5 104.9 103.9 102.6 102.5 103.3 104.1 102.8 100.8 101.6 102.9 102.6 102.5 102.5 102.3 102.6 103.2 103.9 103.9 103.9 105 104.7 105.4 106.5 106.3 106 105.3 103.3 101.8 100.8 100.4 102.5 104.3 105 106.1 109.4 112.9 115 115.8 114.8 115.2 114.6 113.5 111.8 111.8 111.8 112.4 110.6 109.5 110.3 114.2 112.3 108.9 105.7 104 103.1 102.2 101.3 101.9 100.7 100.2 102.9 106.5 109.4 111.6 113 114.4 116.1 117.3 118 117.2 116.3 116.2 116 115 113.6 112.8 112.4 111.5 112.6 113.7 116.1 117.9 119.6 122.1 128.1 133.2 137.1 139.6 140.2 140.8 142.1 143.5 144.7 145.5 146 146.6 146.5 146.4 146.3 146.7 147 147.4 148.4 149.3 149.7 150.2 150.7 150.6 150.6 150.5 150.3 150.1 149.7 148.4 147 146.5 144.9 138.6 134.4 129.6 120.8 113 107.1 102.3 96.8 91 88.1 87.3 86.9 87.5 85.7 83.6 83 81.8 81.5 83.7 85.1 85.9 85.8 84.7 83.5 83 82.7 82.8 83.5 84 84.6 86.3 84.7 93.9 81.3 81.2 75.8 75.8 75.8 75.8 75.8 75.8 76.6 87.2 85.7
88.9 88.5 88.1 88.2 87.9 87.8 87.9 88.4 88.8 89.2 89.3 89.2 89.2 89.3 89 88.5 88.3 88.2 88.2 88.8 92.7 96.1 97.7 100.8 101.2 100.8 100.1 101.2 99.8 98.8 98.2 99 101.1 102.7 102.9 104.1 106.5 106.9 107.5 106.6 105.9 105.6 104.9 106.7 107.5 105.5 103.9 104.4 104.6 103.9 103.7 104 103.8 105 105.7 106 106 106 106.5 108.2 109.7 109.8 109.6 109.3 108.6 108.3 107.6 105 102.7 102.7 105 106 107.4 110.8 113.8 115.1 114.7 114.5 114.3 111.8 111 110.7 110.9 110.1 109.2 108.7 108.7 109.4 109.8 107.6 106 104.8 104.2 103 102.1 101.7 102.8 102.2 101.6 102.2 104.4 107.1 109.1 110.2 111.5 113.3 115.2 115.6 115.2 114.6 115.3 116.3 115.5 114.7 114.7 115 114 114.3 116.1 118.3 120.2 121.8 124.1 131.2 135.8 140.1 142.4 143 143.9 145.1 146.3 147.2 147.8 148.5 148.5 148.5 148.6 148.8 149.3 149.6 149.9 150.9 151.9 152.3 152.6 152.8 152.5 152.5 152.4 152.3 152.1 150.9 149.6 148.2 147.5 143.3 134.5 125.3 120 115.9 110.4 105.5 100.6 95.7 90.6 88.9 90.1 87.3 88.2 84.3 83.9 83.2 82 81.8 84.1 85.4 86 86.2 84.7 83.5 83.4 83.6 83.6 84.5 85.3 85.9 85.7 86.2 85.8 80.9 78.9 75.8 75.8 75.8 75.8 75.8 81 89.7 88.1 85.8
90.9 90.4 89.3 88.2 88 88 88.5 88.5 88.9 89.8 89.7 88.7 89.1 89.6 89.6 89.3 89.2 89.1 89.1 92.2 96.8 97.7 98.8 100.5 100.9 101.8 100.9 100.4 99 98.8 99.4 100.5 102.2 102.9 104.1 106.3 107.3 108.6 108.8 108.3 108.9 106.6 107.2 109.7 109.9 107.5 107 107.1 107.1 106.2 105.7 105.8 105.9 106.9 107.8 108.1 108.2 107.8 108.6 110.4 112 111.9 111.6 111.2 111.2 111.4 110.6 109.4 106.5 103.8 105.5 106.8 107.8 110.7 112.8 113.7 112.4 111.5 110.5 109.3 109.3 109.2 108.5 108.4 108.9 109.4 109.6 109.8 109.7 107.7 105.6 104.6 104.1 103 101.5 102.4 103.3 102.6 102 101.4 102.8 104.2 106.2 107.5 108.9 110.8 112.7 113 112.6 113.4 114.4 115 115.2 115.9 116.7 116.8 116.2 115.7 118.1 120.5 122.6 124.7 129 133.8 139.2 143.2 145.2 146 147.2 148.7 149.8 150.6 151 150.8 150.4 150.1 150.4 150.9 151.7 152.1 152.6 153.2 154.1 154.8 155.3 154.9 154.4 154.3 154.3 154.2 153.5 152.2 150.9 149.6 148.3 142.7 130 121.1 113.8 110.8 106.8 102.6 98.8 94.1 90.7 89.4 88.1 86.6 88.7 84.6 84.7 83.9 82.6 82.7 84.3 85.3 85.4 84.9 83.8 83.9 84.8 86 85.6 85.6 86.5 86.7 86.2 87.8 85 86.6 84.1 81.5 75.9 75.8 75.8 82.7 90.8 88.5 87.1 85.5
92.1 91.3 90.9 90.1 89.1 89 88.5 88.5 89.1 90.1 90.2 90.3 90.3 90.4 90.3 90.1 90.5 92 95.7 97.3 97.5 97 96.8 98.6 99.5 101.1 101.1 99.7 99.4 100 101.1 101.7 102.6 103.8 106.4 107.1 108.3 109.1 109.1 109.3 109.2 107.5 108.9 111.3 110.7 108.9 109.5 110.2 110 108.7 108.7 107.9 108.5 109.5 110 110.4 109.8 109.6 110.7 112.2 113.6 113.6 113.2 112.9 112.4 112.9 113 112.2 110.4 108.1 105.6 107.3 108.1 109.3 110.8 110.9 111.2 110 107.9 106.7 106.5 106.9 107.7 108.5 108.2 108.7 109.6 109.9 109.2 107.3 105.4 104.8 103.8 103 103 103.6 103.8 102.8 102.7 101.7 102.2 102.5 103.3 104.8 106.7 108.6 110.2 110.4 111.3 113.5 114.7 114.9 115.2 115.8 116.5 117.8 117 116.5 119.1 122.3 125.2 127.8 132.3 136.8 142.7 145.8 147.8 149.4 150.8 152.2 153.3 153.4 153.1 152.8 152.2 151.9 152.4 153 153.7 154.5 155 155.2 156 156.9 157.3 156.9 156.4 156.1 156 155.8 155 153.7 152.4 151 147.1 137.9 125.2 117.4 110.4 106.6 103.5 99.9 96.2 92.7 89.4 88.1 86.7 87 87.7 85.3 85.4 84 83.4 84 84.7 84.3 84.4 84 83.9 84.7 85.6 86.3 85.5 86.2 86.6 87.4 85.6 85.4 85 91.5 91.7 90.7 96.7 91 88.2 91.6 89.9 87 86.4 85.1
92.9 92.1 91.2 90.4 89.9 89.4 88.2 89.1 91.1 91.5 90.8 90.7 90.8 91 91 91.2 94.8 97.5 99.9 101.5 100.7 100.3 100.4 102.2 102.6 101.4 100.6 99.7 100.6 101.5 102.1 102.5 103.2 104.7 106.9 108.4 109.1 109.6 108.6 109.1 108.2 108.3 110.5 113.1 110.7 110.4 113.8 114.3 112.4 110.8 110.1 109.5 111 112 113.2 113 111.9 111.5 112.7 113.8 114.8 114.7 114.6 113.7 114 114.7 114.3 113.8 113.6 112.3 108.7 107.4 108.2 108.9 109.2 108.6 108.8 107.3 107.2 106.8 106.7 106.4 106.3 106.9 106.6 108.5 110.6 109.5 108 106.1 105.8 105 103.8 103.5 104.2 104.3 103.9 102.7 101.3 101.5 102.3 102.6 102.8 103.6 105.2 106.9 107.9 107.7 111 113.9 114.1 113.5 113.6 113.7 115.1 116.7 116.8 116 119.6 123.2 127.5 130 134.6 140.2 145.7 148.3 150.2 152 154.1 155.2 154.8 154.7 154 153.6 153.3 153.3 154.1 155 155.6 156.6 157.3 157.3 158 158.9 159.1 158.7 158.3 157.9 157.8 157.2 156.4 155.2 154 151.7 145.8 131.2 120.9 113.8 108.3 104.2 100.6 97.4 94.3 91.2 88.9 87.5 86.6 87.2 87.1 85 85.3 84.9 84.6 84.5 84.9 85 84.1 83.9 84 84.1 84.6 85.4 85.2 86.1 86.5 86.8 85.5 85.4 87.1 95.2 98.3 99 97.2 89 90 91 89.2 85.5 85.4 84.7
94.1 93.6 91.8 90.4 89.8 88.9 88.9 90.7 94.1 95.7 92 91.4 91 91.3 91.5 93.4 99.2 98.5 101.4 103.4 104.4 104.7 105.3 105.7 103.5 101.2 100.3 100.6 101.7 102.5 103.1 103.5 103.9 106.2 108.6 109.8 109.9 109.3 108.3 108.5 108 109 111.7 113.7 110.7 112.2 116.2 115.9 113 111.9 110.5 111.7 113.7 116.3 116.9 116.5 115.5 114.2 114 115.1 116 116 116.2 115.9 115.6 115.9 115.4 115.2 115.9 114.9 112.7 110.2 109.6 108.9 108.7 108.8 108.7 108.8 109.4 109.7 108 107 106.8 107.8 107.2 107 107.3 106.8 105.8 105.6 105 104.6 104 104.3 104.2 103.6 103.1 102.2 101.7 101.3 101.8 102.7 102.4 102.9 104.1 105 105.8 107.5 110.4 112 112.4 112.1 112.1 112.2 113.6 114.5 114.6 115.8 119.9 125 129.2 132 136.9 144.2 147.5 150.1 152.3 154 155.1 155.1 154.7 154.2 154.2 153.8 153.3 154.4 155.2 156.3 157.7 158.7 159.2 159.2 160.2 160.8 160.8 160.5 160.1 159.8 159.2 158.5 157.9 156.6 154.9 150.7 138.4 127.4 117.8 111.8 106.4 102.3 99 96 93 90.6 88.7 87.6 86.7 88.9 87.6 85.2 86 86.3 85.6 84.7 85.1 85.6 84.8 84.5 84.2 84.4 84.4 84.9 85.4 86.2 86.9 86.2 85.2 85.4 91 97.3 97.4 96.2 95 92 89.1 89.9 87.9 84.3 84.3 84.4
95.2 95.8 94.2 91.8 89.7 89.1 89.7 93 94.9 95.2 93.9 92 90.6 91.9 92.5 95.6 99 99.6 102.6 104.9 105.6 106.5 106.7 105.4 103 100.8 100.4 101.6 102.5 103.1 103.7 104.3 104.8 107.2 109.4 110.2 110 109.4 108.6 108.6 108.4 109.5 112.7 114.2 112.5 116.3 117.7 114.9 113.2 113.3 112.6 114.5 117.8 121.5 121.1 119.5 119.1 117.2 116 116.8 117.8 118.4 118.3 118.2 117.6 117.3 117.2 117.2 116.7 115.8 114.8 112.7 112.3 112.4 112.5 112.5 111.5 112.3 113 111.5 108.7 109.5 110.8 111.7 110.6 108.1 107.8 106.7 105.6 105 104.8 104.7 104.6 105 103.7 102.9 102.6 102.5 102 101.6 101.3 101.8 102.1 102.3 103.1 104.2 104.4 105.5 107.8 109.6 110.5 110.9 110.4 110.6 112.3 113.4 113.7 115.3 119.5 125.2 129.4 132.6 139.3 144.9 148.2 150.7 152.7 153.8 153.9 153.5 154.3 154.2 154.3 154 154.2 155.4 156.8 157.9 159.1 160.4 160.8 161.3 162 162.4 162.5 162.1 161.7 161 160.2 159.5 158.7 157.2 154.6 147.5 131.8 123.4 114.6 110 104.9 100.6 97.3 94.1 91.9 90.1 88.5 87.7 87.5 90.2 87 85.7 86.2 86.6 85.7 84.9 85 85.6 85.5 85.3 84.9 84.9 84.9 85.5 85.5 86 86.9 86 84.6 86.4 94.4 99.1 94.9 92.3 92.6 90.4 85.1 87.7 86.3 83.7 83.1 83.3
93.8 95.4 94.4 91.2 89.8 89.4 91 94.1 94.2 94.5 94.8 92.5 92.1 92.4 93.7 96.9 99.1 100.1 103.3 107.6 106.2 107.7 105.9 104.3 101.6 100.4 100.4 101.9 103.3 103.3 104 104.6 106.1 108.3 110 111.2 111.2 110.6 109.7 109.3 109.6 110.6 112.7 114 115.6 118.8 117.8 115.9 115 114.2 115.1 117.8 122 124.2 121.8 123.4 121.9 119.7 118.5 118.2 119.1 120.4 120.4 120.3 119.6 118.9 118.3 118.2 117.2 116.7 116.3 114.3 114.2 114.9 115 114.2 112.6 114.1 113.9 112.5 110.8 111.1 112.2 112.5 112.8 111.5 111.2 108.5 106.5 106.3 105.5 105 105 104.5 103.8 103.4 102.9 102.8 102.4 102 101.7 101.5 101.8 102 102.4 103.2 104.1 105.2 106.6 108.2 109.5 110 109.5 110.3 111.6 112.6 113.6 115.5 120 124.7 129.5 133.4 141 145.3 148.5 151.1 152.3 152.3 152.6 152.9 153.4 153.5 154.3 155.1 155.3 156.6 158.4 160 160.9 161.9 162.5 163.2 163.8 164.5 164.1 163.6 163 161.8 160.4 159.3 157.7 154.5 149.2 137.2 128.5 119.7 113.3 108.3 103.2 99 95.6 93.2 90.7 89.6 88.5 87.8 88.8 89.4 86.9 86.9 86 86.3 85.4 85.5 85.6 85.7 85.7 85.7 85.8 85.8 85.8 85.9 86 86.2 85.5 85.6 86.2 89.5 96.7 99.5 94.5 90.5 88.5 87.4 85.5 85.2 84 82.6 82.2 82.1
92.8 93.7 93.6 91.1 90 89.9 92.6 93 94.4 95.9 94.2 93.5 92.8 93.5 95.9 99.4 99.3 100.8 106.4 105.1 105.3 106.4 105.5 103.4 100.8 100.1 101.3 103.4 103.9 103.9 104 105.4 107.9 110.2 111.4 112.3 112.9 112.4 111 111.4 112.9 114.7 114.4 114.6 118.1 119.9 119.5 120.1 117.9 116.4 115.8 120.3 124.8 126.7 126.6 126.5 124.4 122.3 121.3 121.3 121.8 122.5 122.5 122 121.4 120.8 119.7 119.2 118.6 118 116.7 115.6 115.5 115.9 116.4 115.3 113.5 114 113 113.2 113 113.4 113.3 111.6 113.3 113.7 112.5 108.8 107.7 106.8 106.4 106 105.4 104.5 104 103.8 103.7 103.2 102.7 102.3 102 101.6 102.8 102.2 102.6 103.6 104.4 105.1 106 107.8 108.4 108.8 110.1 111.4 112.2 112.8 113.5 115.4 120.4 124.9 129.4 134.9 141 145.4 148.8 150.8 151.7 151.5 151.2 151.7 152.1 153.6 155.5 155.9 156.7 157.8 160 161.3 162.8 164 164.9 165.1 165.6 167 166 165 163.4 161.1 159.1 157.3 155.3 148.2 138.8 130.1 123.6 117.3 111.1 106.2 101.8 97.7 94.2 92.2 90.7 89.3 88.7 89.9 91.8 87.3 86.4 87.4 86.7 86.6 85.8 85.6 85.6 86.1 86.1 86.8 86.9 86.7 86.7 86.6 86.5 85.5 85.2 85.4 87.1 89.9 96.6 97.9 92.6 88.4 85.3 84.7 84 83.6 82.2 80.9 80 80.3
91 90.2 90.9 90.7 90.4 90.6 91.5 91.9 95.1 96.2 94.3 93.8 93.3 93 96.4 101.4 100.6 101.6 104.9 104.9 105 105.6 106.5 103.4 101 100.4 103 104.1 104.3 104.6 105.7 107.1 110 112.6 112.9 113.8 114 113.8 113.6 115.4 117.2 116.5 115.6 117.2 119.6 121.2 120.7 121.8 121 119.1 117.7 121.9 127.1 129.3 129.2 128.9 127 125.1 124.8 125.5 125 125.1 124.6 124 123.4 121.8 120.6 119.9 119.8 118.9 117.8 117.1 117.9 118.1 117.3 116.1 115.3 115.9 114.1 114.8 115.4 116 113.9 112.6 113.4 113.3 111.2 109.5 108.6 107.7 106.7 105.9 105.3 104.8 104.3 103.8 104 103.7 103.1 102.8 102.8 102.5 103 102.8 103.7 104.3 104.4 104.9 106 106.9 107.9 109 110.9 112.5 113 113.1 113.3 115.4 120.7 125.3 130.9 136.3 141.4 144.4 147.5 148.9 149.8 149.3 148 149.4 150.9 153.1 155 156.1 157.1 158.5 160.3 162 164.1 165.7 166.8 166.6 167.2 169.7 167.7 164.8 161.4 157.5 155.2 151.2 147.7 138 130.1 125.2 120.6 116.6 109.5 104.9 101.4 97.2 94.5 93 91.7 90.4 90.2 93.3 93.1 86.8 86.1 87 87 87 86.4 85.7 86 86.6 86.9 87.3 87.3 87.4 87.4 87 86.6 85.8 85.4 85.3 85.4 89.6 95.7 96 91 86.5 84.6 83.2 82.4 81.8 81 80.3 79.6 78.9
91.2 91.2 91.6 90.7 90.3 91.6 92.4 93.4 93.8 94.6 94.8 94.5 94.3 93 96.2 100 99.8 100.7 102.8 104.7 106.9 106.2 104.8 104.6 103.1 103.5 105.3 105 105.1 105.7 106.5 107.8 111.2 114.2 114.7 114.9 115.7 115.9 116.3 117.7 118 117.1 117.2 119.6 121 122.1 121.2 121.2 120.9 121.6 120.7 123.7 128.4 131.9 132.8 131.6 128.8 128.7 128.7 127.8 127 126.8 126.7 126.2 124.8 123.3 121.9 121.2 121 120 118.5 118.7 119.1 119.2 117.7 116.4 118 118.7 118.6 118.2 118.1 117.7 115.9 113.9 113.7 112.7 111.2 110.4 109.1 108 107.1 106.4 105.5 105 104.6 104.4 104.8 104.3 103.9 103.6 103.8 103.7 104.5 104.7 104.9 105.1 105 105 105.6 106.4 107.8 109 111.2 113 113.4 113.4 112.3 114.7 119.8 124.7 131.4 137.7 140.8 144.2 146.5 146.9 145.9 144.5 143.9 147.4 150.1 152.3 154 155.3 156.9 158.4 160.2 162.6 164.8 167.8 168.4 167.3 167.9 168.2 165.6 158.8 154.7 148.8 143.2 139.2 135.7 130.5 125.6 121.5 117.7 114.2 108.6 104.6 101.1 98.2 96.5 96.7 97.9 95.8 94.5 94.5 90.7 86.7 87.2 87.1 87.2 87.4 86.6 85.9 86.3 87 87.2 87.2 86.9 87 87.1 87.2 86.6 85.7 85.9 84.8 84.4 89.3 93.5 93.7 88.9 86.2 84.4 82.8 81.8 81.1 81.1 81.7 80.3 78.7
91.5 91.7 91.4 90.8 91 92.4 94.6 96.3 96.7 97.2 97.4 97.2 95.8 94.6 95.3 98.3 100.5 101.7 103.8 105.9 103.7 105.5 104.4 104.1 103.3 105.1 106.2 106.1 106 106.4 108.2 109.8 112.6 114.4 115.3 116.4 117.6 117.9 119.4 118.7 118.1 117.8 119.4 120.8 122.4 122.7 122.1 122.3 122.3 122.9 122.7 124.6 129.9 132.8 136.1 135.1 133.4 134.3 133.1 130.8 128.6 129 129.6 128.9 127.7 125.1 123.4 122.6 121.9 120.7 119.6 119.6 119.6 119.4 117.8 117.9 120.2 120.5 120.8 120.8 120.5 118.1 116.4 114.7 113.8 113.6 112.7 111.4 109.5 108.4 107.8 107.5 106.1 105.7 105.5 105.4 105 104.8 104.4 104.5 104.9 105 105.1 105.8 106 106.3 106.2 105.9 105.5 105.7 108 109.1 111.1 112.9 113.2 112.7 111.8 113.4 119.4 125.6 133.9 137 139.2 142 143.1 139.6 136.4 140.9 145.1 148 150.4 152.3 153.2 154.2 155.8 157.7 160.5 163 165.2 169.7 167.8 165.5 156.1 150.1 147 141.9 140.1 135.7 131.1 130 129.2 126.7 123.5 119.9 117.3 113.7 109.3 105.2 102.6 102.2 102.1 102.3 99.6 95.8 92.9 90.8 88.2 86.9 86.7 87.1 87.7 87.6 86.6 86.2 86.4 86.8 87 87.3 87 86.7 86.4 86.2 85.9 86.1 86.2 85.9 86.3 88.4 90.3 89.7 87 85.3 83.9 83 81.8 81.5 83.3 83.8 81.6 78.4
92.1 91.8 91.6 91.1 91.8 93.4 95.5 97.6 99.6 100.4 100.2 99 97.9 96.4 95.9 95.7 98.3 102.5 104.5 104.8 105.7 104.4 104 103.3 103.1 106 106.9 106.8 107 107.4 110.3 113.1 114.5 116 117.2 118.4 119.7 120.6 120.7 120 118.9 120.1 121.1 121.7 122.5 123.6 123.1 123.6 123.4 123.3 123 125.3 130.8 135.4 139 135.7 137.8 138.5 137.1 135.5 131.9 132 131.6 131.3 130.2 128.1 126.3 124.7 122.4 121.8 120.5 120.7 119.3 118.9 118.9 119.6 120.4 121 121.7 121.2 120.7 118 116.8 117.2 116.6 115.8 115.3 113.7 111.9 110.8 109.4 108.7 107.6 106.6 106.6 106.2 105.7 105.2 105.1 105.6 105.6 105.5 105.8 106.4 107.3 107.7 108.6 107.5 106.3 106.1 107.1 108.6 110.2 111.4 112.4 111.7 111.2 113.2 120.3 128.2 136.9 134.5 133.5 133.8 132.9 133.2 141.1 146.4 150.6 152.1 152.2 152.6 153.5 154.3 156.4 158.5 160.6 161.6 162.8 162.4 155.5 142.1 137.9 135.9 134.5 133.1 130.9 128.4 126.5 125.5 124.8 123.8 121.9 119.3 117.3 113.3 111.1 107.4 106.7 104.6 100.9 98 95.3 93.8 91.9 90 88.3 87.3 88.4 88.8 88.2 87.9 86.6 86.4 86.4 86.5 86.9 87.1 87.2 86.8 86.5 85.8 85.6 85.9 86.2 86.3 87.6 87.7 87.8 86.8 86.2 85.1 84.7 84.9 84.4 83.5 84 83.2 80.6 78.1
92.5 92.3 92.1 92.1 93 93.7 95.9 98 99.4 100 100.1 100.3 99.8 99.1 97.2 96.4 96.2 101.2 98.9 101.1 101.7 102.8 102.7 103.1 104.4 106.4 107.7 108.2 108.6 108.6 112.4 115.5 116.1 117.2 118.2 119.9 121.3 122 121.3 120.5 119.8 120.9 122.1 122.5 123.6 125.7 125.5 124 124.2 123.9 123.7 127 132.6 136.2 138.4 141.4 142.6 142.4 141.2 139.9 136.8 134.3 133.6 133.1 131.8 130.5 128.9 126.8 125.2 123.4 121.8 121.9 120.8 120.7 120.9 120.1 121.2 121.4 121.2 121.2 120.8 119.5 120.4 121.2 120.8 120.2 119.5 117.5 115.1 114 111.9 110.4 109.5 108.9 107.4 106.9 106.4 105.9 105.8 106.2 106.1 106.4 107.2 106.9 108 109.5 110.4 110.1 108.3 107 106.8 108 109.2 110.6 111.2 110.5 110.5 115 120.3 126.5 131.2 130.8 131.5 126.9 129.1 137 146.1 150.2 152.9 153.5 154 152.4 152.8 152.6 154.2 157.3 157.8 153.9 149.1 135.8 131.5 126.9 127.6 128.1 128.4 128.5 126.5 124.6 123 122.3 122 120.6 119 118 116.7 114.9 111.4 108.6 107.7 103.4 99.9 97.5 95.7 94.3 92.5 90.3 88.5 87.3 89.3 88 88 87.7 86.7 86.7 86.6 86.5 86.6 87 87.2 86.8 86.5 85.9 85.7 86 86 86.2 87.8 88.1 87.2 86.6 86.5 85.4 85.4 85.6 84.8 83.1 81.4 80.3 78.9 77.9
93.5 93.3 92.7 92.7 94.5 94.7 96.4 98.1 99.1 99.8 101.3 103.2 102.7 102.6 102 99.4 97.8 97.3 98.4 99.1 100 101.6 104 104.5 105.5 107.5 108.9 108.8 109.4 110.3 114 116.8 117.4 118.6 119.5 121.4 123.3 122.9 121.9 120 121 122.9 123.5 124.5 125.7 127.1 127.6 125.7 125.2 125 125.9 129.3 133.2 135.4 143.4 146.2 146.9 147.6 146.6 144.6 141.5 139.2 137.1 135.4 133.2 131.8 129.5 127.6 127.3 125.3 124.8 123.2 122.4 122.2 121.8 121.2 121.5 123 123.6 123.2 121.7 121.3 123.1 124.2 124.3 123.7 122.3 120.1 118.5 116.7 114.4 112.6 111.5 110 108.2 107.6 107.1 106.6 106.3 106.6 106.7 107.5 108.3 107.7 108.7 110.2 111.1 111.6 111.1 109.6 108 107.9 109.4 110 110.2 109.8 111.1 115.9 118.8 122.2 124.2 126.4 130.2 122.4 131.4 143.4 146.1 148.3 149.1 148 148 147.2 142.3 137.3 138.4 139.4 137.5 129.8 122.6 119.6 120.5 120.1 121.8 123.4 124.4 124.1 123.3 121.7 120.2 119.6 119.2 117.7 116.9 116.2 115.1 114.6 111.1 108.4 106.3 103 101.3 99.2 96.9 96.3 93.8 91.3 89.3 88.2 89.2 89.3 89 87.9 87 86.9 86.8 86.9 87 86.7 86.8 86.9 86.6 86.3 86 86 86.2 86.5 88.8 91.1 89.9 87.8 86.5 85.9 85.8 84.3 82.1 80.5 79.8 79 78.2 77.9
94.1 94 93.3 93.6 96 96.7 96.7 97.5 99.2 100.4 101.4 102.8 103.9 104.4 105.2 103.9 101.9 97.7 98.6 98.8 99.9 101.3 104.1 105.7 106 107.9 109.9 109.8 110.3 112.7 116.4 118.3 118.4 119 120.8 122.8 124.6 123.3 122.2 120.7 123.1 125 126.6 127.6 127.5 128.8 127.5 126.6 126.2 126.7 128.8 131.6 134.6 141.3 149.2 151.8 152.3 153.3 151.9 148.7 145.5 143.5 141.1 138.9 136.1 133.2 131.2 127.6 129.5 129.4 128.2 126.1 124.1 123.4 122.9 122.4 124.3 127.1 127.3 124.8 122.9 123 124.2 125.2 125.9 125.9 124.8 123.2 121.9 119.2 117.3 115.1 112.6 110.7 109.2 108.3 107.6 107.5 106.8 107 107 107.5 107.9 108.3 109.1 110.8 111.7 111.9 112.7 112.3 110.2 108.6 108.6 109 109.2 109.5 112 117.3 119.5 120.1 119.9 119.1 117.7 123.2 129 131.4 132.8 135.8 136.1 130.9 130.9 132.5 126.6 125.3 125.5 125 122.1 120.7 116.4 113.7 113.4 115 116.5 118.4 120 120.7 120.3 119.3 118.2 117.3 116.5 115.7 114.9 114.1 113.4 113.1 110.9 108.5 106.3 104.6 103 101.2 98.7 97.3 95.3 92.3 90.3 89.2 90.1 89.5 89.1 87.9 87.3 87.1 87 87 87 86.7 86.4 86.5 86.9 87.1 86.6 86.4 86.4 86.4 88.8 91.3 90.8 88.1 86.6 85.3 84.9 83 81 80.5 80.3 79.3 79 78.6
94.5 94.4 95.1 95.1 96.3 97.6 98.3 99.8 100.7 101.6 102.3 103.8 104.6 105.6 106.9 107.2 106.5 106 105.1 101.8 101 102.6 101.8 106.1 106.2 108.7 110.6 111 112 115.3 118.1 118.9 119.6 119.4 120.6 124.7 125 123 122 122.9 125.5 126.9 129.1 128.3 127.5 128.2 128.3 127.7 128.4 130 132.7 138.5 142.5 150.5 156.6 157.6 158.9 159.3 156.9 153.4 149.5 146.8 144.2 141.6 138.7 135.7 133.4 132 129.1 132.5 131.5 129.5 126 123.8 123 125.9 128.5 129.9 128.9 127.1 125.6 124.6 125.6 126.3 126.7 126.9 126.8 125.6 124.4 121.6 119.9 117.6 115 111.7 110 108.9 108.3 108.4 107.8 107.4 107.5 107.8 108.4 108.9 109.6 111.3 112.8 112 113.1 114.1 113.7 112.1 110.4 109.3 108.9 109 110.5 114.4 118.2 118.6 116.2 113.6 113 115 118 116.1 116.2 118.5 118.8 116.3 118.2 121.4 120.6 121.4 120.8 120.2 119.4 116.5 113 110.5 110.4 111.6 113 114.2 116 117.6 117.3 116.6 115.8 115.2 114.7 113.9 113 112.2 111.9 111.9 110.7 108.8 108 106.2 104.6 102.1 100.9 98.6 96.3 93.8 91.3 90.3 90.4 89.8 89.3 88.2 87.4 87.5 87.4 87 87 86.7 86.7 87.1 87.5 87.5 87.2 86.9 86.7 86.6 89.2 90.1 90.8 87.9 86.5 84.9 83.9 82.1 80.5 80.5 80.5 80 79 78.6
95.2 96 97.1 97.5 95.5 99.1 100.4 101.8 103.3 103.6 104.5 105.4 107.2 107.2 108.5 109.2 108.6 107.9 107.5 106 103.2 101.8 101.8 102.3 106.8 109.6 111.2 111.9 113.8 117 119.5 119.7 120.2 121.4 122.8 125.9 125 122.8 123.5 126.2 129.2 129.1 131.2 128.9 128.3 130.7 130 131 132.4 134.5 139.3 149.8 152.5 157.9 164.8 166.3 166 164.1 160.9 158 154.2 150.7 146.7 143 139.7 137 134.4 131.3 131.8 135.5 135.5 132.1 127.3 124.7 125.9 130.3 131.4 130.8 129.3 128 127.4 126.4 126.1 126.7 126.3 126.9 126.9 126.7 125.4 123.5 121.7 119.7 116.4 112.3 110.4 109.2 108.7 109.1 108.7 108.2 108 108.4 109.1 109.6 109.9 111.6 113.9 113.5 112.7 114.6 116.2 114.9 112.9 111.3 109.3 108.9 109.4 110.7 110.1 110.9 109.9 108.4 109 108 108.2 108 107.8 109.9 110.3 109.5 114 119.2 118.7 117.8 117.5 116.9 116.5 114.3 110.9 108 107.7 109.2 110.4 111.6 113.3 114.5 114.5 114.6 113.9 113.3 112.8 112.2 111.7 111.2 111.2 111.5 110.3 109.3 109.1 107.6 105.7 103.4 102.8 100.7 97.7 94.6 92.5 91.6 90.1 89.8 89.5 88.4 87.6 87.8 87.8 87.5 87.2 87 87.3 87.7 87.8 87.6 87.6 87.4 86.9 87.1 90.1 93.8 90.9 87.5 86.1 84.6 83.1 81.5 80.5 80.5 80.5 80.4 79.5 78.5
96.1 98 99.3 100.1 100.3 101.4 102.8 104.9 105.8 106 107.2 108.3 109.3 109.6 110.7 110.6 110.5 110.3 109.4 106.8 105.4 107.3 104.9 101.3 104.7 110.7 112.7 112.7 115.3 118.2 119.6 120.8 122.1 124.2 126.6 127.1 125.3 123.8 126 128 130.8 131.5 130.5 130.2 131.7 131.8 132 133.8 136.3 138.5 148.6 158 160.1 167.2 172.3 172 169.7 167.2 164.6 162.4 158.8 154.3 147.2 143.3 140.2 137.6 134.4 129.8 129.8 135 134.7 130.8 127.1 124.7 128.4 131.7 131.5 129.9 128.2 126.9 127.2 126.5 126.3 125.3 124.6 124.7 125.4 126.3 125.7 124.4 124.1 122.3 118.4 114.2 111.2 110 109.4 109.4 109.8 109.8 108.7 108.9 109.6 109.7 109.8 110.7 111.6 112.8 113.9 115.4 113.7 113 113.9 112.7 110.8 110.3 110.6 109.5 108.7 108.3 106.5 106.5 105.2 104.5 102.4 102.1 101.6 102.5 104.3 105.7 110.8 114.7 116.7 116.8 114.8 114.3 113.8 111.2 108.8 106.2 106.1 107.4 108.6 109.3 110.3 111.4 112.1 112.7 112.3 111.6 111 110.7 110.7 110.5 110.7 111 110.1 109.3 109.7 108.5 106 105.6 104.2 101.8 98.8 95.6 93.4 91 91.1 90.1 89.6 88.6 87.7 87.7 88.1 88.4 88 87.7 88.1 88.3 88 87.5 87.1 87.2 86.8 88 91 93.4 90.4 87.3 86.1 84.8 83.6 81.7 80.4 80.4 80.6 80.5 79.3 78.6
98.4 100.6 102.4 101.4 104.2 106.5 106.5 107.8 107.6 107.1 108.8 109.5 110.7 112.2 112.8 112.5 111.9 113.9 110.8 107.9 107 108.2 108 105.3 103.4 107.1 112.9 113.3 116 119 119.9 121.6 124 126.4 128.6 127.6 125.7 126.8 128.8 131.4 132.9 131.8 131.6 131.4 132.6 132.6 133.6 136 138 145.4 154 160.5 165.8 175.5 176 174.3 171.9 171 167.7 163.7 157.6 146 139 134.5 133.5 131.7 129.2 127.4 126.9 127.9 127.8 125.9 124.5 123.6 123.6 123.2 123.3 124.1 123.9 123.1 124.2 124.6 125.3 122.6 120.6 120.1 120.1 120.9 123.5 125.1 123.9 122.4 120.4 116.8 111.9 111.1 110.5 110.3 110.8 111.3 110 109.2 109.6 109.7 109.6 109.4 110.6 111.6 112.4 113.7 111.2 110 110.3 111.7 111.6 111.4 110.5 110.5 109.5 106.7 104.8 104.2 104.3 105.2 107.9 111.1 109.9 104.4 100.7 105.1 111.3 112.2 114 114.9 114.6 113.6 112.3 110.6 107.2 105.1 105.2 106.6 107.7 108.6 108.7 109.1 110.3 111 110.7 110 109.3 109.2 109.1 109.2 110.3 110.5 109.6 109.6 110.4 109.5 107.3 106.6 105.6 103.4 100.8 97 93.9 92.7 92.3 90.8 90 88.9 87.7 87.3 88.1 88.6 88.5 88.5 88.8 88.5 88.2 88.1 87.8 87.3 87.1 87.9 91.5 93.1 90.6 87.2 85.9 85.8 84.7 82.1 80.6 80.7 80.8 80.6 78.9 78.7
101.2 103 103.7 105.5 108.2 109.7 110.1 108.7 109.3 109.7 110.2 112.1 113.7 114.3 114.6 113.7 112.7 113.9 110.8 106.7 109.3 109.5 109.8 109.3 106.5 104.3 112.4 113.9 117.3 120.3 121.3 122.7 125.9 128.4 129.7 127.5 127.3 129.2 131.7 134.3 135.2 134.9 135.5 132.8 133.4 133.1 134.3 136.9 141.2 149.5 155.3 161.9 172.9 175.7 176.3 174.7 171.1 168.8 162.6 154.4 139.8 134.4 131.6 129.8 129 129.3 129.4 129.4 129.4 127 125.9 125.4 125.3 124 123 122.1 121.1 120.9 120.9 121.3 121.6 122.3 121.7 119.9 118.1 116.7 115.5 116.2 118.5 121.3 121.7 118.9 116.1 113.5 111.1 112.5 112.1 111.2 111.6 112.5 111.3 110.1 109.7 109.9 109.8 109.5 108.6 108.5 108.6 108.2 107.9 107.5 106.6 109.1 111.1 112 110.4 108.9 106.8 105.4 104.4 106.4 106.9 109.7 113.1 113.5 112.9 110.9 102.4 101.6 111.4 109.4 112.5 113.8 114.5 113.8 112.4 110.8 106.3 104.2 106 107.9 109.1 109 107.8 107.7 108.5 109.2 108.9 108 107.6 108.7 107.8 107.7 109.9 110 109.5 109.8 110.8 110.2 109.2 108.1 106.2 104.2 101.8 98.1 94.9 93.9 92.1 91.3 90.5 89.5 88.3 87.7 88 88.4 89 88.8 89.5 89 88.5 88.7 87.9 87.4 87.4 87.9 92.1 92.1 89.5 87.1 85.8 84.5 84.3 82.5 81 81 81.1 80.9 79.4 79.1
104.8 108.5 107.5 106.9 107.8 109.2 110.8 110.7 111.3 112.3 111.9 113.7 114.8 114.8 115.6 114.6 114.4 111.1 109.3 110.9 110.7 110.9 111.9 112.3 110.6 107.8 104.9 114.5 118 122.5 123.5 124.4 127.4 130 129.2 131.1 130.8 132.6 135 136.2 138.7 139.6 137.5 134.5 134.5 135.3 136 137.9 142.2 149.7 157.7 164.1 170 171.5 170.2 166 161.1 157.2 151.4 141.7 133.9 131.9 130.9 133.8 134.3 132.4 132.4 132.8 132 129.7 128.1 126.6 126 125.2 124.6 122.6 121.1 120.3 119.9 119.9 120.3 119.9 118.8 118.6 118.5 119.1 119 115.9 114.6 115.3 114.8 113.5 112.3 113.1 116.5 117.7 117.6 115.8 113.9 111.9 111 110.9 110.5 110.2 109.8 109.3 108.7 108.4 108.2 107.9 107.4 107.4 106.8 106.6 108.2 108.3 107 105.7 104.7 107 108.2 108.5 109.1 111.8 113.5 114.5 115.1 114.7 105.5 99.9 101.4 104.1 109.8 113.6 113.8 113.6 113 111.9 109 104.7 104.7 108.1 109.7 108 106.5 105.6 106.8 107.7 107.4 105.8 105 106.6 105.2 106.4 108.9 109.7 109.3 109.8 110.8 110.8 109.8 108.5 107 104.8 102.3 99.3 95.8 93.5 92.2 91.8 91 90.1 88.5 88.1 88.2 88.5 89 89.6 89.9 89.4 88.9 88.6 88.1 88 87.8 89.1 91.8 90.9 89 86.7 85.1 83.7 82.6 81.8 81.3 81.3 81.2 81 80.5 79.9
108.1 111.2 109.5 107.4 108 109.9 111.2 112.6 113.5 114.7 114.1 114.7 115 115.5 116.1 116.1 112.7 110.9 111.4 111.9 111.8 112.3 113.8 113.8 113.2 112.2 104.5 110.7 118.4 122.3 124.3 126.8 129.8 129.8 134.4 133.6 135.2 137.9 138.1 139.1 141.4 140.5 138.5 137.3 135.6 135.6 135.5 139.3 143.6 152.5 162.7 168.5 168.3 164.1 163.6 158.5 152 147.1 140.8 135.1 133.1 137.1 138.4 138 136.5 134.8 133.9 133.9 133.3 131.9 129.7 127.7 127.5 127.2 125.9 123.4 121.5 120.3 119.8 119.4 119.7 119.3 118.6 118.9 119.9 121.9 122.6 118.2 114.6 115 116 118.7 118 119.8 121.7 122.3 121.2 119.4 118.3 116 113.3 111.7 111.3 111.1 110 109.3 109 108.9 108.5 108.4 108.1 107.7 107.9 107.4 106.2 106.2 105.8 106.4 108.8 110.4 112.4 110.5 111.1 113.5 115.6 116.6 117 116 111 100.2 99.3 100.9 106.5 113.5 114 113.8 112.1 110.5 110.2 106.2 103.6 106.2 107.2 106.4 104.6 103.7 105.2 106.4 106.5 104.2 102.7 103.9 102.4 103.9 106.9 108.1 109.1 109.8 110.7 110.9 109.8 108.5 106.8 104.8 102.1 99.2 96.3 93.8 92.4 91.9 91.1 89.7 89.2 89 88.3 88.7 89.3 89.6 89.8 89.8 89.1 88.5 88.7 88.6 88.8 89.6 91.1 90 89.1 86.4 85.6 83.4 81.9 81.2 81.4 81.4 81.3 81.1 80 80.5
110.6 110.8 108.9 109.1 110.4 113.6 113.3 114.6 115.1 116.2 116.2 115.4 115.3 115.5 116 116.4 112.7 112.1 112.8 112.4 113 114.2 115.7 116 115.7 114.9 107 106.7 119.1 121.1 123 128.1 131.2 133.1 137.3 136.7 139.9 139.7 140.7 142.4 142.9 141.7 140.7 139.5 138.3 137.6 139.9 144.4 148.5 150.5 164.3 165.8 160.4 153.2 156.8 149.8 141 136.6 135.9 136.4 141.3 142.5 142.4 139.6 138.1 137.6 136.3 134.5 133.8 132.9 131.2 130.2 129.9 128.7 126.7 124.2 122.9 121 120.2 120.1 120.4 120.4 120.4 120.1 121.8 123.8 123.9 121.6 119.7 119.6 120.8 125.9 125.5 125.7 125.7 124.4 122.7 121 119.2 117.1 115 112.7 112.8 112.7 111.2 110.4 110.6 110.1 109.3 109.7 109 108.6 108.2 107.8 107.8 107.7 111.6 114.1 114.2 114.1 114.1 112.5 113.2 116.8 119.4 119.1 117.4 115.6 111.3 105.3 99.2 98.5 102.8 108 109.6 110.5 109.9 107.8 105.7 103.4 102.4 102.7 104.1 103.6 102.6 101.9 103.3 104.4 104.2 101.4 99.5 100.5 98.6 100.2 103.4 106.5 107.8 109.1 109.6 109.8 109.1 108 106.4 104.2 101.6 98.5 93.6 93.7 92.9 91.2 90.7 89.6 89.6 89.5 88.5 88.6 89.3 89.6 90 89.8 89.6 89.5 88.9 88.8 89.4 90.5 90.1 89.6 88.9 87 85.6 83.9 82 80.8 81.6 81.5 81.4 81.1 80.3 80.8
111.3 110.4 110.6 111.8 112.4 114.3 115.1 117.1 117.9 118.4 118.1 116.7 116.1 116.2 116 113.6 112.3 113.1 114.8 113.7 114.7 115.9 117.3 118.5 117.6 116.6 113.7 105.5 111.6 120 122.5 127.2 132.6 134.3 139.1 139.3 142 143.9 145.2 145.7 144.7 144.3 143.4 142 139.4 139.7 142.4 148.4 158.5 154.6 153.5 155.3 147.7 142.7 142.3 139.3 138.8 141.7 145.4 146.9 147.3 146.8 144.8 142.5 141.6 140.2 137.5 136.4 135.6 133.9 131.8 133.5 132.6 131.2 128 126 125.6 123.9 122.4 121.2 121 120.8 122.2 123.2 123.7 125.5 125.9 125.6 125.7 127.2 127.9 127.9 127.5 126.8 126.2 124.8 123.1 121.4 119.6 117.8 115.8 113.4 114.3 114.5 112.7 112.3 112.6 112.8 112.2 111 110.2 110.1 109.8 110 113.1 115.6 117 116.4 115.4 115.9 115 113.4 116.4 121.7 121.1 119.3 117.4 115.5 112.7 108 102.2 98.6 99.4 102 104.2 105 105.2 103.3 102.8 101.8 101.2 100.8 100.6 100.3 100.1 99.8 101 101.7 100.4 98.4 95.7 95.6 94.7 96.1 99.4 103.2 106 107.9 106.6 107.8 107.6 107 106 103.8 101.1 98 93.7 93.6 92.2 91.1 90.7 90.3 90.2 89.5 89 88.6 88.9 90 89.9 89.9 89.9 89.7 89.7 89.6 89.7 90.6 90.5 89.6 89.1 88 86.7 84.6 83 81.8 81.8 81.8 81.7 81.2 80 80.8
111.5 111.4 111.4 113.1 114.7 115 116.7 118.5 118.6 118.7 118.5 116.3 115.9 115.9 115.3 113.5 112.9 114.7 115.3 114.6 115.4 117.2 118.9 119.8 119.5 118.4 116.8 107.9 108.5 119.3 122.9 129.7 134.9 137.7 140.8 143.3 146.9 149.3 150.4 149.9 147.6 147.1 146.2 144.2 140.9 142 146.1 158 165.1 149.7 144.6 143.2 143.8 149.3 141.4 140.5 146.6 150.5 151.3 151.3 151.6 149.2 147.7 145.9 144.6 142.1 139.1 137.6 135.8 134 135.7 135.3 133.9 132.3 130.2 129.6 128.9 127.8 126 123.9 122.2 122.5 124.2 124.9 125.4 126.4 127.6 128.6 129.6 129.8 129.6 128.8 127.6 127.1 126.3 125.2 123.6 121.8 120 117.5 114.9 115.3 116.6 115.8 113.5 113.9 114.6 114.6 113.5 112.5 114.2 116.9 117.4 117.4 118.6 119.3 120.2 118.5 117.1 115.4 114.7 114.1 117.9 124 121.2 119.3 117.3 115.7 113.6 110.1 106.4 101.6 98.4 98 98.9 100.7 101.2 101.3 100.9 100.4 100.1 99.8 99.5 99.3 99 98.4 97.9 97.9 96.6 94.7 93.2 92.5 92.1 92.4 95.8 100.8 102.2 101.8 102.4 100.3 104.5 104.8 105 103.2 100.5 97.6 95.2 93.1 91.8 90.6 90.5 90.2 89.9 89.3 89.5 88.6 88.6 89.8 90 89.7 88.8 89.3 89.3 89.1 89.4 89.9 91 90.9 89.7 88.8 87.4 85 83.6 82.1 81.7 82.2 82 81.3 79.4 79.8
110 112 113.6 114.2 115.2 116.5 117.5 118 118.7 118.4 117.8 117 116.1 114.8 114.5 114 115 115.1 116.2 116.2 117.3 118.7 119.9 121 121.1 120.2 118.4 114 108.9 113.2 127.3 134 137.4 139.6 143.8 150.3 157.3 159 158.1 157.2 154.9 151.6 148.7 146 144 146.6 150.1 153.9 146 144.6 150.5 150.3 148.7 146.3 142.5 149.8 156.5 156.9 154.8 154.1 151.7 150.7 150.6 148.6 145.8 143.4 140.3 136.5 136.5 138.3 137.7 135.9 134.3 133 131.4 132 131.4 130.4 126.8 125 124.1 125.2 127.5 127.8 128.3 129.5 130 130.9 131.8 131.6 130.5 128.9 128.2 127.1 126.3 125.6 124 122.2 119.1 116.9 116.9 117.7 117.5 116.7 114.8 115.8 116.7 116.2 114.5 115 118.1 121.7 123.1 122.7 123.5 123.4 122.5 120.2 118.3 116.2 113.9 115.2 121.6 125.5 121.2 119.1 117.3 115.8 114.3 112.4 109.5 106.6 101.7 97.2 97.1 97.2 98.4 99.2 98.8 99.1 99.3 98.8 98.1 98.2 97.7 96.6 95.5 94.6 93.4 92 91.6 91.2 90.6 90.3 93 97.4 98.5 98.7 99.3 99.8 100.4 101.9 103.6 102.2 99.9 97.7 94.5 92.6 91.2 90.6 90.6 90.3 89.8 88.8 88.5 88 87.9 88.4 88.1 87.1 87.1 88.3 88.6 88.4 88.3 88.8 90.6 90.5 90 89.6 87.8 86.2 83.7 82.2 82 82.7 82.4 81.5 76.5 73.6
110.4 111.2 116 115.4 116.5 116.9 117.6 118.6 118.6 118.4 117.4 116.8 116.3 115.6 115.1 115 115.7 118.7 117.9 118.9 120.1 121.4 122.1 122.5 123.5 123.1 120.1 118 109.5 108.8 131.7 139.2 141 147.2 156.2 163.8 169.1 169.7 169 168.6 164.4 158.8 152.6 148.4 145.5 146.5 149.3 146 146.4 154.9 157.6 159.9 150.9 147.3 152.7 159 161.4 159.7 158.5 156.9 153.8 150.4 148.8 146.7 144.5 142.4 139.8 138.9 141.6 141.1 139.6 136.5 134.6 133.3 133.3 134 132.2 128.7 127.9 127.4 129.3 130.7 131.1 129.5 130.8 132 133 133.5 133.4 133.2 131.5 129.8 128.7 127.2 126.4 125.7 123.8 120.8 118.5 119.2 120.4 120.8 120.2 118.6 116.6 117.4 117.6 116.6 116.8 118.5 122.4 126.2 127.2 127.2 126.6 125.5 123.9 121.3 118.6 115.7 114.3 117.9 125.2 123.7 121.3 119 117.4 115.8 114.2 113.6 112.1 110.4 104.7 98.2 96.7 96.2 95.7 96.2 96.6 96.7 97.4 97.4 96.2 95.6 95.4 94.5 93.2 92.1 91.8 91.6 91.2 91 91.3 90.6 90.6 94.6 96 97.8 101.2 100.4 99.5 101.3 102.2 101.3 99.7 94.3 93.6 92 90.8 89 86.9 85.2 82.3 80.9 81.1 80.7 79.2 78.5 85.4 84.9 84.9 87.3 87.5 86.9 86.4 87.5 88.8 89.3 90.6 88.7 87.8 87.2 85.7 84.7 83.3 83 81.6 75.4 73.7 73.2
110.5 112 113.6 116 117.4 117.9 118.5 118.7 118.4 118.4 117.3 117.3 116.7 116.2 115.9 118.4 123.4 124.7 122 121.7 123.7 125.4 125.1 125.4 126.2 125.7 123 119.9 115.6 109.8 125.6 142.2 146.1 158.8 171 178.8 183.9 186 185.7 179.9 173 165.8 156.9 148.7 147.3 152.2 157.5 160 161.8 163.9 162.6 158.3 149.4 155.5 162.3 163.2 163.2 161.7 160.4 157.4 154.3 151.9 150.2 148.3 147.3 145.7 144.1 142.3 145.8 144.1 142 139.4 136.8 135.2 133.9 132.4 130.3 131.6 132.9 134 134.9 135.4 134.6 133.7 133.3 134.3 135.1 135.3 134.7 133.8 132.3 130.4 128.8 127.3 126.5 125.6 122.4 119.8 121 123 123.3 123.3 122.5 120.9 118.6 118.2 118.3 118 120 123.7 128.2 129.7 129.9 129.9 128.9 127.3 124.9 122 117.6 115.3 116.2 119 122 122.5 120.8 118.3 116.3 114.9 113.7 113.2 112.8 111.2 105.9 98.9 96.4 95.9 95.5 95.2 94.9 94.6 95 95.2 94.6 93.7 93.2 92.5 92.3 92.6 91.8 91.3 91.4 91.6 92.7 92.4 89.8 93 96.1 98.4 103.9 102.5 98.9 100.5 101.5 100.9 98.9 95.5 93 90.6 84.8 81.6 80.4 79.5 78.9 78.6 79.8 79.8 79.1 78.6 78.1 79.2 78.2 78.3 78.5 78.5 82.5 85.1 87.3 88 88 87.9 87.6 87.6 87 85.8 83.9 81.9 74 73.2 72.5 72.9
111 113.8 116 117.4 118.4 119 119.2 119 118.8 118.2 117.5 117.3 117.1 117.8 120.8 123.7 126 126.8 126.4 124.7 128.7 129.6 128.9 128.5 129.1 128.9 127.3 121.8 119.2 111.7 120.2 141.4 151.8 175.3 189.3 198.6 202.3 198.1 191 181.6 173.9 165.7 157.1 150.6 151.7 158.8 165.1 169.3 169.9 169.8 166.5 155 156.2 162.8 165.1 165.8 166.5 164.1 161 158.1 155 153.5 151.6 150.4 149 147.8 147.1 139.7 148.8 146.7 144.3 141.5 139.1 137 135.4 133.6 136.7 136.4 137 138 138.3 138.5 137.8 136.1 135.9 136 136.5 136.2 135 134.1 132.5 130.8 129.2 127.6 126.5 123.8 121.4 122.4 124.6 126 125.9 125.9 125.2 123.7 122.2 119.6 119.3 120 122.8 127.9 132.1 132.4 132.7 132.7 131.3 128.9 125.4 122.6 116.7 116.1 116.8 117.9 119.8 121.1 120 117.5 115.3 113.8 113 112.6 112 110.1 107 102.1 97 95.7 95.5 95.2 94.7 94.5 94.2 94.1 93.7 92.7 93.2 92.7 92.5 92.3 91.9 91.7 92 93.3 93.1 92.1 89.5 92.3 95.8 97.8 102.7 101.5 98.2 98.5 99.8 99.6 92.2 94 91.1 84.6 80 80.8 81 79.4 80.5 80.2 78.9 79.4 79.2 79.1 78 77.6 78.9 78.3 78.2 78.1 77.3 80.7 83.9 85.7 86.1 86.5 86.7 88.2 87.7 86.4 83.3 75.8 73.5 74 74.2 80.1
110.6 115.6 118.1 119 119.3 119.8 119.2 119.1 118.6 118.1 118 118.2 118 121.5 124.1 126.3 127.8 128.7 128.6 128.9 131.2 131.1 130.4 131 132 132.6 132.6 126.9 120.6 112.2 117.8 141.4 167.5 192 203.4 202.7 197.2 190.4 184 176.4 170.5 164.1 156.9 152.5 160.1 166.7 175.8 176.3 175.4 172 161.4 158 164.4 165.6 168 169.9 169.3 165.9 161.4 158.1 155.1 152.8 151.3 147 146.9 147.8 147.9 142.1 149.3 148.1 145.7 143.1 141 138.2 135.7 136.3 139.3 139.7 139.8 140.1 140.3 140.3 138.6 138.5 138.2 137.8 137.7 136.7 134.9 133.2 131.5 130.2 128.8 127.3 125.3 122.2 122.8 125.4 127.7 128.3 128.8 128.8 128 126.8 125.4 123.9 120.5 121.4 124.7 129 133.2 134.5 135.6 135.6 133.5 129.7 126.1 123.5 117.9 115.4 115.1 115.3 116.1 118.1 118.1 115.6 114.1 112.7 112 111.6 111 109.4 107.2 104.2 98.5 95.9 95.6 95.3 94.7 94.4 95.1 97 96.8 96.2 95.5 95.7 95.6 94.9 94 93.8 94 93.8 93 92.2 89.6 91.1 94.7 97.2 101.4 100.7 97.5 96.5 97.6 98.1 94 90.5 86.1 83.1 80.5 80.4 80.5 80.5 80.9 83.3 83.4 82.9 82.3 81.1 78.9 78.5 78 78.1 77.6 77.5 77.5 77.1 82.3 85.2 85.5 86.7 86.4 87.4 87.7 85 79.2 74.2 73.5 72.3 80.2 80.3
112.9 114.2 119 120.8 121.1 120 119.1 119.1 118.6 118.2 119 119.3 121.3 124.4 125.7 127 128.4 128.2 128 130.1 129.5 129.5 130.4 132.4 133.6 133.5 130.8 127.4 120.8 113 125.1 156.1 181 197.8 198.3 192.6 184.5 180 175.1 169.7 165.4 160.7 159.7 161.2 165 170.6 179 179.9 177.3 167.5 161.6 167.5 168.9 169.9 171.7 174.1 171.7 166.8 161.2 158.1 155.2 152.4 151.1 149.5 148.6 145.9 146.4 147.4 150.5 149.3 146.8 144.3 141.4 138.8 136.7 138.2 140.6 140.7 140.5 140.5 140.4 140.1 140.9 140.7 140.4 140 138.6 137.7 135.2 133 130.8 129.7 128.3 126.2 123.9 124 125 127.4 129.1 129.6 130.3 129.8 129.2 128.5 127.3 126 122.9 121.9 125.1 129.2 134.5 136.5 137.5 136.8 134.6 131.5 129 127.3 123.7 118.2 115.9 117 117.4 117 117.1 115.1 112.9 111.7 110.8 110.6 109.6 107.8 105.9 103.1 98.4 96.4 95.7 96.7 97.8 99.1 102.2 107.6 102 100.6 98.6 98 97.3 96.4 95.3 94.8 94.2 93.3 92.4 91.7 89.9 90.8 93.6 95.7 98.1 98.2 96.3 94.8 94.9 92.6 90.9 87.4 82.4 80.4 81.7 81.6 81 88.2 87.4 87 86.4 85.5 84.3 83.1 82 79.7 78.9 79 78.2 78.1 77 76.7 78.4 84.3 85.7 85.7 85.9 85.6 84.7 82.4 75.4 74.3 74.1 75.1 80.2 81
117 113.5 115.1 121.4 121.4 120.6 119.4 119.3 120 120.8 121.6 124.1 126 126.3 126.5 127.5 127.5 131.8 137.6 132.2 132.1 129.2 134.1 134 135.4 135.2 135.4 130.8 116 112.9 138.9 165.8 187.5 195 188.5 182.8 180.3 174.7 169.7 166.1 166.7 165.3 165.1 166 167.6 169 171.2 173.3 169.1 164.7 171.1 172.5 173.6 173.7 174.4 174.9 172.1 166.6 161.1 157.8 155.4 153.1 152.4 151.5 150.5 149.1 149.9 150.4 150.5 149.6 147.5 144.5 141.7 140.3 138 139.7 142 142.2 142.2 141.8 141.2 142.6 143.1 142.8 141.7 140.8 139.3 137.7 135 133.1 131 129.3 127.9 124.7 126.4 127 127.2 128 129.3 130 130.6 130 129.4 128.8 127.8 126.3 123.6 122 124.6 129.7 135.5 138.5 139.2 138.3 136.3 135.2 133.1 130.6 127.1 122.4 120.4 120.5 120.3 119.5 117.4 115.4 113 111.5 110 108.8 107.5 106 104.4 101.7 98.1 97.8 100.3 103.7 105.2 103.3 104.4 108.7 101.8 101.1 100 99.2 97.7 96.6 95.5 94.5 93.5 92.7 92 91.8 89.8 89.8 91.9 93.8 94.8 94.7 93.6 92.6 92.3 90.9 87.9 82.4 81.5 81.4 81.7 83.6 88.1 88 87.8 87.7 87.4 86.9 85.8 84.8 83.9 82.8 81.4 81.2 80.3 79.4 78.9 77.3 76.6 79 83.8 84.5 84.4 84.3 82.8 79.2 75.8 75.2 73.2 80.6 81.9 82.6
121 119 115 119.2 121.1 120.8 119.7 120.9 121.6 124.1 125 125.8 126.8 127.6 127.5 129.3 139.5 148.4 150.1 143.5 140.7 137.7 135.3 135.5 135.6 137.8 137.8 129.5 115.4 115.2 147.6 168.1 187.2 187.1 179.8 177.8 176 169 168.2 167.3 167.8 168.3 170 171.7 174.4 174.6 174.7 172.1 172.5 175.1 176.2 179.8 180 176.8 174.6 173.5 171.7 166.5 160.9 157.9 155.5 154 153.4 152.8 152.1 151.8 152.5 152.6 151.3 149.4 147.5 145.3 143.8 141.6 139 141 143.4 143.8 144 143.9 143.6 144.1 144.4 144.2 142.6 140.4 138.9 136.8 134.9 132.9 130.9 129 126.6 127.2 128.5 128.7 128.7 129.3 129.8 130.3 130.8 130.2 129.6 129.1 128.6 126.9 124.4 122.4 124.7 129.3 137.7 140.8 140.4 138.9 137.1 138.5 135.3 131.9 129.5 125.6 123.9 122.1 121.3 120.4 119.5 117.2 114.5 111.7 109.2 107.9 106.7 104.8 103.8 101.3 97.8 99.1 103 105.2 106.5 106.2 105.8 108.1 102.4 102.3 102.4 101.2 98.4 96.2 94.9 93.8 92.8 91.9 91.7 91.1 89.3 89.5 90.2 91.6 91.8 92.3 91.3 90.5 89.4 87.7 84.1 82 81.2 83.9 86.6 88.4 88 87.8 87.8 87.7 87.3 87.2 87.4 86.5 85.1 83.8 83 82.5 81.8 80.8 79.8 78.6 77.6 76 78.3 83.4 83.8 82.8 81.6 79 76.9 75.3 74.1 82.5 83.2 83.1
121.7 119.2 116.3 118.8 120.5 120 120.7 122.3 123.3 124.7 124.4 124.7 127.6 128.7 130.9 143 157.7 167.3 164.5 149.8 141.9 138.6 139.9 139.1 138.2 139.1 138.7 128.4 114.9 134 151.7 169.5 180.4 176.5 172.9 172.7 172.4 166.8 168.1 170.2 171.5 178.2 189.7 182.7 183.2 180.6 178 176.4 177.4 178.8 181.6 183.3 182.7 179.5 175.3 171.8 168.6 165.7 161.2 157.9 155.9 154.9 154.3 154.1 153.8 154.4 155.2 154.6 153.7 152.2 150.5 148.4 145.2 142.4 140.1 141.6 144.4 145.7 145.5 145.2 144.8 144.8 145 144.6 142.8 140.5 138.6 136.7 134.8 132.8 130.8 128.4 127 128.3 129.5 129.4 129.3 129.7 130.3 130.9 131 130.3 129.7 129.3 128.8 126.9 124.4 123 125.5 131.9 139.9 142 139.3 138.5 138.4 138.2 134.7 131.8 129.3 127.4 125.2 123.4 121.9 121.4 120.7 118.4 115.4 112.1 108.7 107.1 105 103.6 102.1 100.6 97.7 98.4 103.3 104.9 106.2 107.3 106 106.8 105.1 101.9 110.8 102.6 98.9 95.9 94.3 93.1 92.1 91.6 91.4 91.3 89.8 88.1 89 90.2 90.5 90.5 89.9 91.3 87.6 83.7 82.7 82.7 82.1 86.7 89.1 88.7 87.9 88 88 87.6 87.3 87.2 87.3 87.1 86.2 84.9 84 83.3 82.4 81.5 79.6 78.6 78.1 77.2 76.9 80.2 79.4 81.6 79.9 77.3 76.1 75.8 73.9 83.7 83.7 83.6
120.5 118.7 119.4 120.4 120.6 120.8 123 124.9 125.7 125.5 126.5 128 128.9 130.4 140.5 156.7 176 183.5 171.6 146.3 145.9 144.7 144.3 144.4 144.1 142 140.7 132.5 123.5 137.7 155.1 167 166.2 166.4 166.1 166.6 167.3 167.9 171 175.4 183.1 200.2 195.4 190.8 189.2 186.4 183.1 179.7 181.7 183.9 185.6 185.4 183.3 180.5 176.6 171.9 166.8 163.7 161.1 158.8 156.8 156 155.2 155.4 155.3 156.2 156.7 155.8 154.6 153.5 151.6 149.5 146.6 144 141.7 141.8 144.6 146.7 146.6 146.1 144.9 144.7 144.4 143.7 142.2 140.3 138.4 136.7 134.6 132.2 130 128.9 128.5 129.7 130.1 130.3 130.5 130.7 131.4 132 131 130.4 129.8 129.3 128.4 126.8 124.4 123.6 126.5 134.4 141.8 141.1 137.6 136.7 137.2 136.6 134.4 132 130.1 128 125.8 124.5 122.8 122 121.4 119.2 115.9 112.6 108.9 105.8 103.9 102.4 100.7 99.1 98.3 98.7 103.8 105.4 105.7 107.4 106.7 106.6 107.7 101.5 104.7 105 99.4 95.7 93.6 92.5 91.8 92.1 92.7 92.1 89.9 87.8 88.4 88.9 89.2 89.3 88.7 87.6 84.3 83.4 83.3 81.8 82.3 90.3 90.2 90 89.1 88.3 87.9 87.5 87.2 87.1 87 87 86.1 85.2 84.2 83.5 82.4 81.6 79.9 79.3 78.3 77.7 76.6 77.4 78.6 77.2 78 76.4 76.2 75.3 77.6 83.1 83.9 83.9
120.9 121.5 121.2 121.6 122.2 124.1 126.6 126.8 127 126 127.8 128.8 130.2 137.9 152.6 171 180.4 178.3 173.5 158.9 153.1 147.3 147.4 148.3 147.3 144.7 145.1 136.4 133.3 128.6 130.8 149.1 154.7 158.6 161.8 163.5 166.4 170 176.8 188.4 207.6 202.9 199.3 196.1 192.3 188.2 185.2 183.9 186.9 190.2 188 185.9 183.9 180.7 177 172.4 168.5 163.9 161.7 159.8 158.3 157.5 157.1 156.7 156.3 156.3 156.7 156.2 155.1 153.4 151.7 149.9 147.1 144.6 142.6 142.6 145 146.4 146.8 145.8 144.2 143.7 143.4 142.6 141.6 139.6 137.6 135.6 133.6 131 130.8 131 130.2 130.9 131.7 131.8 132 132.7 132.4 132.3 130.9 130.4 129.7 129.1 127.9 126.3 125.4 124.7 126.8 129.9 140.7 138.7 134.9 134.9 135.8 135.6 133.6 131.6 129.7 128 126.2 124.9 123.6 122.2 121.2 119 116.1 112 108.7 105.4 103.3 101.6 100.5 99.4 98.7 100.1 105.5 105.8 105.9 108.1 107.6 107 109.1 107 106.3 105.1 99.3 94.3 92.4 92 92.8 93.8 93.8 93.1 90.6 87.3 88.1 88.2 88.3 88.3 91 85 83.1 83.3 81.8 81.4 90.2 91.6 91.2 91 91 90.6 89.8 88.8 87.7 87.1 86.9 86.7 85.8 84.8 83.7 82.9 82.1 82 81.3 81.3 79.7 78.8 75.7 76.1 76.9 77.2 77 73.8 73.4 75.8 83.5 84.2 84.4 84.4
123.1 123.4 123.6 125.4 127.8 129.2 129.2 128.5 127.8 127.9 129.8 130.3 133.5 154.3 172.5 181.3 184.1 192.4 184.3 166.6 159.3 154.8 152.8 153.7 151.2 149 148.5 144.3 144.4 146.9 151.8 127.2 142.9 153.9 160.5 164 167.6 172 185.6 211 209.9 206.9 204.2 200.2 195.1 190.4 188 189.4 191.4 192.4 188.4 185.3 182.5 179.3 175.8 172.3 168.8 165.2 163.1 161.6 160 159.2 158.6 158.2 157.8 157.3 156.3 155.7 154.7 153.1 151.4 149.8 147.6 145.4 143.2 143.6 145.4 146.6 146.3 145.1 143.7 143 142.4 141.8 140.2 138.5 136.6 134.5 132.5 133.2 133.5 132.9 132.1 131.5 132.7 133.3 133.5 134.2 133.8 132.4 130.8 130.2 129.6 128.9 128.3 127.9 127.1 126.4 128.4 133.9 137.5 135.1 132.8 133.4 134.4 134 132.8 131.4 129.9 128.2 126.9 125.4 123.8 122 120.8 118.1 115.3 111.6 107.9 105.4 102.8 103 102 100.1 98.5 101.1 105.9 106.8 105.6 106.3 108.3 108.1 108.4 102.7 97 105.2 97.6 93.7 93.1 92.8 93.1 93.7 93.8 93.4 90.8 88.2 87.1 87.5 87.7 87.6 85.4 83.3 84.4 84.3 85 87.8 91.6 91.9 91.6 90.6 91 91 90.4 89.5 88.1 87.3 87 86.5 85.5 84.3 83.6 83.3 83 83.1 82.7 83.3 82.7 80.8 78.2 77.5 75.8 75.2 76.8 78.2 76.4 82 84.2 84.9 84.9 84.9
125.1 126.4 128.2 129.8 131.2 130.7 130.1 128.2 127.9 130 131.6 132.6 143 161.8 181.6 189 195.8 203.2 196.6 180 168.2 163.3 161.2 158.7 156.8 155.7 153.8 152 150.7 150.8 154.2 136.2 133.4 154.6 163.6 168.3 171.5 177.4 202.3 214.3 212.4 210 206.6 201.8 196.3 193.9 192.9 193.8 195.5 193.9 189.5 184.8 182.2 178.3 174.1 170.8 168.4 166.8 164.8 163 162.1 161.4 161 160.1 159.2 158.2 156.4 155.4 154.3 152.8 151.2 149.3 147.3 145.4 143.4 144.9 145.8 146.6 146.1 145 144.1 143.2 142.1 140.6 138.8 137.1 135.2 134.2 134.3 134.9 134.9 134.2 133.3 132.8 133.6 134.2 134.6 134.6 134.1 133 131.7 131.2 130.7 130.1 129.1 128.4 127.8 127.4 128 130.1 132.4 132 132.1 132.4 133.4 133 132.1 130.9 129.9 128.3 127.2 125.7 124 122.1 120.4 117.8 115 110.4 108.7 106.2 104.2 104.8 104 101 99.2 102.4 105.5 105.4 105.5 105.7 107 108 107.7 103.4 96.4 100.8 96.4 93.2 92.8 93.2 93.3 93.3 93 92.4 90.6 88.1 87.5 86.1 85.8 87.4 84 83.9 84.4 84.9 86.1 89.4 91.9 91.9 91.7 91 90.9 90.9 91.3 91 90 88.2 87 86.4 85.3 84.5 84.3 84 83.9 83.4 83.2 83.7 83.5 82.9 79.8 78 78 77.9 78.6 80.6 82.7 84.4 84.6 85.2 85.7 86.1
127.4 128.9 131.7 132.9 133.3 132.3 130.6 129.4 129.3 131.5 132.2 136.7 150.7 163.1 177.9 196.6 207.4 216.9 212.7 195.3 176.6 170.6 163.9 161.2 160.8 157.8 156.5 155.9 155.1 154.6 153.9 142.2 130.2 157.9 168.6 172.5 177.2 191.8 215.4 217.3 215.2 212.5 208.8 203 198.6 198.9 197.2 196.1 195.5 194.1 191.1 186.6 181.5 177.6 176.7 173.9 170.8 168.5 166.5 164.9 164.3 163.9 163.4 162.5 161.2 159.5 157.4 155.4 154.2 153.1 151.8 149.7 147.7 146.1 145 145.9 146.6 146.9 146.6 145.7 144.8 143.9 142.6 140.6 138.4 136.7 136.1 135.8 135.9 136.3 136 135.4 134.6 134.3 134.3 135 135.4 135.3 134.9 133.8 133.2 132.3 131.3 130.3 129.3 129 127.9 127.2 126.5 128.6 130.4 131.4 131.7 131.8 132.6 132.6 132.3 131 129.7 128.4 126.9 125.1 123.3 121.4 120 116.6 114.2 111.6 108.6 106.1 105.7 107 105.3 101.5 99.5 101.8 104.6 103.2 103.4 103.7 104.2 106.6 107.3 103.1 96.9 96.8 95.6 93.1 92.5 92.7 92.8 92.4 92 90.7 89.7 87.7 87.3 87.4 89 85.9 84 82.6 85.4 86.1 88.1 90.3 91.1 91.5 91.7 91.4 91.6 91.6 91.8 91.3 90.3 89 87.4 86.8 85.5 85.5 84.6 84.4 84.2 83.7 83.6 83.9 83.2 82.6 81.2 80.6 80.6 79.5 81.5 82.7 84.4 81.7 85.3 86.4 87 87.3
127.8 130.5 133 134.5 135.2 132.6 131.2 131.2 130.7 131.9 135.6 145.9 156 167.1 186.4 204.7 222.8 234 232.3 210.3 188.7 178.1 171.1 165.3 164.1 163.8 165.2 164.5 161.8 159.1 155.7 146.6 131.3 153.7 173.9 189.2 193.3 213.5 226 224.6 220.1 216.1 211 205 204.4 203.2 201.8 199.6 196.2 193.2 189.6 184.5 181.4 178.5 178.3 174.7 172.1 170 168 167.1 167 167 167.6 167.2 163.6 160.4 158.1 156.1 154.5 153.1 152 150 148.4 147 146.4 146.9 147.6 147.4 147.1 146.4 145.5 144.5 143.1 140.4 138.3 138.6 137.8 137.4 137.3 137.6 137.3 136.7 135.8 135.6 135.5 135.8 136.2 136.1 136 135.2 134.2 133 131.7 130.6 129.6 129 128 126.5 126.9 128.7 130.1 130.9 131.2 131.5 132 132.2 131.7 130.2 128.9 127.6 126.1 124.1 122.6 121.1 119.5 116.6 114.1 111.2 108.4 107 107.2 108.1 107.1 103.5 100.3 99.3 101.1 100.8 101.8 102.4 101.9 105.2 105.6 104.2 99.5 97.4 96.3 93.3 92.7 92.3 91.9 91.7 91.6 90.5 89.2 87.9 88.1 89.4 87.4 85.2 84.2 84.1 84.4 88.1 92.6 93.9 92.7 92.4 92.2 92.4 92.3 92.2 91.9 91.2 90.5 89.6 88 87.3 87 86.2 85.2 84.5 83.8 83.8 83.9 83.6 83 82.4 82.4 82.3 81.8 81.9 82.6 84.2 85.6 87.1 86.8 87.2 87.8 88.5
128.2 129.6 132 133.4 134.6 133.8 134.8 133.4 133 134.6 143.2 154.1 169.2 183.1 198.7 220.9 237.9 251.7 245.7 222.7 195.6 185.1 178.5 172.4 167.2 168.3 169.9 168.4 165.8 164.6 161 156.7 132.3 145.6 171.1 204.5 216 228 234.2 231.1 226.3 219.2 212.6 208.5 209.7 208.5 205.4 202.5 197.4 193 188.8 184.5 181.2 179.7 177.2 174.7 172.9 171.1 169.7 170.1 170.4 170.5 170.6 168.9 166.1 162.5 159.1 156.9 155.2 153.6 151.9 150.4 149.3 148.6 147.9 147.7 147.9 147.7 146.9 146.1 145.8 144.7 142.5 140.3 141 140.9 140 139.1 138.9 138.8 138.5 137.9 137.6 136.8 136.6 137.5 137.8 137.9 137.7 136.5 134.8 133.4 131.4 130 129.3 128.3 127.5 125.8 125.8 128.3 129.8 130.4 131 131.6 131.7 131.9 131 129.5 128.1 126.5 125 123.2 121.6 119.9 118.3 115.5 112.7 110.8 108.4 107.2 107.7 108.5 108.4 105.3 101.3 99.7 99.6 100 100.8 101.3 102 106.1 104.6 107.8 103.5 100.1 96.9 95.1 93.2 92.7 91.9 91.1 91.1 90.5 89.6 88.8 88.3 90.3 84.8 84.3 84.5 83 86.9 91.5 92.7 92.1 95.8 93.3 93 93 92.7 92.5 92.1 92 92.3 89.8 88.7 88.2 88.1 87.7 86.4 85.1 84.3 84 84.3 84.2 83.6 83.1 82.9 82.8 82.9 82.5 83.6 85.2 86.7 88.2 88.3 88.7 89.3 89.5
130.4 131.9 132.2 134.1 135.9 135.7 134 135.8 136.7 141.2 148.1 159 177.6 197.5 218.9 237 254.3 266.9 258 230.1 206.8 192.1 184.7 178.8 175.1 173 172.7 171 168.4 168 168.4 161.1 134.8 146.2 178.3 204.1 228.7 240.7 239.1 235.2 228.6 221 215.6 214.9 213.2 211.2 208 202.7 196.5 193.7 190.9 187.4 183.4 180.5 178 176.2 174.5 172.6 172 172 172.6 173.6 172.8 170.6 167.5 163.9 160.8 158.7 156.6 154.5 153 151.8 151.1 150.1 148.8 148.5 148.2 147.5 146.7 145.8 145.2 144.7 144 144.6 143.8 142.6 141.6 141.1 140.4 139.5 139.5 139 138.1 138.2 138.5 138.8 139.3 139.2 138.2 137 135.1 132.3 130.3 128.7 128 127.5 126.7 123.9 124.7 127.2 128.9 130.8 132 132.4 132 131.8 130.6 129.1 127 125.1 123.5 121.9 120.3 118.7 117 115.2 113.2 111 108.6 107.7 107.5 108.7 108.2 106 103.9 102 101 100.7 100.5 100.2 101.9 105.2 103 104.7 105.6 105.4 97.9 98.3 95.5 92.9 91.7 90.9 90.9 89.9 89.6 89.9 89.5 86.1 84.8 84.6 83.3 86.3 87.8 91.9 92 88.6 90.8 95.9 94.3 93.9 94.1 93.9 93.6 93.3 91.8 90.1 89.4 90.8 91.1 90.3 88.8 87.4 86.1 85.1 85.1 85.2 84.9 84.6 84.3 83.9 84.1 83.6 84.2 86.8 88 89.2 89.6 90.3 90.8 91.6
132.8 134.5 134.8 135.2 137.2 136.5 135.3 136.1 137.5 142.1 154.8 170.9 186.8 204.7 228.3 251 267.4 275.6 275.1 244.9 216.3 199.3 191.8 184.3 177.7 172.6 170.8 161.2 149.1 160.4 169.6 165.7 135.2 151.6 185.8 215.1 239 247.4 243.5 235.8 228.9 223 220.6 218.6 215.7 212.9 209.7 206.7 203.2 200.2 197.2 192.9 188.4 182.9 180.8 178.4 176.1 174.3 174.1 174.3 175 176.5 175.2 172.2 168.6 165 161.5 159.6 157.6 155.6 154.9 154 151.9 150.8 149.7 149.6 149.3 148 146.8 145.9 145.1 145.8 146.5 146.1 145.4 144.3 143.1 142.5 141.7 140.9 140.8 140.4 139.6 139.8 140.4 140.7 140.3 139.7 138 136.4 133.5 131.1 129.4 127.8 127.2 126.3 124.8 122.8 123.5 126.8 129.6 131.6 132.3 132.9 132.3 131.8 130.1 128 125.4 123.7 122 120.4 118.8 117.2 116.1 114.9 113.1 111.2 109 108.2 107.9 108.2 108.6 107.1 106 104.5 103.4 103.5 102.4 100.4 101.4 103.4 102.5 102.8 104.5 103.2 111.3 102.5 100.1 94.9 92.8 91.6 90.8 89.8 90.1 90 90.3 85.2 84.3 83.2 86.5 87.1 88.2 91.4 94.6 88.6 88.6 95.2 95.9 95.3 95.3 95.2 95.1 94.8 92.8 91.1 93.4 93.8 94 93.2 91 89.9 89 88.8 87.8 87 88.6 88.3 87.5 86.4 85.7 84.6 84.4 87.9 89.8 90.9 91.3 91.6 92.2 93.1
135.4 136.6 137.1 138.2 138.2 136.9 136.6 137.2 139 145.1 163.3 182 201.5 217.1 237.1 254.6 271.3 280.6 279.8 252.8 222.3 204.8 194.5 184.2 175.6 168.6 163 140.6 143.6 137.8 156.1 155.9 134.6 162.4 192.5 222.3 241.6 247.7 243 236 228.9 225.6 224.1 221.6 217.8 215.4 212.5 210.2 207 203.9 200.8 196.1 190.8 186.1 182.5 179.7 177.5 176.2 176.4 176.9 178.5 180 177.6 173.5 168.7 164.9 161.8 159.9 158.1 156.4 155.8 154.8 153.1 151.7 150.8 150.5 149.9 148.7 147.5 146.3 146.2 146.4 147 147.3 146.7 145.5 144.2 143.5 142.9 142.3 141.9 141.2 141.1 141.4 141.7 141.8 141.3 140.2 138 135.2 132 130.3 128.6 127.4 126.6 125.9 124.8 122.4 122.2 127.2 131 132 132 132 131.7 130.8 128.3 125.7 124 122.2 120.5 118.9 117.5 116 115.5 114.4 112.5 110.9 109.4 108.7 108.4 108.3 108 106.4 105.8 106 107.1 105.1 102 101 102.6 104.1 102.7 103.2 108.1 108.3 105.7 114.9 108 97.1 93.9 92.5 91.8 90.1 90.4 90.7 86.3 84.6 84.8 85.6 87.3 88.4 89.5 91.4 94.5 88.6 88.6 90.1 98.4 96.7 96.2 95.9 96.8 97.9 94.6 93.2 95.6 96.6 96.7 95.9 94.6 93.4 92.2 91.1 90 88 89.1 89.6 88.5 87.9 87.9 86.2 85.4 88.3 90.8 92.2 92.8 92.8 93.7 94.5
137.1 138.3 138.6 138.4 138 137.7 137.2 138.1 140.4 147 165.7 189.7 209 227.6 248.7 262.3 275.2 285.3 281.2 265.2 235.2 213.5 197.1 186.9 173.7 165.2 154.5 143.4 154.7 141.4 136.5 135.9 142.5 175.5 201.1 220.8 239.5 243.7 240.4 234.8 231.2 228.2 225.8 222.8 222 218 216.1 214 210.9 207.2 202.8 197.7 191.3 187.5 184.3 181.2 179.2 179 179.2 179.8 181.8 182.4 179 173.3 168.7 165.2 162.2 160.4 158.6 157.1 156.4 155.5 153.5 152.1 151.3 150.9 150.1 148.8 148.3 147.6 147.9 147.7 147.5 147.7 147.7 146.5 145.3 144.4 143.7 143.3 142.9 142.7 142.3 142 142 142 140.9 138.9 136 132.9 131.1 129.4 127.6 126.7 126.1 125.5 124.6 122.5 121.1 125.1 129.9 130.9 129.8 129.3 129.2 128.6 126.4 124.4 122.6 120.8 119.1 117.7 116.3 115.4 114.8 113.4 112 110.4 109 108.1 107.9 107.8 107.5 106.1 106.5 106 105.2 102.4 101.5 102.7 104.9 106.1 103.6 103.4 107.8 112.8 110.7 106.1 115 99.7 95.7 93.1 92 91 88.4 86.3 85.6 85.5 85.3 86.8 88.1 89.3 90 91.7 95 88.4 88.6 88.6 93.9 99.6 98.4 102.7 104.1 102.5 97.6 95.1 94.6 99.2 98.8 98 96.8 95.6 94.5 93.6 91.9 89.6 90 90.7 90.1 89.6 88.9 87.2 85.9 88.5 91.1 92.8 94 94.7 95.5 97.2
138.5 140.1 140.1 139.5 139.5 139.1 138.1 138 142.2 151.1 165 183 210.9 232.4 248.7 264.2 275.8 283.5 282.9 274.2 252.3 227.8 207 192.5 176.2 165.5 147.7 154.2 168.5 174.2 167.7 166.7 179.6 187.4 199.8 224.3 237 239.4 238 235.7 232.8 230.5 227.7 225.8 223.5 221.5 220.4 218.1 214.8 210.2 205 198.2 192.1 187.9 185.1 182.5 182.3 183.4 182.9 182.8 183.4 182.8 179.4 173.2 168.5 165.8 162.8 160.9 159.1 157.8 156.8 155.6 154.2 152.9 151.9 151.2 150.3 149.2 149.1 148.8 149.6 149.4 149.1 148.9 148.6 147.6 146.6 145.6 144.8 144.2 143.7 142.9 142.1 141 140.3 139 137.5 135.5 133 131 129.4 127.4 126.2 125.4 124.7 124.3 123.8 122.4 120.2 123.2 126.4 126.2 126.6 127.2 127.2 126.9 125.2 123.1 121.3 119.5 118 116.7 115.3 114.5 113.8 112.3 111.5 110 108.6 107.3 107.4 107.5 107 106.3 106.1 105.7 103.5 102.5 104.3 106.2 106.9 109.3 104.3 103.9 107.3 111.5 114.8 107.6 104.4 107.3 96.1 93.9 92 91.3 87.9 90.7 86.3 85.2 84.3 87.4 88.6 89.7 90.3 91.9 94.8 93.7 88.6 89.2 90.5 95.9 97.6 99.4 106.2 104.4 99.4 97 96.7 101.7 100.7 99.8 98.7 97.5 96.4 95.2 93.4 91.3 92.4 91.9 91.2 90.7 89.8 88.2 87.4 89.1 91.3 93.6 95.1 96.8 98.3 99.8
140.9 142.4 141.7 141.6 140.5 140.6 139.7 140.1 144.1 155.8 178.6 199.2 218.8 234.9 248.2 260.8 272.2 280.3 290.4 294.5 271.2 242 215.6 192.5 174.3 163.9 146.9 167.9 176.7 186.2 194 200.7 199.3 206.7 220.7 232.6 236.4 239 238.6 237.3 236.1 233.7 230.6 228.7 226.6 225.3 223.7 221.7 217.7 212.3 206.1 197.3 192.9 189.1 185.7 184.4 184 185.7 188.6 186.7 184.3 182.8 179.2 174.6 170.1 166 163.2 161.7 160 158.9 157.8 156.4 155.3 154 152.9 151.8 151.2 150.1 150.3 150.4 151.2 151 150.7 150 149.2 148.6 147.8 146.8 145.8 144.6 143.6 142.3 139.8 138.9 136.9 135.4 133.7 132.2 130.8 128.6 126.9 125.7 124.8 124 123.4 122.7 122.7 121.9 119.4 120.1 122.9 124 124 124.7 125.6 125 123.3 121.6 119.9 118.1 116.8 115.5 114.5 113.7 112.8 111.4 110.8 109.4 108 106.8 106.2 107.3 106.9 105.9 105.5 105.2 103.2 105.5 107.1 108 107 109 105 104.4 107.6 111.2 113.8 109.5 104 114.8 98.2 95.6 92.6 91.2 88.5 88.9 86.9 86.3 85.7 83.4 88.7 90.1 90.9 91.9 94.3 94.1 89.9 89.4 90.2 91.1 93.9 94.7 98.3 105.8 101.2 99.3 103.5 104.3 103 101.3 100.1 99.1 98.1 96.3 94.5 93.1 94.5 93.6 92.8 92 90.8 89.3 89.4 90.5 92.9 95.9 97.2 98.9 100.6 102.2
142.8 143.8 143.7 142.7 142.3 142.4 142.5 142.8 147.1 158.9 183.9 209.5 230.6 241.9 248.7 256.8 261.8 286.5 300.7 309.8 286.4 243.4 213.9 187.6 169.9 158.5 145.8 177.4 185 192 206.6 207.1 214.9 224.4 234.6 240.4 240.4 240.4 241.3 243.4 243.8 241 236.4 231.9 229.5 228.1 226.5 223.2 218.8 213.1 205.5 198.8 194.4 190.6 187.8 187.6 188 191.9 192 188.9 185.9 182.8 178.8 173.7 169.5 167.5 165.2 163 161.8 160.5 158.9 157.8 156.4 155.2 154.1 152.8 151.8 151.2 151.8 152.2 152 151.9 151.1 150.5 149.9 149.1 148.6 147.3 146.1 144.5 142.1 139.7 136.8 134.5 133.7 132.2 131.1 130.1 128.9 126.7 125.3 124.1 124 123.6 123.1 122.6 121.7 120.2 118.6 118.3 121.3 121.8 122 122.9 123.1 123 121.3 119.8 118 116.7 115.6 114.2 113.3 112.5 111.8 111.1 109.9 108.6 107.4 106.2 105.8 106.1 106.9 105.3 104.8 104.3 104.5 107.2 108.4 108.2 107.3 107.8 105.2 105.7 107.2 109.7 113.6 112.6 109.2 109.3 97.3 97.8 93.4 91.9 89.3 88.2 87.6 86.9 86.3 85.9 89 90.2 90.3 92 93.8 95.9 91.8 89 89.7 90.6 92.1 93.8 95.9 101.8 102.5 100.7 104.7 105.7 103.8 102 101.2 100.1 99 97.3 95.8 94.7 95.8 95.2 94.5 93.5 91.6 91 91.7 93.4 95.2 97.6 99.8 101.2 103.1 104.6
145.1 145.4 146.8 145.3 143.9 144.5 144.9 146.1 149.8 161.2 188 213.9 229 237.8 239.1 239 264.7 290.9 314.1 314.3 291.2 233.6 207.2 184.6 167.5 156 157.8 182.6 192.6 197.7 205.9 214.6 223.3 232.7 241.7 243.9 242.9 242.7 244.8 249.1 249.7 245.8 240.4 235.3 231.2 229.8 228.9 225.4 219.9 213.5 205.9 201 196.8 193.3 191.6 191.8 194.4 195.7 193.2 190.6 187.7 184.4 180.7 175.7 171.5 168.4 166.5 164.9 163 161 159.8 158.6 157.1 155.7 154.5 153.5 152.4 152.2 153 153.4 152.9 152.1 151.4 150.6 150 148.9 148.1 147.1 145.4 143.5 140.7 137.9 135.4 133.4 131.7 130.3 129.5 128.5 127.1 125.5 124.5 123.7 123.4 123 122.5 122 121.1 119.6 118.1 116.9 118 119.7 120.2 120.6 120.7 120.7 119.3 117.9 116.5 115.3 114.2 113 112 111.3 110.8 110.2 109.3 108.1 106.8 105.7 105 104.5 104.9 104.5 103.7 103.3 106.5 107.8 108.9 109.3 108.8 108 107.8 107.2 108 110.3 114.1 112.7 110.1 109.1 96.8 98.9 95.2 92.6 90.2 88 88.1 87.4 86.4 84.4 88.3 90.3 89.9 92 93.7 98.6 97.2 88 88.1 89.8 91.9 93 95.9 100.9 102.4 102.3 105.9 105.7 104.9 103.3 102.1 101.1 100.1 98.3 97 96.7 96.9 96.3 95.8 94.8 92.9 93.7 94.7 96 97.4 99.3 102.1 104.2 105.7 106.3
145.9 146.3 147.9 146.9 146.3 146.7 147.7 149.1 151.4 161.6 185.6 207.3 222.3 224 219.8 240.1 270.4 298.5 316.2 313.8 275.8 230.9 201 181.7 167.8 155.1 166.7 192 201.7 207.8 207.4 214.7 226 236.4 243.1 245 244.7 244.2 246.8 251.7 252.4 248.9 243.6 238.2 233.1 230.3 228.6 225.2 220.2 214 206.9 202.5 198.7 195.8 195.4 197.9 200.2 197.7 194.8 192.3 189.6 185.6 181.7 177.7 173.8 169.3 167.4 165.4 163.6 161.8 160.1 159 157.6 156.2 155 154.3 153.5 153.7 153.6 153.7 153 151.6 150.9 150.3 149.3 148.1 147.1 145.9 144.3 142.4 140 137.6 135.2 133 131.2 129.8 128.5 127.5 126.6 125.6 124.3 123.5 122.9 122.5 121.9 121.3 120.4 119.1 117.5 116.4 116.1 117.4 118.1 118.3 118.3 118.3 117.6 116.2 115 113.8 112.8 111.7 110.9 110.4 109.8 109.2 108.3 107.4 106.2 105.1 104.3 103.9 103.6 103.4 103.1 104.4 107.1 108.4 108.6 109.3 110.1 109.1 111 108.4 107.7 110.3 114.8 113.3 110.8 109.4 110.9 96.8 98.6 93.4 90.8 88.3 88.1 87.7 86.4 84.4 88.6 91.3 90.1 91 92.8 95.8 92.2 91.7 88.8 90 91.7 92.9 95.2 100.3 103.2 102.7 106.6 106.4 105.8 104.7 103 102.1 101.1 99.3 98.2 98.4 97.9 97.3 96.9 96.1 94.9 96 97.4 98.9 100.3 101.8 103.8 105.9 107.7 108.9
147.4 148 148.1 146.7 147 148.6 149.3 150.3 154.5 162.5 184 199.6 206.7 203.8 220 245.5 274.4 300.7 312 302.9 265.2 225.2 200.2 180.7 166.5 152.5 164.5 193.2 214.4 214 214 219 229.5 239.3 242.7 244.2 244 245 250 253 253.2 250.3 244.8 239.6 234.4 230.5 227.1 223.4 219.2 213.4 207.2 204.1 200.9 198.9 199 201.7 200.9 198.5 195.7 193.1 190 186.2 182.3 179.1 174.6 169.8 168.2 166 164 162.1 160.1 158.8 158.1 156.9 156.2 155.5 155.2 155.1 154.6 153.7 152.4 150.7 150.3 149.6 149.3 148 146.2 144.7 143.4 141.7 140.1 137.7 135.7 133.7 131.8 130.5 129.3 128.1 127.2 126.2 125.2 123.8 123.2 122.8 122.1 120.6 119.6 118.9 118.3 117.2 115.7 115 116.2 115.8 115.9 116.1 115.7 114.8 113.6 112.4 111.4 110.7 110.1 109.5 109 108.4 107.3 106.3 104.5 104.2 103.8 103.6 103.4 103.3 103.7 105.5 108 108.2 108.5 108.7 108.1 108.2 109.7 107.7 108.8 109.6 114.6 115.2 112 107.2 110.3 99.4 95.7 94.4 92.8 89.1 87.9 87 86 86.1 88.8 91.9 90.3 91.3 92.8 94.1 91.2 92.1 89.2 88.3 90.8 92 93.1 99.8 103 103.2 106.8 107.8 107.4 106 103.8 102.9 102.1 100.5 99.7 99.1 98.8 98.6 98.7 97.5 97.2 99 100.6 102.2 103.6 104.9 105.5 107.2 109.3 110.7
147.1 148.6 148.9 147.8 147.2 148.7 149.8 151.3 156.3 164.6 172.7 180.5 188.9 203.6 226.5 255 282.8 302.7 304.9 279.6 249.4 224.1 201.4 183.5 167 148.6 163 193.1 216.7 215.6 216.8 221.4 233 239 241.3 242 242.6 245.5 250.2 251.6 251.8 248 244.6 239.9 234.3 229.4 225.5 222.3 218.5 213.4 208.4 204.7 202 199.7 200.6 202 200.7 198.8 196 192.8 189.5 186.4 182.8 179.4 175.6 170.8 168.4 166.8 165.3 162.7 160.8 159.1 158.9 158 157.5 156.7 156.2 155.9 155.5 153.5 151.8 150.8 149.7 149.2 149.1 147.9 146.1 144.3 142.5 140.9 139.6 138.2 136.3 134.3 132.5 131.1 129.9 128.5 127.4 126.2 125.2 124.4 123.6 122.6 121.7 120.8 120.5 120.2 119.4 117.9 116.4 114.5 113.5 113.4 112.8 113.3 113.9 113.5 112.2 111.1 110.6 110 109.4 109 108.7 108 106.8 105.7 104.7 104 103.5 103.3 103.2 103.1 104.1 105.7 107.4 107.3 107.3 107.3 106.9 106.6 108.2 109.1 110.2 110.3 112.1 115.6 112.3 106.7 110 94.8 98.7 94.8 93.2 88.9 87.7 86.9 86.8 85 85.9 91.3 89.8 92.2 92.5 94.7 93.2 89.9 89.5 87.9 90.2 92.2 92.8 98.1 102.4 103.6 107.1 107.4 107 105.7 104.3 103.5 102.7 101.8 100.5 100.6 100.4 100.1 100.3 98.6 99.6 102.1 103.6 105.1 106 107.3 108 108.7 110.9 112.3
147.4 149.8 149.8 149.1 147.8 148.6 148.7 150.9 157 165.4 179.1 185.9 197.8 213.3 238.7 265.8 289.2 296.3 279.6 258.5 230.6 213 197 178.6 158 150.3 171.5 199.8 207.4 205.8 208.6 221.3 229.1 234.2 237.3 239.4 241.8 244.4 246.6 248.1 247.5 244.5 240.8 237 232.4 228.7 223.4 219.6 215.7 210.5 208.1 204.4 201.6 200.1 200.2 200.1 199.5 197.5 194.7 192.2 188.5 185.8 183.1 180.6 176.6 172.6 169.5 167.3 165.6 163.7 161.5 160.3 160.1 159.7 158.9 158.7 158 157.2 156 153.7 150.8 149.8 149.2 148.6 148.8 147.7 146 144 142.1 140.1 138.8 137.6 136.7 135.1 133.3 131.1 129.8 128 127 125.7 124.6 123.6 122.7 122 121.1 120.7 120.3 120.6 120.2 118.3 116.3 114.6 113.3 112.1 111.1 110.2 110.6 111.6 110.9 110 109.6 109.7 109.4 109.4 108.7 107.4 106.5 105.4 104.3 103.1 102.8 102.6 102.3 102.1 103.6 105.5 106.1 106.7 106.1 105.8 105.5 105.6 106.5 107.5 110 110.8 112.4 115.8 110 107 111.6 98.5 98.8 94.8 93.5 88.8 88.1 87.4 86.8 88.6 91.5 91.1 90.4 92.2 93.2 96.7 98.8 102.9 88.8 87.9 90.6 89.3 93 95.9 102 104.1 106.7 107.3 106.1 104.2 104.9 104.1 103.3 102.5 102.2 101.9 101.9 101.7 101.6 99.9 101.7 104 106.4 106.8 108.1 109.3 110.2 110.8 112.4 114.1
147.6 150.2 150.6 149.8 149.1 150.6 153 154.4 157.6 170.9 193.1 210.2 228.8 238.1 259.3 282.6 288.5 280.2 254.7 231.9 214.4 203.8 185.8 166.6 150.6 154 170.5 178.7 185.9 191.2 206.4 220 221.6 229.3 235.9 240 242.1 242.9 242.9 243.8 243.9 241 237.2 233.3 228.5 224 219.9 214.8 211.8 208.3 205.6 202.9 201.7 199.6 198.5 197.9 196.8 194.5 192.1 190.5 188.2 185.6 183.1 180.8 177.1 174.2 171.3 168.1 166.1 164.3 162.6 161.3 161.5 161.2 161.1 160.9 159.7 158 155.9 154 150.7 148.2 147.7 147.4 147.7 147.2 145.6 143.6 141.4 139.7 137.9 136.4 135.9 134.5 132.7 130.9 128.8 127.4 126.1 124.8 123.7 122.8 121.4 120.3 119.3 118.8 118.5 118.1 118.6 117.5 116.1 114.1 113.3 112.4 111.9 111.3 110.4 109 108.1 107.4 107.8 107.9 108.8 109.2 108.6 107.1 105.4 103.8 103 102.2 101 101 101.1 100.7 102.8 104.7 105.1 105.8 104.6 104.6 104.7 105.2 105.3 106.2 107.9 110.9 113.5 114.1 106.7 107.4 108.9 98.8 98.8 95 93.6 89.5 88.2 87.6 87.1 85.9 92.1 92.2 91.8 91.8 92.9 97.5 100.1 100.5 92.5 87.6 93.1 93.8 94 96.6 101.5 105.7 106.4 106.5 106.1 105.4 105.1 104.9 104.1 103.3 103.1 103.3 103.2 103 102.4 101.8 103.4 105 107.1 108.3 109.5 110.5 111.3 113.2 114 116.1
148.7 151.4 151.5 150.9 150 151.4 153 155.5 158.2 171.1 189.7 214.7 237.7 260.4 277.6 284.8 273.5 257.7 235 215.6 203.1 192.7 176.4 155.8 160.6 175.5 183.3 198.7 200.4 209.6 222.3 229.5 235.2 237 239.9 241.2 241.5 240.8 240 240.2 240.7 237.9 234 229 223.2 219.4 215.3 211.9 209.2 206.3 203.5 200.9 199.6 197.5 195.6 194.2 193.2 192 190.7 188.8 187.2 185.5 182.5 180.5 178.4 175.8 173.3 169.8 167.1 165 163 162.5 163.5 163.4 163 162 160 157.6 154.2 152.3 149.8 146.9 145.6 145.8 146.6 146.4 144.9 142.8 140.9 139.2 137.4 135.6 134.3 133.2 131 128.9 127 126.4 125.7 124.5 122.9 122.4 122.1 121.2 120 119.4 117.7 117.1 116.4 115.8 115.1 113.6 114.8 114.1 112.9 112 110.9 109.5 109 108.4 106.6 105.3 107 108.7 107.3 105.2 103.6 102.1 101.2 101.6 100.8 100.8 99.3 100 100.9 102.8 103.5 104.6 103.3 102.9 104.1 104.8 104.8 104.7 106.1 110.6 114.7 112.9 106.1 108.2 101.6 98.2 98.9 95.3 93.1 89.4 87.9 87.1 87.2 90.4 92.8 91.6 92.4 92.7 93.3 98.5 100.1 95.8 95 90.9 94.2 96.7 93.6 95.4 101.5 105.7 105.5 104.8 105.1 105.1 105.2 105 104.7 104.4 104.7 104.8 104.8 104.1 104 103.2 104.4 105.9 107.7 109.5 110.7 111.9 113.3 114.5 115.8 117.5
150.4 153 152.7 152.7 151.5 151.4 154.3 155.9 158 170.6 193.7 216.9 242.8 266 280.1 271.3 254.6 230.8 215.4 204.5 194.7 182.5 163 153.3 167.7 184 201.4 210.8 216.9 224.7 236.6 243.1 244.4 244.1 242.8 242 241.1 239.6 236.5 235.7 236 234.1 229.1 223.9 219.3 215.9 211.9 209.7 206.5 204.1 201.9 199.2 197.2 195.5 193.7 191.5 189.8 188.8 188.3 187.5 186.5 185 183.3 181.7 179.3 177 174 171 168.1 165.2 163 164 164.4 164.3 164.1 161.4 159 156.3 152.6 149.9 147.9 145.6 143.8 144.5 144.9 144.6 143.4 141.8 139.3 138.2 136.1 134.1 132.3 131.2 129 127.4 127.3 127.5 126.4 124.9 123.7 122.8 122.1 121.3 120.4 119.7 118.7 117.8 117 116.9 116.5 117 116.8 115.5 113.6 112.2 111.4 110 109.4 108.7 107.9 106.7 104 105.3 103.6 103.3 103.2 102.9 102.8 102.5 102.1 101.5 100.6 98.3 99.8 100.7 101.8 101.3 101.4 101.5 102.7 103.7 104.8 103 104.9 109.1 114.5 112.7 106.2 107.9 99.4 99.9 99.5 96.1 91.6 88.1 87 87.7 89.4 92.1 93.5 94 93.2 93 93 94.1 96.7 96.7 90.9 90.9 90.9 100 101.8 95.8 103.8 105 103.6 103.4 104.7 105.5 106 106.1 105.8 105.7 105.7 105.8 105.4 105.3 105.2 105.1 105.7 107.3 109 110.5 111.9 113.4 114.8 115.9 116.7 118.4
153.2 153.9 153.6 152.5 152.7 152.6 154.6 155 157.1 171.3 194.4 217.7 246 267.4 270.4 250.2 234.9 216.3 201.2 194.3 188.1 173.4 153.3 172.7 184.5 187.7 203.6 213.6 222.8 231 246.1 250.9 249.4 247 244.9 243.9 243.5 240.9 237.7 233.2 230.7 228.3 225 221 217.6 213.9 210.7 207.8 205.1 203.1 202 199.5 198 195.5 194 191.9 189.6 187 184.2 184 184.2 184.4 183.8 181.8 179 176.8 174.3 171 168 165.2 163.3 164.7 165 164.2 163 161.2 158.1 154.8 151.7 149.2 146.9 145.4 143.3 143.8 143.6 142 141.2 140.2 138.4 137.1 135.2 133.5 131.5 129.9 128.6 128.5 128.7 129.6 128.5 126.9 124.9 123.4 122.2 121.3 120.2 119.4 118.9 118.6 118.1 118.6 118.7 118.5 117.8 116.6 113 111.9 111.3 110.5 109.5 108.7 107.9 106.5 104.9 104.3 104.8 104.4 103.9 103.5 103.3 102.8 102.3 101.4 100.5 99.9 98.5 99.5 98.8 98.6 98.9 100.4 101.3 103.6 103 101.7 102.5 105.1 110.4 109.6 105.3 107.8 101.2 101.3 101.9 95.8 89.4 88.4 87.1 88 90.5 93 93.8 94.2 94 93.5 93.1 94 96.5 96.7 90.9 91.3 101.4 102.8 105.3 101.1 103.3 103.5 102.8 102.9 104.6 106 106.5 107 107.1 107.1 106.4 107.1 107.4 106.8 106.7 106.6 107.2 108.5 109.9 111.4 113.2 114.8 116.2 117.3 118.6 120
155.4 154.7 153 152.5 153.1 153.5 153.9 154.9 158 172.1 193.2 218.1 242.5 253.5 251.1 230.6 213.5 197.9 191.5 186.9 182.4 166.8 158.7 179.8 190.3 199.1 207.1 215.5 227.7 243.2 254.2 254.1 252.2 249.2 247 246 245.2 242.4 239 234.5 230.1 225 222.5 219.5 216.3 212.6 210.6 210.6 208.7 206.7 204.8 201.5 199.9 198.1 195.7 192.7 191 188.5 186 182.9 181 183 183 181.1 178.9 176.6 173.8 170.8 168 165.4 162.4 163.7 164.2 162.7 161.1 159.2 157 153.6 152.4 149.9 147.7 145.6 143.5 142.7 142.9 141.6 139.5 138.2 137.2 136.2 135 133 130.7 129.5 128.9 131 130.8 131 130.4 129.1 127 124.8 123 121.5 120.3 119.2 118.6 118.4 118.7 119.2 119.7 119.7 118.8 117.8 114.1 111.8 110.5 110.4 109.8 108.8 107 105.4 104.4 105.4 106.1 105.2 104.5 104.1 103.3 102.7 102.2 101.4 100.2 99.6 99.1 98.7 97.9 98 97.6 97.2 97.9 100.1 101.4 99.8 100.9 103.1 104.5 104.3 106.3 107 103.5 105.3 102.1 95.7 87.8 87.8 88.1 88.7 91.3 93.3 93.8 92.9 93.5 93.1 93.4 94.7 96.7 100.5 94.3 102.6 103.6 103.6 105.2 104.9 103 102.4 103 103.5 104.5 106.1 107 107.3 107.4 108 107.7 107.8 108 108.5 108.2 108.2 108.7 109.7 111.1 112.7 114.4 116 117.8 119.3 120.7 122
155.4 154.4 154.3 154.8 154.9 155.4 154.7 154.9 157.7 171.6 191.1 215.5 228.9 229.8 224.8 210.7 195.7 187.8 184.2 180.7 172.1 154.8 168.6 183.7 194.4 204.6 216.7 229.3 241.5 254.9 259.5 257.8 254 251.5 248.6 246.8 245.4 242.2 237.9 234.5 230.7 225.7 221.6 218.2 215.7 215.1 215.5 215.1 214.3 211.5 208.6 204.1 201.6 199.2 196.5 193.9 191.6 189.1 186.5 184 181.6 178.5 181.3 180.2 177.9 175.2 172.5 169.4 167 164.4 161.7 159.5 159.5 159.5 157.7 156.8 155.5 153.9 151.8 150.3 149 147.2 144.8 142.4 140.8 139.4 138.2 136.6 135 133.7 132.7 131.4 131.1 130.4 131.8 132.4 132.7 132.5 131.5 130.1 128.3 126.4 124.5 122 120.6 119.3 118.6 118 118.5 119.2 120 121.1 120.6 118.9 115.9 112.5 111.5 110 109.3 108.4 106.4 105.2 106.3 107.3 107.5 105.8 104.2 104 103.2 102.8 102.2 101.6 100.8 99.3 98.7 99.2 98.9 98.5 97.7 96.6 97 96.8 97.6 98.8 98.6 101 101.6 103.9 108.6 102.9 102.7 104.4 98.7 95.3 88.8 88.8 88.4 89.2 91.5 93.3 93.8 93.4 92.4 92.6 93.8 94.7 96 92.1 93.3 107.1 107.8 105.1 104.6 102.8 104 103.5 103.3 104 104.7 105.7 106.9 107 107.1 107.6 108.2 107.7 108.3 109.1 109.9 110.6 110.4 111.2 112.5 114.2 115.8 117.8 119.7 121.4 122.4 123.3
155.3 156.1 157.7 156.2 156.5 157.2 156.7 156 158 167.6 183.2 198.4 210.5 207.1 199.4 195.1 187.9 182.4 178.4 173.8 162 159.4 178.3 186.2 199.3 213.9 229.7 247.7 259.3 262.3 262.4 259.4 255.6 253.5 251.1 247.4 244.2 240.4 236.8 233.2 229.6 225.1 222.6 220 219 219.2 219.9 219.9 218.4 216.3 214.3 211 205.9 202 198.6 195.5 192.2 189.5 186.9 184.4 182.7 181.3 175.8 174.4 173.8 171.9 168.8 166.1 163.2 161.6 160.1 157.8 156 153.5 153.1 152.4 151.6 151.4 151.6 150.3 148.4 146.6 145.5 143.1 141 138.4 136.5 135.6 134.7 133.3 132.8 132.1 132.2 132.8 132.7 133.3 133.3 132.9 132.3 131.1 129.4 127.5 125.7 123.5 121.3 119.5 118.4 117.7 118.3 119.7 121.2 122.7 122.8 120 116.4 113.5 111.4 110.1 108.8 107.8 106.5 105.5 108.1 108.8 107.5 105.7 103.8 103 103.1 102.6 102.2 101.6 100.4 100 99.9 99.8 99.5 99.1 98.7 98.3 97.5 96.5 96.6 97.4 97.1 101.3 101.1 102.1 106.8 103.6 102.2 103 98 95.6 89 89.1 89.3 90.2 91.6 93.2 93.9 93.7 93.6 92.6 94.1 95 96.7 90.9 90.9 106.9 106.3 101.6 99.6 107.7 105.3 104 103.6 104.1 104.1 104.6 105.4 105.9 106.4 106.9 107.7 108.4 109 110.3 111.2 111.5 113.9 113.3 114 116.2 117.1 119 121 123.1 124 124.9
155.5 157.2 158.7 158.8 159.3 160 159.4 158.8 158.9 161.4 175.3 194.6 198.1 192.3 190.1 186.6 181.8 177.9 173.5 165.7 157.4 173.5 181.8 187.9 202 217.4 233.4 256.4 268 268.5 264.7 261.2 258.4 257.4 255.3 249.7 245.2 240.5 236.8 232.7 229.4 227.7 225.7 223.3 222.5 222.8 224 223.4 222.2 220.1 217.7 214.5 210.2 205.2 201 197.3 193.9 190.3 187.8 185 182.3 180.7 178.8 175 171.6 169.4 169.2 168.2 166.2 163.5 160 156.9 156.8 156.1 154.6 151.2 149.9 148.6 148.8 148.2 146.2 144.5 142.8 141.5 139.5 138.3 137 136 134.8 134.5 134.5 134.6 134.3 133.4 132.7 133.2 133.2 132.5 131.8 131 129.5 127.8 126 123.9 121.9 119.7 118.6 117.7 118 119.5 121.3 122.7 123.4 120.8 117 114.1 112.1 110.1 109.2 108 106.8 105.7 109 108.9 107.4 105.2 104.4 103.4 102.4 102.1 101.5 101.9 101.3 100.6 100.5 100.5 100 99.4 98.6 98.1 97.8 97.2 96.4 96.4 96.6 100.4 98.1 95.5 100.7 103 103 101.9 98.7 96.1 89.5 88.9 89.8 90.6 91.7 93.3 94.6 95 93.2 92.5 93.8 95.3 96.1 97 90.9 91.2 92.8 95.7 109 110.1 106.2 104.2 103.5 104 103.9 104.1 104.4 104.6 105.1 105.7 106.8 108.3 108.6 110.1 111.1 112.3 115.6 115.6 116.3 117.1 118.7 120.3 122.5 124.6 125.4 126.4
156.5 158.2 160.1 160.4 162.3 166.4 163.1 162.2 161.2 161.9 177.5 193.6 192.8 186.5 184 181.5 177.7 171.8 165.8 159 163.6 177.2 182.3 190.2 200.3 214.7 232.6 252.8 266.3 270.6 268.7 266.2 265.1 264.7 261.4 255.4 249.3 244.4 239.3 234.7 231 229.8 227.9 225.9 225.4 226.5 227.9 228 226.4 224.6 221.3 216 211.4 207.2 202.7 198.7 194.7 191 188.2 185.3 182 180 178.6 176.3 175.2 174 172.5 170.4 167.5 162.8 161 160.9 160.5 158.4 155.5 152.7 150.8 150 148.2 146.3 144.6 143.3 142.6 141.6 140.2 138.7 137.2 135.9 135.9 136.4 136.8 136.5 135.9 134.9 133.7 132.8 132.8 132.1 131.4 130.8 129.5 127.9 126 123.9 121.9 119.8 118.6 117.5 117 119 120.8 122 122.4 120 116.9 114.2 112.1 110.3 109.1 108 106.9 107.3 109.2 108.9 107.5 105.3 104.3 103.2 102.5 102.2 102.3 102 101.4 100.8 100.6 100.4 99.9 99.3 98.4 97.5 97 96.5 96.2 95.9 95.8 97.2 99.6 91.5 94.6 99.8 102.7 103.2 96.8 96.2 87.5 89.4 90.2 91 91.9 93.3 94.8 95.4 95.6 93.8 92.8 94.1 96.1 97.1 94 92.6 97.4 102.1 113.9 111.7 106.7 104 103.1 103.5 103.8 103.9 103.4 103.5 103.9 104.4 105.4 107.3 108.5 112.9 111.9 111.9 113.4 115.6 116.9 118 119.7 121.6 123.4 125.9 127.3 128.4
158 158.8 160.7 162.2 164.7 171.7 168.8 166.2 165.1 164.5 177.4 181.1 181.1 181.1 179.9 177.4 171.6 165 159.8 166.4 173.6 177.8 187.8 201 211.1 221.3 236.4 259.6 271.8 275.3 274.5 273.2 273.1 271.4 265.2 258.7 252.2 245.7 240 235.8 231.1 230 228.8 228.2 227.9 229 229.9 230.5 230 228.1 223 217 212.2 207.6 203.1 198.6 195.1 191.7 188.5 185.2 182 179.7 178.3 177 176.2 175 173 168.9 164.3 165.1 166 164.7 162.9 161.8 159.9 156.3 154.2 152.7 150.9 148.9 147 144.9 143.4 142.5 141.4 139.3 138.1 138.1 138.6 139 138.8 138.1 137.8 136 134.5 133.9 132.1 131.7 131 130.2 129 127.2 125 123.4 121.9 119.8 118.5 117 116.8 118.4 120.2 121.2 121.1 119.5 117.2 114.8 112.1 110.4 109 107.7 107.2 108.1 110.5 109.5 107.6 105.8 104.3 103.7 102.9 102.3 102.1 102.1 101.5 100.9 100.6 100.1 99.7 99.2 97.8 98 97.5 96.8 96 95 95.4 95.5 98.5 91.7 91.5 91.5 99.7 105.4 97.2 96.5 89.6 89 90.2 90.8 92 93.5 95 95.4 95.8 95 93.7 93.8 96 97.6 99.5 99.9 112.9 113.7 112.2 112.3 108.7 104.7 103.1 103.4 103.7 103.8 103.8 103.1 103.5 103.9 105 106.3 107.9 108.5 109.9 112.2 112.9 113.2 116.4 120.1 120.2 122.7 124.5 126.7 129 130.3
159.9 160.5 160.8 163 167.7 176 172.3 169.6 167.6 166.8 167.3 172.1 175 178 177.9 174.4 165.3 159.5 163.2 168.7 173.9 183.9 197.3 210.9 219.8 228 239.9 261.3 275.7 279.2 278.2 280.1 282.1 275 266.8 258.9 252.2 245.9 239.6 235.3 230.4 229 228.7 228.6 228.8 229.6 230.1 229.8 230.2 228.6 222.9 216.8 211.6 206.8 201.7 197.6 194.1 191.3 188.2 185 181.8 179.2 177.3 176.5 175.9 173.3 167.7 167.6 170.6 169.2 168.5 167 165.4 163.8 161.6 158.6 155.9 153.9 151.9 150 148.4 147 145.2 143 141.6 139.6 139.6 140.9 141.1 141.8 141.5 140.3 139 137.8 135.5 134.4 133.2 131.8 130.1 129.3 128.4 127.2 124.8 122.4 121.1 120 118.6 116.9 115.4 115.9 117.8 119.6 120 118.6 116.3 114.6 112.3 110.2 108.9 108.2 106.8 109 111 110 108.1 105.4 104.4 103.9 103.2 102.5 102.4 102.2 101.5 100.9 100.5 99.4 99.1 98.3 98.8 98.9 98.4 97.9 96.5 95.7 95.2 94.9 96 99.9 97.2 92.6 99.2 104.7 96.7 97.6 90.5 88.3 89.8 90.2 90.6 93 94.7 95.8 96.3 96.1 95.4 93.9 95.8 100.2 101.5 105.7 110.2 112.4 110.5 110.7 110.6 106.1 103.5 103.3 103.6 103.8 103.3 103.2 103.5 103.7 104.7 105.8 107 108.1 109.9 110.9 112.7 112.9 116.5 117.8 119.7 122.6 124.5 126.9 129.2 131.1
161.5 161.7 162.5 165.1 171.3 181.6 176.1 171.4 169.6 168.1 167.5 169.2 173.2 178.9 176.9 171.8 161.7 162.4 168.8 172.2 178.5 191.4 206.9 217.2 225 231.7 242.6 258.6 269.6 274.3 275.3 279.5 284.2 275.6 265.9 257.5 251.2 245.2 238.2 232.8 230.4 229.6 228.9 228.5 227.9 228.5 228.2 227.9 227.6 225.3 220.5 215.1 209.8 204.5 200 196 192.9 189.9 187.2 184.5 181.5 179.4 177 174 171.7 169.1 172.5 174 172.9 172.4 170.1 168.4 166.9 165.1 162.4 159.5 156.6 154.4 152.2 150.3 148.7 147.5 146.6 144.4 142.2 140.1 140.7 141.6 143.3 143.8 143.6 142.1 140.8 139.2 137 135.4 134 132.3 130.1 128.4 127.4 126.3 124.7 122.4 120.9 119.6 118.5 116.2 115 114.1 115.4 117 117.9 117.3 115.2 113.8 111.8 109.7 108.4 108.1 107.5 109.6 111.1 110 108.2 106.4 105.1 104.3 103.8 103.1 102.8 101.9 101.5 101.3 100.8 100.3 99.7 99.4 99.7 99.4 99 98.7 97.3 95.9 94.7 94.8 95.1 96.3 97.5 98.6 101.2 104.2 101.1 97.4 91.7 90 90 90.3 89.6 91.4 94.5 95.7 96.7 96.6 96.9 95.9 95.7 98 101.2 104.7 108.9 111.4 109.5 109.6 112 109.4 105.1 104.1 103.6 103.8 103.3 103.3 103.4 103.6 104 105 106.4 107.2 108.4 109.6 110.9 112.7 115.4 117.3 119.6 122.1 123.8 126.6 129.4 131.7
163.3 163.3 164.8 168.6 174.6 184.9 181.3 176.7 172.5 169.4 168.7 170.2 173.6 176.4 175.5 167.7 161.1 169.7 173.1 176.6 184 193.1 206.1 211.7 220.9 229 240.8 255.3 262.2 265.8 267.1 270.3 273.9 269 260.7 254.6 248.9 243.6 236.1 233.1 232.7 232.8 230.1 229 227.6 225.7 224.8 224.2 223.3 220.4 215.1 209.7 205.3 201.1 197.2 194 191.5 188.7 186.1 183.3 181.2 179 176.5 173.3 171.9 173.6 175.5 175.2 173.9 172.5 171.2 168.8 167.6 165.5 162.5 159.5 157 154.5 152.2 150.3 148.9 147.6 146.8 144.3 143.1 142.6 141 141 142.8 144.5 144.2 143.2 142 140.2 138.8 136.3 134.5 132.9 131.2 128.8 127.1 126 124.3 123 121.8 120.8 118.3 116.1 114.1 113.8 112.8 114.4 114.9 115 114.3 113.1 111.4 109.1 108.6 108.8 108.2 109.3 110.4 109.9 109 106.8 105.5 104.6 104.2 103.4 102.7 102.2 101.8 101.6 101.1 100.5 99.9 100.1 100.1 99.7 99.4 99 98.2 97.1 96 95.1 94.7 95.2 96.3 98.1 102.1 107.1 99.4 98.2 94.2 90.5 90.5 89.6 88.6 91 93.6 95.5 96.9 97.6 97.9 96.5 96.2 98.3 101.1 104.6 108.7 111.8 109.9 110 112.1 112.7 109.1 106.1 104.7 104 103.3 103.3 103.3 103.4 104.2 105 105.8 106.5 107.1 108 110 112.3 114.9 117 119.2 121.9 124 125 128.1 131.2
165 165 166.4 171.4 178.7 188 182.6 181.4 176 171.4 169.9 172.1 174.1 176.1 172.3 161.8 164.3 171 174.8 180.5 186.2 192.7 201 209.2 217 225.7 236.2 246.2 255 257.6 258.1 260.1 262.7 259.3 253.5 248.8 244.8 239.8 235.6 235.9 236 234.9 233.3 228.8 227.6 224.8 221.1 219.8 217.5 213.9 209.5 206.2 202.9 199.8 197.7 194.3 191.4 188.4 185.2 182.7 180.6 178.1 175.7 174.1 173.8 175.5 176.8 176.3 174.5 172.5 171 169.4 167.7 165.6 162.3 159.6 157.8 155 152.5 150.4 148.9 147 146.3 145.2 146.5 146.6 144 141.3 141.9 143.7 144.3 143.4 142.4 140.5 139 137.6 135.7 133.8 132 129.8 127.7 125.8 124.3 123.1 122.3 121.1 118.7 116.3 114.3 113.9 113.2 111.6 112.2 112 111.7 111.6 110.6 109.2 109 108.6 108.8 109.4 109.6 110 109.3 107.4 106 104.8 104.1 103.6 103.4 102.8 102.3 101.9 101.4 100.6 100.4 100.4 100.1 99.7 99.4 99 98.6 97.6 96.4 95.5 93.8 94.5 94.5 95.6 98.3 102.5 98.7 96.9 96.4 90.8 90.6 91.4 91 91.1 91.8 95.6 97.1 98.6 98.7 98 96.7 97.4 101.2 104.4 109.1 112 111.7 109.6 110.6 113 112.5 111.5 108.3 106.1 105 103.9 103.5 103.5 103.7 104.6 105 105.6 106.6 107.3 108.9 111.1 113.7 116.2 118.1 120.7 123.1 123.8 126 129.8
166.3 166.3 168.4 174.3 179.8 194 185.1 182.8 178.1 175.1 172.9 174.9 176.9 179.5 164.2 161.4 169.1 174.4 178.9 183.8 191 198.2 204.8 212.9 224 238.7 249.5 252.6 253 251.8 250.2 251.4 252.7 249.5 246.2 243.7 240.8 237.6 237.6 238 238.1 236.6 234.9 230.2 226.4 223 218.9 213.5 211.9 211.7 209.6 207.1 204.5 201.4 197.9 194.5 191.7 188 185.3 183.6 181.1 179 177.1 176.2 175.3 176.6 177.1 176.2 174.6 172.9 170.8 169.1 167.5 165.3 163 160.9 157.5 155.8 153.2 150.9 148.7 148 147.4 148.2 149.8 150.4 148.7 143.6 140.4 141.2 142.1 142.6 142.4 141.4 139.5 138.2 136.6 134.5 132.4 130.6 128.3 126.3 124.6 123.2 122.6 121.8 118.9 116.7 114.6 113.3 112.7 111.2 110.9 111.9 111.5 110.2 109.4 109.7 109.4 109.1 109.6 110.1 110.7 110.1 109.3 108 106.2 105.2 104.5 103.8 103 103.2 102.9 102.1 101.5 101.1 100.8 100.6 100.2 99.8 99.4 99 98.6 97.7 96.7 95.4 94.2 93.5 93.9 94.4 95.4 97.7 93.6 96.6 95.8 89 89.6 91.6 92.2 90.2 91.2 94.8 97.7 99 99.5 98.7 98 97.4 100.8 104.2 107 108.1 108 108.3 110.2 112.8 112.6 113.7 112.3 109 106.6 105.1 103.9 104 104 104 104.8 104.8 105.6 106.5 108 110 112.4 115.3 117.1 119.6 121.7 122.8 125 128.4
167.5 167.8 168 171.6 179.6 193.9 184.4 181.1 178.7 177.2 176.3 176.3 174.5 166.8 163.1 171.2 174.4 178.9 181.8 186.5 193.4 198.1 205 217.9 233 248.8 258 256 253.1 247.9 243.7 242.5 243.2 241.4 240.3 238.7 237.9 237.4 239 240.7 240.1 238.3 236.2 233.6 230.1 226.6 223.7 221.4 218.4 215.3 212.2 208.2 205.2 201.3 197.4 194.6 192.2 188 185.5 183.6 181.4 180.1 178.8 177.5 177.3 177.6 177.3 176.2 174.4 173 171.2 169.5 167.9 165.7 163.2 160.5 158.1 156 153.4 151.8 150.7 149.7 148.9 150.3 152.5 153.7 152.4 148.2 142 139 138.7 139.5 141.4 141 139.8 138.3 136.7 134.9 132.8 130.2 128.1 126 124.3 122.9 122.8 122.3 119.2 116.7 114.2 113 111.5 110.9 111.6 112.2 111.5 110.8 110.1 109.9 109.6 109.1 110.1 111.1 111.2 110.6 109.1 107.6 105.8 105.5 105 104.6 104.2 103.6 101.8 101.1 101.3 101.5 99.2 100.6 100.2 99.9 99.5 99 98.5 97.7 94.7 94.9 95.4 94.2 93.2 92.7 93.5 94.6 92.8 96.4 94.7 92.3 91.5 92.2 91.4 90.5 91.3 93.7 98.1 99.6 99.6 100 99.3 98.1 98.4 102.9 104.1 104.7 105.5 107 110.1 113.1 112.3 112.8 112.4 110.4 107.8 105.8 104.2 104.2 104.2 104.2 104.1 104.9 105.3 105.8 107.1 108.9 111.5 114.2 116.5 118.4 120.1 122 124.4 128
168.4 168.9 168 169.6 179.9 189.8 181.7 180.5 178.7 177.9 176.3 170.7 167.3 163.3 171.8 173.2 177.4 181.1 185.5 190.8 194.6 199.3 207.6 223.8 240.7 254.8 259.2 255.9 250.8 245.5 240.4 237.4 236.3 236.7 237.2 235.9 236.8 238.5 241.1 243 242.8 240.5 238.4 236.5 233 229.7 227 224.3 221.4 218 214.7 209.9 206.1 201.5 197.4 194.8 191.3 188.7 185.9 184 182.7 181.1 179.6 178.8 178.4 177.8 177.4 176.3 174.7 173 171.3 169.7 168 165.5 163.1 160.7 158.6 156.9 155.3 153.9 152.5 151.4 150.8 152.3 154.4 156.1 154 151.2 147 142.4 139.5 137.8 138.8 139.6 138.9 137.4 136.2 134.8 132.7 130.4 128 125.7 124 122.7 122.2 122.3 120.5 117.5 114.5 112.3 111.5 111.1 112.1 112.2 111.2 111.2 110.4 110 110.1 110 110.1 111.5 111.5 110.2 108.8 107 105.8 105.6 105.4 105.3 104.8 103.5 102.7 101.9 102 101.9 101.4 100.6 99.9 99.8 99.5 99 98 97.4 96.6 96.5 96.2 95.3 93.7 93.1 92.8 93.1 93.9 93.5 92.7 91.4 92.1 93.1 91.5 90 92 94 98.2 99.5 99.9 100.5 100.5 99.2 98.6 100 102.2 104 105.1 106.7 110.7 112.6 113 112.3 110.9 110.2 109 108.2 105.9 104.4 104.3 104.1 104.4 104.6 104.8 105.3 106.3 108.3 110.9 112.5 115.1 116.8 118.4 120.6 124.2 127.4
169.4 169.9 168.7 170.4 178.8 187.7 182.3 179.3 175.6 171.3 167 164.9 165 166.1 171 177.1 178.9 184.2 187.7 191.5 195.8 200.7 210.8 227.9 245.7 253.1 252.7 249.2 245.6 241.5 237 234.8 233.9 233.6 235.1 235.5 237.2 240 243.4 245.8 245.8 243.3 241.1 239.5 235.5 231.8 229.3 226.7 223.3 219.6 214 209.6 206 201.5 197.9 194.8 192 189.6 187.1 184.6 182.9 181.3 180.2 179.7 179 177.7 177.7 176.2 175.1 173.5 171.5 169.9 167.7 165.6 163.4 161.9 159.6 158 156.8 155.9 154.4 152.9 152.5 153.6 155.7 156.9 154.4 151.7 148.9 146.3 143.3 138.9 135.9 137.1 136.8 136 135.2 133.8 131.9 130.2 127.8 125.6 123.8 122.4 121.8 121.7 120.5 118.2 114.8 113.8 112.7 113.3 113 112.1 111.3 111.4 111 110.6 110.6 110.4 110.1 111.8 110.9 109.6 108.1 106.9 106.3 106.8 106.5 106 105 103.1 102.7 102.4 102.1 102 101.4 100.8 99.1 99.8 99.1 98 97.4 97.8 97.4 97.5 97 96.3 95 94.3 93.8 93.7 92.4 92.8 92.2 93.9 94.7 95.4 94.1 92.4 91.5 91 98.4 99.7 100.5 101.2 101 99.9 100.4 100.9 103.1 103.8 104.5 105.4 109.9 111.2 112.2 112.3 110.8 110.4 109.3 108.5 107.1 105.4 104.1 103.9 104.1 104.3 104.6 105.2 106.2 108.2 110.4 111.9 114 116.2 117.5 120.1 123.8 126.2
171.6 171.8 170 171.3 178.2 183.6 180 173.3 167.4 166.5 167.8 167.2 169.8 171.2 177.3 181.4 183.3 185.6 188.7 192.2 196.1 200.4 208 222.6 239.8 246.2 244.8 241.9 239.5 237 233.6 232.9 232 232.9 234.4 236.4 238.4 241.7 245.4 248.6 248.9 247.6 245.5 242.8 237.8 233.8 231 228 224.3 219.5 214.2 209.6 206.1 201.7 198.7 195.7 192.9 190.3 187.7 184.7 183 181.6 180.5 180 179.5 178.6 178.4 177 175.8 174.6 172.6 170.8 169 166.8 164.6 162.6 161 159.8 158.6 157.6 156.1 155 154.3 155 156.7 156.6 153.9 151 148.6 146.3 143.8 141.2 137.7 134.7 134 133.7 133.3 132.1 130.7 129.6 127.5 125.7 123.9 122.3 121.2 120.9 119.3 118.2 117.1 116.4 115.2 115 113.5 112.2 111.7 111.7 111.2 110.7 110.7 111.2 110.8 111 110.2 109.3 107.9 106.5 106.6 108.3 107.5 106.6 104.7 104.4 103.2 102.7 102.3 102.1 101.4 100.7 100.3 99.9 97.6 98.4 98.6 98.6 98.5 98.4 97.7 96.7 94.9 94.7 94.8 94 95.2 98.6 99.2 100.3 98.3 98.5 95.1 92.6 88.8 93.4 99.6 100.3 101.1 101.9 101.1 100.8 100.5 100.9 103.6 104.1 103.2 104 107.8 110.4 111.3 112 110.2 109.9 108.4 107.4 106.7 105.4 104.3 104 104 104.3 104.5 104.8 106 107.7 110 112 113 115.1 116.6 118.5 121.5 124.6
173.3 172.9 171.5 171.4 177 180.4 172 167.1 169.5 171.4 172.6 173.1 172.5 175.6 180 182.9 184.7 186.9 190.8 194 197.5 200.8 206.8 211.1 228.4 236.4 238.2 237 235.1 233.1 230.9 231 231.4 232.5 235.1 238.4 241.3 243.5 246.2 250.4 252.2 252.4 250.2 244.3 238.6 234.4 230.4 226.8 222.3 217.9 214.3 209.6 206 202.1 199.2 195.8 193.2 190.7 188.1 185 183 181.5 180.9 180.1 179.2 178.7 178.1 176.8 176.1 175 173.9 172.2 170.8 168.9 166.1 164 162.5 161 159.7 158.7 157.1 156.5 156.5 156.4 157.3 155.8 153 150.3 147.8 145.5 143.3 141.1 139.1 136.8 134.2 131.6 131.6 130.6 129.7 128.5 127.4 125.6 124.2 122.8 121.9 121.4 120.7 120 119 118.1 117.2 116.1 114.3 113.3 112.3 112.2 111.5 111 110.5 111.9 112.2 112.1 110.6 109.1 108 106.9 107.6 110.4 108.8 107.1 106.3 104.7 103.9 103.3 102.8 102 101.2 100.9 100.5 99.9 99.1 99.6 99.5 99.4 99.2 98.7 97.9 96.3 96.7 95.9 96.5 99.5 104.5 103.2 103.9 105.4 98.9 100.5 96.1 92.5 90.6 91 100.7 100.8 101.7 102.3 101.3 101 100.4 100.9 102.7 103.1 102.7 102.9 105.8 110.7 111.9 111.3 109.4 108.8 107.5 106.6 106.1 104.9 104.6 104.2 104 104.2 104.5 104.7 105.3 106.3 108.5 111.3 112.3 114 115.9 117.7 120.2 123
174.7 172.7 171.8 171.7 176.3 177.2 169.2 170.1 173.5 175.6 176.8 176.5 175.8 176.3 179.1 183.5 185.5 187.7 191.2 194.9 198.2 203.1 208.2 223.2 231.2 235.2 235.3 234.2 232.1 230.3 228.8 229.3 230.8 233.3 237.6 241.8 243.6 245.7 248.6 252.7 254.2 254.5 251.2 244.9 238.4 234.6 230.8 226.2 221.6 217.9 212.2 208.7 205 200.9 199 196.1 193.3 190.1 187.6 185.2 183.2 180.5 179.4 178.1 177.5 177.7 176.6 176.6 176.4 176.7 175.8 174 172.2 170.1 168.1 166.6 164.5 162.5 161.1 158.8 158.3 158.5 158.8 157.7 156.8 154.9 152.2 149.6 147 145 143 141 139.3 137.4 135 132.3 129.8 129 128.3 127.6 126.6 125.4 124.1 123 122.3 122.1 121.7 120.7 119.6 118.4 116.7 116 114.6 113.3 112.8 112 112.2 112 111.2 112 112.5 112.3 110.6 109.1 108.1 107.5 109.6 112.6 111.1 109.1 106.9 105.3 104.3 103.8 103 101.8 101.4 101.1 100.7 100.5 99.9 100 99.9 99.8 99.4 98.9 97.7 98.1 98.4 97.7 99.7 104.3 110.7 108.4 107.2 107 105.4 101.4 96.3 92.7 93.3 93.6 101.3 101.7 101.7 102.3 101.8 101.3 100.7 100.2 101 101 101.4 102.6 104 109 109.8 110.5 109 108.1 107 106.4 105.6 105.3 104.9 104.5 104.1 104.2 104.4 104.4 104.9 105.7 107.7 109.3 111.6 112.4 114.7 115.9 118.3 121.3
174.9 175 173.9 172.6 175 170.5 170.1 175 175 177.1 178.1 178.6 178.8 178.7 180.2 180.4 185.2 189.8 192.9 195.8 200.5 205.3 213.9 226.1 233.5 236.3 235.5 232.6 230.2 228.3 227.2 228.2 230.1 235.6 242.3 244.8 246.9 249.5 252.8 259.7 259.4 258.3 253 246.2 239 235.4 231 226.4 221.9 218.3 212.7 206.6 201.5 198.8 196.2 193.2 191 188.6 187.1 184.5 182.3 180 178 176.6 175.8 175.6 175.8 176 176.3 176.6 176.2 174.6 172.3 170.6 169.3 168.4 166.7 164 161.9 159.4 159.5 160.3 160 158.2 155.5 153.3 151.8 148.8 146.1 143.9 141.5 139.8 138 135.8 134.4 133 131 128.7 127.2 126.6 125.7 124.7 123.7 122.6 122.7 122.5 122 120.7 119.5 117.8 115.5 113.8 113.9 114 113.4 113.3 113 113.3 112.4 112.8 112.6 112.5 110.7 109.3 108.2 108.5 111.5 114 112.7 110.9 108.4 106.9 105.9 105.1 104.3 103.3 102.4 101.7 100.9 100.6 100.3 100.4 100.4 100.3 99.8 98.6 98.8 99 99.3 99.6 104.2 111.8 115.9 115.8 111.5 109.1 103.6 97.5 95.6 92.9 92.6 93.4 102.1 102.2 101.7 102.2 101.6 101 100.5 100.2 100.6 100.3 100.1 101.8 103.9 106.2 108.3 109.7 109.7 109.2 110.1 106.6 106.4 106.4 105.9 105.3 104.8 104.8 104.3 104.2 104.8 105.2 106.6 108 109.8 110.9 113.2 115.7 118.3 121
176 176.1 173.9 173.9 172.6 170.5 170.8 176.9 177.3 177.3 178.6 180.1 181.4 181.7 182.5 184.3 186.2 190 194.7 198.5 203.1 207 225.5 234.1 236.1 237.8 236.1 232.7 229.5 227.1 225.6 227.3 231.2 241.3 248.9 251.5 254 257.4 261.9 266.2 265 261.5 255.1 246.1 240.5 237.1 232.5 227.2 222.6 216.4 209.6 205.7 199.4 195.5 192.9 191.1 189.5 188.3 186 184.6 182.4 179.8 177.4 175.6 174.2 173.5 173.8 174.3 174.8 175.2 175.2 173.9 171.6 169.7 168.2 167.9 166.2 163.7 161.2 159.5 159.4 159.1 158.3 156.3 154.7 152.8 150 148.1 144.8 142.6 140.3 138.9 137.5 136 134.1 132.7 131.1 128.8 126.7 125.8 124.6 123.3 122.9 122.2 121.6 120.8 120.1 119.1 117.4 115.8 114.9 115.9 115.1 114.2 114.6 112.5 112.7 113.1 113.4 114.5 113.4 111.9 110.2 109.4 108.4 109.6 113.5 115.2 114.3 112.3 110.1 108.7 107.5 106 105.7 104.7 103.5 102.2 101.4 101 100.7 100.7 101 100.7 100 100.1 100.3 100 100.2 100.4 106.2 111.3 114.8 116.7 113.3 110.1 104.2 99.7 95 93.2 92.6 94.7 103.3 102.8 102.3 101.9 101.4 100.8 100.3 100.2 100 99.7 100 100.1 100.9 104.3 106.6 107.9 110.1 110.1 108.4 107 106.3 106.7 105.5 105.5 105.3 105.5 104.7 104.3 104.8 105.1 105.8 107.2 108.3 109.8 112.3 114.8 117.4 120
174.8 173.5 173.1 172.4 170.5 171.6 170.7 176.8 179.1 178.4 180.1 182.2 183.3 184.2 185.4 186.6 188.4 189.6 195.8 200.8 205.4 213.8 229.1 237.2 240.8 240.5 237.3 233.7 229.9 226.2 225.3 226.6 234 247.7 255.8 259.7 262.9 266.6 275.8 275.1 270.4 263.8 255.9 246.3 242.3 239.3 234.5 227.8 221.9 213.9 206.6 200.6 196.2 193.2 190.7 187.8 187.2 186.8 186 184.9 182.3 179.9 177.5 175 172.5 171.3 171.5 172.3 172.7 173.1 173.7 172.8 170.8 168.4 166.7 166.4 164.9 163 161 159.9 159.7 158.9 157.3 155.1 152.7 150.8 148.8 146.4 144 141.4 139.3 138 136.6 135.3 134.1 132.8 131.3 129.9 127.7 125.6 124.6 123.5 122.5 122 120.6 119.7 119.1 118.4 118.7 116.2 116.5 116.8 116.1 114.1 113.7 113.1 112.7 113 114.3 115 114.4 112.1 109.9 109.1 109.5 111.3 115.9 116.5 115.1 113.3 111.3 109.7 108.1 107.4 106.5 105.2 104 102.7 102.1 101.8 101.5 101.2 101.1 100.8 100.5 101 101.1 101.1 101.6 102.8 104.7 107.5 112.1 106.2 105.8 109.8 103.9 98.6 95.8 94.2 93.5 94.3 102.8 102.7 101.9 101 100.9 99.8 99.8 99.9 99.2 99.1 99.5 99.7 99.9 103.1 105.5 108.3 109.6 109.3 108.7 108 105.6 105.5 105.2 104.9 105.6 105.6 105.6 104.6 104.1 104.8 105.5 106.1 107.1 108.9 111.4 113.3 116.1 118.3
175.1 175.4 173.6 172.6 173.7 172.9 170.9 176.9 179.8 180.3 181.2 183.6 184.9 186.4 187.6 189.2 191.2 193 195.8 200.8 206.8 214.6 222.7 228.7 234.2 236.9 239.1 233.3 229.9 226.1 223.2 229.1 236.2 248.3 258.6 264.7 268.4 274.4 283 280.7 271 260.4 251.2 243.9 241.1 238 232.3 224.8 217.2 208.7 202.1 196.8 193.6 190.6 187.9 183.3 182.7 183.9 183.1 183.4 182 180.1 177.7 175.2 172.5 169 168.9 169.4 169.5 170.1 172.5 172.1 170.5 167.9 166.2 165.2 163.5 161.6 159.4 158.1 159.3 157.7 155.3 152.7 150.5 148.5 146.8 145.1 143.1 140.5 138.3 136.6 135.1 134 132.8 131.6 131 130 128.1 126.1 124.3 123.3 122.9 122.2 121.6 120.9 119.7 118.2 117.2 116.7 117.4 118 116.7 114.6 114.2 113.7 114.2 113.8 114.9 115.8 114.4 112 109.9 109.2 111.1 114.8 117.5 116.1 115.1 113.6 112 110.3 109.4 108.6 106.7 105.5 104.5 103.2 102.9 102.6 102.3 102 101.7 101.4 101.5 101.7 102 102.7 104.6 105.3 104.9 106.9 111.5 102.5 100.6 101.4 102.2 98.4 97.3 95.9 93.9 93.6 93.6 97.2 101.3 100.7 100.4 99.9 99.1 99 98.9 99.2 99.1 99.3 100 102.2 104.1 105.4 108.5 108.5 107.4 106.9 106 106 105 104.9 105.1 105.4 105.5 105.3 104.9 104.8 105.2 105.8 106.5 108 109.9 111.8 114.4 116.5
177.5 176.6 177.6 175.4 173.8 173.3 172 175.8 180.2 181.4 182.8 184.9 186.2 187.5 189.2 191.8 194.2 196.3 197.3 200.9 207 212 218.6 225.3 231.6 233.4 232.7 230.8 227.1 223.2 222.1 230.7 243.1 252 261.1 268.3 272 275.8 282.8 280.2 265.3 251.4 242.7 238.6 236.4 231.7 226.2 217.8 210.1 203.3 198.9 194.7 190.9 186.4 182.1 179.2 178.7 178.6 179.2 181.2 182.6 180.5 178.1 176 173.5 169.8 166 164.7 163.9 166.8 171.3 172.1 170.6 167.6 165.8 164.6 163.7 161.6 158.6 154.3 155.7 153.6 150.6 149.6 148.4 146.9 145.2 143.5 141.4 138.9 136.5 134.9 133.4 132.4 131.1 130.1 129.4 127.7 126.7 124.4 124.1 123.6 123.1 121.1 120.7 119.5 119.9 119.2 118.5 117.6 118.8 118.4 117.3 116.2 114.6 115.4 115.3 115.7 115.8 115.6 114.1 112 109.9 110.3 114 117.6 118 115.7 114.9 114.4 113 111.6 110.8 109.9 108.6 106 104.9 103.9 103.5 103.2 102.9 102.6 102.4 102.6 102.6 103 104 107.2 111.5 110.9 107.9 108.9 107.3 103.8 101.9 101.7 101.9 98.7 97 96.7 94.9 94.4 94.3 94.7 97.2 100.5 100.1 99.1 99.2 98.6 99 99.9 99.2 99.3 99.7 100.7 101.9 103.3 106.8 108.7 108.3 108 106.5 106.3 105.4 105.2 104.5 104.5 105 105.1 104.4 104.4 105 105.5 106 107.3 109 110.8 113.1 114.9
178.5 178.3 179.5 177 175.3 173.3 173 175.8 180 182.4 184.4 186.2 187.6 188.9 190.9 194 196.9 199.8 200.7 201.1 207.8 211.8 217.5 227.3 232.6 232.3 230.8 227.9 223.7 221.1 222.1 237.5 248.3 255.1 261.9 268.4 273.9 272.1 268.8 263.3 254 242.9 235.9 232.2 229.8 224.5 218.5 212.5 207.1 200.7 196.7 192.6 186.3 181.6 182 184 181.2 175.3 176.5 178.3 182.9 181.9 179.7 177 174.6 168.2 165.7 161.9 161.1 159.7 160.2 169.4 170.1 166.6 165.1 164.2 162.8 161.4 155.2 149.4 147.6 146.1 144.4 145.2 145.4 144.7 143.4 141.9 139.7 137.3 135.3 134 133 131.9 130.8 129.5 128.7 127.6 126.2 125.2 124.2 123.5 122.7 122.5 121.9 121.5 121 119.5 118.5 118.9 119.5 118.7 117.2 115.9 115.7 116.2 117 116.4 116.7 116.3 113.8 111.5 110.2 110.1 113.6 117.2 117.1 115.5 113.9 113.7 113.7 112.6 111.3 110.4 109.4 106.8 105.7 104.8 104 103.7 103.4 103.3 103.2 103.3 103.7 104.5 107.4 111.9 116.1 114.4 112.2 111.6 106.6 106 104 102.4 102.1 99.3 98.6 97.8 97.4 95.6 96.5 94.2 92.6 98.7 99.6 98.8 98.6 98.7 98.5 100.2 99.8 99.2 99.4 99.8 99.7 100.7 104.4 106.8 107.6 108.2 106.5 105.9 105 105.1 104.3 103.7 103.8 103.9 104.3 104.6 104.6 105.1 105.6 106.5 108 109.6 110.9 113.3
179.8 179.7 180 178.3 176.9 174.1 173.7 175.4 180 182.9 185.5 187.6 189.1 190.7 193.2 196.2 199.1 203.3 205.6 205.5 205.7 210.8 212.7 221.7 229.9 233.4 231.5 227.7 222.9 219.9 221.7 239.1 245.9 249.3 254.5 261.9 265.3 262.8 255.2 248.2 243.4 235.9 230.1 226.5 223.9 219.4 214.4 208.6 203.5 197.9 194.2 188.2 183.9 184.7 185.6 185.3 184.3 178.9 173.6 182.2 185.3 183.8 178.4 169.8 166.1 167.1 172.2 171.8 170.8 168.9 163.8 157.8 155.7 154.2 156.1 157.5 152.8 150.7 149.3 148.1 147 145 143.7 143.3 141.4 140.3 139.6 139.4 137.9 136.6 135.1 133.9 132.4 131.9 130.5 129 128.2 127.8 127 126.6 124.8 124.2 123.8 123.2 122.5 121.8 120.7 119.3 118.9 120.4 120.4 119.1 117 117.6 117.2 118.2 119.7 119 117.6 116.5 114.1 112.1 111.1 110.2 112.8 116.3 116.1 115.3 114.9 113.5 112.6 113.4 112.2 112 109.4 108.3 106.9 105.9 105 104.2 103.9 103.6 103.5 104 104.5 105.9 107.8 110.7 114.1 114.3 112.8 113.1 108.6 108.3 108.6 105.4 102.7 101.1 101.2 97.8 98.6 98.2 94.9 94.5 94.1 96 97.3 97.7 98.7 99.1 98.5 99.4 100.6 100 99.1 99.2 99.5 100.7 103.3 106.1 108 108.5 106.1 105 104.6 104.5 104.1 103.6 103.7 103.8 104.2 104.7 104.2 104.7 105.2 106.1 107.2 108.7 110.5 111.9
181.5 181.4 181.2 179.6 178 175.9 175.1 173.7 179.1 181.9 184.5 187.5 190 192.3 194.5 197.4 200.7 204.8 208.1 209.5 209.5 209 211.7 214.6 219.5 227 231.9 226.2 221.4 219 218.9 228 237.3 241.4 246.5 251 253.2 249.8 241.1 237.1 233.8 228.7 225 222 218.6 215.4 211.3 206.5 201.1 195.8 189.4 186.2 186.4 187.1 185.6 183.7 179.7 176.5 173.8 175.4 174.6 170.9 170.5 173.9 175.8 177.1 178.1 177.7 175.9 172.9 169 164.6 161.2 158.5 156.4 155.3 154.7 156.7 155.5 154.3 153.2 151.9 148.5 144.7 143.2 141.1 139.2 138.4 137.4 135.3 134.8 133.8 132 131.2 129.7 129.3 129 128.4 128.3 127.1 125.1 124.4 124 123.7 122.8 121.4 120.5 121.1 121.5 121.6 121.1 119.9 118.6 118.5 120 120.6 120.6 120.9 119.1 116.1 114.5 112.5 111.7 110.7 111.8 115.1 116.6 116.7 116.4 115.6 113.8 115.8 115.3 113.6 111.1 110.2 108.4 106.9 105.7 104.6 104.4 104.1 105 105.6 106.2 106.5 107.5 109.2 112.4 114.6 114.9 113.5 115 112 108 105.1 103.6 103.6 103.4 102.3 102.1 98.2 95.9 95.2 93.6 94.8 96.5 97.2 98.4 98.8 98.1 98.3 99.6 100 99.1 98.8 99 99.6 100.3 105.2 108.9 109 106.8 105.9 104.8 104.6 104.1 103.8 103.6 104.1 104.5 104.4 103.7 104.3 104.8 105.8 106.9 107.9 109.5 110.5
