ncols 200
nrows 82
xllcorner 340000
yllcorner 760150
cellsize 50
276.4 262.3 261.6 261.8 263.9 279.1 282 285.5 288.7 292.8 297.4 303.7 311.2 320 330.8 336.8 345.7 352.6 356.2 356.7 351.8 344.1 334 323 309.3 309.7 311 311.3 317.4 325.6 334.5 338.9 341.7 343.9 345.4 338.1 348.7 352.8 359.1 370.8 383.1 394.6 406.4 417.9 428.9 438.5 448 457.3 463 468.8 479.9 484.9 489 492.9 495.8 495.2 493.7 489.7 482.9 477.8 472.9 467.6 461.4 455.4 447.9 440.4 434.6 429 423.8 417.2 411.7 404 393.8 385.9 378.2 374.3 368.3 362.8 358 357.2 355.2 346.5 337.7 329.2 318.8 308 296.3 284.8 273 262.9 255.1 246.5 252.8 248.9 254.6 257.1 233.3 233.3 233.3 233.3 252.4 271.4 287.8 300 313.2 325.6 337.7 348.2 356.6 365.8 373.8 367.1 350.3 345.5 342.1 333.1 317.2 306.1 304.2 307.1 305.8 299.5 298.4 303.8 311.8 309.3 306.5 298.4 289.8 280.3 261 241.9 231.8 224.3 234.5 243 243 240.9 236.9 232.2 226.7 221.1 217.9 216.3 218.4 216.4 208.9 203.3 196.4 195.5 194.5 193.2 193.4 193.9 202.1 212.5 214.1 214.1 213.4 211.8 207.1 197.2 190.9 190 194 198.8 205.9 210.8 216.1 221.3 227.1 232.6 236.8 240.4 245 248.4 250.7 254.3 259 265.9 272.2 276.3 280.6 285.2 291.3 296 297 295.4 292.9 290.8 288.3 286 284.6 283.6 283 282.5 281.9 280.2 278.8 277.5
257.3 258.6 261.8 271.6 280.3 281.8 284 287.4 291 296.5 302.3 308 314.6 323.7 333.4 339.1 345.9 353.6 359 360.3 357.2 349 336.9 326.4 315.3 308.4 309.4 308.9 314.2 322.4 330.1 333.1 336.3 338.4 334.5 341.1 347.7 353.1 361.8 374.6 387 399.2 412.9 424.2 435.1 444.2 451.9 460.7 465.2 470.7 476.8 480.6 482.4 483.6 485.8 487.8 488.5 487 485.1 481.1 477.9 473.9 469.6 463.6 457.3 452 447.3 442.6 437.3 429.6 421.9 412.9 403 394.9 386.9 380.9 376.2 371.5 364.4 360 357.4 350.3 339 329.5 319.4 308.3 296.1 285.5 274.9 265.6 257.8 250.4 260.4 259.9 256.3 255.7 241.5 233.3 234.1 233.3 251.8 272.5 288.1 302.3 317.3 330.3 343.4 355.4 364.8 373.2 382.6 386.6 375.1 362.4 358.1 354.2 348.8 335.3 329.4 325.2 321.5 317.6 317.1 312.8 308.2 304.6 300.3 295.3 288 279.9 271.6 253.8 237.3 220.6 224.8 234.2 236.5 233.8 228 222.4 215.9 211.3 210 206.8 201.7 197 193.7 192.5 192.3 192.8 192.7 191.9 192.6 198.8 208.3 212.8 212.7 212.7 212.4 210.9 209.1 205.7 196 201.1 202.3 204.7 209.6 214.3 219.5 224.9 230.9 235.1 239.4 244 248.8 253.6 257.9 263 267.3 271.1 275.1 278.6 283.2 289 290.5 290.7 289.7 289.3 289.8 287.2 284.3 283.7 283.3 281.8 280.3 279 277.1 275.7 274.3 272.6
257.2 265.8 275.8 281.3 284.3 285.2 286.3 289.9 297.4 304.1 309.9 315.1 321.1 329.2 336.6 341.3 347.4 354.7 359.6 362.9 361.3 353 341.5 328.1 316.8 307.6 307.8 307.6 309.5 316 324 327.8 330.8 329.7 332 340.3 347.6 353.9 365.4 379.1 391.3 404.2 418 430.3 442.3 449.4 456.2 463.5 467.8 468.1 470.5 472.4 472.9 476.7 477.1 477.1 479.6 481.3 482.7 481.8 481.4 480.8 478 473.5 468 462.6 459.2 455.1 449.6 441.3 431.7 422 410.6 400.3 391 386.4 381.6 377 371 360.9 357.9 352.8 341 328.5 318 307.4 295.9 285.4 275.3 266.5 259 251.9 261.9 257.6 254.7 253.7 254.1 241.1 221.8 243.8 252.9 273.5 289.1 303.5 319 330.9 345.5 359.1 367.3 377.4 385.4 392 392.9 382.4 371.7 365 354.1 346.6 340.2 333.3 328.5 321.6 316.6 311.2 305.7 300.6 296.6 291.8 285.4 279.2 271.2 262.8 244 230.5 214.9 217.8 219.2 221.5 217.4 212.1 206.5 202.8 199.7 196.3 193.5 190.9 189.9 190.6 189.1 190 190.5 192.6 195.4 203.1 213.1 213 212.9 212.3 211.3 208.9 208.3 205 203 205.2 206.3 210.1 214.7 219.5 224.3 229.2 234.9 239.4 244.5 249.6 254.4 259.4 264.8 268.1 271.5 275.2 279.7 286.1 295 294.8 291.6 287 284.2 281.9 281.1 280.7 281.6 281.3 280.4 277.3 275.7 273.6 271.8 270.2 268.9 267.7
256.6 273.9 280.8 286.2 287.8 288.9 290.2 294.2 303.1 311 317.4 322.7 327.7 333.7 339.5 344.4 350.7 355.9 360.3 362.8 360.9 355.3 345 331.5 317.8 308.2 306.3 306.1 305.9 309.5 317.4 321.6 325.1 321.9 331.3 339.4 346.8 356.1 370.4 384 396.3 409.9 424.4 436.9 447.6 456 462.7 467.1 468.6 465.5 464.8 463.4 461.7 463.3 465.8 466 468.7 472.2 475.8 479.2 481.8 483.8 485.2 482.4 478.3 473.9 470 465.4 459.9 450.2 439.8 429.1 417.4 406 397.1 390.1 385.1 379 371.7 362.2 355.3 348 339.5 326.5 316 305.6 295.1 286.1 276.1 267.1 260.3 254.5 256 256.1 252.4 247.7 245.5 243.1 227.9 239.4 257.1 275.5 291.4 308.8 322 334.7 348.6 361 370 377.3 382.3 386.5 389 385.3 379.1 368.2 360.2 352.5 344.8 335.7 330 321.9 313.9 306.1 300.2 296.5 292.9 287.7 282.9 276.8 269.9 259.8 251.4 240 224.8 210.9 204.8 204.5 204.8 203.2 198.9 195.6 194.1 193 190.9 188.8 187.9 187.3 187.4 189.2 190.5 191.5 198.9 205.4 210.9 213.6 212.2 211.7 210.2 209.6 207.3 206.6 207.3 208.4 211.3 215.6 220 225.2 230.3 234.2 238.4 243.1 248.5 254.5 260 264 267.5 270.8 274.2 280.5 291.4 298.4 299.4 294.8 290.2 284.9 280.2 277.5 275.7 275.7 276.8 277.3 276.4 273.7 270.8 268.9 267.3 265.4 264.2 263.8
266.7 281.4 287.1 289.5 291 292.6 295.6 300.3 309.2 317.6 324.3 329.9 334.1 338.9 343.3 347.8 352.7 357.1 360 360.4 359.2 353.6 346.7 334.9 319.1 308.4 304.8 304.7 304.7 306.9 312 317 315.6 323.8 331.7 339.3 351.2 363.6 377.3 389.1 402.8 416.3 429.5 441 451 458.6 464.6 466.2 465.8 462.3 458.8 456.9 454.4 451.2 451.3 454.1 458.9 463.3 469.4 477.2 482.8 486.9 489.4 489.1 487.1 483.4 479.1 474.7 468 457.9 444.3 432.7 420.2 409.8 401.3 391.1 383.4 374.9 368.8 360.6 350.2 340.8 333.1 323.8 313.8 303.2 293.6 284.5 275.7 268.1 262.1 257.1 255.6 255.2 251.3 241.5 239.2 232.7 226.5 249.3 269.8 287.4 300.1 314.3 325.7 337.7 349.9 359.7 369.3 376.4 380.7 382.3 384.2 379.5 373.6 365.5 358.1 350.7 340.2 332.5 324.7 316 309.1 302.5 296 290.8 287.1 283.1 279 274.4 268.2 259.3 249.1 240.9 235.3 230.2 219.6 209.2 197.5 194.8 193.1 192.4 191.6 191.3 189 187.2 185 186.1 187.3 188.6 195.7 197.5 201.8 208.4 210.4 212.4 212.7 211.4 212 210.6 210.3 209.5 210.1 211.7 215.9 221.1 225.6 230.4 234.8 239 242.3 246.2 251.3 258.4 262.6 266.5 270 275.6 283.3 294.1 302.5 304.6 298.9 293.2 286.8 280.7 275.3 271.4 270 270.1 271.4 272.6 271.7 269.7 267.5 265.9 264.4 262.7 261 260.6
281 286.6 290 292.7 294.3 298.1 301.5 310.6 318.9 324.6 331.4 336.5 339.8 342.9 346.7 350.1 353.8 357.8 359.6 359.7 357.2 351.2 343 335.6 323 309.3 303.3 302.7 304.6 306.5 308.8 311.4 316.9 325.6 332.8 344.7 359.4 372.2 385.1 397.3 409.5 421.8 433.8 444.2 452.3 458.1 461.8 462.6 459.7 456.3 452.5 448.8 446.1 443.5 440.7 442.8 449.5 456.8 464.8 473.2 480.6 486 489.9 491.7 490.7 489 486.7 480.5 473.5 461 448.2 435.4 422.4 410.6 400.5 389.1 377.5 366.6 359.6 350.2 340.5 332.7 323.5 317.5 308 300.1 290.5 283.5 275.3 267.8 263.4 259.5 255.9 252 244.5 234.7 229.6 222.4 238.8 266 280.8 293.5 305.5 317.3 327.5 339.5 349.4 358.1 366.1 372.9 376.6 376.7 375.5 371.1 365.1 359.1 351.9 344.7 334.5 328.6 320.2 314 306.3 298.4 292.6 286.8 281.9 276.5 272.6 268.4 261 252.1 245.4 242.3 241.3 237.1 230 220.7 206.6 197.2 191.2 188.8 188.8 188.5 184.6 183.5 185.1 186.2 189.6 200.8 198.8 199.3 205.2 212.5 211.6 212 213 213.5 211.6 211.3 211.6 212 213.3 215.2 219.3 223.2 228.3 232.9 237.6 242.9 246.8 252.4 257.1 260.8 264.3 268.6 274.5 284.7 294.5 300.7 303.1 298.9 290.6 283 275.8 269.5 266.1 266.3 266.3 266.9 267.7 268.2 267.2 266.2 264.6 263.3 261.5 259.9 258.3 257.4
287 289.9 293.2 296 299.8 303.5 308 318.6 327 333.3 339.3 342.6 345.8 349.1 351.4 353.9 356.1 358.9 357.7 357.2 355.7 350.2 339.9 332.5 323.7 313.4 302.3 302.1 303.4 305.4 306.4 309.9 318.1 327.6 336.8 352.7 365.9 379.2 392.3 404.3 416 427.3 438.8 447.1 452.8 456.5 458.6 457.9 453.5 450 445.4 439.8 434.5 431.5 429 430.3 437.9 450.1 459.2 467.2 475 482.2 487.2 491 490.9 491.2 489.5 483.3 473.5 460.8 447.7 435.7 422.7 408.8 397.7 384.2 370.3 357.3 346.4 337.2 330.2 322.6 315.8 308.7 302.9 295 286.7 281.1 275.2 268.4 264.6 261 258 246.5 233.7 222.3 218.3 236.3 252.6 269.1 283.8 295.7 307.6 318.2 326.8 337.7 348.4 353.9 358.2 362.7 367 367.9 366.8 363.7 357.5 350.4 342.9 335.6 327.7 321 315 307.5 299.8 292.1 285.3 278.7 271.8 266.2 260.2 255.7 251.1 246.2 242.3 242.5 241.5 236.3 229.1 220.5 203.1 196.4 193.5 192 183.8 182.2 182.4 183.3 189 197.9 206.3 210.7 202.7 202.3 205.8 211 212.7 212.7 210.7 211.4 210.1 211.1 211.3 213.1 215.9 219.1 222.7 226.3 230.3 234.8 239.6 245.7 250.2 254.8 259.3 263.6 270.6 277.4 286.2 294.5 299.7 298.4 292.5 284 274.4 267.3 262.8 261.8 261.4 262.2 263.8 264.2 263.9 263.6 263 262.9 262 260.6 258.9 257.1 255.5 253.5
290.2 293.4 296.4 300.2 304.6 308.3 316.8 326.2 334.7 341.5 348.3 351.7 353.6 356.1 356.8 356.8 358.6 358.1 355.8 353.6 352.3 348.4 340.2 328.9 321 314.8 305.2 301.4 302.8 302.4 305.4 311.3 319.2 329.9 344.4 358.4 372.1 385.5 397.9 409.3 421.4 432.7 443.4 449.4 450.8 453 453.2 451 448.4 443.4 435.7 429.1 420.8 415.5 415.2 418.7 429 441.4 453.3 460.9 468.6 475.9 481.4 485.8 488 487.6 485.9 479.7 468.5 456.5 446.6 434.8 419.6 406 391.2 376 361.6 346.4 334.4 326.3 318 311.6 307.1 302.2 296.5 291.4 286.4 280.6 274.3 268.2 263.1 258.6 249.5 241.4 225.4 216.9 217.9 235.9 252.9 267.1 282.8 295 305.9 314.8 323.6 329 340.1 344.5 347.5 350.7 354.2 354.6 356 352.2 346.7 341.4 335.6 328.9 322.8 315.3 307.2 298.3 289.7 280.5 272.3 262.6 258.7 253.2 249.4 246.2 243.4 243.5 242 240.7 237.2 231.9 225.3 213.9 199.6 194.3 193.7 192.6 181.2 181.1 182 184.4 190.5 202.8 211.8 211.4 203.1 202.3 203.7 206.2 209.6 210.8 207.9 208.1 208.3 209.8 211.8 213.9 216.8 220.4 224.4 229.1 233.3 238.1 243.1 248.3 252.1 256.7 262.2 269.9 278.4 285.2 291.8 296.8 294 283.8 275 267.6 262 259.7 257.5 257.4 257 259.2 260.2 259.6 259.3 259.2 259.7 260.1 259.4 258.3 256.7 255.3 252.6 250.5
291.8 295.6 299.9 303.7 308.3 314.1 324.6 335.3 343.7 350.4 355.8 359.5 362.2 362.3 361.7 358.9 358.2 356.4 354.2 350.7 346.7 344.4 338.5 327.6 317.6 310.6 305.4 300.1 300.2 300.9 306.7 313.1 321.8 334.1 348.5 362.9 377.8 390.6 402.4 415 427.7 437.1 443.1 447.9 448.2 447.7 444.7 441.4 436.7 430.9 422.3 415.2 407.8 403.8 401 408.4 421.4 434.6 446.3 455.6 462.5 468.2 472.6 475.7 478 478.2 475.2 468.9 460.6 451.7 441 429 415.6 399.8 383.6 368.3 352.4 335.6 320.4 311.9 305.5 300.5 296.5 293.8 290.9 287.5 283.5 278 272.7 266.8 261.2 254.4 246.6 242.8 224.5 213 215.9 228.6 247.6 262.8 278.3 288.2 297.3 306.7 314.2 321 328.1 334 337.5 338.7 340.4 343.4 345.1 344.9 341.9 335.5 328.7 320.4 312.1 303.5 294.3 283.4 272 262.2 255.1 252.2 248.4 244.3 239.9 239.5 240.7 242.1 241.9 237.6 231.3 224.6 218.8 209.9 199.6 195.4 191.7 179.3 179.8 180.5 181.5 188.4 191.5 204.2 208 206.3 200.3 198.5 200.2 202.3 204.5 205.8 204.6 205.1 206.4 208.7 211.1 213.8 217.4 221 225.6 230.9 236 241.1 246.4 251.1 254.9 260 267.6 277.1 284.4 290.7 293.3 285.9 279.4 270.3 263.5 259.2 255.8 253.7 252.9 252.6 254 254.8 255.6 256.2 255.8 256.3 256.8 258.1 257.9 256.9 255.7 253.1 250.5 245.4
294 298.6 302.9 307.5 312.8 320.6 332.8 343.1 353 359.2 363.7 367.3 368.5 367 364.8 361 355.8 353.9 350.1 346 341.6 337.5 334.2 326.6 317 307.5 304.1 298.7 298.5 299.8 306.1 314.1 325.2 336.8 350.9 365.5 381 395.3 407.9 420.4 431.7 437.3 441.2 442 442.3 440.6 436.1 431.4 423.5 417.8 411.9 401.9 396.4 391.4 391 402.8 414.4 427.6 439.2 447.7 454.4 459.2 463.7 466.5 467.9 467.5 462.8 456.2 449.1 442.2 433.3 422 407.4 390.7 374.3 357.6 340.8 324.5 309.5 300 295.8 289 285.4 282.2 282.4 281.1 277.9 272.9 267.8 263.7 258.3 248.9 251.8 244 217.4 213.4 215 223.9 242.9 257.2 270.1 277.9 288.5 297.9 304.9 312.6 318.8 323.8 328 330.4 331.7 334.3 337.6 337.8 334.6 329 319.5 310.1 296.2 283.6 271.5 260.8 255.3 251.4 248.9 245.7 241.9 239.3 233.6 236.8 239.1 239.2 237.3 233.1 227.6 221.2 214.7 207.9 198 193.4 184.8 178.4 180 180.1 177.5 179.7 191 196.3 197.4 203.5 198.7 195.2 196.1 198.1 199.5 200.5 203.1 203.4 204.6 207.3 210.7 215.1 218.6 222.8 227.6 233.1 238.7 244.1 249.3 254 260.4 271.2 278.2 284.7 289.8 286.2 278.8 272.7 267.7 259.7 255.1 252.5 250.3 249.9 249.7 249.5 250.2 250.7 251.1 252.1 254 255.7 257.3 258.7 257.9 256.3 254.5 250.9 245.1 241.4
300.4 304.5 308.4 312.8 318.8 329.3 341.4 353.1 361 367.8 370.8 372 371.2 369.1 364.5 360.3 352.8 346.7 343.6 338.9 334.8 331.7 328.6 322.9 316.7 306.4 301.6 298.5 298.3 300.6 305.6 314.2 326.5 340 353.1 368.1 384.4 399.6 412.7 424.2 430.3 434 436.3 434.3 432.4 430.9 424.1 417.6 411.2 404.9 398.5 391.5 385.7 381.5 385.4 397.4 407.9 421.1 430.4 438.5 444.7 448.2 450.6 455 456.2 455.3 451.8 446.3 439.6 433.5 424.4 411.3 396.4 379.4 361.6 345.3 329 312.4 299 293.3 285.8 277.1 272.2 267.3 262.7 264.8 267.8 266.8 263.3 259 253.2 249.7 253.6 236.6 215 212.1 212.6 215.3 233.1 248.3 260.9 269.2 279.7 287.7 295.2 301.2 307.5 312.6 319.4 323.8 325.3 325.3 326.5 325.8 322.8 316.6 311.2 301 282.2 267 259.2 254 248.7 246.9 248.5 248.4 244.9 240.1 235 234.4 234.2 233.9 231.8 227.9 223.2 218.2 213.9 206.2 192.6 188.6 183 177.5 177.1 175.8 175.3 174.3 177.9 184.6 188 195.8 196.3 191.4 189.7 191.7 193.8 195.7 199.4 200.3 204.3 207.6 211 215.8 220.7 225.6 231.7 236.8 242.2 247.4 253.7 263.7 270.9 276 281.3 285.5 284.6 274.1 266.4 261 255.2 250.3 248.3 247.8 246.1 245.6 245.6 244.7 245.8 246.8 248.1 250.8 254.4 256.5 258.1 258.7 257.7 255.3 251.2 244.8 240.7 237.9
308.8 313.1 317.5 323.3 331.6 340.7 351.9 362 369.6 375.1 376.3 375.6 370.9 367.1 361.6 354.4 346.9 338.9 333.4 331.7 328.5 325.9 322.4 319.2 315.1 308.3 299.7 297.9 297 298.1 305.8 315.2 329.4 342.4 355.8 369.8 385.3 401.1 413.6 422.9 427.9 430.6 429 425.9 422.5 417.3 413.4 406.4 398.3 392 387.7 381.4 377 374.2 379.4 391.3 402.5 413.3 421.7 428.1 432.9 436.3 436.5 437.5 440.8 442.1 439.5 435 428.2 420.7 410.5 398.1 382.2 365.5 348.4 332.4 316.4 301.5 292.2 285.8 273.2 261.3 253.8 249.8 246 245.5 249.7 255.2 256.3 253 250.9 252.7 246.3 226 211.7 210.9 211.1 211.3 225.2 239.7 252.5 263.1 271.1 277.7 284.6 290.1 296.3 302 308.6 313.9 314 313.3 313.2 313.2 311.6 309.2 302.6 292.7 270.8 259.1 255.2 251.1 248.3 248.2 252.9 253.1 247.6 239 231.6 228.8 227.2 228.2 227.2 223 219.4 206.4 197.5 192.6 185.3 180.6 178.1 177.4 185.2 189 184 174.1 173 173.1 180.2 181.3 185.6 182.8 184.2 188 189.4 191.8 196.3 200.5 204.4 207.9 211.2 216 221.9 227.9 235.1 240.8 247 253.8 264.7 270.1 273.4 277.1 280.2 278.5 268.2 260.7 254.7 248.4 244.3 242.7 242.5 242.7 241.9 241.4 240.9 241.8 242.2 245.1 247.6 251.2 254.4 256.9 258.9 258 254.4 248.7 243.3 240.2 237.1 235.3
318.5 324.9 331.5 338.2 345.2 354.8 363.8 371.4 377.5 381.6 380.1 376.5 371.6 365.4 358.2 349.4 340.8 332.5 325.2 320.7 319.9 319.4 317.2 314.6 312.8 310.1 302.4 297.4 294.8 298.9 306.3 316.6 332.5 344.4 357.6 370.3 384.5 399.7 410.3 419 423.1 424.5 421.5 417.1 411.6 405.6 401 397.1 389.5 384 378.6 372.8 369 366.2 372.1 383.3 395 403.4 412.1 416.5 420.2 423.4 424.1 425.8 427.8 427.6 426.3 422 415.6 406.8 393.8 381.3 365.8 350.2 335.5 320 305.9 293.6 286.4 277.5 262.4 252 243.4 239.7 235.5 235.2 237.1 242.2 247.6 251.9 253 246.5 242.1 219.4 211.2 210.2 210.5 210.2 216 231.4 243.9 254.4 261.4 268.1 273.2 278.1 283 288.9 293.9 297 299.5 302.9 304 304.5 304.6 302.4 294.6 281.5 263.2 253.2 251.9 251.9 255.1 254.5 252 249.4 243.2 236.4 228.6 217.3 220 221.4 221.8 217.1 205.4 194.7 191.9 187.1 179.2 181.8 190.4 199.1 208 198.9 187.5 175.5 173 171.7 171.3 175.3 178 178.7 179.5 183.7 187.7 192.5 196 200.3 203.9 207.3 211.5 216.6 223.2 230.1 237.2 243.8 253.6 264 268.6 271.1 272.9 274.7 269.1 259.2 252.5 246.2 243.1 239.8 236.8 237.3 237.9 237.9 237.5 237 237.5 236.4 241.3 245 249 251.6 254.7 257.6 257.1 252.2 245 240.3 238.2 236.2 233.9 233.4
328.4 335.5 343.6 349.5 357.2 365.7 373.9 378.7 382 384.7 380.9 377 371.6 364 354.8 344.3 334.2 326.1 318 314.1 312.4 312.4 312 311.2 310.4 310.2 306 297.7 293.9 299.2 308.3 318 334.5 346.3 355.9 368.6 384 396.7 406.6 412.4 415.3 415.1 412 406.4 400.5 393.4 390 384.8 379.8 373.7 367.7 364.5 361 358.1 366.8 376 385.4 393.5 400.7 405 406.9 408.9 411.9 415.1 415.5 415.8 413.7 408.6 402.8 393.7 379.7 365 352 338.3 323 310.2 298.7 288.1 279.1 267.6 254.9 246 244.9 243.7 238.3 230.6 228.7 230.8 236.2 244.7 245.1 242.6 240.2 221.9 211.4 208.8 208.7 209.1 208.7 223.5 234.9 245.1 250.6 256.2 260 264.7 270.7 276.6 283.3 288.4 290.5 293.1 294.9 295 293.4 289.9 285.8 274.4 257.5 248.7 248.2 252.1 256.8 256.3 250.9 244.4 237.8 231.2 226.1 220.9 209.6 204 210.8 205.3 196.5 189.1 181 184.4 194.2 205.3 207.5 211.3 210.6 208 195.8 186.4 176.4 172 170.7 169.4 170.8 174.1 176.5 183.1 188.9 192.2 195.7 199.7 203.1 207.3 212.4 219.1 225.9 232.5 240.2 250.3 260.6 267.2 267.3 266.6 267.1 256.8 250 244.9 239.9 235.4 233.8 233 232.8 233.4 233.5 233.4 233.1 233.7 231.2 236.5 241 245.4 250 252.7 255 252.2 245.6 238.2 236.2 234.5 233 232.2 232.1 232.4
335.3 343.8 351.3 358.7 367.1 375.3 383.2 387.6 389.3 387.5 382.7 377.1 368.8 361.3 350.4 339.5 328.5 318.5 311 307.3 304.3 305 306.1 307.6 308.5 308.7 303.4 294.3 296.5 300.9 309.6 320.5 334.6 347.9 356.3 365.4 380 392.5 400.6 402.6 403.9 400.3 397.2 393.2 387 380.6 377 371.8 367.2 361.8 358.1 355.8 352.1 346.5 358.1 368.9 375.9 383.2 389 392.7 395.2 396.4 396.7 398.3 399.8 399.3 398.5 396.7 390 381.3 366.8 353.5 340.9 326.1 315.1 304 292.3 280.4 265 257.2 249.4 249.3 258.6 254.2 255.3 251.3 229.2 224 224.4 230.1 233.1 235.5 235.2 228.6 222.4 209.4 208.1 207.7 207.8 213.3 227.8 235.7 242.6 247.3 251.4 255.7 262.1 269.2 276 279.5 280.7 281.5 282 280.5 275.5 272 269 263.1 250.7 246.9 246.2 247.6 248.3 247.9 245.1 239.6 232.1 229.2 224.6 220.3 213.2 202.5 195.5 188.3 184 186.1 198.7 205.5 211.1 212.3 209.8 212.6 216.7 213.6 198.6 189.1 180.8 174.1 170.5 169.7 168.8 169 176.7 184 189 192.3 195.6 198.8 203.6 208.1 214.7 220.4 227.9 236.2 245.7 254.7 262.8 265.6 263.1 256.2 247.8 241.2 236.5 233.2 230 229.5 228.9 228.4 228 228.5 229.1 228.9 229 229.9 232 236.4 241.9 246.4 250.4 251.3 246.7 238.8 233.7 231.5 230.4 230.1 230.2 230.3 230.3 230.2
338.2 347.9 356.6 365.2 373.7 382.3 388.1 391.3 390.4 386.3 381.1 374.6 365.5 356 345.5 334.7 322.7 312.8 305.2 301.4 299.7 299.4 301.1 304.6 307 307.1 300.9 292.4 301.9 306.7 314.4 324.5 335.6 349.4 359 363.3 368.5 382.5 392.2 391.6 382.9 379.3 382.8 378.5 370.6 367.2 360.7 357.7 353.6 351.4 347.6 343.5 340.5 340.5 352.1 356.9 366.4 372.6 377.6 380.2 381.5 381.9 381.8 380.8 379.5 374.9 372.9 373.3 374 366.8 353 342.9 330.3 319.6 311 299.5 284.4 272 259.3 252.4 253.7 258.6 260.9 259.4 255.4 254.5 248.1 233.9 221.8 220.7 220.6 224.9 226.6 224.5 220.4 215.2 208.1 207 206.9 208.8 223 229.1 234.8 240.1 242.5 248.7 256.4 260.5 266.3 266.3 261.7 258.8 254.3 251.4 248 247.6 247.8 244.2 242.3 243.6 240.4 237.8 237.7 237.1 236.5 241.1 228.4 225.2 220.9 214.2 197.1 188.7 188.8 190.9 199.7 204.5 204.4 216.3 218.1 215.5 210.7 213 215.4 209.9 199.5 187.8 186.3 182.7 174.7 169.7 168.1 167.6 175.9 187.7 190.8 193.7 196.3 199.4 204.1 210.6 216 221 228.4 239.3 246.9 253.9 258.7 255.8 245.8 238.9 232.5 227.9 225.5 224.7 224.7 224.2 223.5 222.7 222.9 223.6 224.5 224.5 225.2 227.1 231.8 236.7 242.5 246.5 245.3 240.2 232.3 229 227.1 226.4 226.7 227.6 228.3 227.8 225.8 225.1
339.6 350.9 361.6 370.4 378.4 385.9 389.9 391.7 390.2 384.3 378.1 372.1 363.6 353.4 341.6 329.3 317.6 307.8 300.7 297.1 295.6 295.6 297.9 301.5 305.5 305.8 298.6 295.2 305.2 312.4 321.7 329.5 339.4 350.4 361.3 365.1 364.4 363.1 375.3 370.8 365.4 361.7 357.4 361.9 353.7 347.3 342.2 346.4 343.3 337.9 333.5 330.9 323.4 332.4 343 346.4 353.5 360.4 364.2 367 366.9 367.4 365.9 358.6 346.9 339 336.6 337.9 342.3 345.2 340.2 333.9 324.8 315.8 305 291.2 279.8 268.8 259.6 252.2 258.6 260.9 258.8 259.7 257.1 252.1 242.6 233.3 225.1 218 216.8 215.8 219.2 220.2 217.5 214.9 208.6 203.9 204.9 205.6 218.4 224.7 230.6 234.7 238.6 240.9 241.3 243.1 238.5 235.3 231.2 225.4 223.6 220.5 219.6 219 220.6 223.9 229.4 227.3 220.8 221.8 223.1 223.2 223.1 219.3 213.7 205.8 198 191.6 187.2 188.2 199.6 203.3 210.5 215 205.9 213.7 214.9 212.9 210.3 210.7 211.6 209.7 198.7 198.7 199 197.5 185.6 175.9 167.8 165.8 175.7 184.6 191.6 193.5 196.3 201.2 206.1 212.2 217.4 223.2 230.6 236.8 241.6 247.6 244 234.2 226.7 224.1 220 219.4 219.4 219.5 219.6 219 218.3 217.6 218.3 218.7 219.4 220.4 220.7 226.8 230.8 238 240.1 236.7 230.6 225.7 223 221.8 221.9 222.8 224.7 226.9 227.7 224.7 221.9 219.8
342 352.9 362.5 372.6 380.4 386.3 389.1 388.2 386.8 382.2 376.6 369.9 362.5 352.7 341.6 326.9 314 303.6 297.4 293.1 292.5 293.4 295.7 299.2 303.7 302.6 293.9 297.2 309.7 316.2 322.7 331.5 340.4 351.8 362.5 368.3 370.3 361.3 358.9 362.1 361.7 356.8 351.6 346.3 341.9 339.2 335.6 334 331.9 329.9 327.3 324.2 320.3 312.5 320.3 327.4 335 342 344.6 345.9 347.1 345.7 340.1 327 316.9 312.8 309.6 309.8 313.5 318 324.5 323.5 316.1 310.1 299.6 283 275.3 267.9 258.5 258.6 261.6 259.9 257.4 257.9 254.9 242.1 240.3 235.2 226.8 219.5 215.7 214.2 213.4 217.3 214.3 214.9 210.8 205.8 204 204.9 212.6 220.2 226.5 230.9 235.1 237.6 239 240 230.9 228.6 215.1 212.9 212.9 212.9 212.9 211.3 208 206.3 208.6 204.6 202.4 204.3 206.5 205.3 200.5 193.3 189.2 187.7 187.4 187.7 197.3 208.3 215.3 211.8 219 217.3 208.5 210.1 211.4 211.2 211.3 211.2 210.7 209.8 208.3 208.4 205.9 207 197.6 181.8 167.7 165.8 174.1 180.1 189.8 193 195.8 199.2 206.2 212.8 218.4 223.1 226.7 231.4 233.3 228.7 221.5 216 213.1 211.9 211.6 214.1 214.4 214.4 214.4 213.9 213.2 212.5 212.2 211.1 214.5 220 222 225.4 231 233 229.8 223.4 219.4 217 217.1 217.3 218.7 221 223.9 225 223 220.1 215.6 209.6
342.3 353.4 363.9 373.5 381.8 387 388.8 387.2 382 379.5 375 368 360.5 351.4 340.6 325.5 308.1 300.5 295 290.9 289.4 291.3 294.4 297.7 300.8 295.6 287.9 302.3 312.1 320.7 327.1 336.8 346.6 355 362.7 365.8 366.7 363.8 359 357.2 355 351 346.7 342.1 337.5 333.2 331.2 329.3 326.9 325 323.3 321.4 318.8 311.3 299.8 298.2 305.9 314.7 318.3 318.8 317.7 316.3 309 301.9 295.9 290.7 287.8 287.6 288.5 289.8 291.4 290.8 288.7 287.7 282.2 276.5 270.2 265.5 258.6 262 262.6 260.3 258.5 256.2 249.1 245.9 241.1 232 227.5 222.8 216.5 213.5 211.7 209.9 208.6 208.7 207.7 204.5 203.9 202.5 204.9 219.4 225.2 228 231.8 233.7 234.5 235.9 229.3 213.6 212.9 221.9 219.3 221.4 228.7 224 219.1 203 202.4 202.5 200.6 200.9 199.1 191.5 188 188.6 189.9 193.8 200 208.6 216.2 219.3 216.7 221 225.5 222.4 210.8 217.9 215.3 218.1 215.1 217 216.4 215.1 212.6 214.4 208.8 208.9 205.7 191.2 171.9 165.4 166.3 176.7 185.3 192.4 192.8 197.5 202.9 205.8 214.4 216.9 219.7 220.8 216.6 213 210.4 207.3 206.3 205.8 206.9 208.7 209.6 209.3 209.3 208.7 208 207.5 208 207.6 213.8 217.3 221.3 225.5 225.2 219.9 215 213.2 213.2 213 213.5 215 216.6 219.1 219.8 218.7 215.1 212.2 206.4 200.6
343.6 352.7 361.7 371.5 380.9 386.5 385.2 383.4 380.1 373.5 368.2 361.9 354.1 344.2 333.6 321.7 309.2 298.4 292.6 289.2 287.3 289.8 293.1 295.1 291.8 282.5 297.9 309.6 317.3 323.8 331.6 338.2 346.3 353.7 356 358.1 360.2 358 354.5 351.1 349.6 343.4 340.3 336.4 332 328.8 326.9 324.9 322.9 321.4 319.7 318 315.7 316.4 312.3 294.6 285.9 289.5 291.3 296 294.4 292 288.9 284.1 277.5 272.2 270.2 270.5 270.5 268.6 268.1 269.5 269.3 267 263.7 263.8 260.9 260.8 257.2 262.8 260.3 258.8 256.8 248.8 242.9 242 237 232.1 229.5 223.7 218.6 214.7 210.9 209.2 207.4 207 206.5 204.5 203.6 203.3 200 213.7 221.4 224.8 229.3 231.1 222.5 214.2 215.5 219.7 221.5 221.6 219.7 217.7 214.9 226.8 217.7 207 209.7 212.2 209.6 206.2 199.4 189.2 196.4 204.1 206.2 214.1 223.9 225.6 223.6 221.3 225.5 225.9 226.2 225.7 215.9 223.8 222.5 221 220.6 222.6 220.7 217.8 214.1 210.8 206.1 207.2 206 190.7 177.3 164.9 163.9 171.2 178.9 187.1 190.7 196.8 205.2 211 213.9 215.5 215.5 212.5 209.3 207.2 205.2 203.6 203.3 203 203.6 204.4 204.9 204.5 204.2 203.7 203.2 203.3 196.9 208.3 211.6 216.6 219.4 217 212.6 210 208.1 206.8 208 209.2 210.8 212.8 214.4 215.6 216.1 212.1 207.2 204.1 199.1 194.7
346.7 353.8 361 368.6 377.8 383.3 385.9 383.4 377.1 370.6 363 354.4 343.9 334.6 324.2 313.6 304.5 295.5 289.7 287.5 285.9 288.8 291.2 287.2 280.3 295.2 306.9 316.9 323.3 332 337.1 342.5 338.7 345.7 351.4 350.9 350 351 348 341.7 339.2 336.3 333.2 329.1 324.7 323.6 322.7 320.9 319.4 317.9 315.6 313.2 310.9 311.5 306.8 292.3 280.8 280.3 277.9 280.7 282 280.3 275.5 270.4 267.3 267.3 265.7 265.5 264.1 264 263.4 263.1 262.9 263 262.8 260.6 259.4 262.3 261.2 259.7 257 254.2 255.4 243.6 240.8 236.1 231.3 229.1 228.7 221.8 220.4 215.7 213.2 209.4 207.7 205.8 204.8 203.2 202.9 202.4 201.7 209.3 218.7 221.6 217.4 215.1 224.4 225.4 224 222.2 219.9 219 215.3 212.3 212.5 213.1 224.9 221.4 226.2 223.6 210.4 200.8 192 204.6 213.9 225.1 224.2 234.9 234.2 230.5 229.4 229.5 230.1 233.5 229.2 225.6 222.8 224.7 228.1 226.1 228.8 229.6 226 221.1 216.2 212.8 205.3 198.7 197.9 187.3 178.6 164.8 163.2 163.3 173 179.3 186.6 196.5 207.8 212.1 214 213.5 209.6 206.7 204.2 202.6 201.4 200.9 200.6 200.3 200.9 201.5 201.7 201.3 200.3 199.5 198.6 193.6 202.5 206.7 210.4 212 209 205.6 204.6 203.1 203.2 203.6 206.4 207.6 209.1 210.2 210.8 211.6 208.9 203.5 199.4 196 191.3 184.5
350.8 356.9 363 368.7 374.3 380.7 382.2 379.3 372.8 365.8 356.6 346 334.1 324 315.1 305.2 297.7 291.3 287 284.6 284.7 287.7 288.9 277.4 290.4 304.2 316.1 325.1 332.7 340.3 346.2 346.8 341.8 331.7 338.9 343.1 342.6 337.8 338.1 334.5 328.7 326.2 323.1 319.2 317 316.1 316.4 315.5 314.3 313.3 310.2 307.7 303.8 300.9 289.1 278.7 278.5 277.1 275.9 274.5 274.1 272 270.6 269.9 269.5 273.7 277.6 277 276.1 272.5 270.9 270.2 271.1 270.9 271.6 273.1 271.7 270.2 269.6 266.8 264.3 260.8 256.9 253.1 245.6 243 232.4 223.6 223.9 222.2 221.5 219.8 216 214.9 211.4 206.3 203.5 202.4 202.1 201.5 201 199 211.9 219.4 214.1 223.7 224.5 223.7 223.5 222.9 223.7 219.8 213.1 212.7 212.6 215 217.5 217.9 216.5 201.6 193.2 200.2 214.9 220 227.4 230.4 232.1 237.8 238.1 236.9 235.4 234.6 234.6 234.4 232.9 230 230.2 232.8 234.9 235.2 235.4 232.5 227.8 222.9 216.6 209.7 205.4 199.7 192 184.2 176.3 165.2 163 162.1 162.1 174.4 184.9 197.2 202.9 206.6 204.4 202.6 203.3 200.8 199.9 199.5 198.9 199.5 199.8 199.7 198.7 198.4 198.6 198 196.8 195.1 193.8 198.1 200.2 203.7 204.5 201.2 198.1 197.5 197.4 198.3 198.4 200.4 203.7 206.1 207.7 208.1 206.3 203.1 199.4 195 190.9 186.3 180.2 174.4
358.9 365.3 368.7 371.8 373.2 374.5 375 372.9 367.3 358.8 349.1 338.2 325.2 316.2 306.4 297.9 289.6 286.2 283.5 281.3 282.8 284.5 281.7 274.6 293.2 311.2 323.1 332.2 339.2 346.5 352.5 354.1 349.3 339.8 330.6 326.5 332.3 329.1 323.9 323.9 320.5 316.2 313.1 310.2 309.4 308.6 308.6 307.6 306.2 304.9 302.9 297.5 293.9 287.8 278.8 277.6 278.3 280.4 279.5 277.1 274.5 270.9 270.1 278 288.9 300.8 306.1 304.5 301.5 298.7 295.1 292.6 290.2 287.4 290.2 294.2 293.4 288.9 283 278.6 271.6 269.9 262.6 257.3 250.3 240.7 225.5 223.5 224.8 223.2 220.7 219.1 216.5 215.9 214 211.7 206.5 201.6 201.2 200.1 199.4 198.7 204 208.2 213.6 220.8 224.2 224.2 225 223.1 218 214.2 214.1 213.6 212.3 214.4 215 214.2 205.9 199.8 214.6 222.1 226.4 229.5 234.7 240.1 240.7 241.6 243.2 243.1 242.7 241.7 240.3 239.4 239.4 239.1 239.9 240.9 240.7 240.4 238.1 234.9 229.8 223 215.1 210 207.1 203.3 194.9 186.3 179.5 171.2 162.8 161.8 161.1 171 180.3 191.9 193.7 190.3 190 193 195.7 196.8 196.5 196.3 196.9 198.3 197.8 198.4 197.6 196.7 195.4 194.7 193.5 191.7 187 194.9 196.7 196.5 192.1 190.3 190.6 190.9 191.3 191.7 194.6 197.8 200.7 203.9 205.7 203.6 199.4 195.2 190.8 186.4 181.8 176.1 170.2 165.6
367 373.5 377.3 378.2 375.1 371 367.7 363.7 359.2 351.5 341.2 330.8 319.1 309.2 298.7 289.7 283.6 280.2 278.7 277 280.1 277.6 271.2 281.5 299.8 313.4 325.2 335.3 341.5 347.4 351.5 353.1 350.8 345 336.3 327.8 317.3 317.1 313.4 304.8 305.2 304.2 302.3 302.6 302.3 301.8 300.3 295.9 292.3 292.5 290.6 284.2 282.6 281.8 283.1 284.9 288 295.4 293.9 287.4 285.3 288.2 294.1 303.9 316.2 326.5 333 333.2 330.9 329.7 326.4 323.7 320.6 317.8 313.1 307.4 302.4 297.4 292 286.6 280.4 275.7 265 258.7 251.3 237.3 227 229.1 228.5 224.7 220.1 217.8 215.7 215.7 214.7 212.6 208.8 203.5 200.2 199.4 198.9 198.9 198.6 206.5 214.1 220.7 221.8 221 218.9 216.5 214.3 214.6 213.4 211.8 212.1 212.7 211.8 202.6 197.3 217.1 228.5 233.7 237.3 242.8 249 249.8 251 251.7 253 251.9 250.3 249.1 248 249.4 249.1 249.5 248.6 246.8 244.7 243.1 240.4 236.7 230.1 221.9 214.4 209.3 205.4 198.8 194 188.8 189.7 179 171.3 162.5 161 162.3 172.4 182.6 182.4 181.3 183 186.7 190.5 192.1 192.8 192.6 193.7 195.4 196.3 196.8 195.2 193.4 191.7 190 190.2 186.5 189.2 188.7 186.1 184.5 184.2 184 183.7 184.5 185.5 189.4 193.3 196.8 199.4 201.7 199.8 196.6 193 189.2 183.7 177.3 172.2 167.1 163.4 159.2
378.2 383.8 386.1 384.3 379.9 372.2 364 356.9 351 343.3 333.5 322.5 312.1 302 293.2 285.4 279.6 275.8 274 274.2 276.1 269.9 270.7 287.1 300.2 312.2 324.4 334.3 340.4 345.3 348 348.4 346.6 343.1 337.3 329.7 321.4 315.4 309.7 304.9 301 298.8 294.2 290.9 292.5 294.5 288.3 283.4 281.4 282 282.6 279.3 282.1 286.1 289.9 294 305.7 315.7 316.2 311.1 310.5 314.3 322.2 333.1 343.6 353.3 357.7 359.7 354.5 349.6 344.7 339.6 336.3 330 322.8 317.5 310.2 303.8 296.8 290.3 279.3 271.2 264.3 257.7 248.4 239.4 231 230.6 231.5 226.6 221.8 218.8 215.8 214.5 212.4 208.4 204.6 202.8 199.3 199.1 198.9 198.8 197.7 201.6 209 212.6 213.1 213.2 213.2 213.7 213.4 212.9 212.3 210.7 210.9 206.3 196.3 202.9 219.1 228.1 235 242.1 250.2 255.6 255.2 256 257.2 258.4 258.8 258.6 258.1 257.8 258 259.1 258.6 257.3 254.6 250.6 248.4 246.1 241.5 235.8 228.8 220.7 215.2 209.5 204.5 199.2 195 193.4 190.4 187.6 176.8 166.3 160.6 159.9 170.3 180.7 179.1 178.8 180.2 182.7 185.3 188.1 188.8 188.9 190.7 192.9 194.5 195.8 193.9 192.2 191.7 191.2 189.3 185.9 184.2 183 181.4 180 179.4 179 178.7 179 181.7 185.9 191.1 194.3 196.8 194.2 191.4 188.7 184.8 179.6 173.9 168.3 164 159.8 156 152.7
389.4 393.3 394.6 390 383.3 375.9 365.5 355.3 345.2 335.8 328.7 317.9 307.1 297.7 289.8 281.8 275.9 271.6 269.6 270 272.8 266 272.5 287.1 299.8 310.7 320.6 330.2 336.8 340.3 343 343.3 341.3 337.6 333.5 328.3 320.6 313.1 307.1 301.6 297.6 294.7 293.3 291 286.4 285.2 285.9 287.3 282.4 278.1 278.1 280 286.1 290.2 297.4 310.1 321.8 333.9 340 341.6 340 343 351.1 356 360.9 364.7 361.9 359.2 356.1 351.9 346.2 340.1 333.8 328.5 323.3 318.1 313 306.9 298.9 291.2 279.2 268.8 263.5 260.3 257.3 242 230.2 229.9 231.4 227.9 223.6 220.1 216.7 212.7 207.8 204.1 202.6 201.7 200.4 198.6 198.1 197.3 196.9 198.8 201.4 207 207.8 208.7 211 211.7 210.8 209.3 206.5 202 197.5 201.8 213 222.9 228.8 235 242.3 252.6 258 259.4 261 261.8 263.3 265.1 267.8 268.2 267.2 265.4 264.2 263.5 262.9 259.7 257 254.7 251.8 246.9 241.7 235.7 228.8 220.2 214.2 208.8 204.4 199.7 195.3 192.6 188.9 182.3 175.1 170.2 160.5 160 163.9 174.5 178.2 177.7 177.8 180.1 182 183.8 185.3 185.3 188.1 190.3 192.4 194.1 195.2 192.1 191.2 190.7 188.6 181.6 179 178.4 176.8 176 175.9 175.4 175.3 176.1 177.4 180.8 186.1 188.6 186.5 184.6 182.1 179.5 175.2 169.9 164.3 160 156.3 153.4 150.6 149.1
403 404.1 402.8 396.9 388.5 381 371.1 358.4 345.9 332.9 325.6 314 302.4 293.4 285.6 278.7 272.7 268 267 267.1 269.2 264.1 271.6 284 295.9 306.9 316 323 329.9 334.5 336.2 336.2 334.5 331.2 326.7 322.1 316.7 310.9 304.8 299.2 294 291 288.2 286.7 286.2 285.6 286.2 282.6 278 278.6 278.6 289 299.1 312.1 321.9 330.3 338.9 347.6 355.9 359.5 360.1 361.5 363.3 366.1 368.5 368.7 364.6 358.7 353.4 349.8 345.2 338.2 332.4 326.5 321.3 316.6 310.5 304.4 296.7 287.4 275.3 266.6 260.1 253.3 249.1 243.1 233.5 230.1 231.5 228 222 219.1 212.8 207.3 203.8 202.9 201.7 201 201 201.9 197.9 197.3 196.8 195.5 195 194.7 199.5 203.2 205.9 206.8 203.8 200.9 197.8 198.7 209.5 218.6 225.9 230.1 234.4 241.2 249 255.4 259.8 262.8 264.7 268.1 270.7 273 274.5 274.7 274.9 273.9 271.6 268.1 266.1 262.4 259.4 257.1 254.9 250.4 242.6 234.5 226.1 218 211.6 207.1 202.6 197.9 194.6 186.2 181.5 182.3 186.7 176 161.1 158.7 158.2 171.8 177 176.5 176.7 177.2 179.6 181.4 182 182.6 186.9 189.3 191.4 192.2 192.5 192.3 191.2 188.1 183.6 177.9 175.8 175 173.8 172.7 172.7 172.5 173.1 174.2 174.6 176.6 178.9 178.2 177.1 175.8 173.3 169.6 165.1 160.4 157.1 153.9 151 149.4 147.9 146.2
412.9 412 410.3 403.2 394.7 386.2 376.1 364.7 351.5 337 322.4 311.7 300.7 290 282.5 276.7 271.5 266.5 263.3 264.3 263.5 263.4 272.6 279.7 291.7 302.4 308.9 316.4 322.1 325.6 327.6 328.6 326.9 324.4 319.4 315.8 312.5 308.2 302.7 298.4 292.6 287.8 284.4 283.4 282.6 282.2 279.8 277.7 279.3 290.5 293.4 306.7 318.7 329 336.3 343 349.4 354.8 359.5 363.5 367.5 370.1 369 368.4 369.4 368 362.5 357.3 350.9 344.8 338 332.8 327.6 322.9 317.4 311.9 304.7 297 290.8 282 272.1 264 256.8 250.2 245.6 241.1 236.2 232.9 231.6 226.6 219.4 211.5 205.3 203.5 202.2 201.8 201 201.6 202 203.3 202.1 199.2 196 195 194.3 193.5 192 197.1 199 200.1 199.7 196.9 201.7 211.8 216.5 221.7 227.6 233 238.9 245.9 251.2 257 261.4 265.5 269.3 271.6 275.4 278.3 280.5 281.7 282.2 280.6 277.9 273.5 269.3 265.4 260.9 257.5 253.1 245.6 237.4 227.9 220.5 213.9 209.1 204.7 200.2 195 191.1 190.3 191.1 188.2 184.1 176.9 169.3 158.5 156.9 166 175.3 175.7 176.1 176.2 176.3 178.3 178.3 180.5 184.8 188.6 190 190 189.4 188.4 185.8 181.1 177.9 174.1 172.5 171.7 170.8 170.6 170.5 170.4 171 172.6 173.4 174.4 173.3 171.9 169.5 167.5 165 161.7 158.3 155 151.9 150.2 148.8 147.3 145.7 143.3
420.6 419.2 416.8 409.8 401 391.3 381.2 369.9 357.1 342.4 326.5 310.7 299 288.3 280.8 275 269.4 265.2 261.7 259.5 259.1 266.2 274.2 281.7 289 298 305 309.9 315.3 317.6 318.5 319.5 319.1 316.3 312.2 310.1 308.1 304.6 300.7 296.7 292.7 287.5 283.6 281 279.9 278.3 276.6 283.1 294.1 300.1 305.9 317.2 325.2 332.8 340.3 346.1 351.9 358 364.4 370.9 375.1 375.7 372 367.7 363.5 360.2 356.4 351 345.4 340.2 334.1 328.9 323.2 317 312.4 307 300.2 291.4 284.2 275.9 267.5 260.8 254.4 247.7 243.1 239.6 235.9 231 229.6 222.1 213.3 204.8 202.8 201.3 200.8 201.6 202.2 202.5 204.1 204.6 202.8 201.5 197.6 195.9 195.1 193.9 196.5 195.5 193.8 195.2 196.7 203.4 211 214.8 219.6 224.6 230.5 236.6 242.6 248.7 253.9 259.8 264.2 269.6 273.2 276.2 280.3 283.1 284 284.7 285.8 284.6 281.5 275 269.7 265.2 261.1 253.1 244.8 238.2 230.5 222.8 217.2 211.8 208 204.8 201.8 199.3 197 194.3 191.6 187.7 184.6 183.5 175.4 159.3 157 157.2 169.6 174.6 175.3 175 174.7 174.8 174.9 177.2 181.5 183.9 188.4 187.9 184.3 182 179 176.1 174.3 172.4 170.8 170.4 169.4 169.6 170 169.3 168.9 170.3 170.6 169.8 169.3 167.5 164.9 162 159.6 156.3 153 150.8 148.8 147.3 146.8 144.8 142.8 140.8
426.6 425.1 422.7 415.2 405.6 394.1 383.9 372.3 359.3 344.9 331.9 314.9 298.1 287.6 279.3 273.3 267.6 262.7 259 256.2 260.1 264.6 272.2 279.3 285.4 292.1 300.1 304.8 308.7 310.1 311 311.1 311.2 310.4 307.4 305.3 303.2 300.2 298.4 295 291 288.2 284.5 280.9 278.7 277.4 282.3 288.5 296.4 303.9 310.3 319 325.9 333.2 341 347.3 354.2 361.5 368.1 373.3 376.6 374.4 371.1 365.4 359.4 353.7 348.7 343.6 338.2 333.3 328.5 324.7 318.4 311.1 305.6 299.7 292.1 284.5 277.5 269.2 260.5 254.6 249.9 243.7 240.7 237.7 234.1 226.9 222.9 215.4 207.1 202.3 201.8 202.4 202.6 203.2 203.3 203.4 204.5 205.1 203.4 202.4 201.7 197.7 201.4 201.2 202.3 198.2 191.5 193.6 203.1 207.8 212.2 216.4 221.9 228 233.9 240 246.2 251.2 256.1 262.7 269.4 272.8 276.2 280.9 284.4 286.6 287.6 288 287.4 284.3 279.8 275.7 271 263.6 256 250.1 243.8 236.8 230.4 223.9 217.7 213.7 211 209.2 205.5 201.6 199 196.6 194 189.5 186.6 184.1 179.4 169.4 156.4 156.2 164.2 173.3 174.7 174.4 173.9 170.7 170.5 174.6 178.1 181.1 182 182.6 178 175.5 173.4 173 172.5 171.1 168.2 168.1 168.4 168.2 169 168 165.6 166 165.8 165.8 164.9 163.2 160.2 157.2 154.2 151.8 149.4 147.6 145.9 144.4 143.6 142 140 138
425.5 427.1 425.6 417.3 409.3 397.5 384.7 372.4 360.1 346.6 336.1 321.3 303.2 288.7 279.5 271.5 266.2 261.9 255.5 256.7 258.4 262.2 267.9 276.2 282.2 288.8 295.1 298.9 302.9 304.4 305.3 304 302.8 302.2 301.4 299.8 298.2 296 294.2 292.7 289.5 287.1 284.9 282.6 279.9 278 285.9 291.8 298.5 303.4 310.4 318.9 326 333.3 341.2 347.3 353.2 358.6 362.3 364.1 364.3 365 362.6 358.6 353.6 349.4 344.2 338.8 332.7 327.6 322.5 317.1 310.4 303.9 297.3 291.4 284 277 269.7 260.1 252.8 248.6 244.4 238.5 234.5 233.1 228.6 221.4 213.8 205.1 203.3 204.8 204.8 205.7 205.1 204.5 203.5 203.2 205 204.9 203 202.1 201.9 201 202.3 202.8 200.1 193 193.3 202 204.8 208.4 212.9 218.6 225.7 232.4 237.7 243 248.2 253.1 259.2 265.7 270.9 277 278.9 282.5 286 288.2 290.8 292.1 291.8 287.5 283.9 278.3 269 261.9 255.7 248.9 243.2 237.4 230.4 224.7 223.4 219.6 216 213.6 209.8 204.5 201.5 197.8 195.1 191.4 188.1 184.2 180.5 176.5 157.7 155.5 156.4 165.8 170.4 172 173.9 168.5 168.7 171.7 175.6 175.6 174.4 173.3 172.6 170.7 169.2 169.8 169.3 168.8 167.7 165.5 166 166.9 166.7 165.6 163.6 162.8 162.8 162.1 160 158.3 156 153.4 149.8 148 145.9 144.6 143.3 141.2 140.3 139 137.2 135.3
424.5 426.7 424.1 416.9 407.6 396.4 382.7 369.4 356.2 345.8 335.3 322.4 306.7 291.8 279.8 272 265.9 260.9 253.3 254.9 257.8 259.5 264.2 272 277.9 285.4 289.8 293.8 296.9 298.4 299.5 298 296.7 297.4 296.5 294.6 293 291.4 290.5 289 287.6 286 284.1 282.1 280.4 278.5 284 290.7 297.5 302.8 310.1 318 325 330.1 336.8 342.9 347 349.8 352.9 354.9 355.2 354.7 353.1 350.6 347.8 343.6 338.3 333 327.2 322.1 315.8 309.8 303.2 296.4 290 282.7 273.4 266.9 258.6 249.5 246.4 244.6 241.7 235.3 229.4 225.9 216.9 209 205.5 205.8 206.4 206.8 208.3 208.1 205.7 206.1 204.5 204.5 204.4 205.6 204.8 204.8 202.7 201.7 201.7 203.2 196 192.4 199.6 203.1 207.8 211.3 214.7 220.9 228.3 233.9 239.3 244.8 250.1 256.6 262.8 270.5 276.7 281.5 283.4 285.3 288.3 291.1 293.1 295.5 294.6 290.1 280.4 270.3 262.9 257.1 252.1 247.3 242.5 238.5 231.9 233.1 230.3 226.7 222.6 218 213.3 207.5 202.4 198.8 194.8 191.5 187.3 183.6 179.9 176.5 172.3 154.5 153.9 161.5 166.4 168.2 170 169.5 166.3 170.8 169.9 169.1 168.9 167.9 167 165.9 165.8 166.5 166.1 166.1 164.8 163.2 164.6 164.2 163.2 163 160.7 159.5 159.3 157.3 155.2 153.3 150.9 149.9 146.4 144.7 144.7 142.7 141.1 138.4 137.2 136 134.1 131.4
422.1 426.2 423.2 414.4 404.4 393.1 380.2 365.7 352.7 340.3 330.7 319.3 308.5 295.9 282.8 274.2 267.3 261.6 252.5 254.1 256.6 257.5 260.2 267 274.2 280.9 284.3 287.7 291 293 292.1 290.9 291.6 291.3 290.4 289.3 288 287.5 286.9 286 284.6 283 281.6 280.2 277.2 276 282.7 291 297 302.4 308.8 314.5 320.4 326.1 329.9 334.6 338.6 340 341.8 344 345 344.9 343.9 341.4 339.9 336.2 331.5 326.1 319.9 313.5 307.6 302 296.5 288.1 280.3 273.9 268 262.3 253.7 249.8 246.3 241.8 237.3 231.6 220.7 213.1 210.8 209 209.8 210.3 208.9 208.6 208.5 207.3 206.6 207.2 206.7 205.8 205.4 206.3 205.1 204.3 202.9 202.6 201.7 196.5 189.1 194.5 200.5 205.9 208.8 212.5 216.9 224.2 231.5 237.4 242.4 247.7 254.9 261.4 269.6 277.1 280.6 283.3 284.7 286.3 287.7 289.1 290.6 288.8 284.4 274 266.4 260.8 255.3 252.7 249.3 245.7 243.3 239.3 239.8 238.2 236 231.7 226.6 221 215.2 209 203.5 198.7 193.4 189 184.7 181.7 177.8 173.8 170.1 164 153.6 152.9 162.2 165.4 166.7 167.1 163.7 163.9 164.1 164.4 164.9 163.6 163.1 162.7 163.1 163.6 163.8 163.4 162.9 159.5 162.4 162.1 161 159.7 158.3 156.6 155 152.8 150.7 148.7 148.3 148 143.7 142.1 141.3 140.1 138.4 135.5 134.2 132.2 129.6 128.3
418.6 421.4 420.9 413.7 401.9 389.7 375.3 361.2 348 335.9 325.3 315.4 306.4 296.8 284.9 276.3 269 262.2 256.3 249.2 254.1 255.8 258.5 261.8 269.9 275.5 280.1 284 287.2 289 289.8 288.6 286.1 285 283.5 282.7 282.5 283.5 282.7 281.4 281.6 280.1 278.8 279 276.8 272.6 281.4 289.3 294.8 299.8 305.9 310.1 314.4 318.2 322 324.8 327.8 330.4 333.9 334.4 333.6 331.7 332.1 331.1 327.5 324.5 321 315.6 308.4 303.1 299.9 296.7 290.4 281.4 276.6 271.3 266.4 260.1 250.4 243.6 240.4 235.1 230.7 222.3 211.1 214.8 213.2 211.3 210 208.7 208.4 207.6 206.4 203 205.1 207.5 206.3 205.2 205.9 206.3 205 204 205.3 203.1 198.9 187.1 189.4 199.4 203.6 207.3 209.5 214.3 219.2 226.9 234.8 240.8 247.1 253.9 260.9 268.4 274.2 278.3 280.1 280.6 281.1 283.3 283.6 283.7 281.9 273.6 264.4 259.2 255.3 251.7 249.3 247.7 246.6 245.2 242.6 243.7 244.7 242.9 238.9 233.6 228.2 222.7 216 210 202.9 197.3 191.6 187 182.3 178.6 175 172.3 170.4 168.4 155.6 151.4 156 160.9 162.5 163.9 162.8 158.4 159.9 162.5 164.1 163.2 162.4 161.3 162.3 163.4 161.6 161.1 160.5 159.9 160.9 159.4 158.1 156.9 155.4 152.9 151 149.2 147.6 146.4 146.1 145.8 141.1 139.1 136.7 134.4 133.2 131.1 128.9 127.3 126.6 124.8
412.7 414.8 415.2 410.9 398.9 384 370.7 357.5 344.7 333.3 322.1 311.9 302.6 296 288 280.2 270.9 264.6 257.7 248.8 252.2 254.3 256.4 258.5 265.3 270.7 275.6 280.3 283.2 284.9 285.7 286.8 285 282 280.3 279.5 279.8 279.6 279.3 278.6 278.5 277.1 276.4 276.2 274.9 269.2 276.8 285.8 291.4 295.9 301.6 307.8 312.4 315.5 318.4 320.1 321.3 321.6 322.6 322.1 321.8 321.3 319.1 316.9 316.2 313.6 310.2 305.8 301.8 297.9 294.8 290.7 284.1 278.5 272.8 268.5 262.2 256.7 246.8 239.5 234.3 228.4 217.5 208 216.7 215.5 213.2 210.7 208.8 207.5 206.6 204.9 200.5 199.3 199.5 200 201.7 204 204.9 205.2 204.1 203.5 202.7 199.6 195.2 185 196.5 200.9 204.6 207.5 210.9 216.7 223.4 231 237.2 245.2 252.9 259.9 266.8 272.5 276.4 278 278 278.6 279 280.1 278.4 273.8 263.8 257.8 251.4 246.6 244.5 243.3 245.1 245.1 244.2 245.3 247.4 249.2 250.4 246.6 242.9 236.8 231.1 223.4 215.9 208.3 201.3 195.7 190.9 186.3 181.3 177.2 174.3 172.3 170.7 169.3 160.9 152.1 150.3 153.9 157.3 155.6 154 147.8 152.8 156.2 161.3 162.6 162 160.8 161.7 162.1 161.2 158.6 159.1 159.1 157.8 156.4 155 153.3 151.7 149.8 148.3 146.4 145 143.4 142.1 142.2 136.7 135.2 132.6 130.1 128.4 127.1 126.7 123.9 122.7 121.4
406.9 408.3 407.1 405 397.4 381.9 367.6 354.3 341.5 329.9 319.8 309.4 301.2 294.6 289.1 282.4 274.2 266.7 258.1 250.4 246.5 251.9 253.4 256.3 261.6 267 271.6 275.6 278.9 281.5 282.7 283.7 283.4 281.5 280.3 279.4 278 276.9 276.1 275.9 275.5 273.9 273.8 273.9 272.5 266.8 273.3 282.2 287.6 291.4 295.9 302 305.9 309.7 311.6 312.8 312.6 312.2 312 313.3 312.8 312.1 311 309.3 306.3 303.9 301.7 299.6 295.8 292.2 289.2 284.3 278.3 273.5 267.9 262.9 256.3 249.8 242.1 233 227.2 211.2 207.6 214.6 213.5 211.6 210.2 208.5 209.3 207.1 204.7 202.7 199.8 198.5 198.1 197.9 197.5 199.1 201.9 203.8 204.7 202.4 200.9 198.2 187.1 191.5 197.8 201.3 204.6 208.8 212.7 219 227 234.2 241.7 248.8 256.8 264.3 270.3 273.8 276.2 277 275.9 276.4 275.6 270.8 263 256.9 250.6 245.7 238.9 236 235.9 236.9 238.6 240.6 244.5 248.3 253.6 256.1 255.2 251.6 246.8 241.2 231.6 222.1 213.3 206.1 199.9 195 190.3 185.5 180.6 176.5 174.5 172.9 171 169.3 169.7 163.7 156 149.6 149.3 148.6 146.9 144.6 147.3 149.9 153.1 157.2 159.9 159 158.8 159.8 159.5 158.3 155.2 155.9 154.7 153.4 151.5 149.8 148.1 146.5 146 142.2 140.9 139.6 138.1 135 132.2 131.1 129.6 127.5 126.2 125.7 126 122.2 119.8 118.5
401.8 402.8 398.8 396.9 391.8 381.3 365.6 351.8 339.5 329.4 319 308.5 300.8 294 288.5 283 277 269.4 262.3 252 243.9 250.7 251.2 253.7 257.8 262.1 267.2 271.1 274.7 278.3 279.7 280.5 280.4 280 279.4 278.1 276.8 276 274.4 273.7 272.4 271 271.1 271.3 267.4 265.6 271.3 278.8 282.7 286.3 290.3 294.6 298 300.6 302.7 303.5 304.6 305.2 305.3 305 305 304.9 304.6 302.5 300.3 299.1 297.4 294.6 290.2 285.7 282 276.9 271.8 267.3 261.3 254.3 246.6 239.7 234.2 220.7 211.5 206.3 212.4 212.1 210.1 208.9 207.5 207.8 208.5 206 204 202 199.4 197.5 197.3 196.7 196 196 197.8 198.7 200.7 201 199.1 198.4 188.2 170.7 193.3 200.2 204.4 207.9 213.1 221 229.3 237.6 244.5 251.6 259.1 265.7 269.9 273.4 275.4 276.7 277.1 273.3 265.4 259.1 252.7 247.1 241.7 234.9 232 232.1 231.6 233.7 237.4 241.9 248 255.1 260.6 263 261.2 255.3 246.9 235.3 225.8 218.6 211.1 204.4 199.6 194.5 189.7 184 180 178.1 175.5 174.1 173.4 172.8 171.9 171.3 169.3 153.7 147.9 145.6 145.1 144.4 143.7 142.8 142.1 146.9 152.8 155 156.1 157.4 157.2 156.1 152.9 151.8 151.8 150.5 149.1 146.5 145 144.4 142.9 139.2 136.8 135 132.3 129.7 128.5 127.7 127.1 126.6 126.5 123.9 120.9 119.5 118.5 117.3
397.1 397.4 394.9 388.7 383.1 375.9 364.5 352.5 340.7 329.4 319.5 309.1 301.2 294.9 289.4 284 278 271.8 263.3 254.7 242.1 247 249.8 251.2 254.3 259.2 263.9 266.6 270.3 274.1 276.5 277.3 277.6 277.3 276.8 276.1 275.4 274.3 273.3 271.9 269.3 268.4 268.5 268.6 262.1 264.7 269 274.5 279 281.8 286.1 289.5 292.5 294.7 296.4 297.4 298.2 298.2 298 298 298 298 297.1 294.9 293 291.7 289.4 286.2 283.2 277.9 272.5 267.7 262.6 256.9 247.7 239.2 235.9 232.9 223.7 215.8 208.9 205.2 205.9 204.1 204.9 206.3 203.7 203.2 204.3 204 203.1 202.3 199.3 195.9 195.2 194.5 194.9 194.9 194.8 195.5 197.1 196.8 196.6 196.4 189.9 166.8 187.2 199.1 203.9 209 215.7 224.4 232 240.2 248.4 255.3 260.6 265.3 269.4 272.9 272.2 270 265.2 259.9 254.1 248.4 242.4 236.7 232.8 228.9 229.3 230.7 232 235.7 241.8 249.7 256.5 262.2 265.3 262.6 254.7 244.4 232.4 226.2 220.2 214.5 208.8 204.4 199.8 195 187.4 186.1 183.9 182.3 180 177.9 176.1 175.2 174.4 173.9 171.1 169.4 166 165.3 164.5 162.6 158.6 156.6 147 139.4 146.4 151.9 152.5 153 154 152 150.1 147.3 148.6 147.7 146.3 144.6 142.8 142.2 137.9 135.4 134 131.5 131.7 131.5 129.3 127.4 126.6 126.4 126.8 126.3 119.7 117.9 117.3 116.2
390.1 391.1 389.5 385.4 379.1 370.2 361.9 352.2 342.5 330.9 320.6 309.9 302.9 296.4 290.2 284.7 279 273.4 268.1 258.3 249.1 240.4 243.6 246.6 249.8 254.1 259.1 262.3 266.2 270.6 272.9 273.3 273.6 273.5 273.6 273.1 272.8 271.5 270 268.1 264.4 262.6 262.8 264.2 258.5 264.6 267.9 271.7 275 276.9 280.6 282.9 284.7 286.1 287.6 288.9 288.8 288.7 287.7 288.1 286.5 286.7 286.4 286.3 283.8 277.9 276.9 273 268 264.4 259.5 255.8 251.2 243.7 238.8 235.6 229.5 224 216.5 210.6 206.3 203.6 199 196.5 194.1 191.6 193.6 196.1 200.3 198.6 198.7 199.4 195 193.4 192.4 193.3 192.6 192.5 193.2 193.9 194.4 194.1 193.8 193.4 190.3 175.3 179.7 197.8 205.3 210.9 218.1 226.9 235.4 243.1 252.4 258 261.1 264.8 267.5 269.2 267.9 263.4 257.3 251.3 244.8 238.8 232.2 229 228.7 228 229.4 231.2 234.4 241 249.3 255.5 255.6 255.1 253.7 245.8 235.6 229.5 225.8 221.4 217.9 213.3 207.7 203.6 199.5 195.4 189.8 188.2 186 185.7 183.7 181.7 179.3 177.6 177.2 174.2 171.3 169 166.3 164.1 164.9 164 162.4 161.6 154.5 141.7 144.9 150 150.9 151 150.8 149.9 148.6 146.1 145.2 144.5 143 141 139.2 136.9 135 133.2 132.3 130.7 129.8 129 128.7 127.2 125.5 125.3 124.3 120.2 118.9 117.1 115.3 114.6
382.6 383.5 382.8 380 375.8 368.4 357.9 349.6 341 331.1 320.9 311.9 304.5 297.9 292.6 287.1 279.1 274.3 269.5 264 255.5 246.6 236.9 234.5 241.5 247.6 253 257.9 262.9 266.5 268.6 269.9 270.1 269.8 268.8 269.5 267.5 262.2 263.9 261.6 257.4 252 255.6 257.9 256.2 261.1 263.9 267 268.6 269.6 272.2 274.6 276.1 277.5 276.4 275 275.3 275.9 275.5 274.9 272.9 272.7 271.8 267.7 263.7 262.7 261.2 259.3 256.1 253.3 247.3 245.4 242.3 237.8 233.1 228.8 222.6 216.5 211 207.4 204.2 208.8 197.9 193.1 189.8 187.2 187.4 188.6 190.9 191.6 192.3 192.4 190.9 190.2 189.6 189.6 188.7 188.6 189.2 189.9 190.2 190.3 189.8 188.4 183.5 167 175.9 198.1 207.2 215.1 222 231.5 239 246.2 253.5 258.7 261.4 263.6 264.4 263 258.1 252.9 247.6 242.1 237 232.6 230.1 228.2 226 223.1 224.5 227.4 233.4 242.9 249.3 249.6 248 244.9 237.2 231.2 227.5 224.1 221 218.2 214.6 211 206.5 202.4 198.3 194.7 191.6 190.9 190.1 189.1 187.2 183.5 182 180 177 174.3 171.6 168.6 166 164.7 165.1 163.5 161.8 161.1 150.7 140.2 146.9 148.7 149.5 149 148.8 147.8 146.1 145.3 139.7 140.7 139.4 138.4 137.4 135.8 133.9 132.3 130.6 129.5 128.1 127.3 126.9 126.5 126 121.8 119.1 118.1 117.3 115.5 112.6 110.1
374.3 376.2 376.2 374.6 370.8 364.6 355.5 346.8 338.5 330.4 321.6 313.3 305.9 300.1 294.7 289.3 280.9 275 270.9 266.3 262 254.5 248 235.5 232.6 238.4 246.1 252.2 259.1 262.8 264.9 267 268 267.6 266 265.1 263 264.8 261.5 255.9 249.9 246.8 246.2 250 249.2 251.3 258.2 259.2 260.7 262.3 262.6 266.2 267.6 267.8 266.6 263 255.9 253.7 248.5 247.3 247.7 249.4 249.2 250.7 252.4 255.9 255.3 252.2 248.7 245.4 243 240.4 235.7 230.7 226 221.7 216.4 208.6 205.2 204.5 201.3 212 197.3 192.7 190.2 186.8 184 182.5 182.2 182 184.3 185.8 186.5 186.9 186.6 186.1 184.8 184.7 185.2 185.5 186.3 187 185.3 181.4 165.6 177.8 192.1 201.6 210.9 219.8 227.3 233.1 238.9 245.2 250.3 254.8 257 257.6 256.7 253.7 249.5 244.9 239.6 235 231.7 228.5 226 222.4 219.7 217.1 218.9 220 227.2 238.2 243.5 243.7 240.3 232 227.6 224.9 222.9 219.8 217.2 215 211.4 207.8 204.8 200.2 196.9 195.9 196.6 196.3 195.5 191.7 187.2 184.3 181.6 178.9 176.1 173.5 170.8 168.2 166.8 166.1 165.3 163 161.4 161.4 140.5 137.4 140.3 146 147.3 147.3 146.6 145.3 142.1 141.1 137.7 137.8 138.4 137.6 136.4 134.8 133 131.9 130 128 126.4 125.7 124.8 123.8 122.9 120.9 116.9 115.4 115.5 112.5 108.9 109.2
363.1 367.6 368.1 366.5 365 359.8 354.2 346.9 338.3 330.9 322.9 314.6 306.2 300.5 296 290 283.8 277.6 272 267.9 264.1 260.2 255.2 248.3 232.4 230.3 241 247.9 253.7 258.3 261.2 263.2 264.1 265 265.8 265 263.9 262.7 260 255.5 246.5 244.7 244.3 245.3 245.4 244.5 248.6 245.9 248 254 252.5 246.9 255.8 255 249.1 242.5 238 235.4 235.5 235.6 240.1 242.2 242.9 244.9 245.5 247.7 247.1 245.2 241.8 239.8 237.5 232.8 229 223.6 218.9 215 208.6 203.2 201 199.7 198.8 208.3 198.4 194.3 187.9 185.9 184 179.7 178 177.1 177 178.9 180.9 182.6 182.9 182.7 182 181.2 182.1 182.4 183.4 183.6 178.2 172.1 164.4 187.1 196 205.4 215.5 221.9 227.7 232.1 236.1 242.4 246.4 248.7 248.6 246.5 246.6 245.1 240.5 235.8 231.2 226.6 223.1 219.4 215.1 212.8 212.1 209.6 214.3 216.6 220.6 230.3 234.4 231.9 227.3 224.9 221.7 219.5 218.5 215.9 213.4 211.5 208.2 205.2 203.1 200.4 201.1 202.7 203.7 201.4 195.5 189.9 186.2 183.2 180.1 177.9 174 172.4 169.7 167.7 166.3 165.3 164 161.8 161.6 160 156.9 138.7 136.8 139.4 143.5 145 143.1 140.5 137.4 135.7 133.9 135.2 137.2 136.6 135.4 133.3 131.5 130.6 130.5 129.2 125.4 123.5 122.6 121.7 120.5 118.6 116.3 112 110.6 111.1 110.6 109.6
355 359 361.4 359.9 358.2 355.3 350.9 345.5 338.6 330.8 322.6 314.8 308.1 299.7 295.2 290.4 285 279.7 274.4 269.4 265 260.3 256.5 253.4 246.7 227.7 231.3 240.7 246.4 251.8 256.6 257.9 259.4 260.9 262.2 262.4 261.6 260.9 258.6 253.8 246.7 242.7 242.9 244.1 248.8 245.3 244 246.5 245.2 241.4 242.5 246.2 238.9 239.1 238.4 238.3 241.1 241.7 239.5 237.2 234.6 238.1 238.9 239.8 238.9 237.8 237.7 237.2 234.7 233.6 230.6 227.2 224.4 220.1 215.6 211.3 208.2 202 200.5 200 198 198.8 203.4 196 190.1 188.4 187.4 185.8 173.7 173.3 172.5 171.8 173.5 176.1 175.5 176.5 177.5 178.5 178.4 179.1 179.3 177.1 169.8 165 166.9 189.6 197.6 207 215.6 222.4 226.4 229.9 233.6 237.6 238.1 237.7 236.8 236 235.4 230.5 225.8 220.6 216.6 213.3 209.9 206.8 204.3 202.7 203.8 205.7 208.7 212.1 218.2 221.1 221.1 220.3 218.1 216.7 215.3 214 212.8 211.5 209.5 207.6 205.8 204 203.9 205.7 209.1 209.1 202.3 195.7 190.6 186.9 183.6 180 176.9 175.2 172.5 169.6 167 165 163.1 161.7 160.3 159.7 161.6 157.4 155.1 150.8 137.4 135.6 138.6 138.3 136.5 133.7 130.7 133.4 133.5 132 130.5 134.4 134.3 131.3 130.1 129.9 130.1 128.6 125.7 122.4 120 118.5 118.8 117.2 112.2 109.9 110.8 110.7 110.5 109.9
348.9 353.4 354.8 355.1 354.2 352.2 348.6 343.9 338.4 330.8 322.5 315.5 308.8 302.7 295.3 289.8 285.3 280.8 276 271 267.1 263 256.2 251.9 247.8 232 223.7 231.9 240.1 242.7 248.6 252.3 252.9 254.1 254.7 255.9 255.5 254.5 251.9 249 244.7 241.8 242.3 246.6 254.4 250.9 250.6 251.9 248.7 250.1 254.2 248.3 243.9 245.2 247.1 247.8 247 243.6 240.2 235.2 231.8 236.6 237 235.8 231.6 230.8 230.9 228 229 229.3 225.8 223 220.2 218 214.8 208.9 205.6 202.8 199.8 199.7 199.7 200.6 201.9 203.4 190.1 185.6 182.9 174.6 170.9 169.8 169.6 168.4 167.2 166.4 166.6 167.8 168.9 171.1 171.4 172.7 172.8 172.4 164.9 165.6 183.7 190.3 198.9 208.5 215.2 219.4 222.6 225.9 229.6 230.6 229.4 227.8 224.7 222.2 218.2 212.5 207.8 205.4 202.6 201.2 199 198.5 199.2 200.4 202.5 204.6 206.9 210.5 213.5 212.8 213.3 212.8 211.7 211 211 208.9 208.1 207.2 206.3 205.6 204.9 204.9 208.3 211.4 207.5 201.4 194.4 190.2 186.4 182.6 179.6 176.5 173.9 170.7 167.6 163.9 161.9 161 160.1 158.7 157.2 155.7 155.9 152.2 151.5 152.4 150 137.9 135.7 134.3 133.6 133.7 137.3 137.6 136.3 134.5 128.7 122.8 127.9 127.6 127 127.5 127.8 127.1 125.3 122.5 119.2 116.1 113.2 111.7 112.3 111.5 109.9 110.2 110.1 109.9
343.2 349.8 351.7 352.3 350.4 348.5 345.7 341.8 336.8 330.7 323.5 316.4 309.7 303.9 297.8 290.8 285.9 281 276.3 272.4 268.3 263.9 258.3 252.8 249.6 244.6 232.9 220.2 227.2 232.1 239.2 244.4 246.9 249 249.2 250 249.8 246.3 245.4 243 241 242.1 242.3 256.6 251.8 250.2 250.6 250.1 247.6 250.3 250.4 247.9 242.6 242.3 240.2 239.7 239.4 236.9 234.7 226.6 234.6 239.9 239.8 238.1 231 223.6 219.6 220.2 226.2 226.3 223.2 221.3 218 215.8 209.3 208.1 203.9 201.8 198.6 198.6 203.3 202.9 201.8 192 181.1 165.6 162.8 162.5 163 162.1 160.6 160.2 159.9 160.5 162.5 165.4 165 164.7 166.1 165.7 167.3 162.2 166.2 177.1 183.6 188.7 196.8 205.4 210.6 214.9 217.6 220.4 221.6 221.5 219.1 216.5 212.1 207.4 205.3 201.1 198.7 197.5 197 197.1 196.7 197.5 198.3 199.9 201.7 203.8 205.8 208.8 210.1 208.7 208.8 207.6 207.1 207.7 207.7 207.1 207.3 207.5 207.7 206.4 207.5 209.9 209.8 203.2 198.1 193.4 188.5 185 181.1 178.2 172.9 170.1 167 163 159.6 157.8 157.7 157 157.2 156.9 155.5 153.4 149.8 147.2 144.8 143.9 143.1 141.5 138.9 140.7 140 139 137.4 137 135.1 133.2 129.5 121.4 119.7 119.2 118.7 122.7 124.6 123.9 123.7 122 119.1 116.1 112.7 113.4 112.5 111.5 110.6 109.5 109.6 109.4
340.4 346.3 350.1 348.8 346.8 344.7 341.6 338.6 334 329.9 324.5 317.3 310.6 304.9 298 292.5 286.5 281.5 277.8 273.9 269 264 259.5 255.3 250.9 245.9 241.5 224.7 219.1 215.5 222.7 229.3 226.7 236 241.6 230.3 231 242.7 241.9 243 242.5 245.8 245.6 243.3 242.7 242.5 245.2 247.2 247 245.5 241.3 231.5 235.1 233.5 232.3 233.2 233.2 231.8 229.7 226.8 232 234.4 234.8 233.7 231.9 224 215.4 217.7 223.6 222.7 221 219.4 216.8 211.6 209.8 206.4 203.6 204.1 200.2 196.9 196.2 191.1 186.8 167.5 165 166.8 164.4 162.4 162.6 162.7 162.1 161.4 160.3 159.5 159.1 161 164.7 164 164 163.3 160.1 162.5 170.4 175.9 180.6 185.6 191.1 199.2 204.8 209 211.2 211.9 210.5 208.4 205.1 202.6 199.9 198.5 197.3 196.5 195.5 195.2 194.9 194.9 195 195.8 197.8 199.4 200.9 202.9 204.9 205.6 206.4 205.2 204.2 203.1 202.8 203.7 204.4 207.1 209.3 210.5 210.7 210.5 211.6 206.6 200.7 194.1 190.4 186.1 183.2 179.8 174 169.7 164.8 162 158.8 155.4 154.7 154.3 156.2 155.9 156.2 155.4 154.4 151.5 148.7 146.3 144.1 142.8 141.9 140.7 139.9 140.1 139.5 138.2 138.4 136.4 134 130.5 130 128.7 121.7 120.1 118.3 117.6 117 116.8 115 115.1 113.6 112.8 113.8 113.6 112.7 111.7 110.7 109.8 109.3 108.4
335.2 341.2 343.8 344.9 342.9 338.5 334.4 330.7 330.2 328.8 323.8 318.2 311.2 305.8 298.5 293 287.2 283.2 279.2 274.6 269.1 264.2 260.1 256.1 251.8 246.8 239.9 235.5 231.2 220.5 211.8 213.5 214 214.8 218.3 238.5 242.3 243.2 244.5 245 242.1 236.9 237.7 236.8 236.6 236.7 236.9 236.8 236 232.5 228.2 231.8 235.6 235.1 233.5 232.7 232.4 230.9 226.4 223.6 227.9 226.7 227 228.5 227.4 222.7 218.5 212.8 214.7 219.4 216.7 213.5 211.1 208.9 207.4 205.9 205.5 201 190.8 180 171.7 166.4 165.8 165.5 178.6 185.2 178.6 175.7 176.5 177.2 172.8 167.7 163.8 162.3 160.7 159.1 159.2 162.3 163.4 160.3 159.6 161.9 166.1 172.6 177.3 182.4 187.5 192.8 197.7 200.2 201.3 200.9 198.7 196.7 195.4 195.2 194.5 194.5 194.6 194.4 193.8 193.2 192.8 192.7 192.9 194.5 196.6 198.8 200.1 200.8 202 201.4 200.1 200.3 199.4 198.9 198.8 200.7 204.1 207.1 210.1 212.5 213.4 211.6 205.4 198.7 193.3 188.2 184.6 179.7 173.9 166.8 160.1 157.8 156.5 154.1 151.6 150.7 149.4 150.6 153.1 154.5 154.7 153.9 152.7 150.3 148.3 146.5 144.9 144.2 142.3 140.3 138.3 138.4 136.7 135.3 133.6 132.4 129.3 127 127.6 127.1 126.1 120.8 120.1 119.2 118.2 116.9 116.2 115.3 114 113.3 113.7 113.8 112.8 111.9 111 110.1 110.2 109.6
325.4 324.2 319.5 320.3 318 312.4 303.9 296.9 298.6 308.7 316.5 305 298.5 295.8 297.9 294.1 289.8 285.2 280.7 275.5 270.1 265 261 256.9 251.2 245.5 240 241.5 234.6 223.4 215.6 209.7 211.2 228.5 235.7 239.4 242 243.1 240.2 238.8 236.2 232 231.1 231 230.7 230.2 229.7 230.1 228.3 224.1 224.9 229.3 230.8 230.3 229.9 229.2 228.4 227.3 220.8 222.4 226.6 226.7 226.2 225.3 223.4 221.1 217.7 213.2 210.3 213 211.5 209.3 207.8 206.7 205.5 205.2 202.9 186.4 182.3 182.3 170.1 172.7 176.3 183.5 191.9 193.6 191.2 187.4 185.9 182.1 178.3 174.4 170.4 166.4 162.9 159.8 158.6 159.6 160.1 158.6 159.8 161 163 167.3 174.2 179.1 183.1 186 187.1 189.3 189.9 189.8 187.3 186.5 186.2 187.1 188.4 189.2 189.7 189.1 189.9 190 189.8 193.3 195.7 197.4 198.2 198.1 197.9 197.6 195.7 193.9 192.8 193.1 194.1 193.9 193 198.6 203.2 207.6 211.6 213.4 208.9 202.4 196.2 190 184.9 177.7 171.4 162.8 157.3 154.5 153 153.2 151.9 150.9 151.4 152.8 153.2 147.1 149.1 150.9 152.8 152.2 151.6 149.5 147.9 147.2 145.4 143 140.8 139 137.2 135.2 134.4 134 132.5 127.8 124.5 124.1 123.5 124.3 123.1 121.3 120.3 119.2 118.1 117 116.1 115.3 114.5 113.2 113.7 114 113.1 112.2 111.3 110.4 110.6 110.7
297.1 293.9 293.5 294.6 292.5 289.5 286.4 283.1 278.3 278.5 280 279.7 282.5 285.3 288.1 290 290.8 287.2 283.6 277.5 272.7 267.6 261.6 255.6 249.5 243.7 243.1 233.8 227.7 222.7 215.9 206.6 214.1 227.3 232.1 236 238.7 242 237 231.3 228.7 226.8 226.6 227.4 230.8 231 231 226.5 222.1 221.3 216 221.5 224.1 222.8 221.1 222.3 222.7 222.6 217.3 223.6 226.5 226.3 223.7 220.2 218.1 215.8 213.6 211.5 209.3 208.7 208.4 208.6 208.7 206.9 203.3 190.8 182.3 182.3 182.3 186.7 192.1 192 196.3 202.8 203.2 203.8 200.6 196.6 193 188.6 184.1 181.2 177.3 172.8 168.1 162.1 158.6 158.8 159.1 159.4 157.8 158.8 160.4 163.7 169.4 175.1 177.9 179.3 179.6 178.9 178 177.7 177 178.6 179.3 180.8 182 183.1 184.6 186.3 188.3 191.5 193.6 196.7 197.7 197.6 197.1 195.8 191.2 189.3 187.1 185.3 185 184.4 185.2 184.8 185.8 191.4 198.4 204.8 208.1 205.2 198.5 193.3 186.9 180.5 174.5 164.8 159.5 156 153.5 152.8 154.1 156.1 157 158.6 160.1 159.5 158.2 155.6 147.9 147.3 149.5 150.7 150.3 148.8 147.3 147.1 144.4 141.7 139.4 137.3 135.6 134.1 134 130.8 125.8 123.7 120.7 119.4 118.8 118.9 120.8 121.7 120.5 119.4 118.6 116.6 116 115.4 114.5 113.5 113.5 113.7 113.4 112.5 111.6 110.7 110.9 111.4
279.1 281.7 283.5 282 280.5 279.2 278.4 278.8 275.9 270.9 270.9 271.8 272.3 277 278.5 281.9 284.6 287 284.7 280.2 274.3 269.2 262.7 256 250 244 239.4 220.3 220 222.1 214.5 205.7 213.6 224.1 226.4 233.5 233.2 227.6 230.8 227.1 223.6 223 224.6 227.3 231.1 230.2 229.3 225.8 225.6 229.1 227 217.8 211.7 218.5 217.1 215.7 216.2 215.5 219.3 221.5 220.8 219.5 218.1 214.2 212.2 210.4 209.6 209.7 209.3 209.1 208.8 209.3 207.5 198.5 187 182.3 182.3 182.3 195.5 204.1 210 213.6 213.9 214.4 212.8 212.4 208.4 205.8 201.4 193.3 189.2 186.9 184.3 179.1 174.5 168.8 162.2 159.6 158.6 158.4 157.1 157.8 158.2 159.2 162.7 166.8 167.8 169.1 169.9 169.1 167.3 165.3 165.3 167.1 170.9 174 177.3 179.9 179 184.5 189.6 193.6 197.1 196.9 195.5 193.4 190.5 185.6 181 179.3 178 177.3 177 176 176.6 175.3 178.6 183.5 191.6 196.7 196.4 191.9 188.3 183.9 178.2 172.3 163.2 156.3 154.6 153.3 155.7 160.6 162.9 164.2 165.2 164 162.7 160.9 158.4 156.7 152.4 147.5 146.1 147.8 148.5 148.4 147.1 146.5 144 141.1 138.1 136 134 133.5 130.6 126.5 125.6 127.5 125.6 122.7 119.9 118.3 117.8 119.5 121.3 120.5 118.1 116.1 115.5 115 114.5 113.7 113.3 113.5 113.5 112.8 111.9 111 111.2 111.7
278.3 284.6 286.1 286.8 289.8 293.1 293.3 295.4 292.5 289 282.1 279.8 273.5 270.6 268.8 272.8 277.3 281.1 282.3 277.7 273 267.6 261.6 255.4 247.1 240.7 233.5 222.9 216.4 219.5 211.8 203.6 212.8 218.7 219.2 226 223.9 223.7 223.1 221.2 221.8 223.7 226.2 228.8 229.6 228.7 227 222.9 226.2 226.7 224.1 219.6 208.5 210 212.8 213.8 213.1 212.7 213.3 214.3 213.2 211.2 210 209.6 209.1 209.3 210.6 212 209.8 209.7 209.3 204.3 185.3 182.3 182.3 182.3 186.7 204.8 214.2 219.7 225.2 225 222.1 221.2 220.9 220.3 217.2 211.5 206.8 202.4 194.9 191.6 186.2 181.2 176.5 171.8 165.9 160.2 158.5 158.1 157.7 157.5 157 157.2 160.8 161.3 161 159.9 159.7 160.3 159.9 160.1 160.6 161 163 167.5 171.9 173.9 176.3 182.7 186.7 190.7 189.1 187.9 186.6 183 180.2 175.6 172.6 171.2 169.9 169.6 168 167 167.8 166.4 169.9 177.9 181.3 179.2 179.4 178.8 176.7 173.4 169.6 164.5 157.3 153.3 154.3 162.7 166.7 169.9 170.9 169.2 168 166.1 163.2 160 157.4 155.5 151.8 150.1 146 144.9 145.5 144.7 140.3 135.2 142.8 140.3 137.7 134.5 133.9 130.8 127.8 126.6 125.6 125.7 126.3 124.6 123.4 121.3 119 117.2 116.9 117.1 116.5 115.6 115 114.4 113.9 113.4 113.1 113.2 113.3 112.9 112.2 111.3 111.5 112
294.5 298.6 305.5 308.1 309.2 309.8 312.1 312.2 308.3 300.8 293.2 287.9 281.8 276.8 266.2 266.2 271.3 275.6 275.6 269.9 265 261.9 256.8 251.1 240.2 235.6 231.2 222.9 214.9 216.3 209.4 201.9 206.8 209.6 211.8 215 218.4 219.8 218.9 217.6 223.1 225.2 226 228 228.6 227.2 224.3 222 223.6 222.9 221.1 219 212.5 206.7 206.4 210.3 210.9 210.8 211.3 210.8 210.1 209.2 208.3 207.4 207 207.3 208 208.2 208.5 207.3 197.6 182.3 182.3 182.3 182.3 195.5 211.3 221.6 227.3 228.4 228.7 226.5 225.1 226.1 226.9 225.1 221.3 216 210.8 205 198.9 192.7 185.6 180.8 176.3 171.8 167.3 161.7 158.3 157.5 157.4 157.2 157.2 156.7 159.1 159 156.8 156 155.1 154.5 154.8 155.1 156.6 159.9 165.4 162.6 164 165.6 173.9 178.7 180.6 180.6 179.4 177 174.3 171.5 168.7 166 164.8 163.1 161.7 160.4 158.7 159.2 159.7 160 163.3 165.3 163.8 164.7 164.3 165.9 165.3 163.4 160.3 155.8 153.9 156.2 165.1 174.6 177.2 176 173.9 171.3 168.6 165.3 162.3 159.2 156.6 154.3 152.6 150.9 149.2 147.3 145.7 145.7 144 131.6 131.2 128.1 137.3 133.8 132.4 129.9 128.3 127 126.3 126.2 125.3 124.4 123.3 122.3 120.7 120.1 118.5 114.2 114.8 114.6 114.7 113.9 113.4 114.1 112.8 112.9 113 113 112.4 111.6 111.8 112.1
311.2 311.1 317.1 319.8 318.6 317 318.1 315.9 311.2 305.2 297.2 291 284.1 278 264.8 263.5 267.8 269.8 266.5 261.7 256.4 254.7 249.3 239.8 231.3 227.2 219.8 212.4 205.5 205.6 201.8 200.4 200.1 201.7 205.1 207.1 210.8 214.5 214.4 215.9 218.9 221.6 222.6 225.6 225.5 224.7 222.5 220.7 222 221.5 221.2 219.5 215.2 210.2 206 206.8 208.6 207.5 207 208.5 208.1 208 207.1 207.2 207 205.5 203 201.2 198.7 183.5 182.3 182.3 182.3 191.1 204.3 215.7 221.4 226.2 228.1 228.1 226.6 226.3 227.5 230.1 228.1 224.4 220.9 216 211.2 204.5 198.1 191.9 184.5 179.8 174.9 170.3 166.7 163.6 157.5 157.2 157.1 157 156 155.9 156.1 155.7 155 154 153.1 152.2 152.8 153.1 156.2 162 168.5 169.1 162.3 161 169 171 170.5 170.5 168.1 164.1 162 161.7 160.1 159 158.3 158.2 157 157.2 157.3 157.1 158.1 158.3 157.4 156.4 156.7 157.2 156.8 157.4 156.2 155.6 153.4 153.2 157.3 164.3 172.9 179.6 180.2 177.7 174.1 170.3 166.5 163.2 160.4 158 156.2 154.7 153.7 152.5 150.9 149.4 147.8 145.8 142.6 132.2 131.7 127.3 131.4 131.2 130.8 129.9 128.9 126.7 126.1 126 125.9 125.7 124.6 122.7 121.9 120.6 118.1 114.5 113.7 113.9 113.9 113.5 115.4 115.3 113.9 112.6 112.7 112.9 112.4 111.9 111.7 110.7
308.9 313.1 317.2 323.6 324.2 318.6 313 311.2 309 303.6 294.1 286.6 279.9 270.6 261.1 263.7 265.5 261.8 256.4 253.2 248.3 243 236.4 229.7 221 214.7 206.3 200.7 200.5 199.1 199 199.4 199.1 198.1 197 200.4 204.1 208.8 210.5 210.4 214.7 218.4 219.4 221.3 221.9 221.2 219.3 218.8 219.3 216.8 216.6 215.9 215.1 213.8 206.6 204.8 206.9 206.4 205.9 205.1 202.8 205.2 206.7 206.8 205.2 199.1 192.3 187.9 182.3 182.3 182.3 189.9 200.2 210.7 218.3 225.7 232.9 230.5 227.6 227.2 226.7 227.8 229.4 228.9 226.4 224.2 220.4 215.4 208.7 201.4 194.1 186.9 181.5 177.3 173.1 168.5 164.8 161.5 158.8 156.5 156.5 156.5 154.9 153.5 154.6 154.9 154.8 153.9 152.9 152.2 151.7 153 155.4 163.3 169.1 170.2 163.6 155.5 160.6 161.9 161.8 161.2 160.3 159.7 158.7 158 156.8 157.2 157.6 158.4 158.6 158.8 158.7 157.8 157.1 157.6 156.7 155.6 155.1 155.9 155 154.4 154.3 153.4 153.5 160.6 166.3 174.9 180.1 182 180.2 175.3 171.2 167.3 165.1 161.9 159.4 157.5 156 155 154.6 153.6 151.9 150.4 148.8 144.9 139.9 136.4 125.2 124.8 121.3 124.2 123.8 124.6 126.5 126.2 127 126 127.2 126.1 126 122.5 121.3 119.6 116.1 113.5 113.4 113.5 113.7 115.5 115.9 115.1 113.9 112.7 112.5 113 112.1 111.6 111.2 111.7
295.7 305.2 311.9 314.7 318.5 316.2 309.2 304 299.3 295 285.7 275.3 270.3 265.4 253.7 261.6 258.3 252.5 246.1 242.8 236.2 231.3 225.2 214.8 210.4 206.5 202.7 205 206.7 206.1 204.7 199.6 197.8 196.7 195.6 195 197.4 199.7 199.1 205.2 211.3 214 213.8 214.5 215.7 215.3 213.7 213.2 214.1 213.4 214 215.3 214.9 213 209.3 203.7 205.6 206.2 199.2 195.3 194.9 194.9 193.8 194.1 192.6 188.9 182.3 182.3 182.3 182.3 189.3 205.3 211.3 220.4 226 228.4 228.7 228.2 226.9 227.8 229.9 231.6 233 231.2 227.8 224.8 218.6 211.7 203.9 196.1 189.9 183.2 177.6 173.6 169.7 165.7 162.3 159.4 156.9 156.5 155.8 155.1 154.7 154.2 153.1 153.5 154.2 153.7 152.8 152.3 152.2 151.3 151.1 155.2 157.2 158 159.4 158.1 158 159.6 159.9 159.8 159.8 158.6 156.3 157 159.1 162.3 160.1 159.5 160 160.9 163.5 161.3 160.9 158.5 156.6 154.6 154 153.9 153.8 154.5 154.7 155.7 161.5 169 176.4 182.6 183.8 180.5 176.4 171.9 167.9 165.7 163.7 160.9 159 157.2 156.2 155.3 154.8 154.2 152.2 148.9 145.7 143.1 140.4 137.7 135.4 131.5 128.4 121.9 119.7 119.1 122.2 124.5 127.6 127.3 127.1 126.5 125.2 123.3 120.7 116.6 113.6 113.7 113.6 114.3 115.6 115.6 116.4 115.4 114.2 113.2 114 113.2 113.1 112.4 112.2 108.9
267.5 281.3 294.7 300.5 301.3 298.5 291.2 284.1 278.2 273.7 269.7 264.8 260.6 256 249.3 241.9 244.8 245.4 235.9 231.4 226.4 219.9 212.8 208 205.6 211.2 217 218.4 217 215.1 211.7 209.2 207.3 205.7 194.9 194.1 193.2 192.2 193.5 197.7 206.3 208.6 208.9 209 209.5 209.4 208.6 208.2 208.3 209.2 208.4 208.4 207.8 207.3 205.3 203.2 203.5 203.2 199.8 193.2 187.4 187.6 186.5 183.6 183.1 182.3 182.3 182.3 182.3 192.8 205.5 213.6 215.2 224.1 225.4 228.1 228.9 228.5 228.5 231.4 236.1 238.6 239.2 235.1 230.4 224.2 216.8 209 200.8 193.4 186.9 180.2 175.4 170.3 166.4 162.9 160.5 158.1 156.6 155.5 155.1 154.7 154.3 153.8 153 152.2 152.1 152.6 152.5 151.7 151.1 150.5 150.3 149.1 149.2 149.6 150.3 150.4 152.8 155.7 156.5 156.7 156.6 155.2 155 157.2 158 161 158.2 155.6 155.1 156.9 158 158.9 158.8 158.1 156.6 154.2 153.6 153.9 156.4 157.3 159.3 164.9 170.8 176.4 180.1 180.9 178.4 175.7 172.1 168.3 166.1 164 162 160.1 158.3 157.3 156.4 155.5 154.6 152.4 149.7 146.4 143.2 141.1 139.9 137.6 135.2 132.4 130 128 124.9 119.4 118.4 122.2 125.2 126.3 125.9 124.6 121.7 118.7 114.9 113.6 113.9 113.9 114.6 116.4 116 115.5 116.9 115.7 114.5 114 113.9 112.5 110.1 108.8 105.9 104.7
243.7 251.2 268.7 268 265.2 265.6 265.1 266.9 265.4 263 259.6 254.5 253.5 250.5 245.8 236.2 232.8 224.3 217.5 215.9 215.1 212.9 208.7 213 224 231.7 228.7 226.8 223.1 218.8 215.3 210.2 207.4 206.7 200.8 194.3 192.5 191.4 190.9 190.2 199.2 203.4 205.1 206 206.6 206.7 205 204.6 204.4 203.8 203.8 205.3 203.8 202.4 201.4 200.5 202.9 195.9 189.6 185.6 183.3 185.2 182.3 182.3 182.3 182.3 182.3 182.3 196.7 206.6 212.5 218.2 221.9 225.1 228.8 229.8 231.5 231.6 233.3 238.5 242.6 243 240.8 236.9 231.8 224.3 216.7 209 199.8 191.8 184.7 178.2 171.7 167.3 163.5 161.2 159.5 157.7 156.6 154.8 154.7 154.4 154.4 153.5 153.2 152.5 151.7 151.3 151.3 149.6 149.1 148.6 149.3 148.1 146.8 146.4 146.6 147.3 147.1 146.6 148.3 150.5 150.3 150.3 152.2 158.5 157.4 155.8 153.4 151.2 152.8 155.3 156 155.2 153.9 153.6 152.9 153.8 154.8 157.4 160.5 164.1 169.8 176.2 180.1 182.1 180.3 176.1 173.4 170.9 167.9 165.4 162.9 160.9 159.4 158.5 157.7 156.8 155.9 154.8 152.7 150.4 147.6 144.8 141.5 139.5 139.1 136.7 135 132.5 131.4 130.8 127.9 123.8 118.9 118.6 121.9 123 122.3 119.6 116.2 114.3 114 114.4 114.9 114.9 115.8 117.4 116.3 115.5 115.9 115.2 112.6 111.4 109.5 106.9 105.3 105 104.7 104.4
237.4 231.2 231.5 237.1 240.5 243.8 245.8 253 254.2 253.1 246.2 244.5 243.7 241.9 236.5 228.7 219 212.8 212.8 212.8 215.3 223.5 227.5 232.4 238.9 238.9 236.8 233.2 226.6 222.2 217.8 212 207.5 207.1 205.4 202.8 195 191.5 190.5 189.2 188.1 193 195.7 198.4 203.1 203.3 203.9 204 203.7 203.4 205 204.4 200.7 199.7 197.9 195.2 193.4 186.5 182.6 182 182 183.4 182.3 182.3 182.3 189 184.1 201.2 206.3 208.7 213.9 218.6 222.9 227 230.7 231.3 233.3 235.9 241 245 246.6 246.3 243.1 238.1 232.1 224.3 216.1 208.8 199.1 190.9 183.6 176.8 171.3 167 164.5 161.8 158.9 157.8 156.6 155.4 154.4 154.3 154.9 153.5 152.7 152.4 151.9 150.9 150.1 150.2 149.4 148.7 147.9 147.3 146.4 145.5 145.4 145.4 145.5 145.7 145.1 144.7 145.7 147.5 147.7 151.3 151.7 149.6 150 150.3 151.1 151.1 151.5 152.5 152.9 152 152.7 154.7 158.2 161.2 165.7 170.9 178.1 180.9 181.7 178.5 175.4 171.3 168.4 166 164.3 162.5 160.6 158.4 157.5 157.1 156.7 156.3 155 152.9 150.1 146.9 144.3 141.6 139.5 137.9 137.6 136.2 134.7 132.7 131.7 130.1 127.7 124.2 118.8 117 118.5 118.9 116.6 115 115.2 115.4 115.3 115.5 115.7 115.9 115.7 116.3 116.5 114.5 112.1 110.3 107.5 106.6 105.5 105.5 105.4 105.8 104.7 104.9
224 224.5 232.9 239.6 227.1 223.5 227.1 231.9 234.7 235 234.5 234.5 233.3 231.2 226.7 223.4 216.5 212.8 217.1 224.6 232.2 235.1 239.5 243.2 243.7 244.7 241.6 237.3 233.2 228 222.1 217.6 211.9 207.2 206 205.3 202.6 198.5 191.4 188.9 188 187.1 186.6 189.4 197.8 198.8 200.6 201.5 201.2 201.5 199.1 200.3 199.2 197.7 190.6 185 180.9 181.8 181.8 183.5 184.8 185.6 186.2 187.7 192.2 196.7 191.6 201.6 204.5 211.6 214.9 218.8 222.5 225.8 228.1 232.6 238 242.8 247.6 249.9 249.2 247.8 244.2 239.9 232.9 225.3 217.3 208.7 200.2 190.8 183.9 178.3 173.4 169.2 165.9 163.3 159.6 157.6 156.3 155.7 154.1 154.8 154.9 153.4 152.2 151.9 151.6 151.2 149.4 149.8 149.4 148.2 147.4 147.5 147.1 146 144.5 144.6 144.7 145 144.4 144 143.5 144.6 146.6 146.5 146.4 146.9 147.9 148.2 148.3 148.4 149.2 151 151.4 151.2 154 157.7 161.2 165 170.2 175.2 178.9 178.9 175.9 172.9 170 166.4 164.2 162.3 160.7 159.8 158.8 157.4 156.9 156.4 156 154.8 152.5 150.4 147.4 143.5 140.9 139.2 137.4 136.4 136 134.7 134.1 132.4 130.7 128.7 126.8 124.4 120.4 117.8 116.2 116.2 115.8 115.2 117 116.8 116.9 116.8 116.3 116.2 114.5 111.7 109.9 108.1 107.4 106.3 105.8 107.5 107.8 107.5 107.5 107.4 106.1 105.3
240.9 244 244.2 242.5 234.8 218.7 219.7 222.2 223.5 226.2 227.9 229 227.6 225.4 222 217.8 213.9 214.1 225.1 234.3 238.9 243.2 245.4 249.6 246.6 243.2 240 235.3 233 229.1 225.1 222.7 217.9 213.4 208 206.4 203.9 198.7 195.2 190.1 189.9 186.5 186.4 185.7 186.2 189.6 193.3 196 194.2 192.5 194.7 195.6 192.7 189.6 183.8 180.4 181 182.2 185.5 186.6 188.6 190.3 193.7 195.1 198.9 200.3 199.9 198.9 206.4 211.3 219 218.9 223.1 225.8 231.7 237.8 245.1 248.9 252.5 254.1 254.3 252.6 248 241.9 235.5 227.4 218.8 210 201.9 194.3 188.4 183.1 178.4 173.3 169.7 166.4 160.9 157.3 156 155.6 154.9 155.3 154.9 153.4 152 151.4 151.2 151.1 149.7 149.2 149.3 147.2 147.1 147.4 148.4 150.2 147.3 143.2 143.9 144.1 143.8 143.5 143 142.3 143.7 145.4 145.4 145.6 145.9 146.1 146.9 147.6 148.4 149.4 148.5 151.8 154.8 160 163.5 167.3 170.4 173.6 174.7 173.4 170.2 167.5 164.8 163.1 161.1 159.7 158.8 157.9 156.8 157 156.6 155.8 155 151.5 149.5 146.7 143.5 140.5 138.6 137.2 135.5 134.9 133.5 132.2 131.5 130.8 128.6 126.9 125.8 124.5 122.3 119.3 118.8 115.6 115.7 117.7 118 116.7 115.2 114.5 112.8 112.2 110.2 107.7 108.1 108 110.6 109.8 109.2 109 108.6 108 107.2 106.8 106.4 105.7
238.5 240 242.5 241.7 239 222.9 215.7 216.6 218.2 224.1 227.4 228.7 226.5 222.3 218.9 217 217.4 225.1 238 243.9 247.8 250.9 255.3 254.4 250.8 247 243.1 237.7 231.8 227.1 225.5 222.5 220.4 215.6 211.6 206.9 203.5 201.3 197.5 195.7 196 194.6 189.2 184.6 184.6 183.9 183.6 182.6 184.4 185.1 186.8 183.4 181.1 180.2 179.6 180.1 182.3 187.7 190.5 192 193.3 196.7 200.2 201.9 202.3 203.5 202.3 203.2 207.3 212.3 220.2 223.1 226.1 232.4 241.1 247.1 248.8 250.7 254.8 258.4 258.3 256.5 251.9 246.1 238.2 230 221.1 213.6 206.2 199.3 194.7 190.1 183.5 178.4 173.7 168.9 163.7 159.5 155.7 154.9 155.8 156.6 154.9 153.4 152 151 150.7 150.4 149.8 148.9 150.8 152.6 151.8 150.6 151.7 151.7 150.2 147.8 142 142.6 142.6 143 142.5 141.3 140.6 142.3 144.8 144.9 145.4 144.2 145.2 146.1 146.9 146.9 147.8 151.8 157.5 161.8 164.8 168 170.6 171.7 171 168.9 166.2 163.5 161.8 160.5 158.7 157.3 156.6 155.8 156.1 156.6 156.5 155.1 151.7 148.2 145.3 142 140.8 139 136.7 135.2 133.7 132.4 131.2 129.9 129.8 128.6 128.1 127.2 126 124.4 122 120.8 119.7 117.2 116.2 116.9 116.5 115.9 113.7 112.5 111.4 110.3 109.2 111.9 111.8 111.9 112.1 112.4 110.9 110.5 109.5 108.7 108 108.2 108.6 108.5
233.6 235.4 237.5 237.6 233.6 228.9 216.2 216.5 220.9 227 232.6 234.8 232.5 227.8 225.4 227.1 232.9 244.5 252.7 257.5 258.8 258.7 256.9 255 251.7 247.6 242.9 237.7 233.9 229.5 223.9 220 217.5 214.5 209.6 206.6 205.1 203 200.5 197.3 200.6 199.4 197.9 186.2 182.8 182 182.9 182.2 181.2 181 180.9 179.5 179.5 179.4 179.6 180.1 184.4 187.6 194.7 200.2 200.4 201.9 204.4 204.7 205 205 205.4 207.1 209.9 216.3 223.5 227.6 232.3 240.3 245.9 249 252.1 255.5 257.4 257.7 257.9 258.6 255.3 249.5 241.7 232.6 224.2 217 210.7 205.3 200.8 195 188.7 181.9 176.4 172.8 168.5 164.8 160 154.3 154.5 155.4 155 153.6 152 150.9 150.6 150.3 149.7 150.9 152.3 154 153.4 152.7 153.4 153.3 151.6 150.4 148.7 144.4 140.8 140.9 142 141.1 140.3 139.8 139.5 145.6 143.6 141.6 142.9 143.4 143.9 144.5 148.7 153.1 159.1 163.5 166.4 168.3 169.5 169.2 166.5 165.3 162.1 160.7 159 157.1 154.9 153.6 153.2 152.4 153.6 154.4 152.5 149.7 147.1 145.6 143.2 140.8 138.6 137.1 134.9 133.3 131.7 130.4 129.1 127.9 126.8 126.8 126.6 125.5 125.1 124.1 122.3 121.3 119.8 117.9 116.4 116.5 115.9 114.7 112.9 111.1 110 112.8 113.3 114 114.2 114.2 114.1 113.5 112.7 112.2 112.3 112.2 111.3 111.5 112.3 112.7
227.1 228 229 229 229.4 221.4 217.5 231.7 230.4 229.1 231.5 234.7 234.2 230 228.8 233.6 250.2 262.5 266.7 267.8 262.1 257.9 254.9 252.8 250.3 246 241 236.5 232.5 227.5 224.2 221.1 217.1 213.4 210.5 208 205.4 201.5 196.8 196.5 196.3 195.6 193.1 188.1 183.6 181.8 182 181.8 181.5 181 180.7 179.4 179.7 180 180.3 180.3 185 188.3 194.7 201 201.6 204.3 204.3 205.7 206.1 206.1 207.6 211.2 217.5 225 233.2 238.8 242.3 245.3 249.2 253.4 255.8 257.7 257.4 258 259.5 259.9 255.2 249.5 242.9 234.6 225.7 217.7 211.1 208.1 203.1 196.5 189.4 184 178.5 175.2 171.8 168.7 164.5 158.4 153.6 154.4 153.3 152.7 152.3 151.6 151.2 151.4 152 153.2 152.8 154 153.7 153.5 153.6 153 152.1 150.7 149.4 147.9 145.2 141.2 141.3 139.2 140 139.5 139.1 138.3 138.5 138.8 139.7 140.1 142.4 145.5 149.5 154.7 159.9 163.3 165.3 167 166.9 165.2 162.4 160.4 158.5 157.2 155.4 153.1 150.9 149.6 149.4 149 149.5 148.5 147.4 145.5 143.1 141.5 140.1 138.2 135.1 133.2 131.4 131.3 129.7 128.4 127.1 126 125 124.4 123.6 123 123.5 123.8 122.5 120.9 119.6 118.4 116.7 115.6 113.1 112.4 112.8 113.3 114.2 116 115.9 116.1 116.5 116.6 116.4 116.2 115.6 115.5 114.9 114.4 114.8 114.1 114.2 113.7
216.9 222.5 226.5 227.7 225.4 218.4 215.9 225 231.6 232.5 231 231.3 230.5 226.8 230.4 251.8 270 274.9 272.9 268.4 263.3 258.8 255.5 251.7 248.5 244.7 238.6 235 227.6 226 224.3 221.1 217.8 214.1 210.9 207.5 205.6 202.5 199.9 200.3 197.1 191.5 190.5 185.6 183.1 181.6 181.3 180.7 181.2 181 180.5 180.5 180.4 180.7 181 181.8 185.5 189.7 194.7 197.6 199.9 201.3 204.7 206.6 207 209.8 215.8 219.4 225.5 234.8 243 247.5 250.6 253.7 256.9 257.5 258.2 257.6 258.1 258.7 259.9 256.7 252.5 244.7 238.6 231.6 222.1 215.7 210.6 205.6 200.4 194.2 187.5 182.7 179.2 176.1 172.7 168.7 164.6 160.3 156.8 155.5 155.2 155.4 155.3 154.3 152.7 153.1 152 154 153.6 153.5 153.8 153.7 153.1 152.4 151.2 150 148.7 147.8 145.6 144.1 143.4 142.1 140.4 139.2 138.7 138.4 137.6 137.1 138 139.1 143.3 146.6 151.8 156.2 159.2 162.4 163.9 163.4 162.4 161.2 158.9 156.9 155.5 153.9 151.3 148.8 146.8 146 145.7 145.2 144.2 143.3 144 139.3 133.9 131.4 128.9 132.8 130.7 130 129.1 129.3 127.6 126.4 125.2 124.2 123.6 123.1 122.2 122.1 121.9 121.5 121.2 119.5 118 116.8 115 114.9 116.4 116.7 117.5 117.1 117.9 118.4 118.8 118.7 118.9 118.8 118.6 118.5 118.1 117.4 116.7 116.3 116.7 115.1 114.6 113.3
210.5 214.8 217.9 218.6 218.4 218.8 214.4 219.9 226.2 231.1 231 229.7 226.4 225.9 239.8 271.6 278.8 277.7 274.2 268.8 263.6 257.4 252.1 246.5 240.2 236.8 230.3 225.8 226.4 225.8 222.5 219.5 216.2 212.9 209.7 206.9 204.8 201.4 200.7 200.6 199.8 193.1 189.4 184.8 182.4 180.7 179.4 178.5 180.3 180.9 180.7 181.5 181 181.6 181.9 183.6 185.6 188.8 191.1 195.8 200.5 203.8 206.5 208.6 211.5 216.7 224 229.9 236.9 243.4 248.7 251.5 254.3 257.3 259.3 258.9 258.2 258 258.5 259.3 256.5 251.4 244.8 237.6 230.4 223.3 216.1 208.1 201.1 198.1 193 188.8 183.6 180.3 177.3 173.9 169.6 166 163.9 161.9 159.6 159 158 158.1 158.2 156.7 155.1 152.6 150.2 152.5 153.4 153.3 153.4 152.9 152.2 151.4 150 148.7 147.4 145.9 144.1 142.9 141.8 140.6 139.4 138.8 138.3 138.4 137.4 136 136.8 141.5 143.4 147.7 152.7 156.4 158.8 159.9 159.9 159.4 158.2 157 155.2 153 151.6 151.4 149.1 146 145 145.7 146.3 146.4 144.8 143.9 142.6 141.1 138.3 132.2 131.8 127.1 126.7 127.3 126.8 126.4 125.6 124.4 123.4 122.7 122.3 121.8 121.2 121.5 121.4 120 118.9 117.7 116 116 117 118.8 119.1 119.2 118.8 118.8 119 119.9 120.7 120.9 121.1 121.3 121.3 120.6 119.7 118.6 117.9 117 115.7 114.4 113.8 112.2
204.3 204.6 204.6 206.9 210.2 214 213.2 217.2 219.4 222.6 223.1 223.4 225.8 229.9 249.6 271.1 273.3 273.2 270.9 267 261.8 255 248 240.7 235.3 227.5 230.1 226.4 224.5 222 219.2 216.4 213.6 210.5 207.4 204.1 199.7 194.8 195.3 192.3 189.7 188.3 186.5 183.7 183.6 181.6 177 177.4 180.3 180.5 182.5 182.6 182.1 182.1 182.9 184.4 186.2 189.1 192.9 198.3 203.8 208.9 213.4 216 220.5 224.4 231.2 236.7 242.4 246.5 249.7 252.5 255.5 258.6 259.8 260.2 258.8 257.2 253.9 248.9 243.2 236.6 228.8 224 218.6 212.5 205.3 197.6 193.4 189.4 184.9 181.3 177.8 175.9 172.5 170.5 169 167.1 165.6 164 161.3 160.5 160.8 160.7 160.3 158.6 156.1 153.5 151.1 149.9 151.9 152.1 151.9 151.4 150.4 149.3 148.3 147.2 145.9 144.2 143.6 142.5 141.3 140.3 139.2 138.7 137.9 138.3 137.2 135.3 134.7 142.2 144.1 147.3 151.2 155.1 155.2 154.6 154.6 154.3 153.7 152.9 151 149.2 148.8 149.2 146.9 145.1 144 144.5 145.2 146.2 144.3 142.8 141.8 140.7 136.4 132 128.9 127.2 125.4 125.1 124.7 124.1 123.6 122.6 121.8 121.3 120.9 120.4 120.1 119.5 119 117.7 118.4 117.9 118.1 118.6 119 120.4 120.4 120.2 119.9 119.9 120.6 121.4 122.3 123.3 122.4 122.9 122.1 121.1 119.8 118.3 116.7 115.4 114 112.6 111.4 110.4
198.6 197.4 200.6 204 206.7 206.5 209.4 209.9 210.7 214.8 218.1 222.2 228.1 235.8 246.5 264.4 268.7 267.9 264.9 261.9 258.1 252.4 244.5 237.4 230.2 227.4 228.4 225.3 222.2 219.6 216.3 213.3 210.5 207.3 203.3 198.7 192.6 189.5 189.4 189 187.6 186.7 185.3 184 183.6 181 176.1 175.5 180.8 180.9 183.3 183.5 182.8 183.3 184.7 186.9 190 193.6 199.7 204.6 211.2 216.5 220.7 224.8 228.5 231.3 236.8 240.9 244.4 247.9 250.6 253.1 255.4 257.8 259.8 260.5 260.9 256.8 245.9 232.1 222.3 216 211.3 205.6 201.1 195.5 190.6 185.7 183 179.3 175.7 173.3 171.7 170.1 169.2 169 169.2 166.7 165.4 164.3 162.9 161.6 160.6 159.8 159.1 156.8 155.3 153.8 151 148.6 149 149.8 149.4 149.1 148.5 147.1 146 144.9 144.2 143.6 144 143 142.3 141.6 139.9 138.8 138.4 138.5 138.2 140.5 141.4 135.1 143.4 145.6 147.5 150.2 149.8 149.2 150.1 150.2 149.3 148.5 147.5 146.9 147.4 146.9 145.2 143.4 143 143.2 144 142.7 141.8 140.4 138.8 137 132.5 128.7 126.9 125.5 124.4 123.4 123.3 123.1 122.3 121.5 121.1 120.9 120.7 120.4 120.4 119.4 118.3 120.3 119.8 120.7 120.7 121.3 121.7 121.9 122.2 121.4 120.7 121.5 122.9 123.8 123.8 123.1 123.4 122.1 121 120.3 118.3 116.4 114.7 113.6 112.2 110.8 109.3 108.2
198.3 197.5 197.8 200.1 203.6 205.6 205.5 204.3 211 216.2 219.9 225.6 231.1 236.6 242.7 249.7 257.4 258.5 258.8 256.3 251.7 243.1 242.7 232.8 226 226.6 225 223.2 220.4 216.8 212.9 208.7 205.6 200.7 197.5 193 189.2 186.7 185 185.1 185.7 184.4 184.2 182.9 181.5 176.6 173.4 180.9 181.8 182 184.2 184.5 184.6 185.6 187.9 190.7 194.5 198.3 206.6 213.9 218.8 222.8 226.8 231.3 234.4 236.9 240.1 242.7 245.8 248.8 251 252.6 253 254.9 257.4 258 248.8 239.8 227.4 215.2 209.8 205.7 201.2 194.6 189.9 186.3 182.1 177.8 176.4 174.9 172.3 170.4 169.3 168.5 167.6 167.1 167.9 165.3 164.1 163.9 162.8 161.2 159.7 158.3 157 155 153.7 152.8 149.1 147.6 147 147.3 146.8 146.4 146.2 145.8 144.1 142.9 142.2 143 144.5 143.7 143 142.3 141.8 140.2 139.7 141.4 141.3 140 140.8 138.6 140.5 143.1 144.9 145.8 145.5 144.9 146.3 146 145.2 145.3 145.1 145.4 147.1 144.4 142.4 141.1 140.9 141.1 139.4 138.2 137.2 136.7 134.9 133.1 129.5 126.7 125.5 124.8 123.8 123 123.2 123.3 123.5 124.7 124.2 123.8 123.8 122.1 121.2 120.2 119.3 121.4 119.7 120.7 122.2 123.1 123.5 122.9 122.8 122.3 122.9 124.1 124.7 124.3 123.2 122 122.5 120.3 119.5 117.8 115.7 114 112.7 111.7 110.3 108.9 107.6 107.5
201.3 201.1 200.5 198.2 198.9 200.7 201.8 201.7 206.2 212.2 215.4 219.8 225.3 230.7 234.8 238 242.1 247 248.5 245.9 240.8 238.2 229.2 222.6 226.2 222.2 217.5 214.3 214.1 210 206.1 202.1 197.7 193.6 192.4 189.9 191.8 189.4 187.4 184 183.6 182.9 183.4 182.6 179.9 172.3 178 183.7 184.1 183.6 185 187.7 188.8 189.7 193.1 196 200 206.4 213.2 219.5 227 232.7 238.3 241 243.6 242.3 242.9 245.4 246.4 248 250.8 253 253.2 252.2 251.1 239.4 228.7 219.8 213.3 208 203 198.5 193.6 188 183.2 179.1 176.9 174.9 173.6 171.9 171.5 171.6 170.3 169.3 168.4 167.1 166.4 164 162.8 162.6 162.1 158.7 157.4 156.8 154.8 153.1 153 151.2 148.1 147 145.8 145 144.5 144.6 144.2 143.7 143.2 143.8 143.8 143.5 144.5 144.2 143.5 142.9 142.5 143.3 143.1 142.3 141.4 140.5 140 138.2 134.7 140.1 141.9 142.8 142.7 142.3 142.8 142 141.2 141.9 142.7 143.2 144.9 141.3 139.8 138.5 137.7 136.9 135 133.1 132.7 132.3 131.5 130.1 126.7 126 125.3 124.7 123.6 122.6 123.9 125.3 126.5 128.4 127.7 126.9 124.7 122.6 122.3 121 119.7 121.7 121.3 120.9 122.4 123.6 122.7 123.8 123.2 123.2 123 123.7 123.5 122.6 122 121.3 120.2 118.8 116.8 114.8 113.3 111.9 110.7 109.7 108.5 107.2 107.7 107.6
203.5 202 198.9 197.4 198 196.9 197.1 199.2 201.6 205.9 209.2 212.4 216.5 220.9 225.3 229.3 230.9 230.3 231.5 228.4 222.8 220.4 219.7 217.8 215.1 213.6 209.5 208.1 204.7 201.9 199.2 195.7 193.5 193.4 194.1 192.8 191.5 189.2 186.3 183.9 184.3 183 183.4 180.4 176.7 169.5 183.5 186.2 185.5 184.6 185.6 189.2 191.8 197.3 200.9 204.1 208.1 214.9 222.5 230.4 237.8 243.8 250.1 256.3 255.3 252.2 250.2 247.9 247.5 248.8 251.8 253.5 251.4 248.4 232.8 224.9 218.9 213.5 207.4 201.8 196.9 192.4 188 181.4 178.2 176.3 175.2 175 174.6 172.7 171.9 171.9 171.5 169.8 167.6 165.8 164.8 162.5 161.4 160.7 160 156.6 155.7 155.4 153.5 151.3 150.8 149.6 147.4 147.1 146 144.7 144.5 144.7 144.6 144.1 144.8 145.3 145.4 144.7 143.5 143.4 143.4 143.4 143.1 146.7 146.6 144.2 143.7 142.4 141.7 141 139.8 129.3 138.3 140.6 141.1 140.6 140.1 140.3 139.9 138.9 137.6 138.7 138.4 137.6 136.6 135.4 134.3 133.3 132.3 129.2 126.7 127.3 128.3 127.2 126.2 125.6 125.1 123.5 122.9 122.4 122.9 124.3 125.7 127.1 127.7 126.1 123.3 122.7 122.6 121.2 120.3 122.6 121.7 120.5 122.4 122.6 122 122.7 123.2 122.8 122.4 122.2 121.6 120.7 119.8 118.8 117.3 115.4 113.9 112.8 111.6 110 108.7 107.8 107.1 107.5 108 108.2
200.3 193.5 204.6 204.3 202.5 200.9 199.8 195.5 198.8 200.4 204.6 206.9 209 210.6 214.1 217.4 220.3 222.4 221.2 215.8 211.5 213.7 213.8 210.8 206.2 205 203.6 202.4 200.6 197.4 193.4 192.3 193.7 194.4 193.5 190.7 187.6 185.7 183.8 182.6 182.8 184.2 182.8 178.2 169.9 174.4 184.3 185.6 185.6 185.5 187.2 190.7 195.9 201.5 206.1 210.2 215.5 222.7 229.9 239.3 247.6 254.4 260.8 263.6 262.4 258.4 253.5 250.5 249.7 248.2 248.1 247.9 240.1 229.7 223.6 218.3 213 207.6 201.8 196.5 191.7 187 182.9 179.9 177.4 177.2 177.8 176.4 174.9 173.4 172.2 171.2 169.5 167.7 165.7 163.6 162.7 160.7 159.2 158.6 157.9 155.3 154.3 153.7 152.4 150.8 149.7 149.2 147.6 147 146.8 145.5 144.9 144.8 144.7 144.8 145.8 146.2 145.5 145.6 145.3 145.2 144.5 143.6 144.7 149.5 150.6 148.7 145.6 143.7 143 143 142.4 139.7 130.4 138.3 139.5 139.3 139.2 139.1 138.8 137.7 136.6 136.2 136.2 136.3 135.2 134.1 133.1 132.2 130.9 128.6 128.9 126.8 125.1 126 125.6 124.6 123.1 122.6 122.5 122.2 121.9 123.2 124.6 125 124.4 124.1 122.4 123 122.4 120.1 120 120.2 121 120.4 121.1 121.1 120.6 121.6 121.7 121.2 120.1 119.2 118.4 118 116.7 115.6 114.2 113.3 112.5 111.2 110 108.4 108.9 110.4 111.3 111.1 110.5 110.8
188.3 200.4 204.3 205.7 205 204.9 204.2 202.7 195.3 194.8 197 199.2 199.6 201.9 204.9 206.9 209.5 214 214.6 208.8 206.3 206.7 201.3 197.2 197.7 196.8 195.6 195.9 194.6 191.6 187.3 186.9 187.7 188.6 187.7 185.9 183.2 182.8 182.7 183.3 180.4 180.9 177.4 174.2 168.2 179 181.4 182.8 184.5 186.3 189.7 193.3 198 203.4 208.9 216 221.7 227.2 234.6 242 248.2 259.2 268.6 267.3 263.8 258.9 254.9 250.8 246.3 242.7 238.6 233 228 222.6 217.3 213.3 208 202.6 197.2 192.2 187.9 183.3 181.5 181.3 180 179.2 177.7 176.3 174.4 170.7 170.5 169.2 167.6 165.6 163.6 161.7 160.4 159.4 158.1 156.4 156.2 154.6 153.7 152.2 151.5 150.2 149 149.4 148.2 146.8 147.1 147.2 146.4 145.1 145.2 144.7 145.1 145.8 145.6 145.1 147.2 146.4 145.5 145.2 146.9 149.6 151.3 150 146.9 143.5 142.4 142.4 141.5 140.2 134.9 133.1 138.2 139.3 138.6 138 138.1 137 135.8 135.4 135.2 135.1 133.8 132.8 132.2 130.8 129.1 129.7 128.4 127.2 125.2 124.4 124.8 124.4 123.4 123.5 122.5 122 121.7 122.1 123.2 122.5 121.7 122.2 121.6 120.8 120.1 119.3 119.8 120.1 120.3 120.4 120.5 120.1 119.6 119.1 118.3 117.8 117.8 116.8 116 114.9 114.1 113.3 112.6 111.7 110.9 110 110 111 112.7 114.2 114.1 113.1 112.6 113.1
189.1 199.2 203.1 204.4 203.6 204.1 203.7 203 201.7 193.7 193.1 193.5 194.6 193.2 196.3 197.9 197.5 199.2 203.1 198.2 202.6 204.7 192.5 189.3 188.6 187 189 190.6 187.5 184 184.8 184.5 184.3 184.1 181.1 182.2 181.7 181.6 181.7 179.4 176.9 175.5 174.2 170.6 167.3 177.3 178.3 179.2 183.1 185.7 190.4 195.9 200.6 205.6 212.9 218.5 223.4 227.8 233.6 239.4 245.2 256.6 265.3 265.8 262.4 259.5 254.1 245 236.6 230.3 227.9 224.2 220.4 216.1 211.5 207.7 203.3 197.9 192.1 187.4 183.8 182.1 181.7 181.8 181.4 179.8 177.5 175.2 172.5 170.4 168.5 167.2 165.9 163.8 161.8 160.3 159.2 158.1 157.2 154.8 154.5 153.5 152.6 152.6 151.1 150.3 149 149.2 148.4 147.3 146.6 146.2 145.9 145.4 145.5 144.9 144.3 144.6 145.3 145 143.9 143.9 144.7 144.5 146.2 149.3 150.2 149.4 146.1 143.4 141.5 140.3 138.8 135.1 126.4 133.7 136.4 137.2 137 137 137.1 136.6 135.1 134.8 135.9 135.4 135.1 134.5 134.3 132.2 129.3 128.5 127.2 126.1 125.3 125.5 125.2 124.8 123.2 123.7 123.3 122.6 121.9 121.2 121.1 121 119.7 119.3 119.5 119.5 119.5 118.7 119.5 120.1 119.7 119 119.9 118.7 118.1 117.5 116.7 116 115.6 115.1 114.9 113.6 113.4 113 112.7 113.2 113.5 113.5 114.3 114.6 115.2 116.3 116.1 115 114.9 115
192.5 197.2 199.9 201.5 202.3 202.5 202.7 203.6 202.7 194.5 194.9 194.3 193 192.8 192.3 192 191.7 191.2 191.2 191.7 190.1 188.8 189.8 192.3 191.4 190.2 187.5 185 183.4 181.6 180.4 178.8 177.9 177.9 177.9 178 177.9 175.8 176.3 174 173.2 171.3 170.1 164.3 170.6 175.2 175.1 176.2 181.3 186.4 192 198 204.6 209.1 214.8 218.4 221.8 226.2 231.2 235.6 241.3 249.3 255.4 258.6 257.9 250.3 236.7 228.8 224.1 220.5 217.5 214.5 211.2 209.1 205.7 202.2 197.9 193.1 186.8 184.1 184.9 185.8 185.2 183.7 182.2 179.3 176 172.8 170.7 168.6 166.7 165.4 164.1 162.5 160.9 159.3 158 156.9 156.1 154.5 152.8 152.8 151.2 151.3 151.7 151.2 149.5 148.7 148 146 144.6 144 142.6 142.8 144.3 144.2 144 143 143.9 144.6 143 142.1 142.6 143 145.9 147.5 149.6 148.7 144.9 142.9 142.6 140.2 125.8 123.1 128.6 134 134.6 136.2 136.3 135.9 136 136.1 135.7 136.3 136.2 135.8 135.8 135.2 134 132.3 130.3 127.5 126 124.9 124.3 123.3 122.8 123.6 122.7 123.3 123.7 123.5 122.9 120.8 121.1 120.5 119 118.1 118.2 118.5 118.4 118.1 119.3 119.9 119.2 118.3 117.7 117.5 116.9 116.2 115.4 114.7 114.3 114 113.8 114.2 114.4 114.8 115.8 116.4 116.7 116.5 116.8 116.7 117.3 117.4 117 116.5 116 115.4
189.1 193.8 196.6 198.2 199.8 200.6 201.1 201.2 200.4 193.4 199.9 201.1 199.6 198.9 197.3 195.7 194.8 197 195.6 190.6 193 194 199 198.6 197.7 196 193.3 190.8 188 185.1 183.4 179.9 177.9 179.2 179 180.4 178.7 179 176 173.8 172.8 172.4 170.5 162.4 171.3 172.5 173.1 176.2 182.3 189.3 195.4 203.7 209.1 211.7 214.6 216.4 219.8 223.3 227.6 232 236.2 241.4 246.4 249.9 241 225.6 221.3 218.3 213.8 211.5 209.1 206 202.9 200.5 197.3 195 189.8 185.8 185.6 189.6 189.5 189.3 186.9 184 180.5 177.1 173.6 171.7 169.8 167.6 165.8 164.5 163.3 161.7 160 158.4 157.1 155.9 154.8 153.8 152.6 151 149.8 149.2 150.2 150.1 147.8 147 146.1 144.2 142.3 142.1 141.1 141.8 143 142.7 142.4 142.1 142.5 142.2 142.1 141.1 141.3 141.9 143.1 144.9 146.6 146.5 144.3 141.9 141.5 140.5 137.1 121.5 126.2 131.4 133.2 135.2 135.7 134.9 134.6 134.6 135 136.3 133.6 133.4 133 133.1 131.8 129.5 127.7 127.2 125.6 125.5 124.4 123.2 123.5 123.1 122.4 123.3 123.9 123.2 121.8 120.2 119.8 119.5 118.5 119.6 117.3 117.7 117.5 117.7 118.8 120.4 119.5 118.7 117.9 117.2 116.9 116.8 117.5 116.4 115.4 115.2 115.8 116.7 117 117.5 118.8 119.6 120.2 120.1 119 118.8 118.5 117.7 116.8 116.4 116 115.5
186.2 190.6 192.8 194.9 196.3 197.7 197.8 196.9 194.6 194.3 200.7 203.2 202.7 201.7 199.8 198.1 196.2 194.5 190.6 193.8 201 208.1 211.5 210.6 206.5 204 200.8 196.7 192.7 188.8 186.1 184.7 183.1 181.4 181.3 182.5 181.8 180.8 176.5 175.8 175 174.1 173.4 160.7 163.3 168.4 174.5 178.8 185.7 193.6 200.7 209.6 213.1 215 216.1 216.4 217.3 219.3 222.2 225.7 229.4 233.6 239.9 234.9 219.3 212.5 212.4 208.2 203 201.6 199.2 196.9 194.4 189.4 187.5 187.7 186.7 190.2 193.6 190.9 190.2 187.5 184 180.5 177.6 174.7 172 170.6 168.9 166.8 164.8 163.7 162.6 161 159.1 157.5 157.2 155 153.1 151.9 151.8 150.2 149 147.9 147.6 146.9 145.8 145 144.1 142.2 140.3 140.4 140.2 141.2 140.9 141.1 141.1 142 142.9 143 141.6 141.2 140.9 141.8 142.4 144.2 142.9 142.6 141.8 140.1 139.5 138.6 137.9 136 121.4 125 131.8 133.3 132.2 132.5 132.5 132.6 132.3 132.5 131.7 131.7 130.5 129.2 128.7 127.4 127.2 127.3 126.2 125.1 123.9 123.6 123.3 122.9 122.5 124.2 123.8 123.1 121.1 120.1 119.5 120.9 118.4 119.1 118.2 116.8 117 117.3 118.8 123.3 125.5 122.5 120.6 121 120.6 119.6 118.8 117.4 116.7 117.1 118.1 119 119.5 120.3 121.6 121.6 121.4 121.1 120.6 119.4 118.1 117.1 116.7 116.2 115.8 115.5
183.3 186.1 188.2 190.7 192.4 194 193.2 192.8 191.4 196.7 197.6 193.2 196.2 198.4 199.1 197.1 200.3 193.5 201.9 208.4 215.5 218.2 218.1 216.3 213.6 209.6 205.3 201 196.6 193.7 189.9 186.4 183.8 183.9 182 180.4 180.8 179.3 177.7 176.8 175.7 173.9 172.8 164.2 159.1 167.2 175.8 182.6 191.3 199 206.5 213.6 216.3 216.2 215.6 216.3 216.2 216.1 216.3 218.5 222.6 226.2 222.5 209.8 205.4 203.7 202.5 197.3 195.5 194.5 191.1 188.9 187 186 186.4 192.1 196.3 196.5 193.3 190.4 187.6 185 182 178.7 175.9 173 170.5 168.6 167.4 165.9 163.5 162.4 161.2 159.9 158.6 157.2 155.7 153.3 151.2 150 150.1 149.6 148.7 148 147.2 145.9 144.4 143.8 142.8 141 139.2 138.5 139 141.2 140 140.2 140.9 141.7 140.7 139.6 140.8 141.8 141.2 141.2 142.1 142.2 140.8 140.7 141.1 139.3 137.7 137.1 137 136.8 134.8 121.3 122.1 133.1 132.8 132.2 131 131 131.2 130.7 131.4 130.9 129.9 127.6 126.5 125.5 127.3 125.8 124.5 123.9 123.1 122.9 122.7 122.4 122 123.6 123.5 123 121.3 119.9 119.8 119.7 117.8 117.1 116.3 116.2 116.2 116.6 118.5 124.2 128 127.5 125.9 124.8 122.9 121.3 120.4 119.4 119.6 119.8 120.5 121.3 122 122.8 122.7 121.9 121.4 120.8 119.6 118.3 117.2 117 116.5 116.1 115.7 115.3
180.4 182.1 182.5 185 187.2 187.7 187.9 188.9 190.7 192.1 190 191.7 198.9 201.4 197.6 198.4 202.8 205 211.2 216.7 219.5 218.5 217.3 215.6 213.2 209.6 205.5 201.9 198.1 194.4 191.1 187.5 184 182.2 179.7 178.4 177.1 177.1 175.4 175.1 173.5 171.3 170.4 168.7 158.6 166.5 175.3 183.7 192.3 199.3 206.4 211.8 213 212.2 211.8 211.8 211.6 211.5 211.7 211.7 213.1 209.4 200.8 197.8 195.1 194 188.4 186.4 187.6 188.1 186.5 186.1 186.4 186.8 197.5 200 198.3 195.4 191.8 188.3 185.6 182.9 179.8 177.3 174.2 171.4 168.9 166.6 165.3 163.5 162.2 160.7 159.4 158.1 156.3 155.1 153.6 151.7 149.8 149.1 148.4 148.9 148.5 148.2 147.4 146.6 144.1 143 141.1 140.3 138.7 137.7 138.1 140.8 139.2 139.7 139.7 140.2 140.5 140 140.7 142.5 143.8 141.8 140.9 140.1 139.4 139.3 139.3 139 137.5 136.2 134.9 134.2 133.4 122.9 120.3 128.6 130 129.9 129.5 130.6 130.6 130.8 131.1 130.9 130.5 127.2 124.6 122.7 124.6 124.2 123.5 122.8 121.8 121.5 121.3 121.1 120.7 121.9 119.4 119.3 118.8 118.5 118.1 117.9 117 115.8 115.4 116.2 116.2 116.3 119.1 122.7 128.1 129.9 128.1 126.2 124.4 122.6 120.6 120.2 120.4 120.7 121.1 122.1 122.4 121.8 122 121.5 120.4 119.2 118 117.2 116.9 116.7 116.4 115.9 115 113.5
176.2 177.9 178.3 178.1 180 180.9 181.6 182 183.9 183.8 190.5 197.5 200 197.6 201 204.3 208.9 212 214.5 216.9 217 216.8 215.7 214.7 211.7 208.4 204.9 200.8 196.7 192.6 189.2 185.9 181.3 180.1 177.1 173.4 171.8 171.6 171.5 170.6 169.3 168.7 167.1 165 155.8 162 174.7 186.7 192.8 195.9 197.7 200.7 201.5 202.1 203.6 205.2 206.8 207.2 205.8 203.5 200.3 193.2 191.6 187.3 186.3 186.8 183.2 183.2 185.2 186.8 188.1 188.8 193.1 203.5 201.6 199.4 196.9 193.8 190.1 186.4 183 179.9 176.7 174.4 172 169.7 167.2 164.7 162.7 160.7 159.3 158.1 157.3 155.8 154 152.8 151.3 149.5 149 147.6 147 148.2 147.8 146.7 146 145.6 143.8 142.6 140.8 139.4 138 137.3 136.8 138.3 138.4 139 140.6 141.7 141.2 141.2 140.8 140.2 139.8 139.7 140.3 140.5 139.7 139.2 138.7 138.1 136.4 134.9 133.7 132.5 131.3 129.5 120.4 119.9 127 127.8 129.3 129.3 130.5 130.8 130.5 130 129.8 127.7 125.4 121.5 122.2 122.8 122.6 121.5 120.4 120.3 120.1 119.9 118.9 117.8 119 119.2 118.5 118.1 117.8 117.5 116.3 114.9 114.2 116.2 116.7 117.5 119.6 123 127.2 129.7 128.2 126.2 124.3 121.9 120.7 120.9 121.2 121.4 121.7 121.8 121.7 121.6 120.5 119.8 119 118.3 117.5 116.9 116.6 116.3 116 114.1 112.5 111.3
172.1 173.4 174.5 174.3 174.5 176.5 175.5 178 179.1 186.5 192.6 194.6 195.2 196.4 201 205.3 209.1 212.6 214.4 215 215.5 215.7 214.8 213.5 210.9 207.6 203.8 199.8 195.4 191.2 187.4 183.4 180.2 177.9 174.2 170.5 167.8 166 166 165.5 165.2 164.5 163.8 163.3 154.7 156.1 174.4 182.6 184.5 183.5 183.9 187.7 189.6 193 197.4 198.8 200 197.4 194.6 189.6 185.7 183 181.8 180.1 181.5 183.3 185.8 186.9 188.8 190.6 192.9 199.5 204.7 203.1 200.4 197.2 192.7 188 185.1 181.5 178.3 175.3 172.7 170 167.1 165.1 163.7 161.6 159.5 157.9 157.6 155.4 153.5 152.9 151.8 150.5 149.3 148.5 147.7 146.6 144.6 146.7 146.9 146.3 144.9 143.4 142.9 140.9 139.8 138.8 137.9 137.1 136.2 137.1 137.8 138.4 140 141.7 141.7 141 139.6 139 138.7 138.5 139.6 140.2 139.3 138.1 137.2 136.3 134.7 133.7 132.6 131.3 130 130 122.5 118.8 123.6 124.2 126.3 126.2 127.6 128.9 128.1 127.2 126.6 124.7 123.4 121.2 120.1 119.8 119.9 118.8 117.8 118.2 118.9 118.3 117.7 117.6 118.4 118.5 118.2 117.8 117.5 117.2 116 114.7 111.8 115.5 117.5 118.2 119.4 121.8 127.6 129.2 128.5 127.2 125 124 122.6 122.8 121.4 121.6 121.5 121.4 121 120.2 119.6 119.4 119 118.4 117.6 116.7 116.3 115.5 113.8 111.8 111.2 110.9
169.2 168.6 170.1 169.7 170.3 172.6 173.7 176.6 176.8 184.6 188.4 190.3 193 196.8 201.6 205 208.5 211.1 213.4 213.8 214.1 214.3 213.9 212.2 210 206.5 202.7 198.8 194.7 190.3 185.8 181.5 178.8 177 175.1 172.2 168.8 164.4 163.5 161.7 160.9 160.2 159.9 159.7 155.5 154.3 164.5 173.5 172.9 173.4 173.3 175.6 177.9 187.3 187.2 187 183.2 179.2 177.8 176.5 175.9 174.8 174.2 178.2 183.7 188 189.6 190.7 192.7 195.9 200.2 202.4 200.2 197.1 192.6 188.7 186.2 182.2 179.6 176.3 172.8 169.3 165.6 162.2 161.5 160.3 158.9 157.5 155.5 155.1 155.2 153.7 151.3 149.5 149 147.2 144.9 144 142.9 140.7 140.6 140.1 141.9 143.7 142.3 142 141 139.3 138.9 138.6 137.8 136.8 135.9 136.3 137.1 137.9 139.5 140.7 140.1 139.7 138.9 138.6 137.5 136.9 137.7 138.9 136.7 136.3 135.6 134.6 134.3 132.9 131.4 130.5 130 129.8 130.4 119.2 119.2 122.6 122.5 122.5 123.2 124.7 124.4 124.1 123.2 122 120.6 119.5 119 117 115.4 114.3 114 115.1 116 117.3 117 116.9 118.5 118 117.6 117.3 117.1 116.9 116.2 115.8 110.2 114 117.4 118.4 119.5 121.8 125.8 128.2 127.9 127.1 125.9 124.6 124.2 122.9 121.6 121.1 120.9 120.5 119.8 118.8 117.6 117.6 118.3 116.9 115.5 114.2 113.7 113 112 111.2 111.7 110.2
167.4 166.2 166 166.3 169 170.3 171.6 172.6 173.7 181 184.2 187 190.6 196 200.3 203.8 207.5 210.1 212.1 212.9 213.2 213.8 212.9 210.9 208.7 205.4 201.5 197.7 193.8 189.6 185 180.8 177.6 175.4 174 172.5 168.6 164 161.8 160.3 157.9 156.6 155.2 154.3 153.5 155.1 161.8 165.5 166 166 165.7 165.4 165.2 167.8 168.1 166.3 166 167.3 168.6 169.1 169.5 168.3 174.8 180.3 185 189.2 191.7 193.7 194.2 194 193.9 192.7 190 186.5 182.5 180.5 178.2 174 170.6 167.4 163.8 160.4 158.5 157.5 157.2 155.6 154.1 153.7 153.4 152.5 151.2 150.4 149.9 148 145.6 142.2 141.3 141.5 142.4 143.6 144.2 143.4 139.7 139.8 140.9 140.6 140 139.1 138.7 138.1 137.9 136.6 135.5 135.9 137 136.3 136 136.7 137.5 138.2 137.7 137.4 136.4 135.6 135.8 136.1 135.6 134.8 134.9 134.4 133.6 133.1 134.4 132.6 132.1 131.9 130.6 126.7 125.2 122.4 121.6 120.9 120.2 119.3 117.6 114.5 114.1 112.4 112.3 113.1 114 116 118.3 118.5 118.4 117.7 115.8 112.4 115.5 115.1 115.2 113.9 115.9 114.3 114.7 113.6 111.1 106.4 106.4 115.2 117.2 118.8 120 121.6 123.1 124.7 126.1 124.5 123.2 122.1 121.3 120.6 119.9 118.5 118 117.1 117.1 116.4 115.5 114.8 115 113.9 112.1 111.3 111.1 110.1 109.4 109.7 109.6 109.1
