ncols 200
nrows 82
xllcorner 340000
yllcorner 800200
cellsize 50
430.4 412.1 394.7 375.1 357.1 342.7 327.9 313.5 299.6 285.6 269.9 260.1 256.4 250.7 242 237.8 243.4 232.6 226 222.6 221.4 216.9 213.5 211.6 212.3 211.8 211.6 211.4 210.8 210.9 205.8 204.2 206.2 205.7 205.5 204.2 204 202.7 190.3 188 187 188.3 187.8 185.5 185.9 184.9 184.5 184.3 184.1 184.2 184.4 184.5 184.4 184 184.2 184.4 184.4 184.4 183.7 183 182.6 182.4 184.6 185.7 183.7 185.2 184.7 183.4 181.8 181.1 180.9 180.8 183 187.4 190.6 192.8 191.8 187.8 186.9 184.3 185.3 184.8 183.2 183.3 184.8 183.6 184 184.4 187.2 189.8 194.4 197.6 200.3 203.1 205.1 206.5 208.3 211 212.8 216 217.2 222.5 225.1 228.4 231.9 237.2 243.1 246.3 250.2 252.8 254.8 256.9 258.2 258.4 256.8 250.4 244.2 235.9 227.7 219.8 212.4 205.9 200.5 197.3 193.7 189.5 184.9 184.7 185.2 184.4 185.2 187.4 187.4 186.5 186.3 183 178.8 175.9 173.1 170 167.7 164.9 165.4 167.7 166.1 164.5 164.3 164.6 163 161.1 158.2 155.4 152 149.3 148.4 147.6 147.4 146 145.6 145.1 145.9 145.2 144 144.3 144 144.3 144.7 145 145.5 144.1 142.5 141.5 141.3 141.2 141.3 141 140.4 140.4 140.6 141.2 140.6 139.3 139.8 139.6 140 140.8 141.9 141.6 141.6 143.6 145.8 147.4 150.1 153.3 152.9 152.3 151.8 152.4 152.6 152.3
432.9 414.1 395.6 381.1 363.4 346.8 330.3 313.4 300.4 287.5 275 261.7 256.5 253.3 249.5 243.2 239.5 231.9 234.4 225.5 220.7 217 213.1 211.8 212 212 211.7 211.8 211.7 210.7 208.8 206.2 205.2 202.4 201.2 202.6 202.3 198.4 188.3 186.9 187 186.6 186.4 185.3 185 184.7 184.4 184.3 184.3 184.7 184.5 184.3 185.3 184.2 184.6 184.7 184.9 185.2 182.9 182.6 182.6 183.3 186.3 183.3 182.2 182.3 183.2 184.3 184.1 182.1 181.8 180.1 180.1 181.7 193.3 194 193 191.1 188.6 186 180.5 180.9 181.2 181.8 183 183.4 183.5 185 187.1 189.3 193.4 197.3 200.4 202.1 204.7 205.9 207.6 209.4 211.8 214.3 216.7 220.5 224 227.1 230.2 234.8 240 244.1 246.6 248.9 250.9 253 254.5 254.2 251.5 246.6 241.9 235 227.9 220.7 213.6 207.4 200.5 196.6 191.6 188.9 186.5 187.1 187.4 188 191.7 195.3 194.3 192.4 192.6 187.1 184.4 180.8 176.1 172.3 169 167.7 166.9 169.7 171.8 169.3 166.8 164.8 163.3 160.9 158.3 155.1 151.8 150 148.3 147.7 146 145.3 144.9 145.9 146.8 146.3 144.1 143.5 144 143.9 144.4 144.9 145 144.1 142.9 142.1 141.4 142.3 140.7 139.8 139.3 139 139.1 139.4 139.5 139.1 139 139.1 139.8 141.1 141.4 140.9 141.8 143.1 145.4 147.7 148.9 149.9 149.6 150.1 150.1 150.8 150.5 150.7
431.7 414.5 397 380.9 364.2 347 330.8 314 300.3 287.2 275.1 265.9 257.2 255 251.4 246.6 240.1 235.8 235.3 227.9 223 217.2 214.3 213.1 213 212 212.1 212.9 212.3 211 209.6 205.1 203.8 203 201.4 199.3 200.6 189.8 188.4 187.1 186.8 186.6 185.8 185.7 185 184.7 184.4 184.4 184.6 184.9 184.7 185.1 185.8 185.5 184.8 184.5 186 184.7 184 184.8 184.4 186.7 185.9 185.1 185.3 182.8 185.5 184.7 186.3 188 190 186.7 180.5 182.9 193.1 192.7 191 188.2 184.6 180.7 180.2 180.8 180.4 181.7 181.4 183.1 184.3 185.3 186.8 189.3 192.6 195.1 197.8 200.1 201.8 203.8 205.5 207.8 210.1 212.2 216.7 219.7 222.5 225.9 229.7 233.2 237.5 242.9 243.8 245.8 248 249.2 250.1 250.2 248.4 243.8 240.2 233.6 227.5 220.2 213.4 207 201.2 196.3 191.3 190.1 189 187.7 190.5 190.7 196.9 200.3 198.3 198.3 194.5 192.3 189 184.8 180.8 176.7 171.7 169 168.5 170.8 173.9 172.3 169.5 167.1 164.2 161.4 158.7 154.8 153.8 155.4 149.4 147.6 146.2 143.8 143.8 146.8 147.5 146.5 144.7 144.1 143.6 143.8 143.2 143.4 143.7 144.2 142.6 142.2 142.5 141 140 139.7 139.5 139 139.2 139.2 139.3 138.8 138.8 139.2 139.8 140.6 140.7 140.5 142.4 143.3 145.1 148.4 147.8 148 148.2 147.9 147.8 149.7 149.6 149.6
432 414.8 396.3 379.8 362.1 346.2 331.2 315.5 302 289 275.2 266.5 259.4 255 251.3 248.1 243.9 238.5 235.6 228.7 223.5 218.6 215.6 214.2 213.7 212.9 212.6 213.6 213.2 210.9 210 206.1 203.1 202.2 198 201.5 200 191.8 190.4 188.6 187.5 186.7 186.3 186.3 185.6 184.8 184.4 185.2 185.3 185.4 185.3 185.2 187.4 187.3 185.8 186.3 186.1 184.9 186.4 186.3 190.6 190.3 188.4 186.7 184.9 183.7 183.1 183.8 186 192.2 192.6 185.7 180.1 184.5 189.1 189.6 186 182.4 179.3 179.4 179.7 180.5 180.8 181.4 182.1 182.6 183.7 184.8 186.1 187.8 189 191.9 193.9 196.2 198.7 201.7 203.6 206.6 210.1 213 216.3 219.5 223.5 226.4 230.2 233.5 236.9 240.4 241.9 243.3 244.3 246.3 247.3 247.8 245.7 241.2 238.2 232.9 226.8 220.9 214 207.5 201.6 196.7 191.5 190.5 189.6 188.7 189.7 191.8 197.4 200.2 199.9 200.4 198 195.3 193 189.1 185.9 181.3 178.4 175.2 172.4 172 171.5 171.5 169.2 166.9 164.6 159.1 158 153.9 151.7 149.6 149.1 147.4 143.8 143.8 143.8 145.4 145.8 145.2 145 144.6 143.9 143.2 142.6 143.1 142.8 142.5 141.4 140.9 141 140.9 140.4 139.6 139.6 139.3 139.2 139.1 139 138.8 138.6 139.1 139.7 140.2 140.5 140.5 142.8 143.2 144.8 145.1 147.1 147.3 147.1 147.8 147.6 148.2 149.3 149.6
434.9 418.5 400.8 381.5 364.6 347.8 334.6 318.6 302.2 291.1 278.4 266.8 260.7 256.2 250.9 247.8 246.2 241.1 233.6 229 224.1 220.1 216.1 214 214.1 214.5 211.9 209.4 207.4 205.9 202.9 202.3 199.2 199 194.7 197.2 195.6 196.9 192.8 190.1 189.5 187.7 187 186.3 186 185.7 184.9 185.7 185.3 185.1 185.7 186.4 188.5 188 188.1 185.6 186 187.9 189.1 190.8 191.5 191 190.9 187.2 184.8 185.3 183.5 183.4 187.8 188.8 186.5 183.8 179.9 181.2 183.7 182.1 179.9 181.1 180.5 181.6 180.9 180.8 181.4 181.7 182 182.5 183.3 185 186 187.1 188.3 190.4 192.8 195.2 199.4 202.1 205.3 209.1 211.7 214 218.1 221.1 223.8 227.3 230.2 232.8 236.2 238.7 240.5 242.4 243.1 245 246.1 246.3 243.7 240.2 237 232.2 226.8 221.2 215.4 209.1 203 197.1 191.1 188.8 188.5 187.4 188.3 191.2 196.2 201 200.8 201.3 201.7 199.5 196.5 194.5 189.9 186.9 185.4 186.5 180.2 175 173 171.1 168.8 167 165.1 161.4 157.5 154.4 151.7 149.6 148.8 148.5 146.6 145.8 145.1 144.8 145 145.2 144.6 144.4 143.9 144.1 143.5 142.6 142.1 142.2 141 141.7 141.2 141.6 140.9 140.2 139.7 139.5 139.4 139.4 139.1 138.9 138.7 139.1 139.8 140.3 141 139.8 140.8 142.3 143.4 145 145.8 146.5 147.3 146.7 146.4 147.8 149.3 149.8
436.5 421.8 404 386.9 369.5 352.2 335.7 319 305 292.6 280.4 270.5 263.9 258.3 252 250.3 245 242.4 234.5 228.8 224 220.8 218.5 214.2 213.3 215.3 211.2 207.4 205 202.7 201.2 199.2 197.4 195.9 194.7 194 193.3 193.2 192.7 192.5 192.2 191.4 189 186.5 185.1 185.3 184.9 184.9 185.3 188.4 190.2 187.5 188.5 188.6 187.8 186.6 189.2 189.8 190.6 191.8 193.3 192.7 192.4 190.1 187.5 186.8 186 185.4 182.3 182.6 182 181.1 179 178.7 178.6 182.5 189.3 189 187 185 183.8 183.1 182.3 182.6 182.5 183 183.1 184.3 185.5 187 188.7 189.7 192.4 195.7 200.2 203.8 207.4 210.9 213.3 215.8 219.8 223.3 226.9 230.1 231.8 233.8 236.5 237.8 239.5 241.1 242 243 244.3 244.6 242.6 238.5 238 232.9 228.4 222.3 216.9 210.9 205.4 199.7 194 188.6 186.2 184.2 185.5 189.2 194.9 197.3 199.7 200.6 203.5 203.2 200.9 198.2 195.5 193 190.9 190.1 186.1 178.3 177 172.5 170.5 168.7 166 161 157.6 155.8 153.5 155.3 148.8 147.9 147.1 145.9 144.9 144.5 144.4 144.4 145.3 144.3 143.9 144.1 144 142.9 142.4 142.3 141.7 141.7 140.5 140.8 140.9 140.5 139.8 139.7 139.6 139.4 139.3 139.1 139 139.3 139.8 139.9 139.7 140.2 140.5 141.7 142.4 144.3 144.7 145.3 147.4 147.4 147.3 146.8 146.8 147.4
438.1 420.5 405.3 390.7 374.4 357.4 339.4 322.7 307.8 292.7 281.6 272.3 265.5 259.8 255.6 248.1 247.8 245.2 239.1 232.4 226.4 221.8 218.9 215 212.8 210.3 207.2 206 204.8 202.9 201.6 199.1 198.2 201.4 195.6 193.8 193.4 194.6 192.7 193.5 194.6 193.2 190.7 189.2 186.7 185.9 185.8 185.9 186.5 191 191.7 189.8 189.3 189.4 188.9 190.2 191.2 193.6 195.1 195.2 194.7 194.2 193.8 191.2 191.4 191 188.6 185.6 184.1 180.7 179.7 179.3 179 179 188.9 190.9 193 193.7 191.8 188.3 186.9 186 184.8 184.1 183.5 184.5 184.5 184.4 185.1 186.6 188.2 189.4 192.9 197.4 202 205.6 210 213.3 216.6 220.3 223.3 226.4 228.7 231.7 234 235.6 235.6 237.3 238.1 239.2 240.1 241.3 242.7 242.1 243.3 241.9 238.5 234.2 230.2 223.3 217.9 212.3 207.3 201.8 197.2 190.3 185.7 182.2 184 186.5 190.2 193 195.7 197.9 200.5 201 199.3 198.5 197.8 194.3 192.1 189.4 187 182.8 177 174.5 172.6 171.3 167.5 163.4 159.7 156.6 153.8 152 152.7 148.8 147.5 146.3 145.5 144.7 144.1 143.8 144.5 144.2 144.6 142.9 142.5 142.3 142.4 142.1 141.9 141.8 141.7 141.3 141.1 141.1 140.1 140 139.8 139.7 139.6 139.4 139.1 138.9 139.3 139.5 139.1 139.5 139 139.8 140.6 141.6 144 143.8 145.3 146.3 145.6 145.5 146.1 145.9
442.3 424.4 409.3 391.8 376.3 360.3 343 325.8 308.1 294.2 282.7 274.8 266.9 258.8 254.8 255.2 250.7 247.3 246.8 241 232.5 225.7 219.6 215.6 213.3 210.5 206.9 206.4 205.4 204.9 203.1 200.7 197.6 196.4 195.8 195.7 194.3 195 194 192.9 194.7 193.5 190.9 188.9 188 188.8 189.3 186.7 189 191.2 189 189.1 189.4 189 188.7 189.8 190.4 192.4 194.3 196.2 196 195.4 194.7 195.1 192 189.9 186.1 185.7 183.9 181.3 177.9 179 179 178.2 191.8 190.4 194 192.4 192 193.6 190.7 189.8 188.2 186.1 185.7 186.8 186.4 185.9 186.6 186.9 188.1 190.4 193.8 199.6 203.1 207.4 212.3 216.5 220.1 223.7 226.6 229 231.1 234.9 237.9 237.8 238 238.3 238.2 238 238.5 239.8 241.5 243.2 244.2 243 240.6 236 230.1 223.9 218.2 212.3 206.8 202.1 196.6 190.9 183.8 180.9 181.2 183.5 186.2 188.6 190.6 193.1 194.1 195.1 194.3 194.5 193.5 190.7 189.5 186.8 184.6 182.8 178.7 176.3 173.4 174.4 169.7 165 160.8 157.1 154.9 153.7 154.6 150.9 148 146.9 146.3 145.5 144.4 144.1 144.8 145.3 145.2 143.6 143 142.5 142.3 142.1 142 141.7 141.5 141.1 141 141.2 141 140.6 140.5 138.8 139.9 139.8 139.4 139.1 139.1 139.1 139.3 138.9 138.9 139.1 139.2 139.2 140.6 141 143.5 143.9 144.1 143.1 143.8 145.1
444.5 429.4 409.4 391.8 376.4 361.2 346.4 327.2 311.6 297.8 286.5 275.5 266.1 259.1 253.3 249.7 248.3 245.6 241.5 238.9 237.6 230.3 223.3 220.3 216.8 212.6 209.9 208.3 209.1 207 204.8 203.5 198.6 195.6 195.9 195.1 194.4 195.2 195.1 193.6 191.7 191.6 189.3 191.2 191 190.5 189.1 189.6 189.5 190 188.2 188.2 188.4 188.3 189.2 190.7 190.5 190.9 193.9 196.8 197.8 197.9 197.1 194.6 193.2 191 188.6 187.3 185.5 183.4 179 177.2 186.7 193.6 195.8 195.8 190.3 191.6 193.8 194.9 193.6 193.5 193.1 191.8 190.9 188.3 187.5 187.8 188.7 189.9 191.5 192.9 196.5 201.4 204.3 209.5 214.6 218.9 223.6 227.1 231 236.5 240.6 243 244.8 243.5 240.8 240.6 239.7 238.6 238.7 239.5 241.2 243.1 244.3 242.9 239.2 233.9 228.1 223.9 219.3 211.9 206.9 201.4 196.5 190.8 186.8 182 180 180.7 182.3 184.2 185.9 187.6 188 188.6 188.9 189.4 192.6 188.2 186.7 184.7 182.3 182.4 180.2 176.4 175.6 174.5 171 167.4 163.6 160.3 158.4 156.5 155.1 153.8 151.3 149.6 148.9 147.7 146.2 145.1 146.9 147.1 145.9 144.2 143.6 142.8 142.2 142.2 141.8 141.4 141.3 140.9 140.9 141 140.7 140.3 139.8 139.5 139.7 139.5 139.3 139.3 139.1 139.3 139.1 139 138.9 138.9 139.1 139.4 140.1 140.2 140.9 142.4 143.1 142.1 142.7 144.1
441.4 429.4 411.9 394.9 373.8 357.7 343.8 328 313.3 300 289.7 277.4 267.8 259.8 252.2 250.2 248.2 246.7 245.2 240.9 237 237.7 228.8 222.3 220.8 215.7 209.7 209.2 210.6 209.3 207.1 204.2 201.2 197 199 196.4 195.7 193.7 192.7 192.3 192.5 191.1 189.9 191.8 191.5 192.7 193 192.2 190.4 188.7 190.2 188.3 187.5 187 187.4 188.3 189.8 190.6 193.6 196.5 197.5 197 195.5 193.5 192 190.7 188.7 187.5 185.6 182.7 179.6 176.6 177 177.7 184.7 187.2 189.7 194.1 195.7 195.8 194.7 193.9 194 193.6 192.3 190.8 189.8 189.3 189.4 191.1 192.9 194.9 197.9 202.4 206.2 212.3 217.3 222.4 228.4 233.7 239.4 243.9 246.9 248.3 250.2 249.8 247.6 245.3 240.5 239.6 238.7 238.6 239.2 240.5 242 240.2 236 232.8 226.1 221.3 215.3 210 206.3 203 195.8 191.5 184.1 180.3 178.9 178.5 180 181.4 181.7 181.7 182.3 182.4 182.8 184 184.9 185.8 185.4 184.8 184.3 182.9 183.9 181 178.2 176.4 175 172.4 169 165.7 162.9 160.4 160 159.7 157.4 155.2 154.3 149.4 147.8 146.2 147.1 147.6 146.1 143.5 143.1 142.8 143.4 142.8 141.1 141.5 140.7 140.8 140.9 141 140.7 140.3 139.8 139.4 139.5 140.2 139.1 138.7 138.9 138.4 139.3 138.7 138.6 138.6 138.9 139 138.9 139.2 139.5 140.1 139.9 140.8 142 142.8
434.4 421.5 408.6 392.4 375.9 358.6 339.5 325.8 313.4 300.9 289.1 277.5 268.6 260.7 252.1 249.4 249.5 246.6 248.7 242.4 238.6 237 228.9 224.4 220.8 213.9 210.7 211.2 209.3 208.3 207.2 205.3 202.6 199.4 201.1 199.4 197.8 193.8 192.8 192.6 192.2 192.5 193.7 192.9 194.8 197 194.8 192.5 189.7 189.2 188.2 188 187.6 188.1 187.3 189.3 188.3 190.7 194.1 195.9 196.9 194.9 194.7 191.6 190.6 189.1 187.2 188.5 184.1 182.4 178.8 176.7 176.5 176.2 179 181.8 192.5 195.9 197.1 196.6 195.5 194.8 194.9 193.9 192.6 191.8 189.9 189.1 189.2 190.3 193 196.5 198.6 205.3 211.4 214.8 220.5 226.4 232.9 239.9 248.5 254.9 258.6 260.2 258.7 255 252.6 248.3 243 238.3 236.2 235.6 235.9 237.4 237 233.7 230.5 227.5 222.5 217.4 212.6 206.6 204.4 199.2 193.6 186.6 181.7 179.5 177.1 176.8 177.8 178.3 177.3 176.6 176.6 176.9 177.4 177.6 178.3 179.5 180.3 182.3 184.6 185.9 185.5 181.6 178.9 179.2 179.1 176.4 172.7 169.1 167.1 166.1 165.3 163.4 162.1 159.4 154.6 151.6 149.8 148.2 148.2 147.1 145.6 146.1 144.6 146.1 146 146.2 144.6 143.5 143.8 144.6 144.6 145.6 144.7 143 141.8 141 141.2 142 139.3 138.6 138.4 139.1 138.8 138.3 138.1 138.2 138.2 138.3 138.1 138.5 138.9 138.9 138.7 139.4 140.7 142.3
428.9 416.8 402.9 389.8 373.1 356.1 336.9 325.8 313.4 300 289.5 278.9 268.9 262 254.9 249.6 250.6 250.3 249.2 244.8 240.8 239.4 231.2 227.3 223 213.7 213 212.4 209.9 208.3 204.3 205.4 197.4 196.7 201.6 201.4 197.7 194.1 194.9 192.5 195.4 194.3 195 197 195.8 195 193.8 191.3 190.2 189.2 188.1 188.1 190.1 186.6 186.8 189.2 188.6 190 192.2 192.9 192.7 192.2 191.2 190.7 190.8 189.3 186.3 181.2 183.7 182.5 180.7 180.2 175.7 175.8 175.8 183.2 193 196 195.6 194.7 193.8 193.9 193 192.2 190.6 189.1 187.7 186.6 187.1 189.8 194.1 199.6 203.6 208.5 213 217.6 223.3 228.5 235 242.9 252.8 258.8 262.8 262.5 260.2 255.8 251.1 245.2 240 235.8 231.8 232.5 233.2 234.4 232.5 230.3 227 222.2 217.6 213.9 209 205.7 202 199.2 192.4 184.8 180.4 178.4 176.1 174.9 174.6 174.4 174.2 173.7 173.9 172.9 172.7 172.8 173.2 173.8 177.1 177 178.3 181.2 180.6 178.9 179.2 179.6 179.4 178.5 176.9 172.6 168.4 166.6 166.4 165.6 164.1 162.3 157.5 155.4 152.5 149.7 148.2 147.9 147.3 147.3 148.2 149.9 150.2 151.3 149.5 147.2 147.3 147.6 147.3 150.5 149.5 148.2 146.2 144.9 143.2 143.1 139.6 139.5 140.1 139.6 138.8 138.8 138.7 138.1 138.3 138 137.9 138 138 138.1 138.3 138.9 140.4 142
420.2 408.1 396.8 384.3 371.2 352.7 334.8 322.4 310.5 299 288.1 279.1 270.3 263 255.6 250.5 249 248.3 250 247 239 236.8 233.7 230.4 223.5 213.5 218.7 213.3 210.7 208.4 201.1 206.2 199.1 195.6 197.5 198.9 196 194.3 193.7 196.7 196.3 197.2 197.6 198.7 196.2 193.2 191.6 191.6 189.7 189.8 188.7 187.3 187.5 187.3 187.7 190.3 189.3 190.4 188.5 189.8 189.6 189.7 189.5 188.5 188.9 188.5 185.7 186.3 184.4 183.3 180.2 178 175 174.5 175.6 178.1 183.5 190.8 191.8 190 189.2 189.6 189.4 187.9 187.3 186.5 186.1 185.7 185.2 189.6 194.8 199.8 204.5 208.5 213.2 218 224 229.6 235.6 242.1 251.8 255.5 259.5 257.4 254.8 250.8 247.3 242.6 236.7 232.8 230.3 230.1 231.1 230.7 228.5 226.8 222.9 219 213.7 210.7 207.2 204.6 201.2 197 192.2 185.9 181.1 179.2 176.4 174.5 173.5 172.3 171.5 171.3 171.5 170.9 170.6 169.6 169.8 170.2 171.6 172.1 173.7 175.2 175.4 175.1 175.2 176.9 175.2 175.6 173.3 171.4 169.1 168 166.5 165.3 164.6 162.6 158.3 157.1 151.5 148.9 149.2 148.6 150.9 150.3 151.5 152.9 154.4 155.9 152.9 152.3 150.2 150.3 152.7 154.6 155.3 154.2 150.1 147.9 146.1 144.8 143.8 143.5 144 143.7 142.4 140.2 139.7 139.1 138.8 138.8 137.9 137.7 137.7 137.6 137.9 138 139.5 141.7
410.9 399.5 387.8 376.2 363.4 348.2 334.5 320.1 309.5 297.7 287.2 280 270.8 264.8 260.1 252.5 249.6 245.3 244.5 242.3 239.9 234 235.6 231.1 217.8 215.1 218.1 214.4 210.5 209.1 200.8 200.6 198.1 196 195.4 195.5 195.1 195.1 195.4 195.5 197.7 197.9 199 197.4 194.1 191.8 190.5 189.9 188.2 187.8 188.3 187.6 187.6 188.3 187.7 188.3 186.8 187.3 186.9 186.7 187.1 186.4 187.8 186.9 186.7 186.7 187.2 185.7 183.9 180.3 182.2 180.9 179.6 175.7 175.1 176 179.3 184.2 183.7 184.4 184.6 186.8 186.6 185.3 185.2 184.8 185.9 188.4 190.2 194.3 197.6 201.1 205.2 210.4 215 219.3 224.6 229.1 234.3 239.4 245.1 250.1 252.5 251.8 250.5 247.2 242.4 238.1 233.1 229.4 226.7 228.6 227.2 226.5 225.2 223.6 221.1 217.7 212.9 209 206.5 204 200.5 198.8 193.3 186 180.2 178.9 176.6 174.1 172.3 169.9 168.2 167.3 169.2 168.8 167.9 167.4 167 166.5 167 167.7 168.8 170 170.5 169 169 169.8 169.4 169.3 169.2 168.2 167.2 165.6 164.2 163.2 162.5 161.2 159.3 155.9 150.3 153.2 153.1 150.6 151.4 152.3 154.6 155.9 156.9 157.6 157.2 158.9 158.3 156.4 155.8 157.3 158.3 156.1 152.2 149.6 147.6 146.3 146.1 145.8 146.1 145.5 144.4 143.2 142.2 140 139.6 138.9 138.4 138 137.5 137.6 137.4 137.9 138.3 139.7
404.2 390.6 378.2 365.9 355 341 330 316.9 305.5 295.8 287.1 277.9 265.9 261.3 257.1 254.9 237.8 234.5 231.8 235.7 234 225.2 225.9 227.1 217.3 218.5 219.1 215.5 212.2 209.6 205.2 201 198.3 195.7 195.3 195 195.2 195.7 197.4 199.1 198.2 196.5 197 193.8 192 189.9 189.6 189.4 188 188 187.7 187.6 187.3 187.4 188.7 188.3 188 187.5 187.4 187.5 187.4 187.5 186.9 186.7 187 187.1 186.1 185.3 183.7 187 185.5 182.4 180.3 179.6 176 174.1 174.6 177.5 180.3 180.2 181.2 182.8 181.8 183.2 183.3 183 185.6 188.9 192.4 195.8 198.8 202.1 206.5 211 215.5 220 224.5 230.3 233.2 237.9 243.5 248.3 250.3 249.6 248.5 245.9 242.2 238.5 234.6 230.4 226.3 224.9 223.5 222.4 222 220.6 218.3 215.5 211.4 208.4 205.8 203 200.1 197.1 192.6 189.1 182.1 179 176 172.9 170.4 167.6 165.7 165 164.9 165 165.5 165.1 165.2 164.4 164.3 164 165 165 164.7 162.9 163 163.7 162.6 164.4 164.4 164.3 163.2 162.5 162.3 161.4 161.5 160.8 155.4 153.7 151.6 156.4 156 152.6 153.8 155.9 156.5 159.4 161 162.8 164.1 167.1 168.1 165 161.6 160.4 157.8 155.1 152.6 150.9 148.5 147.6 146.9 146.4 146.5 145.7 144.8 144.4 142.7 141 140.3 139.2 138.6 138 137.6 137.6 137 135.6 137.3 137.7
396.2 384.7 371.3 358.5 346.9 336.1 324.4 313.5 302.3 292.9 283.7 269.8 269 260 254.3 249 241.6 244.5 235.9 229.3 227 230.3 225.5 220.4 221.1 223.2 220.4 218.2 214.4 211.9 205.3 204.1 199.5 196.9 195.5 195.5 195.7 196.3 196.6 195.7 195.4 193.2 193.1 191.3 190.4 189.3 188.6 188.5 188.2 188.5 187.6 187.1 187.9 187.2 187.1 187.6 187.9 187.5 187.3 187.6 187.6 187.4 187.5 187.3 186.8 187.2 186.1 186.9 186.5 186 183.8 181.6 180.4 179.1 176.4 176.3 174.2 175.1 177.2 177 177.1 177 178.1 181.2 180.7 184.7 186.9 190 193.8 197.2 199.7 204 208.5 213 217.5 221 224.4 230.2 233.9 239.7 245.6 251.2 252.9 253.2 251.4 248 243.6 238.1 234.2 230.2 225.7 222.7 221.4 219.5 219.2 218.4 215.4 212.7 210.1 207.8 204.4 202.9 199.4 197.4 193.6 189.7 184.8 179.3 175.9 172.3 169.8 167.4 165.5 165.2 164.5 163.5 164.6 164.6 163.2 162.7 162.7 161.8 162.3 160.8 162.3 160.5 159.7 159.3 159 157.7 160.1 160.6 160.1 160.8 157.4 158.1 160.3 158.3 157.3 154.7 151.9 156.1 156.3 154.2 156.4 158.8 159.5 163.8 167.4 169.5 171.3 171.6 174.5 175.9 172.3 168.1 164.5 161.6 158.6 156.1 155.4 152.7 150.3 148.7 148.1 147.4 145.7 145.3 144.1 142.3 141 139.5 138.7 138.1 137.4 137.3 137.4 137.7 137.5 136.9
387.7 374 359.7 348.5 337 327.2 316.3 306.5 294.4 283.9 274.5 277.7 278.2 273.1 267.5 263.6 260.1 257 254.5 247.7 244.5 244.8 241.4 231.2 224.8 226.6 221.1 218.8 216.4 213.3 208.9 206.2 201.3 199.2 196.8 196.7 197.9 197.9 195.5 195 193.6 194.9 191.8 190.7 189.8 189.1 188.5 188.1 187.7 187.6 187.3 187.7 187.6 187.6 187.4 187.4 187.6 187.5 187.4 187.3 187.8 187.3 187.4 187.8 186.9 187.8 187.8 187.3 186.9 185.5 183.8 182.6 180.4 177.8 176.4 175.4 174 173.5 174.5 175.4 175.3 176.6 185 186.9 185.7 185.5 188.3 191.5 195 199.9 203.3 207.4 211.7 216.6 219.5 222.3 226.3 230.5 234.6 240.1 248.4 255.7 256.6 254.5 252.2 246.9 241.8 236.7 231.3 226.9 225.4 221.3 221.1 219.4 218.2 217.2 214.6 213.3 210.7 207.4 205.5 201.6 199.6 197.9 194.7 191.3 188.3 184.2 180 175.8 172 169 167 165.2 165 163.8 163.3 163 161.8 161.5 161.1 161.5 160.6 160.3 160.2 160.4 159.1 158.7 158.9 157.6 156.8 156.2 157 158.4 158.7 158.7 158.3 156.7 156.2 154.3 154.9 156.5 155.8 155.5 157.3 161.5 162.9 165.5 171.1 174.2 174.9 176.6 178.9 182 174.3 170.2 166.1 164.2 162.6 160.8 159.5 156.5 154.2 153.7 151.7 150.7 148.5 146.5 145.1 144.4 143.4 140.4 139.1 138.7 138.1 137.2 137.4 137.2 137 136.8
378.9 361.6 345.7 332.9 320.8 313.7 304.8 297.3 293.7 289.3 289.6 287.1 287.4 283.1 277.5 273 267.6 262.7 259.4 254.1 250.7 246.4 238.6 233.4 227.3 225 223.3 221.2 219.1 215.4 209.7 208.8 204.5 204.7 199.8 198.6 202.6 198.2 198.6 196.6 193.5 192.8 191.9 191.1 190 189.3 188.7 188.2 188 187.7 187.6 187.7 187.6 187.6 187.7 187.7 187.6 187.6 187.4 187.2 187.3 186.7 187.1 186.8 187.9 189.5 190.8 191.6 191.2 188.4 184.9 183.4 180.2 179 177.3 175.5 174.4 173.6 172.8 174.7 174.7 179.3 187.7 189.9 187.3 189.2 191.4 192.4 196.4 201.1 205.7 211.7 217.2 220.6 220.9 225.5 228.5 231 233.8 239.4 249.9 252.7 251.5 249.1 244.8 241 236.3 232.4 227.3 224.2 222.5 221.2 220.8 220.2 219.3 217.2 215.2 214.2 211.2 208 205.9 203.5 201.8 198.7 196 193.6 190.8 187.4 184.4 181.1 176.6 173.4 170.7 167.9 164.2 163.4 162.6 162 161.7 160.4 161.4 161.4 160.7 160.6 159.4 159.6 159.7 159.8 159.4 158.4 156.9 157.1 157.3 158 157.8 156.8 155.4 156 155.1 156.1 157.6 157.6 156.7 157.7 157.5 161.7 163.8 165.6 169.4 173.1 174.9 176.8 175 174.6 169.6 166.5 165.1 163.8 161.9 161.5 159.3 157 154.7 153.4 152.2 151.2 148.5 146.7 145.7 144.6 144.1 141.9 139.1 138.5 137.7 137.1 136.9 136.8 136.6 136.6
361.1 348.6 345.4 342 333.6 326.5 318.6 315.8 310.2 303.5 301 299.5 294.9 292.2 285.6 280 275 268.7 263.5 259.1 254.2 252.9 245.6 239.7 235.1 230 224.6 221.5 219.1 216.6 213.5 211.1 207.5 206 200.5 199.4 201.3 201.3 199.3 196.4 195.2 193.9 192.8 191.9 190.7 189.8 189 188.4 188 187.8 188 187.8 187.7 187.7 187.6 187.6 188 187.5 187.5 187.5 187.3 187.8 187.7 189.6 191.1 191.4 192.2 196.1 190.6 189.3 187.3 183.9 180.3 180.3 177.9 176.5 175 173.7 173 173.8 174.4 178.3 179.9 184 186.3 188.7 190.9 191.4 194.9 200.7 205.2 210.5 217.5 221.2 222.6 225.7 227.5 229 232 234.7 238.2 242.5 242.4 240.5 238.1 236 231.4 228.5 226 225.1 223.4 222.4 221.8 221.5 220.3 217.5 216 213.9 212.3 210.4 208.4 205.9 205.7 200.9 199.2 196.9 194.4 190.6 188.3 184.3 180 176.6 172.2 168.2 164.9 163.3 162.8 161.7 161.5 161.4 161.7 162.4 163.6 162.3 161.6 161.7 162.9 161.7 160.4 159.4 158 158.4 158.8 158.2 157.2 157.1 155.1 158.4 158.4 160 160.6 160 157.3 159.8 159.3 160.6 162.1 164.6 166.4 168.3 168.8 168.3 169 166.7 162.9 161.2 161.6 160.6 158.3 158.9 157.9 155.5 153.3 152.6 150.2 147.9 146.9 145.3 144.5 143.3 142.2 140.8 139.1 138.2 137.4 136.9 136.8 136.6 136.5 136.8
380.5 372.1 362.2 351 344 337.9 331.7 326.4 320.7 316.8 313.8 306.3 302.9 300.7 292.3 286.2 280.4 274.9 269 263 257.3 258.2 245.8 244.8 241.2 235.3 229.3 227.4 225 217.3 213.2 212.7 209.8 210.1 203.9 205.5 202.5 203.3 201.2 199.2 195.4 194.3 193.4 192.3 191.1 190.1 189.3 188.7 188.2 187.8 188 187.9 187.8 187.7 187.6 187.7 187.8 188 187 186.6 189.1 189.9 190.9 191.6 192.6 194 194.2 192.8 190.9 189.1 186 184.3 183 179.6 177.4 177.6 174.8 173.7 173 172.9 174.2 175.3 178.4 182.3 191 192.7 191.6 188.8 192.5 196.5 202 208.5 214.3 218 221.3 223.6 225.5 227.7 229.7 231.8 233.6 235 235.8 235.8 234.4 232.1 230.6 229.7 229 228.5 226.5 224.4 223.2 222.6 220.8 217.9 215.7 213.7 213.1 212.3 211.5 208.6 206.4 203.6 204.7 199.8 198.2 193.9 190.3 185.8 182.8 178.3 174.1 169.3 165.3 163.4 162.8 161.5 162 162 162.3 163 166 166.6 164.9 164.4 163.1 161.9 160.6 159.8 160.4 159.4 159.3 159.5 158.8 158 158 160.4 162.3 164 164.3 162.6 159.4 160.6 159.9 159.3 160.1 161.2 162.3 162.4 162.6 161.5 160.6 157.9 156.4 155.4 156.3 156 153.7 154.5 154.1 152.8 150.5 149.4 146.7 144.9 143.7 142.6 141.7 141.2 140.7 140 138.8 138 137.2 136.8 136.6 136.4 136.3 136.2
396.2 384.7 375.2 364.4 356.8 349.2 343.2 335.5 330.6 325.5 320.3 317.3 309.4 304.1 297.7 291.9 288.2 280 275.5 268.7 261.5 257.6 247.7 245.4 239.4 235.2 229.9 226.9 227.3 222.5 215.8 212.5 211.1 209.1 211.4 208.1 203.1 204.9 203.7 198.1 197.1 194.7 193.8 193.2 191.5 190.4 189.7 189 188.4 187.7 187.9 187.5 187.8 187.7 187.7 187.9 187.8 188.5 188.5 189.3 189 190.2 192 192.7 192.6 194.7 195.4 191.6 188.8 188.5 186.5 185.6 182.8 181.4 179.6 178.2 174.9 173.8 173 172.7 172.1 173.5 182.6 194.1 190.4 190.8 192 186.2 189.6 194.1 200 205.8 211 215 218.2 221.3 223.5 225.8 228.3 229.3 230.8 231.8 233.2 233.9 233.8 234 232.8 233.4 233.5 231.6 228.9 226.9 226.1 225.3 223.5 221.4 218.8 216.7 214.8 213.5 214.4 212.7 209.3 206.5 205 202.3 199.8 195.5 191.4 187.6 184.6 181.4 176.7 172.7 167.2 166 164.5 163.6 163.1 162.5 162.7 163.4 168.7 169.8 168.1 167.6 166 164.5 163.7 162.9 162.1 161.2 161.2 160.7 159.6 159.1 161.1 163.8 166.5 167.8 168.9 166.7 163.5 163.6 161.6 159.8 159.5 157.9 157 157.3 157.9 156 154.6 154.5 153.1 151.5 151.2 151.3 150.2 150.2 153 148.5 147.2 145.6 144 142.3 142 141 140.3 139.4 139.2 138.4 138.2 136.7 136.7 136.9 136.7 136.3 136.1 136.2
404.2 391.5 382.4 372.9 362.7 357.9 351.3 344.7 341.6 338.1 331.5 327 320.9 313.2 304.2 297.3 291.8 284 279.9 271.5 266.7 265.7 251.2 248.2 242 235.7 232.2 228.3 226.3 223.1 219.9 213.9 212.5 210.4 209.9 207.1 206.4 202.9 199.9 198.1 197.8 196.1 195.2 195.5 193.1 191.2 190.8 189.4 188.2 188.2 188.1 187.9 187.8 187.7 187.7 187.7 187 190.4 189.5 188.9 189.4 190.1 191.5 193.4 195.5 195.1 194 190.9 189.5 187.4 187.2 184.1 181.2 180 179.3 177.2 176.7 173.1 172.8 172.4 172.4 174.8 189.9 194 193.3 192.3 191.9 184.4 187.7 191.8 197.6 202.8 207.9 212.1 216.3 220.3 222.8 225.4 227.4 228.7 229.7 231.4 232.8 234.8 236.7 238.1 238.2 238 236.2 237.4 237.2 235.5 233.2 230.4 227.2 226.4 223.3 221.2 218.3 216.1 215.1 215.2 213.6 209.3 207.2 204.6 200.6 196.7 192.8 189.3 186.9 183.3 179.8 175.2 174 171.1 168.9 167 165 163.1 163.4 164.5 172.1 170.9 171.9 170.9 170.1 167.8 167.3 166 163.6 163.2 163.2 162.3 162.6 163.6 164.4 166.5 168.7 169.6 169.1 168 164.2 163.2 160.8 160.2 158.6 158.2 155.8 154.4 154.5 153.7 151 150.8 150.1 150.2 149.5 149.1 148.2 147.6 147.5 146.8 146.8 146.1 145.4 144.3 143.4 142.6 142.4 142.1 141.1 139.6 139.3 138.3 137.5 136.4 136.3 135.9 135.9 136
412.9 401 390.9 380.5 370.3 364.2 358.7 355.7 350.3 348.9 345.8 340.7 334.3 321.5 311.6 301.8 293.9 288.3 281.6 277.9 268.2 262.2 257.6 251.4 245.6 240.3 233.9 230.5 227.4 224.3 220.2 215.2 214.9 211.8 208.9 208.6 204.8 203.2 200.7 199.8 197.5 195.7 195 195.4 192.7 191.8 191 189.8 190.7 190.5 190.1 187.7 188.4 187.9 187.7 187.6 190.9 189.4 189.6 190.5 190.1 191.8 193.8 194.4 196 194.9 193 191.8 190.5 188.2 187.5 185.5 183.5 180.2 179 176.1 175.6 172.8 172.7 172.9 175.9 176.1 184.3 191.3 194.5 194.7 192.4 182 184.2 189.1 195 200 204.6 209.5 214.1 219.2 222.4 224.9 227.4 229 230.7 232.4 234.1 237 241.8 241.9 244.3 244.8 253.3 253.2 249 245.9 240.6 235.8 230.7 227 224 222 219.4 217.6 218.4 215.8 217.7 211.9 209.3 205.7 202.4 203.4 195.6 192.5 190.2 186.1 182.7 179 177.5 174.3 171.4 170.3 168.4 165.1 164.7 166.9 172.5 175.8 174.7 175 174.8 173 170.5 168.4 166.2 164.6 165.2 165.9 165 166.3 167.2 168 168.7 169 168.1 166.1 164.7 163.7 162.7 159.7 159.4 157.7 156.3 154.5 153.5 152.7 150.1 149.9 149.5 149.1 148.9 149.1 149 148.4 149.3 150.1 150.7 150.5 149 150.4 148.5 148.9 147.4 146.8 145.6 144 142.9 141.6 140.1 138.4 137.6 136.4 135.6 135.9
420.2 407 397.1 388.6 380.6 374.2 365 362.9 360.8 360.1 356.9 351 342.2 332.5 321.4 309.4 298.8 290.1 284 274.1 268.7 260.6 254.7 248.3 247.4 239 233.8 232.6 230.2 225 220.8 218.7 216.4 211.5 209.2 207 205.7 205.9 200.9 199.8 198.6 196.9 195 194 192.9 191.3 190.4 190.6 195.5 192.8 189.8 189.4 187.5 188.5 187.8 189.8 189.9 190.5 191 191.6 192.8 193 196.8 196.5 199.4 197.1 195 191 191.2 189.3 186.7 183.7 183.9 179 176.4 173.9 172.7 173.5 172.2 175 179.5 178.2 189.6 193.2 194.4 194.1 188.6 179.4 182.3 187.8 192.6 197.8 204.3 209.7 214.6 219.8 224.9 225.5 227 230.6 230.7 234 237.6 244.1 249.2 253.8 258.2 261.2 264 265.8 261.2 253 243 234 227.8 224.3 224.2 220.8 219.8 216.1 216.1 218.6 218.9 215.1 209.8 205 202.1 199.6 197.8 195.5 192.7 189.6 185.7 182.2 180.2 176.6 174.1 172.3 170.5 165.2 165.1 168.8 174.9 177 177.9 177.6 177.6 175.1 173.5 170.7 167.1 165.8 166 167.7 167.1 169.4 170.8 171.1 169.5 168.9 167.7 164.9 166.1 165.1 163.9 161.1 160.9 160 157.8 154.5 153.9 153.3 149.6 149.8 148.5 148.2 149 149.7 152.9 153.7 153.5 154.8 155.5 155.7 155.8 156.7 155.4 153.8 152.5 150.9 150 148.8 146.8 146 144.1 142.3 143.2 140 137.5 136.5
434.6 418.9 407.8 395.9 386.3 379.4 374.5 370.3 372 370.5 364.5 356.8 347.9 338.5 324.5 313.6 303.1 295.7 283.5 274.6 267.5 261.3 253.3 247.4 241.6 238 234.4 231.4 228.4 224 220.4 216.9 216.4 212.4 209.9 209.6 204.8 206.3 203 199.1 199.6 196.6 195.3 195 195.3 193.5 194.7 197.7 204.2 197 191.2 188.6 190.1 187.6 187.7 188.4 188.6 189.3 191.2 191.3 192.4 194.4 196.7 197.9 200 198.9 194.7 191.2 188.3 187.8 186 182.7 180.9 177.5 174.6 172 171.2 173.4 172.3 175.4 182.1 178.3 190.8 192.2 192.8 185.9 176.9 177.5 182 186.2 192.3 198.6 204.7 210.4 215.1 221.5 224.1 227.1 229.4 231 231.9 233.4 237.3 243.8 255.7 260.1 263.1 266.9 266.8 265.2 260.8 251.9 242.6 230.8 226.2 221.6 219.4 217.9 215.8 213 213.7 214.8 214.8 211.2 208.5 203.9 200.8 198.2 196.4 194.6 191.4 189 185.4 183.9 180.3 179 175.4 173.4 171.6 166.5 166.5 169.5 174.4 177 176.2 176.3 176.7 175.1 173.5 170.9 167.3 164.8 165.7 166.6 167.1 169.9 172 172.3 171.9 170.9 169.8 166.9 167.7 166.3 166 161.5 161 159.9 159 155.6 153.4 151.4 150.3 154 149.7 148.8 150 152.2 153.1 156.7 157.2 158.1 158.6 158.1 158.2 158.8 159.3 157.1 154.9 153.5 152.9 150.4 149.8 148.6 148.6 146.9 144.1 143.8 140.4 137.9
451.4 434.1 424.2 409.8 400 391.1 384.9 386.2 382.7 375.9 368.6 358.6 348.4 338.8 325.6 314.6 303.3 294.4 285.7 274.9 268.2 261 253.4 247.2 242.7 238.7 236.3 231.7 228.4 228.2 223.9 221.6 218.1 211.5 215.9 216.9 208.8 204.6 202.8 199 198 196.1 196.3 195.5 195.3 194.9 195.4 201.3 199.8 195.8 192.9 189.9 188.1 187.7 187.5 187.4 188.6 187.8 190.4 191.4 191.8 194 195.6 196.9 196.3 194.6 192.7 189 187.2 185 184.2 182.6 180.7 177.2 174.8 171.8 171.1 170.9 170.6 170.9 181.4 178.6 190 191.5 188.5 176.4 175.2 178.3 182.4 187.4 193.3 199.9 205.1 210.4 214.3 218.5 221 224.2 226.2 227.8 230.4 231.5 233.7 238.1 246.2 254.6 260.4 261 258.6 256.5 251.5 242.7 234.3 228.6 221.7 217.8 214.8 211.9 210.6 208.3 208.2 209 210.7 210.4 203.5 200.2 197.5 195 193.5 192.2 190.3 188.6 188.1 186 184.7 181.5 179 174.3 168.7 167.3 169.6 171.4 173.8 174.5 173.9 173.4 173.4 171.7 171.1 169.5 168 164 163.9 165.5 167 168.9 170.8 172.3 173.2 173 171.4 169.7 169.6 168.4 167.2 164.5 162 160.8 159.3 156.8 154.4 150.3 148.7 150.1 152.8 150.7 150.8 151.9 154.5 157.2 159.7 159.2 160.2 159.6 159.6 159.9 159.6 157.2 155.7 154.5 153.8 152 151.5 151.3 150.5 149.5 146.8 146.3 144 141.5
469.9 452 443.8 430.6 417.4 408.1 401.9 399 394.1 383.3 372.6 359.4 346.1 337.9 326.5 314.5 304.3 299.6 288.1 278.3 269.1 258.7 256 250.7 245.1 241.1 238.6 235.8 233.7 239.6 231.3 227.9 223.7 218.8 212.3 219 212.5 210.3 204.3 200.9 198.2 198 197.6 196.6 195.7 194.7 197.3 196 194.9 193.5 192.5 190.3 191.3 187 187.2 187.4 187.6 189.2 188.8 189.9 192.8 193.4 191.6 192.3 192.1 190 189.8 187.3 185.5 184.7 181.8 181.5 181 177.1 175.1 172.5 171.7 171.4 171.1 171.1 172.7 175.9 180.3 182.1 176.5 172.7 176.1 178.9 182 188 193.2 198.4 204.8 208.2 211.5 215.3 218 219.5 222.6 224.3 226.6 228.5 230.5 234.5 237 239.9 241.3 240.9 240.6 237.2 231.6 229 224.7 220.7 216.2 212.1 210.1 206.4 204.8 203.3 203.5 204 203.2 202.2 196.7 193.5 192.2 191.2 191.5 191.2 191.1 191 190.6 189.2 186.5 184.9 183 178.8 169.9 170.7 174.7 172.5 171.7 172.2 172.8 171.8 171.4 170.5 170.2 169.3 166.8 162.5 161.8 163 165.2 167.5 166.2 170.6 173.4 173.4 172.8 171 170 168.3 167.6 167.1 163.8 161 159.2 156 155.3 150.8 149 148.3 153.2 152.3 150.6 150.4 153.1 155.3 157.6 158 157.8 158.3 157.9 158.3 158.1 156.1 154.5 153.6 153.7 153.1 152.3 151.9 151.5 150.4 149.3 147.1 146.2 143.6
484.3 473.4 460 444 431.1 423.5 415.2 405.8 397.7 386.5 373.6 356.4 347 333.8 324.2 311.8 305 295.2 287.4 276.3 266 264.4 260.5 252.6 248.7 244.7 242.1 242 236.9 237.2 238.7 230.9 230 226.6 221.3 212.5 215.8 212.7 206.8 201.3 199.6 200 198.5 197.7 197 195.7 196 195.2 193.6 191.4 191.1 188.3 187.1 187 187.5 187.1 187.6 189.6 192.2 191.9 192.1 190.2 189.1 187.5 188.2 188.1 188.6 187.9 185.3 183.7 181 180.4 178.5 177.3 174.6 171.9 171.4 171.4 170.9 170.7 172 172.7 172.6 173.1 171.5 172.9 174.4 178.1 182.5 188.8 193.3 198.5 202.8 206.1 209.5 211.9 213.9 216.6 219 219.8 222.8 225.1 226.6 228.7 231.1 232.9 233 231.2 228.6 225.7 223.2 220.3 217.6 214.3 210.6 207.3 204.7 202.5 200.7 199.1 197.9 196.7 196.6 195.5 193 191.6 190.3 190 191.1 192.6 192.3 192.4 191.7 190.7 189 187.3 185.1 179.6 172.2 175.9 175.5 173.6 171.4 171.4 173.1 173 172.5 171.2 171.2 167.2 164 163.3 162.5 163.6 165.3 169.5 166.3 169.4 170.9 172 172.9 170.5 169.4 166.3 165.8 165.2 164.5 160.4 158.6 156 154.2 152.3 149.8 148.1 148.4 149.3 149.6 151.1 150.9 153 154.1 155.9 155.5 155.9 155.6 155.9 155 153.6 153.4 152.4 151.9 151 150.8 150.1 150.2 149.9 148.9 148.2 146.7 144.7
497.6 481.7 468.4 452.8 437.2 430.3 420.2 407.2 398 385.3 370.2 353.7 334.9 323.5 312.3 304.9 299.2 296.4 286.4 272.6 274.7 269.5 263.6 257.8 254.6 251.6 247.3 246.9 245.7 241.8 242 238.3 233.3 232.6 227.8 224.9 214.4 214.6 213.3 208.4 203.3 201 200.2 198.2 197.7 196.2 196.4 195.6 194.4 192.6 191.6 189.7 187.5 187.1 186.4 187 189.6 191.1 190.1 189.5 186.6 189 187.3 189.2 186.9 187 187.1 184.8 184 183.1 180.3 179 177.2 174.2 172.8 171.8 171.5 171.1 170.9 171 170.9 170.6 171.9 171.6 171.9 172.3 174 176.6 181.3 188 194 197.5 201.2 204.4 207.1 209.5 211.7 213.1 215.4 216.5 218.9 221.5 222.2 224 225.8 226.1 225.7 223.9 221.7 219.4 217.1 214.8 211.9 209.5 206.6 203.8 201 199.6 198 196.8 194 190.9 190.7 190.6 191.1 190.1 187.7 188.5 189.9 190.7 191.6 190.7 190 189.7 189.2 186.5 183.7 185 183.2 181.3 179.6 176.4 173.7 172.7 172 172.3 172.9 171.4 170.2 167.8 163.4 161.8 162.5 163.7 165.8 170.3 169.5 169.3 169.4 168.8 169.7 171.4 169 165.2 163.3 162.2 162.5 159 157.1 154.9 153 150.5 150.7 148.1 147.9 148.7 148.3 148.2 148.8 150.7 152.3 153.6 152.8 153.1 153.7 152.9 152.4 151.8 151.4 151.1 150 149.6 149.6 149 148.7 148.6 148.6 147.8 146.6 145.1
497.9 484.3 469 455.8 441.2 430 418.2 407.8 394.6 380.8 365.4 353.1 340.9 330.7 320.2 313.7 304.6 296 284 284.9 283.8 276.7 271.5 268.7 263 259.5 257.7 254.7 254.3 251.3 246.1 245.8 239.5 241.6 238.1 231.3 221.1 217 217.3 212.7 209.8 205.3 204.4 201.2 198.8 196.4 196.9 195.8 194.4 192.2 190.7 189 188.1 188.5 186.7 187.4 187.5 187.3 186.4 187.2 184.4 184.3 187.1 186.7 186.2 186 187.1 185.8 184 182.6 179.8 178.7 177.6 175.2 173 172 171 170.5 170.9 171.2 170.3 170.7 171.4 171.2 171 171.2 173.1 175.4 181.3 187.6 192.9 195.9 199.1 202.3 204.9 207.4 209.9 211.4 212.5 214.6 215.1 216.7 218.1 218.7 219.6 219.8 220.1 218.5 216.9 214.4 212.3 211.3 208.6 207.1 205 202.3 199.8 198.2 197.6 194.1 192 188.8 187.1 187 186.1 185.3 186.6 187.1 189.8 189.7 189.5 188.5 189.4 191.3 188.3 189.1 187.2 187.4 186.8 187.1 184.7 184.8 182.1 179.2 176.9 175.8 173.3 171.7 170.4 168.2 164 161.6 161.8 162.6 165.1 168.5 168.9 169.7 168.7 167.1 165.6 165.2 166.2 161.2 161.5 160.4 160.6 157.5 156.8 154.7 153.3 150 147.8 148.6 149.2 150.2 150.8 147.4 147.5 148 149.2 152 152.8 151.4 152.2 151.9 151.5 152 151.2 151.3 151.1 150.3 150.4 150.1 149 148.2 147 147.8 146.8 145.9
491.8 479.6 463.9 450.3 442 429.3 416.8 403.4 389.3 374.1 356.9 351.3 338.6 330.5 320.9 312.9 303.5 300.7 292.9 296.8 287.6 282.9 280.9 276.1 274.6 268.9 265.9 263.2 260.6 260.1 255.9 251.2 250.9 247.9 245.1 237.9 228.7 224.7 218.6 217.2 211.1 209.3 207 204.6 203.9 197.3 195.6 194.2 193 191.7 189.8 190.5 187.7 187.3 188.9 189.1 185.5 184.5 183.1 184.2 183.7 184.1 184.8 185.7 185.6 185.5 183.7 184.7 184.5 181.7 181 178.5 179.4 176.1 174.5 173.2 171.6 170.6 170.5 170.9 170.7 170.7 170.5 170 170.5 170.5 172.6 175.9 179.2 186.2 192.2 196.9 198.7 200.9 203.4 205.8 207.8 209.9 210.4 210.9 212.1 212.6 212.9 213.3 213.8 214.2 214.5 213.3 213.2 210.9 209.1 207.6 206.4 204 202.3 200.4 197.8 195.5 193.9 191.9 190.8 187.9 185.4 185.8 185.6 186.6 187.1 187.7 189 189.8 189.9 190 191.3 191.9 192.4 191.5 192 190.7 194.1 194.1 194.2 192 189.6 185.4 182.1 180.2 176.4 173.4 171.4 169.1 164.5 162.4 160.6 161 162.4 165.3 163.2 167.6 167 164.8 163.2 163.7 160.5 156.3 155.9 157.6 156.5 154.8 153 151.2 149.3 146.5 146.5 147.7 147 148.1 150 148.4 145 144.5 146.2 149.3 151.1 151.5 151.5 151.1 150.4 151.2 151.7 152.3 152.3 152 151.7 151.3 151 149.8 148.7 147.2 147.2 146.1
485.5 472 458.9 449.6 438.8 426.1 412.3 394.6 376 365.2 359.3 346.3 336.7 329 323.7 318.4 314.4 300.9 303.8 299.4 294.1 291.3 288.8 285.1 281.3 278.8 277 275 271.2 267.3 262.2 259.9 255.8 251.6 248.2 242.4 231.5 229.8 220.3 223.6 213 212.8 210.4 208.6 206 202.8 199.3 194 191.1 189.7 188.9 190.5 187.4 187.7 187.3 183.9 182.6 182.5 183.4 183.9 183.4 183.8 183.9 184.5 185.3 184.1 183.4 183.1 183.7 183.2 182.1 182.4 180.1 178.1 177.1 174.6 172.5 170.8 170.2 170.9 170.3 170 170.3 169.4 169.8 170.6 172 174.8 180.4 186.4 192.2 197.2 200.7 200.5 203.3 204.3 205.8 207.1 207.7 208.5 208.2 208 208.5 208.2 208.6 208.9 208.4 207.8 208 206.4 206 204.7 202.5 201.3 198.7 197.4 194.7 192.8 192 191.8 189.8 187.4 185.5 185 184.4 185.7 187.3 188.2 188.3 188.8 189.7 190.4 191.4 191.9 192.6 193.3 195.5 197.9 200.8 200.9 202.4 198.3 193.9 188.5 186.2 183.7 180.2 175.8 171.1 168.4 165.2 162.6 160.5 158.9 159.4 160.9 160.5 161.4 162.3 161.1 159.2 158.7 154.8 153 152.1 151.5 151.1 150.4 148.3 146.9 146 145.5 143.3 144.6 145.2 144.1 148.5 145.8 144 143.1 144.3 147 149.8 151.3 150.9 151 150.6 151.2 152.3 152.9 153.2 152.8 152.5 152.1 151.8 151 149.7 148.7 147.8 146.7
479.6 467.5 456.6 445.4 432.7 419.1 401.8 385.5 379.5 369.1 358.1 353.1 345.5 337.4 330.7 325.3 317.9 312.8 313.5 308 303.9 300.4 296.4 291.7 288.1 286.3 286.3 284.5 279.4 273.9 267.7 265.3 257.7 255 249.2 243.9 235.4 229.9 221.9 223.4 213.4 214.6 211.5 208.5 205.6 204.3 201 193.4 191.4 187.4 186.7 185.9 187.7 187 183.3 181.9 181.6 182.3 182.3 183.7 182.9 182.8 185.3 184.6 185.7 189.5 186.9 186.4 185.4 182.8 182.4 183.2 183.8 179.4 178.2 175.3 173.4 172.2 170.3 170.9 170 170.4 170 169.3 169.3 170.7 173.2 175.2 180.2 187.1 192.5 196.3 201.4 202.2 203.7 203.5 204.3 205.3 205.4 205.8 205.2 204.8 204.2 203.8 203.3 203.1 203.3 203.3 203 202 201 200.2 198.2 197.8 195.6 195.4 192.7 191.4 190.3 189.9 188.4 187.4 185.7 185 184.6 184.7 186 185.8 186.9 188.6 189.3 190.2 191.1 191.8 192.5 194.9 199.2 201.3 204.4 204.9 203.4 201 194.2 190.5 187.7 185.4 182.2 176.9 172.5 170.1 168.7 164.6 161.1 159.1 159 157.5 154.9 154.8 156.1 155.7 153.5 154 150.7 149.4 149.2 148 145.4 147.2 144.9 143.2 143.7 142.9 144.2 141.5 142.9 143.6 143.9 144.2 143.2 142.6 143.9 147 150.2 150.4 151.3 151.6 150.5 150.9 152.4 153 153.4 153.4 153.2 152.9 152.3 151.6 149.5 149.5 148.7 147.6
483.7 470.7 451.7 442.7 431.8 422.2 411.9 400.4 390.2 380 369.5 360.7 353.5 346.9 337.7 331 323.3 324 320.7 318.1 311.4 306.8 302.5 298 294.4 290.9 293.3 290.3 285.6 279.3 272.9 266.4 262.8 256.6 250.5 245.5 236.9 233 223 221.1 217.1 214.6 211 208.9 207.2 203.1 198.6 194.3 192.2 189.8 187.3 185.6 183.6 183.5 182.9 180.7 180.6 180 180 181.2 181.7 182.6 184.8 185.2 185.3 188.8 188.4 185.9 185.5 184.8 185 183.9 182.8 178.9 176.6 174.3 172.9 171.4 170.3 170.1 169.8 169.9 169.6 169.3 169.1 169.8 171.8 174.8 178.8 185.7 190.9 195.8 199.3 201.1 202.8 205 203 203.8 203.4 203 202.5 201.7 201.2 199.1 199.2 199.6 198.3 198.1 197.6 196.4 195.3 193.7 193.5 193.9 192 191.1 190.3 189.5 189.4 188.8 187.7 186.9 186.1 185.4 184.7 184.6 184.9 185.6 187.2 189 189.5 189.5 190.2 191.7 191.7 196.1 199.6 203.5 204.1 205 201.9 201 196.7 192.9 190.1 185.8 182.1 178.1 173.8 171.7 170.7 167.5 164.2 161.8 159.7 157 155.3 153.3 151.6 149.4 147.8 147 145.6 143.3 143.5 144.4 143.2 142.1 140.5 140.7 141.4 140.6 140.9 139.8 139.9 139.9 140.3 141.3 141.3 142.9 142.4 145.1 148.6 151.4 150.7 151 149.3 149.4 151.6 152.2 152.7 153.5 152.7 152.8 151.7 151 150 148.9 148 147.1
484.9 471 457.5 449.9 440.5 431.6 422.9 413.5 402.9 392.1 381.2 370.8 361.3 353.6 344.2 333 336.6 333.5 328.7 324.7 318.5 315.1 309.4 305.8 297.3 300.5 299.3 294.1 290.1 282.9 274.1 269.1 265.3 259.2 254.3 248.6 239.7 235.3 229.7 223.9 218.3 215.4 211.9 210.1 205 206.8 201.5 194.9 191 190 187.6 185.9 183.8 182 180.5 179.9 179.5 179.1 180.8 178.7 180 180.7 181.9 182.8 183.3 184.3 184.3 189.4 190.2 186.6 184.4 180.9 178.5 178.6 176.9 174.2 172.8 171.4 170.3 169.6 169.7 169.8 169.4 169.3 169 168.9 170.4 172.9 175.8 181.6 188.6 192.7 196.7 199.3 201.6 202 201.6 201.7 201.6 200.8 200.9 198.5 198.2 197 195.9 195.4 193.8 193.4 192.6 191.6 190.2 189.2 189.5 190.4 189.2 189.3 187.3 185.6 187.1 187.6 186.9 185.8 185.9 185.4 184.7 185 182.4 184.9 186.7 188.5 190.1 190.6 190.9 192.4 191.2 194.8 198.8 201.1 203.3 203.4 203.8 203.3 200.1 196.4 193.7 188.7 184.4 181.3 176.7 173.6 171.5 169.5 167.2 164.4 160.6 159.6 157.2 154.2 152.6 149.7 146.9 146.1 144 142.6 142.3 142.5 140.7 139.6 139.3 139.7 139.6 139.7 141.8 139.4 139.3 139.3 139.6 139.9 140.3 141.5 142.6 144.7 147.6 150.2 149.4 150.5 150.3 148.1 149.9 151.1 151.4 151.7 151.6 151.1 150.6 149.7 148.9 148.3 147.3 147
487.6 475.9 468.1 459 449.9 441 433.1 421.7 409.8 401.2 388.7 378.2 368 357.8 347.8 349.4 345.5 340.9 337 330.9 327.6 322.7 317.1 316 308.7 309.9 303 299.4 293.2 287.5 281.3 272.4 269.5 270 256.2 252.3 244.1 237.3 231 224 218.9 214.7 212.4 210.4 210.4 210.7 204.3 199.9 193.8 192.7 189.5 187.4 183 180.9 180.3 179 177.9 177.5 176.9 177 177.6 177.2 179.6 179.3 181.2 181.6 181.5 181.1 185.2 182.3 180.4 177.9 178.1 178 175.1 173.9 173 172 171.6 170.3 169.9 169.7 169.2 169.4 169.5 168.5 168.5 170.6 172 178.7 183.9 188.4 192.2 194.8 197.3 199.5 198.8 199.4 199.2 197.4 197.3 196.2 195.6 193.9 192.9 192 189.5 189 188.3 187.2 187 184.2 185.1 186.9 187.7 187.3 186 183 184.7 183.8 185 184.4 184.7 185.3 185 185.1 185.1 187.6 189.8 192.6 190.5 191.6 192.4 193.2 192.8 194.6 197.8 202 204.2 205.5 206.4 204.3 204 201.4 198.6 193.1 187.1 183.1 179.6 175.9 173.5 171.6 168.7 166.2 164.8 160 156.6 153.6 151 148.6 146.9 145.6 145.1 142.7 141.5 141 140.2 139.2 139.2 139.5 139.3 139.2 139.1 138.7 138.4 138.4 138.5 139 139.7 140.9 141.4 143.7 145.3 148.3 148.8 148.6 148.2 147.1 148.5 149.7 149.8 150.2 149.8 149.7 149.2 148.2 147.8 148.2 146.6 145.6
492.9 485 476.3 467.8 458.6 449.4 440.8 429.2 416.7 406.3 394.7 385.4 372.8 361.3 361.3 357.8 354.4 348.7 343.2 339.2 334.2 329 328.1 324.1 320.8 314 312 304.7 299.9 294.4 286.1 277.1 273.3 268.2 260.8 256.9 246.7 243.4 237.3 227.6 222.2 217.2 214 211.3 211.5 212 205.9 200.1 199.1 194.3 191.6 191.8 188.7 184 180.1 181.1 179.5 176.5 176.2 175.6 175.3 176.1 176.8 177.2 176.8 178.3 179.6 182.5 180.6 175.4 177 176.9 176.3 177.9 176.5 173.7 173.6 172.5 171.1 170.6 170.3 169.9 169.9 170.6 169.1 169.4 168.3 168.1 169.6 174.2 179.3 183.4 185.7 190.1 192.7 194.6 195.3 194.3 194.8 193.9 193.2 193.5 192.2 190.9 189.2 187.3 184.5 182.2 183.8 182.3 181.9 180.3 180.5 182.7 185.2 184.5 181.7 182.7 182.1 182.1 182.3 183.3 183.8 184.2 185.2 186.5 187.4 189.7 192.8 194.6 195.3 192.6 192.9 192.6 195 194.1 197.5 202.7 207 207.6 207.6 206.5 204.8 203.6 199.6 193.2 185.9 183.9 182 178.7 176.7 173.7 170 167.4 165.5 160.7 155.4 151.9 151 148.7 147 146.2 145 142.5 141.4 141.1 139.8 139.4 139.6 139.4 139.4 139 138.9 138.4 138 137.8 138.6 139 139 139.5 140.1 142.1 143.2 144.2 145.6 145.7 145.1 144.9 147.1 146.8 147.1 147.9 147.1 147.4 147.7 147.3 146.8 147.1 145.3 144.6
497.1 490.2 483 476.9 466.6 456.4 446.8 435.2 421.5 411.5 400.4 390.1 378 371.9 371.7 366.3 362.1 356.6 352.4 349.4 343.1 339.4 336.5 331.9 328.6 326.6 323.4 317.5 307.9 302.1 292.5 291 284.7 276.3 267 261.2 253.6 246.4 238.9 231 227.3 222.2 216.6 214.9 211.8 214.3 210.9 204.9 203.4 201.6 198.4 192.3 190.1 186.9 183.9 182.4 180.9 180.3 177 175.2 174.5 174.1 172.6 173.9 174.2 175.1 175.8 176.9 177.3 173.9 173.3 173.6 174.3 176 174.2 174.5 174.1 172.9 170.8 171.4 169.2 169.2 169.4 170.8 170.1 169.3 168.5 168.2 168.3 169.7 174.6 178.2 181.4 184.5 187.5 189.9 190.8 189.6 189.7 189.6 189.6 189.2 187.5 186.6 185.3 182.1 179.5 177.7 178.7 178.4 178.3 177.4 177.4 179.7 180.9 181.2 180.1 179.6 181.1 179.9 181.6 184 184.8 184 185.1 186.4 187.7 191.2 193.9 195.5 196.1 194.7 193.7 194.4 195.6 195.5 198.3 198.4 202.3 205.8 205.6 205.5 204.7 202.1 197.7 191.9 184.7 180.3 179 178.1 177 175.8 171.5 168.1 165.5 161.8 157.3 153 150 149.9 148.8 147 145.7 142.8 141.7 140.2 139.5 139.5 139.4 139.3 139.2 138.9 138.6 138.1 137.7 137.7 138 137.7 137.8 138.3 140 139.6 143.1 141.5 142.7 143.6 142 143.6 145.5 144.6 144 144.9 144.2 145.1 146.1 146.2 146.4 146.1 145.6 143.8
504 497 488.8 480.9 472.9 463.1 451 438.7 427.3 416.8 406.3 390.6 386.3 383.4 382.4 375.1 370.3 364.6 361.2 356.1 350.1 346.3 343.6 340.6 339.2 337.4 335.8 327.8 317.8 309.5 299.6 292.9 284.1 276.6 274.2 263 260 255.3 247.3 240.4 231.5 224.5 220.6 216.4 215.4 214.4 213.3 210.4 210.1 205.5 206 198.9 193.6 190 190 183.1 180.4 177.5 176.7 175.3 174.6 173.5 171.9 172.2 172 171.5 172.1 173.6 172.9 172.4 170.6 171.3 173.4 172.5 171.6 170.9 171.4 173 171.9 171.6 169.2 169.2 169.6 168.9 169.2 168.1 168.4 169.1 168.8 168.4 170.8 175.8 177.6 180.3 183 184.8 185.7 185.2 184.8 184.1 185.5 185.5 182.6 181.3 181 177.9 174.2 174.5 175.4 173 174.4 174.8 175.7 177.9 179.2 177 177.5 178 179.1 180.1 182.4 184.4 185.5 184.4 184.9 185 187.9 190.2 194.9 197.1 197.6 197.7 198.6 200.8 202.7 203.1 201.1 202.3 202.9 202.6 202.3 201.8 200.9 199.7 195.5 192.1 187.7 186.5 180.4 175.4 173.7 173.2 171.4 168.2 166.1 163.4 159.8 156 152.9 153.1 152.2 148.3 146.6 143.8 142.6 141 139.4 139.4 139.3 139.2 139.2 138.9 138.6 138.2 137.8 137.7 137.5 137.2 137.4 137.7 139.1 138.8 140 140.6 141.8 141.5 140.8 141.5 143.1 144 141.4 142 142.2 143.9 144.7 145.6 145.7 145.5 144.5 143.7
509.1 502.7 493.7 485.3 475.6 465.8 454.8 443.2 431.7 421.5 409.2 396.5 400.2 395.6 391.9 384 377.2 369.9 367.1 361.6 360.2 357.1 354.7 350.4 347.4 345.1 340.8 330.9 322.3 312.7 302.6 293.9 286.1 279 272.1 270.8 267.1 261.3 252.5 246.4 234.6 230.1 227.8 222.1 219.1 217.3 214.3 214 211 209.9 209.6 202.3 197.5 193.8 190.1 185.8 181.7 178.7 176.6 176.6 174.1 173.6 171.9 171.5 170.2 169.6 169.2 169.1 168.6 169.4 169 169.6 170.6 170.6 168.4 169.2 169.7 171.2 171.6 171.7 170.7 169.4 169.1 168.6 168.8 168 168.5 168.5 168.2 168.4 169.4 171.2 174.1 176.7 179.1 180.7 180.9 180.3 180.6 179.8 180.3 179.3 177.5 176.9 175.9 173 168.3 170.5 173 169.9 171.8 173.5 173.8 174.9 177 175.4 178 177.3 179.5 180.8 183.2 184.5 185.8 186.6 186.9 186.4 186.8 190.2 195.7 200.4 201.9 202.4 204.8 209.5 213.4 211.6 210.2 207.1 205.6 205.1 205.3 203.5 201.5 201.5 201.2 197.4 194.1 190.2 186.1 181.4 177.6 174 168.5 168.1 166.9 164.7 161.3 158.5 156.4 154.7 153.3 149.2 148.4 144.2 143.1 141.3 140.4 139.5 139.2 138.7 139.2 138.9 138.7 138.2 137.8 137.6 137.4 137.1 137.1 137.4 139.5 137.6 139 139.5 140.5 138.9 138.9 139.5 141.2 144.6 140.7 139.8 141.7 142.8 143.8 144.7 144.7 144.6 146.1 144.9
516.2 508.3 498.6 489.6 479.2 468.1 456.7 445.3 436.6 426.5 409.4 413.4 411.8 409.3 403.1 395.3 387 378.7 373.1 373.6 370.4 368 364.6 361.2 355.9 348.3 341.8 331.9 320 311.6 304 292.8 284.3 282.1 283 284.5 272.9 264.3 258.9 251.6 246.5 236.3 231.5 225.2 221.4 220 215.1 213.3 213.1 212.3 208.8 204.3 200.8 196.3 192.4 188 184.7 179.8 176.6 174.5 173.5 172.9 172.5 171.9 172.3 168.5 167.9 167.3 167.3 167.9 167.6 167.3 167.3 166.4 166.4 166.7 168.4 171.2 170.7 171.9 171.4 169.1 169.3 169.4 169 168.1 168.1 168.6 168.7 168.3 168.8 169.7 171.7 172.7 173 175.8 176.1 176 175.6 175.3 176 174.4 171.7 171.9 170.9 169.9 167.1 167 167.8 168.6 168.9 169.1 169.5 171 172 173.2 173.9 176.1 180.4 182.9 184.5 185.3 186.7 187.3 186.9 189 189.8 192.2 196.4 200.5 203.5 203.8 207.2 210.1 213.6 214.3 211.7 211.2 210.8 211.3 210.6 208.8 208.7 207.1 205.6 200.3 197.8 193.4 190.6 186.2 181.3 176 172.8 168 164.7 163.4 162.6 162.5 157 156.6 154.4 148.6 146.7 145.8 143.5 142.6 139.4 139.6 139.2 139.2 139.2 138.9 138.7 138.3 138 137.6 137.4 137.2 137.3 137.5 137.1 136.7 137.3 137.9 138.1 137.9 137.4 138.2 140.3 142.6 139.4 138.7 141.6 143.1 143.2 144.1 144.5 145.2 146.1 147.1
521.2 513.8 502.5 492.7 481.6 469.9 459.6 448.6 440.6 427.3 433.3 431.6 428 423.4 416.5 407.4 399.5 391.9 387.9 385.5 382 378.7 375.1 370.2 360.7 351.7 343.4 331.4 321.1 308.9 302.1 295.3 295 286.2 288.5 286.8 279.1 272.5 266.7 261.4 258 244.9 235.8 231.2 227.6 222.2 219.3 219.7 215.1 211.9 211.1 205.3 203.2 197.1 192.9 189.5 186.3 184.6 179.5 176.5 175 173 172.7 174.9 173.5 173.5 167.8 166.4 166.2 167.4 167.4 167.4 166.6 166.4 166.2 166.2 167.2 169.2 170.6 171.5 172.1 171.6 172 171.8 172 170 168.5 168.9 167.5 167.6 167.2 167.4 168.3 169.6 170 170.4 171.5 171.7 171 170.8 171.5 170.6 167.3 167 167.1 168.4 167.2 166.8 166.6 167 167.6 167.5 167.6 168.1 168.9 169.7 172.4 177.2 181.8 185.1 186.5 186.7 187.8 188.3 189.2 190.4 191.2 193.6 196.3 199.3 201.5 203.5 202.2 204.9 206.7 206.6 206.7 209.7 215.4 216.3 214.9 215.3 213.2 210.2 206.5 201.4 199.6 194.6 192.8 187.7 183.2 178.6 172.3 169.4 165.3 163.9 162.3 162.1 159.7 153.7 151 150.9 151 147.7 146.1 144.3 141.6 140.2 139.5 138.9 138.6 139 138.8 138.4 138.2 137.4 137.4 137.3 137.4 137.5 137.1 136.8 136.5 136.8 136.7 136.9 136.6 138.2 138.3 140.4 138.6 139.1 140.7 142.3 142.8 142.8 144.6 145.8 146.5 147.8
526.5 517.9 506 496.1 485.4 473.6 463.2 452.4 443 444.9 445.3 444.5 442 438.7 430.8 421.8 412.4 405.6 402.5 399.8 393.7 387.7 382.6 372.8 361.2 350.2 343.7 332.4 321.1 310.9 306.1 301.2 304.4 293.1 295.9 290.7 285.9 280 274.8 270.5 266.9 254.5 245 239.8 234 228.6 227.4 220.3 221.1 214.6 210.5 209.3 205.7 200.8 196.4 193.2 188.7 187.1 181.8 176.2 174.2 173.6 174.2 173.6 173.9 177.3 168.3 166.3 165.3 165.9 167 167.6 167.2 166.6 166.4 166.4 166.2 167.8 169.6 170.4 172 172.3 172 172 171.5 170.7 170.4 170 168.5 167.6 167.9 166.5 166.7 167.2 166.4 167.3 167.6 167.8 167 167.2 166.6 166.1 165.6 165.4 165.3 164.9 164.6 165.6 166 166.2 166.4 167.2 167.2 168.6 168.7 170.2 172.8 177.6 183.2 187.8 188.6 188.6 189.5 189.8 189.8 193.3 192 193.7 195.6 197.6 198.5 198.3 198.5 199.3 201.6 204.2 204.2 206.5 214.2 218.3 216.2 213.6 210.2 207.5 205.3 199.5 198.3 194.9 191.4 191.2 184.4 180 173.4 168.6 163.4 160.9 159 159.2 157.9 158 157.8 152.4 152.4 150.7 147.8 146.5 144.5 146.2 139 140.2 139.4 139.2 138.5 138.1 137.7 138 137.3 137.4 137.7 137.3 137.2 136.8 136.9 136.8 136.6 136.7 136.6 136.6 137.2 139.4 138.7 138.5 139.9 141.5 142.8 143.2 144.3 145.6 147.5 147.8
529.7 522.1 511.2 501.2 488.6 479.1 467.8 457.7 458 458.1 459.5 458.2 456.5 450.3 444.5 435.8 426.3 417.9 413.6 411.2 404.4 393.8 382.8 373.5 363.7 352.7 343.3 326.5 321 315.8 309.2 310.3 309.5 306.6 304.4 300.7 295.4 291.3 283.9 279.7 274 262.7 254.1 246.8 240.2 233.1 227.5 226.3 222.9 218 214.9 210.2 207.2 202.5 200.9 195.1 192.3 186.5 183.7 181 175.1 174.8 173.9 173.2 173.3 173.1 167.6 164.8 165.7 165 165.1 165.4 165.8 166.8 166.5 166.1 165.6 167.6 169.4 168.9 169.8 172.3 175.7 172.1 170.3 169.4 168.6 169.2 168.4 168.3 168.9 168.4 166.3 166.4 167.4 167.6 166.1 165.5 166.5 166.2 166.2 165.9 165.6 165.2 164.8 164.6 164.5 165.1 165.6 165.9 166.9 166.6 166.7 167.4 168.3 169.6 173.2 178.7 183.7 188.6 190.7 189.5 189.8 190.9 190.7 191.5 192.2 192.4 195 195.5 197.1 195.8 196.2 196.7 199.2 201.3 202.5 204.5 208.7 208.4 208.9 209.3 207.8 205.8 203.9 199 197.2 195 193.4 190.2 185.4 180.8 175.5 168.2 165.8 163.2 162 161.9 161.7 160.4 159.7 156.2 154.2 149.9 150.9 149.7 148.7 149.2 144.2 144.9 142.2 141.3 142.6 139.2 140.6 138.2 137.9 137.1 137.3 137.5 137 136.8 136.9 136.8 136.6 136.5 136.5 136.7 137.1 136.8 137.9 137.7 138.3 140.7 141 141.7 143.6 143.4 145.3 146.8
531.2 525.2 516 504.6 495.1 485.9 476.4 473 472.7 470.9 470.8 470.9 469.9 462.8 456.3 447.6 438.4 429.9 422.9 414.4 405.3 394.1 384.2 371.6 363.9 354.3 340.4 329.9 326.2 319.6 319.5 317.5 315.5 312.3 313.1 312.2 308.4 300.6 296.3 289.5 282.4 270.3 261.8 252.2 242.7 234.5 229 225.1 224.5 219 215.3 210.7 209.1 205 201.4 196 191.1 187.5 185.6 188.5 186.6 179.9 173.4 174.5 174.3 171.5 166.3 164.8 164.5 164.3 164.1 164.2 165.7 167.2 166.8 165.5 165.4 167.9 170 165.9 167.1 169 171.3 170.3 169.4 168.6 168.1 171.1 169.5 168.1 169 169.5 167.1 168.4 166.4 166.5 167.5 166.2 166.6 166 165.6 165.3 165.4 165.5 165.6 165 164.7 164.1 165.5 165.7 166.1 166.1 166.9 167.4 168.5 169.9 174.4 180.1 184.6 188.8 191.2 189 188.9 191 190.5 190.6 192.4 192.8 193.7 193.6 194.8 194.2 194.8 195.2 195.8 197 199.2 200.5 203.5 203 203.9 204.5 202.5 201.2 200.1 198.7 197.5 193.4 191.7 190.5 186.3 181.6 176.6 173.8 169.6 166.7 164.1 163.1 163.2 162.1 162 158.4 154.6 152 153 153.5 152.1 152.1 146.8 146.4 145.9 144.5 147.3 145.7 145.6 141.8 141.7 141.9 140.5 139.4 138.9 138.2 137.4 137.1 136.9 136.7 136.5 136.4 137.1 136.6 136.3 136.6 137.2 137.9 138.9 139.7 140.8 141 141.4 143
537.1 528.7 519.9 509.9 500.6 492.6 487.1 485.4 483.1 481 481.2 481.7 478.9 474.6 468 459 448.5 440.6 429.4 418 406.4 394 382.1 373.4 366.7 354 342.1 333.6 332.4 328.7 327.5 325 321.2 324.7 322.9 316.5 317 310.3 304.5 297.8 289.3 277.4 267.5 255.9 245.4 238.1 228.4 227.8 222.8 219.5 214.9 211.1 208.9 206.1 201.1 197.2 194.5 190.1 191 186.9 185 185.2 176.8 178.1 172.4 168.7 167 164.4 163.8 164.3 164.2 164.8 166.4 168.4 167.5 164.8 164.8 167.1 166.4 165.3 165.3 165.6 165.8 167 165.6 165.6 167.7 169.6 170.6 168.9 167.9 167.5 167.7 166.4 166.6 166.6 166.1 165.8 165 164.8 167.7 164.5 164.3 164.5 164.8 164.6 164.9 167.5 164.5 164.7 165.1 165.5 166 166.3 167.7 169.9 174.6 181.4 184.7 188.1 190.2 189.3 189.8 191 191.1 190.7 192.4 192.6 192.4 192.5 192.8 192.1 191.8 191.5 193 193.7 193.4 192.8 196.1 197.3 198.4 198.5 199.4 198.1 194 193.9 193.3 192.7 190 189 188.8 184.3 179.8 175.7 173.1 171.1 167.8 167.2 166.2 165.4 164.5 159.9 157.5 156 155.5 155.5 154.2 151.6 150.7 149.5 148.2 148.7 151 150.3 149 150 149.2 149.3 146.7 144.9 143.4 141.1 140.1 138.4 137.8 137.5 137.1 136.8 136.9 137.6 136.6 135.8 136.4 136.3 137 137.1 139.9 139 137 137
538.8 531.1 523.9 514.3 506.4 497.6 496.7 494.3 491.6 490 490.3 491.3 488.4 482.8 475.9 468.1 456.8 443.1 431.4 418.9 405.5 391 384.1 376 364.4 347.1 347.7 343.3 338.6 336.7 331.7 335 333.2 336.4 334 328.8 324.6 321.4 315.8 305.5 297.8 285 272.4 259.8 248.6 239.5 231.2 228.4 223.9 219.9 215.4 215.9 209 205.1 201.1 199.1 193.7 191.2 190.4 189.2 185.5 182.3 177.9 178.5 173.3 170.4 168.9 166.6 166.2 165.2 164.3 166.6 167.7 167.1 165.5 163.9 164.2 166 164.6 164 164.3 164.6 165.7 165.3 165.6 165.9 166.8 167.6 169.8 169 168.2 167.9 167.4 166.8 165.9 165.9 165.1 164.4 164.3 164.2 164.5 163.9 164 164.1 166 164.5 164.3 166.1 164.3 164.4 164.8 165.3 165.3 165.6 166.6 170.3 173.3 178.4 183 186.9 188.3 190.6 191.9 191.6 189.3 189 187.3 190.2 191.7 190 188.7 187.8 187.3 186.6 185.4 186.6 188.9 188.8 191 191.8 192.6 194.6 192.6 191.7 190.1 189 190 190.7 191.6 192.8 190.6 187.5 182.1 180.5 179.3 175.9 173.1 169.8 168 169.1 168.7 166.9 163.4 160.9 159.4 159.5 158.4 157.3 156.4 154.4 152.7 154.9 154.8 156 156.1 156.4 158.1 155.4 153 151.2 149.2 147 146.7 141.7 140.8 140.2 139.7 137.5 137.3 138.1 136.3 135.4 135.6 136.6 136.7 135.2 135.3 136.4 134.6 134.2
539.8 533 525.5 517.8 511.1 507.4 504.7 502.2 498.7 497 497 499.5 495.4 488.2 478.9 469.2 457.1 443.2 431.3 417.9 403.6 394.6 385.1 377.6 367.1 360.1 357.1 351.6 348.9 345.4 341 350.1 346.3 345 345.1 343 337.2 331.2 326.7 312.3 305 289.4 273.8 262.5 249.9 235.5 236.8 230.7 227.3 219.1 219.3 214.1 208.7 205.1 201.1 198.5 196 191.5 189.2 186.6 184.4 182.9 182.4 178.9 174.9 169.8 169.5 169.2 169.7 166.8 164.5 167 168.7 165.7 163.9 163.5 163.8 164.3 164.7 164.4 164.9 165.8 167.4 166.7 165.7 165.5 165.5 165.3 166.2 166.5 166.2 165.7 165.5 165.6 165.5 164.6 164.5 164.2 164.2 163.7 164 163.9 164.3 164.3 164.5 164.4 164.2 164.1 164.1 164.5 165.1 165.2 165.7 165.6 166.1 169.4 171.1 174.4 179.2 182.1 186.3 188.4 192.6 190.7 186.2 186.4 180.3 182 183.1 183.3 182.6 182 182.4 181.7 180.4 182.5 183.1 184 186.1 187.2 187.4 187.5 189 189.7 188.9 190.5 189.3 189.4 191.2 191.7 192.9 194.5 192.5 188.6 185.7 183.2 179.9 176.6 174.2 173.2 172.8 172.1 169 166.8 166.2 164.6 163.3 163.4 162.2 161.2 159.4 161.5 161.4 162 161.8 163.2 162.8 160.8 158.2 155.1 152.5 151.3 148.6 146 142.5 141.5 140.4 138.3 138.5 135.7 135.5 135.2 136 135.8 135.3 134.5 134.1 134.5 133.2 133.9
541.3 533.7 526.5 521.5 516.5 513.3 512 508.4 504.8 503.2 503.5 503 498.3 491.8 482.6 469.8 456.7 442.5 428.5 416.7 404.1 394.4 384.6 376.5 371.7 366.3 362.2 364.4 358.3 361.2 353.4 356.1 355.3 352.7 356.8 354.1 348.9 339.9 336.8 323.7 310.1 295.2 277.3 263.9 251.9 239.9 243.3 234.5 230.4 221.1 220.4 216.3 210 206.2 203.3 198.3 196.8 194 190.5 188 187.3 183.3 179.3 179.3 176.6 171.5 169.5 168.3 168.1 167.1 163.6 166.2 166.6 165.6 163.5 162.7 162.8 164 166.4 166.6 166.6 166.3 166.8 167.1 167.1 167.3 165.4 164.9 165.6 165.7 165.2 164.8 164.9 165.1 165.3 165 165.3 164 164 165.2 165.3 164.2 164.7 164.5 164.6 164.8 164.4 164.2 164.4 165 165.4 165.1 165.1 165.4 167 168.1 168.5 169.2 172.2 175.4 178.9 181.5 185.2 183.2 176.8 174.4 170.8 170.7 171.8 174.2 174.4 174.4 176.2 176.7 176.1 178 179.4 179.4 180 181.9 183.1 184.5 184.9 187.2 189.4 191.7 193.3 194.7 194.8 196.7 195.4 200.9 201.2 194.7 190.2 189.1 186.6 183.1 180.1 179 178.1 175.5 174.3 172.7 171.2 170.5 168.9 168.5 167.3 166.2 166.6 166.6 166.9 168.7 169.7 168.7 168.2 166 163.1 161.6 157.9 154.4 152.5 149.2 146.5 144.8 144.3 141.9 142.6 139.5 137.6 137.8 138.4 137.1 136.3 135.3 134.7 134.2 134.2 133.9
541.1 535.9 530.4 525.8 522 518.8 515.8 512.3 509.9 509 507.8 504.9 501.4 494.6 483.1 469 455.3 441.8 428.2 415.9 404.6 395.1 385.4 380.5 377.2 370.5 372.1 370.3 368.2 366.9 366.8 369.1 367.7 364.9 367.1 369.8 362 352.5 342 334.2 318.1 301.5 282.1 267.3 259.1 243.6 240.7 237.7 230.2 222.2 221 220.7 213.7 211 205.5 199.6 201.1 194.6 190.6 187.5 187.2 183.6 180.7 178.4 183.1 177.2 170.4 168.9 166.6 165.1 164 163.8 163.5 166.5 165.2 162.8 162.9 164.6 164.2 164.6 168.3 166.6 167.6 168.3 168.2 169.3 167.5 166.7 166.1 165.2 164.4 164.2 164.4 164.7 164.9 164.5 165 163.9 163.7 165.9 167.5 166.6 165.4 164.6 164.9 165.1 165.2 165.9 167.3 167.9 168.7 168.1 166.6 166.7 166.9 167.7 167 166.2 165 166.9 169.4 172.1 173.1 172.8 170.5 167.1 166.4 166.1 166.9 168.1 168.5 169.4 172.4 173.6 173.8 175.1 177.1 177.8 179 178.2 180.6 183 186.3 188.5 192.8 194.7 198.2 201 201.9 203.7 202.1 204.2 203.4 199.6 198.1 194.8 192.4 190.1 186.8 185.6 183.9 182 179.7 178.1 177.4 177.6 175.1 172.6 172 171.6 172.4 173 173.9 177.2 178.9 178.8 176.5 175.7 170.6 167.5 165.3 160.9 159.2 153.9 151.3 149.7 148.8 146.9 146.2 144.7 139.7 139.5 139.8 138.8 137.8 137.7 137.7 134.5 134.2 133.5
542.4 539 535.3 531 528.4 523.4 520.3 517 514.9 512 511.2 511 505.4 496 483.6 470.9 455.2 442.8 428.4 414.7 405.1 396.3 386.4 383.2 378.3 376.6 376.5 376.1 374.7 373.9 379.3 381.5 378.7 381.4 379.1 374.5 370.7 359.8 349.3 337.5 325.1 305.5 284 271.4 260.8 248.4 240.3 240.5 228.6 225.7 222.3 216.3 211.4 208 205.6 202.6 197 193.9 191.5 186.3 183.6 182.4 179.7 177.7 181.6 174.7 169 166.6 164.5 163.6 163.5 163.3 163.1 162.7 163.2 164.6 163.6 163.7 164.1 164.1 167 169 168.2 167.2 166.6 168.6 166.4 165.9 165.6 164.8 164.1 163.9 164.1 164.4 164.6 164.3 165.1 164 163.6 165.9 168.3 169.6 168.2 166.9 167.3 167.5 166.8 168.3 170.1 169.5 169.2 169.3 168.3 168.2 167 167.4 166.7 165 163.9 163.7 163.8 163.8 163.8 164.7 165.8 165.3 165.2 165 165.5 165.4 166.1 166.8 168.3 170.1 170.4 172.6 174 174.8 176.9 176.3 178.5 183.5 186.4 192.4 196.2 199.7 205.1 207.7 211.9 211.9 215.4 216 212.3 206.9 205.4 203.5 199.2 196 192.4 191.9 191.4 189.2 186.7 185.3 184 183.3 180.7 177.1 179.7 181.3 181.5 184.2 186.4 188.3 188.6 188.3 188 184.5 180.5 180.5 176.6 170.2 166.9 163.1 159.5 156.5 154.6 151.4 148.8 147.6 145.5 144.4 142.7 142.4 141.4 143.5 143.2 139.9 138.2 136.7
546.1 543 539 535.3 532.4 528.3 524.6 521.3 519.5 516.6 516.9 515.3 510.3 498.1 485.6 471.8 455.8 442.9 430 417.9 404.9 394.9 390.8 385.5 382.3 379.9 383 380.4 382.2 385.4 386.1 387.3 386.9 391.1 384.4 385.8 384.6 370.1 356.6 345.4 328.1 309.5 289.3 273.9 267.9 256.6 244.7 241.6 233.1 227 224.4 224.1 213.1 208.1 203.8 201.2 201.8 194.6 191.1 187.6 182.8 179.4 178.3 175.8 179.5 172.9 169.1 166.6 164.1 163.7 163.1 163.2 162.5 165.8 166.3 166.3 165.1 164.3 163.9 163.8 167.3 169.2 167.3 166 166.4 166.8 165.8 165.6 165.4 164.9 164.1 163.7 163.9 164.1 164.3 164.8 164 163.7 164.1 165.8 169.9 172.9 170.5 168.9 169.3 169.4 168.4 170.4 171.5 170.5 169.4 169.2 168 166.7 165.4 165.2 164.4 163.5 163.3 163.2 163.6 163.1 163.4 163.8 164.3 164.4 164.4 164.8 165.3 165.4 165.5 165.5 165.1 165.7 166.7 169.6 171.6 172.9 173.3 176.7 180.2 183.1 188.5 194.9 199.7 208.1 213.1 218.1 221.8 223.2 226.6 223 218.3 214.7 210.6 208.5 205.2 202.8 201.3 201.2 198.9 196.4 194.7 192.9 191.7 191.6 190.8 186.6 187.2 189.4 190.1 194.3 197.5 201.8 200.2 201.3 200.1 195.2 196.4 193.9 188.1 181.3 176.8 171.6 166.7 162.8 159.7 156.8 155.2 152.7 150 148.2 146.2 145.5 145.3 146.1 144.8 142.2 143.2 141.9
549.2 545.7 543.3 540.1 535.7 532.1 528.5 526.8 522.9 520.4 521.3 521.2 512.9 501.4 487 472.7 457.5 444.9 432 419.2 405.7 397.9 394.1 389.9 387.4 388.5 388.8 385.5 390 392 396.6 395.6 394.6 398.2 398.8 396 390.8 379.3 364.1 352.7 336.5 317.9 298 279 273.1 262 250.1 242 232.2 226.8 225.1 221.6 215.1 210.3 204.2 200.2 197.7 194.7 187.2 186 182.9 178.5 177 175.5 173.2 173 168.5 165.8 162.4 162.5 162.6 163.2 165.8 167.3 166.7 167 165.7 164.1 163.9 163.9 165.9 166.6 165.9 165.7 166.1 166.4 165.6 165.5 165.4 165.2 164.4 163.7 163.9 164.1 164.8 164.6 164.7 169 170.8 168.5 171.4 172.8 173.4 171.8 170.8 170.7 168.9 170.3 170.8 169.8 167.6 167 165.8 164.4 163.2 162.8 162.7 163.5 163.2 163.4 163.2 163.4 163.4 163.8 164.6 164.8 164.8 164.8 165 165.2 165.4 165.5 165.5 165.8 166 167.6 168.3 169.5 172.4 177.2 181.7 185.2 190.5 199.4 204.2 214.5 220.9 227.6 230.1 231 233 228.7 225.1 223.2 218.6 214.2 211.6 208.7 208.8 208 208 208 206.6 206 203.7 200.2 199.1 196.8 196.3 201.2 205.4 207.9 211.4 212.6 212.7 213.5 210.6 210.8 208.5 205.7 198.3 191.2 184.1 180.2 174.6 170.5 166 162.9 160.7 157.2 154.5 152.9 150.1 149.1 148.6 148 145.9 143.9 143.4 142.6
552 549.4 546.4 543.3 539.1 537 533.8 530.5 527.2 528 528.3 525 516.3 504 491 474.7 461.3 448.5 431.5 420.8 408.8 399.8 394.5 395.2 395.2 396.2 396.7 396.7 399 401.9 405.2 404.3 403.5 409 410.7 407.5 399 388.1 373.6 357.4 341 324.9 303.6 286.7 276.3 271.9 261.6 252.8 241 232.8 229.3 223.7 215.7 210.9 204.5 198.9 195.3 195.3 189.1 183.5 181.3 177.8 176 173.5 172.7 169.5 167.3 164.8 162.4 162.8 163.1 163.2 166 166.9 167.7 168 167.7 166.2 165.3 163.9 165 166.9 164.8 165.4 165.9 166 165.3 165.2 165.4 165.1 164 163.7 163.9 164.8 165.4 164.7 166.8 169.9 171.9 172.8 174.4 176.1 174.7 173.4 171.8 170.2 168.5 168 168.6 167.3 165.8 164.7 163.4 162.6 162.5 162.5 162.4 162.2 163 163.1 163 163.6 163.6 164 164.7 164.6 164.6 164.7 165 165.2 165.2 165.2 165.6 165.8 166.2 167.8 167.5 168.8 173.8 179.4 185.7 194.7 198 203.6 210.9 219.3 225.3 230.3 236.7 237.5 237 237.7 236.3 232.1 226.4 222.8 219.2 215.7 215.6 219.1 226.9 228.9 229.4 225.5 221.5 219.5 217.4 217.3 216 214.5 217.3 219.3 220.9 222.3 227.2 232.6 234.8 231.2 225.9 219.6 211.1 201.4 192.9 187.8 182.4 177.7 172.3 169.8 164.7 161.3 158.8 156.8 154.4 152.1 153 150.6 147.5 146 145 143.9
554.5 552.3 550 546 544.1 541.4 539.3 535.3 533.5 534.8 534.1 528.9 520.8 508.4 495.3 480.5 466.7 454.2 439 426.5 416.4 405.1 400.1 407 404.2 406.1 403 403.6 405.9 407.6 412 410.3 410.8 419.7 421 416.8 409.6 399.1 382.7 362.8 350.3 329.9 313.3 297.6 288.8 276.9 274.1 264.6 252 241 233.3 227 220.8 213.9 208.7 200.5 198.8 194.7 192.8 183.9 183.1 177.7 174.5 176.4 170 167.6 166.4 163.6 162.9 163 162.8 162.1 166.8 167.1 166.4 166.9 167.5 166.3 164.9 164.3 165.9 166.4 164.6 164.2 165 165.4 165.7 165.4 164.6 164.5 163.6 163.8 163.7 163.7 164.1 164.9 168 170.6 172.5 174.6 176.3 175.1 173.7 173 171 168.7 167.1 167.3 167 165.8 164.3 163 162.5 162.3 162.2 162.2 162.4 162.5 162.8 162.9 162.7 163.5 163.6 164 164.6 164.4 165.4 164.7 165.3 165.2 165.1 165.1 165.7 165.8 166.2 167.1 167.8 172.7 177.7 184.1 189.4 201.4 206.5 211.4 217.5 221.6 227.8 235.5 241.2 239.1 241.4 240.1 237.4 237.1 235.2 233.7 230.3 227.4 228.4 237.2 244.1 247.3 245.5 240 237.6 236.8 235 234.9 229.9 223.6 224.4 230.2 233 229.1 239.8 246.3 245.2 241.3 235.2 225.3 217.9 208.5 199.5 193.1 187.4 182.3 177.2 172.7 168.3 164.4 162.4 158.6 156.2 154 153.5 151 148.8 146.7 145.6 144.2
558 556.5 552.4 548.5 545 544.4 544.6 540 540.3 541.2 540 534.6 525.7 513 499.4 485.9 471.9 458.2 445.6 431.7 420.9 409.7 409.9 415.1 414.4 412.3 407.9 414.3 414 414.5 419.3 417.7 421.5 429.5 429.5 423.4 416.4 404.6 390.7 375.7 358.5 334.6 322.6 307.9 300.7 290.3 281.8 273.2 260.8 246 236.7 228.6 224.2 216.2 209 204.6 199.4 194 191.3 185.6 184.5 177.9 176.3 173.9 170.5 167.8 166.5 163.8 162.5 162.7 162.7 162.6 164 165.5 165.7 166.7 167.2 166.9 165.7 165.4 165.4 167 164.2 164.2 165.1 166.1 166.4 164.4 163.6 162.9 163.6 163.7 163.7 163.2 162.8 165.2 168.3 170.6 171.8 172.2 172.6 172.3 171.3 169.9 168 166.2 165.3 165.1 166 164.9 163 162.4 162.2 162.1 162.2 162.3 162.4 162.5 162.8 163.1 163.2 163.4 163.6 163.9 164.2 164.4 164.4 164.7 165.1 165.1 165.7 165.2 164.8 164.8 165.8 166.5 169.5 175.5 181.5 188.5 196.6 204.6 210.1 216.5 220.8 227.2 232.8 235.4 239.2 241 241.1 239.8 240.7 242.6 242.7 241.3 240.6 238.1 241.2 251 261.7 262.3 258.1 253.9 252.7 255.1 253.8 245.7 242 233.8 232.4 238.1 241.3 247 254.8 255.5 250.4 246.8 239.1 231.6 223.1 214 206.7 200.8 193.1 187.8 183.2 177.1 173.1 168.4 164.9 161.3 159.7 156.9 154.5 152.8 150.3 148.7 147.5 145.4
558.6 556.5 554.8 552.2 548.6 547 545.3 544.8 545.7 546.7 543.9 538.4 529.6 516.8 502.9 488.7 475.5 464.4 452.1 439.6 429.7 417.4 421.7 417.3 421.8 418.6 416.8 420.4 426.1 419.7 427.5 425 432.9 437 438.6 434.9 425.1 411.9 398 379.2 365 341.8 328.6 318.3 314 302.3 289.7 279.1 265.4 253.4 241.6 234.9 226.9 222.7 211.6 205 200.3 197.5 198.3 187 181.2 178.4 175 171.5 171 167.4 165.8 163.7 162.5 162.8 162.7 162.5 162.5 162.5 164.8 166 167.7 168.2 168.1 167.3 166 164.9 163.8 165 166.3 166.3 166.2 164 163.1 163.3 163.8 163.4 163.6 163.2 163.5 165.5 167.4 168.3 167.5 169.7 170.2 170.1 170.4 168.5 165.8 164.5 163.7 163.1 163.6 162.8 162.4 162 162.1 162.1 162.2 162.3 162.5 162.6 162.9 163.1 163.3 163.5 163.7 163.8 164 164.4 164.1 164.8 164.2 165.4 164.7 165.1 165.3 165.2 165.1 166.2 169.9 177.8 183.6 190.5 199 207.3 214.6 220.5 224.6 225.9 229.8 233.4 238.4 240.8 243 246.2 247.6 248.4 248.4 248.9 251 251.8 255.6 264 270.2 270.9 267.9 271.3 267.1 267.3 261 252.8 246.9 242.1 237.5 240 244.6 251.8 256 259.2 259.5 254.9 248.4 242.2 232.2 222.2 215.3 208.4 200.9 194.9 189.4 182.8 177.2 174 169.9 166.1 161.5 159.9 157.4 154.1 152 149.9 147.7 147.4
559.1 558.6 558.3 556.2 552.7 549.8 547.5 547.4 548.3 553.5 547.6 540.2 530.6 517.7 504 491.2 479.5 468.8 457.3 446.2 434.1 430.8 430.2 429.7 425.7 426.9 423 431.5 433.5 429.6 436.9 435.5 441.5 443.8 443.9 440.4 429 417.5 406 387.9 369.1 349.1 336.3 329.3 326.8 312.4 299.1 284 269.7 258.7 247.6 236.4 228.4 223.5 215.1 204.9 200.7 200.8 196.1 185.4 181 177.2 171.5 170.1 166.9 166.9 164.5 164.8 162.7 162.7 162.7 162.7 162.6 162.3 163.6 164.3 166.7 170 168.9 166.5 163.5 163.6 163.8 165.2 166.9 166.9 166.1 163.4 163.5 163.5 163.7 163.1 163.8 163.3 163.8 163.8 164.5 165.5 165.1 167.2 167.8 167.8 167.8 165 163.3 163 162.1 161.8 161.9 162.6 162.3 161.6 162.1 162.1 162.1 162.3 162.5 163.3 162.8 163.1 163.4 163.6 162.9 163.2 162.7 162.9 163.3 163.8 164.5 164.9 164.8 164.9 164.8 165.4 165.4 168.1 172.1 179.6 185.7 191.4 198.7 207.7 214.3 219.6 222.7 227.7 231.9 236.2 241.2 243.8 247.1 248.9 251 252.5 252.7 254.2 256.8 258.7 264.8 271.3 276.9 283.4 288.2 283.7 279.4 273.6 262.6 255.6 250.7 246.5 242.2 240.9 244.2 249.9 254.9 261.2 262.6 257.5 252.4 249 242.1 233.3 222.3 214.8 207.5 201 192.8 187.5 182 176.1 173.4 167.9 164.9 161.8 158.5 155.4 152.9 150.8 149.8 152.3
563.5 564 561 559 556.1 554 550.2 550.9 551.6 554.2 548.5 541.2 531.1 517.6 504.5 491.9 480.1 470.1 460.9 447.4 443.7 441.1 436.3 434 428.2 432.8 428.5 437.7 440 441.6 443.4 444.8 451.1 449.8 451.6 443 429.2 422 409.2 395.1 371.2 349.4 341.1 344 337.6 318.7 303.5 286 269 259.8 250.1 239 228.7 220.7 214.3 204.7 201.7 200.3 189 181.8 178.5 175.4 175.3 168.2 166.9 165.7 165.9 165.2 163.9 163.6 163.4 162.4 162.7 162.9 163.2 163.7 166.1 170.7 172 170 164.3 163.6 164.7 166.8 166.4 166.4 165.7 165 165.4 164.6 163.6 163 163.5 163.9 163.1 163.3 163.3 163.7 164.4 165.8 164.8 164.4 162.5 162.4 162.3 162.2 162.6 162.5 161.7 162.1 162.1 161.9 162 162.1 162.1 162.3 162.6 162.5 162.5 162.7 163.1 162.8 162.9 163.7 164.1 164.7 162.8 163.4 163.6 163.6 165 164.7 164.8 165.1 165.5 168.9 173.6 181.4 187.4 194.9 202.8 209.1 213.4 220.2 224 227.7 232.7 236.2 241.1 244.6 247.5 249.3 253.8 257.8 256.7 256.7 258.1 260.7 265.7 277.3 290 295.8 298.1 289.1 279.2 267.6 259.6 254.1 251.4 248.3 243.9 242.3 243.5 246.8 252 256.2 257.9 259.2 257.5 254.2 249.5 241.4 228.1 220.6 213.2 205 198.7 191.3 185.4 181.2 175.5 171.1 167.4 163.3 160.1 158.1 156.8 154.4 152.8 154
566.1 565.3 564.9 563.1 560.3 557.3 554.3 552.7 554.1 554.3 549 541.7 530.7 518.2 503.4 490.3 481.3 471.4 462.3 451 451.4 446.6 438.9 439.1 439.9 441.8 437.3 449.9 448.8 447.9 444.9 455 459 459 456.3 446.4 432.9 422.3 412.3 397.1 375.9 357.1 349.6 344.4 333.1 317.2 303.7 287.9 273 260.5 250.1 238.4 228 219.2 210.3 204 200.2 194.1 187.8 183.9 178.7 175.3 171 170.5 167.7 166.2 165.6 167.1 166.8 165.2 164.3 163.1 162.5 162.2 162.7 162.7 161.8 166.2 172.4 171 165.2 165.1 166.1 166.7 167.5 166.2 165.8 165.7 165.5 165.5 163.2 163 163.1 162.9 162.5 162.9 162.7 162.8 162.5 163.2 163.2 163.6 162.4 162.4 162.2 162.4 162.5 162.5 164 162.1 161.9 161.9 162 162 162.1 162.2 162.4 162.4 162.4 162.4 162.6 163 163.2 162.9 163.1 163.5 162.6 163.1 163.8 163.6 163.9 164.4 164.6 165.9 166.3 169.7 176 182.4 189 196 202.9 207.9 212.6 218.1 223.3 228 232.6 237 241.3 243.1 244.9 248.2 251.5 254.2 254.7 256.1 257.6 261.1 266 280.8 292.5 297.7 298.6 287.5 272.3 263.1 256.5 252.6 250.3 246.2 243.4 242.7 243.3 245.9 249.5 254.7 260.4 262.9 262.9 261.2 257 247.1 233.9 224 216.9 210.2 200.3 196.1 191 184.9 179.8 175 171.2 167.1 163.5 161.7 160.2 158.9 156.6 158
567.4 567.7 568 566.3 564.1 560.3 556.7 554.1 556.3 557.3 549.1 539.1 528.8 515.2 502.5 490.8 480.1 474.4 465.5 459.5 455.5 450.1 448 450.1 446.7 446.7 448.5 456 457.9 453.4 456.1 460.8 463.2 463.1 456.5 446.8 439.1 427 417 396.3 374.8 359.8 347.7 343.9 330.8 315.2 301.8 287.5 272.6 262.6 249.3 237.5 228.2 217.1 209.3 205.8 203.6 193.9 187.7 183.2 177.7 174.9 171.4 169.5 168 166.9 166.3 166.7 166.9 166.8 168.8 165 162.6 162.2 162.6 162.3 161.2 165.2 172.8 170.7 166.6 166.8 164.2 167.8 169.3 167.7 167.3 166.8 165.9 166.5 164.6 163.8 163.4 162.6 162.4 162.7 162.1 162.1 162.3 162.4 163.3 162.2 162.2 162.2 162.2 162.1 162 162 162 162 162 161.9 161.9 162 162.1 162.2 162.3 162.4 162.5 162.5 162.7 162.7 162.5 162.5 163 162.9 162.8 163 163.7 164.6 164.6 165.2 165.7 166.9 166.7 170.8 176 183.5 188.3 193.8 200.4 207.2 211.6 216.6 222.2 227.8 231.5 234.2 237.7 239.9 242.3 243.2 245.1 246.6 248.2 251 254.8 259.7 266.5 281.4 287 291.3 289.1 282.5 265.8 259.1 254.9 250.4 247.8 245.4 242.9 243.1 245 247.3 251.9 257 262.1 268.7 267.6 264.1 262 252.6 236.4 226.3 221.1 214.7 206.9 201.4 194.7 187.9 182.4 177.6 174.2 171.3 168.1 165.5 164 161.1 161.1 161.7
568.9 569.1 571.4 567.8 566 564.6 559.2 558.3 557.4 554.8 547.8 538.9 525.2 512.6 499.8 489.7 479.8 474.7 468.1 466.3 460.8 459.2 455.2 453.9 450.3 451.9 458 463.1 465.2 457.9 466.4 468.9 466.5 463.7 458.3 449.6 442.3 429.3 418.1 395.5 371.5 360 349.6 342.2 330.4 310 297.5 282.5 273 261.9 249.2 239.6 231.6 220.2 209.4 205.2 206.1 195.4 191.1 182.6 179.3 175.7 173 170.3 169.2 165.6 165.6 166.5 165.9 167.5 168.4 164.7 162.8 163.3 163.4 162.9 161.2 162.1 168 167.8 164.3 163.8 167.8 166.7 170.6 170.7 169.9 169.6 169.3 168.4 164.8 163.6 163 162.4 162.4 161.8 161.9 162.1 162.2 162.3 162.2 162.1 162.3 162.3 162.3 162.2 162.2 161.8 161.9 162 161.9 161.9 161.9 162 162.1 162.1 162.2 162.3 162.5 162.5 162.6 162.5 162.5 162.5 162.6 162.6 163.2 163.2 164.1 164.9 165.3 165.3 165.7 166.5 166.6 171.6 177.3 183.7 186.5 192.9 198 206.2 211.6 216.8 221.7 226.2 229.7 232.4 235 237.2 238.6 239.5 241.4 243.2 245.3 248.1 250.2 255.8 264.3 271.6 274.7 280.7 281.1 274.5 260.8 255.9 250.9 247.6 244.7 243.3 242.6 244 247.3 250.2 256 266 271.4 270.4 268 268.2 271 258.2 238.9 229.4 222.1 216.2 206.9 199.3 191.9 186.9 182.9 179.3 176.7 175.6 171.2 168.6 164.9 163.1 165.1 164.9
573.3 571 572.3 568.7 569 566.9 563.6 563.9 557.4 554.7 546.2 534.5 520.4 509.4 497.4 487.2 479.8 475.1 470.2 470.3 465.5 463.6 462.2 461 458.7 461.6 462.4 471.6 470.2 466.7 471.5 473.7 471.1 466.2 461.7 448.8 440.5 431.2 416 397 371.1 358.3 344.6 337.1 323.9 309.7 292.7 282.2 272.2 258.3 249.5 239.3 229.6 221.2 211.8 207.1 207.4 197.5 192.3 185.1 180.9 177.6 174.2 170.4 168.3 168.3 165.4 165.5 167 167.1 166 164.6 163 163.2 163.4 162.8 162.9 162.3 162.9 164.9 165.4 165.4 164.2 162.7 166.1 168.8 166.5 163.2 162.8 163.6 163.3 163 162.5 162.3 162.2 161.9 161.9 162.1 162.3 162.4 162.2 162.2 162.3 162.2 162.3 162.4 162.3 162 161.6 161.4 161.9 161.9 161.9 161.9 162 162.1 162.2 162.3 162.4 162.4 162.4 162.9 162.4 162.4 162.5 162.7 163.2 163.4 164.4 164.9 165.2 165.5 166.3 166.6 167.3 170.1 176.2 180.5 185 189.4 195.3 200.2 208 215.9 223.1 226.4 230.1 233.5 235.1 235.4 236.7 237.1 238.6 239.3 241.9 244.4 246.3 249 255 263.6 264.4 266.9 266.3 261.9 255.7 249.8 246.2 243.1 240.6 239.9 240.9 244.7 249 253.2 259.6 268.7 273.8 274 275.2 272.7 267.9 255.4 240 230.5 223.6 216.2 207.6 200 192.4 187.6 184 181.2 178.2 175.3 172.5 169.4 167.5 168.5 168.9 169.6
579.8 577.6 574.3 571.5 571.4 569.5 569.5 565.9 557.7 547.9 541 532.4 519.4 506.5 495.4 485.9 479.1 476.3 474 473.1 470.8 470 471.8 471.9 472.8 475.6 473.5 476.3 472.9 469.2 475 477.1 474.2 468.1 461.1 449.4 437.7 427.4 414.1 393.4 370.7 355.6 340.6 329.9 317.3 302.7 287.7 279.2 270 256.2 248.3 240.5 229.3 219.5 214.5 208.2 208.5 198.8 193.2 187.6 183.8 182.1 176.8 172.2 170.3 166.3 165.2 166.4 167 167 165.5 164.2 163.3 162.8 162 161.4 163 161.4 162.4 164 165.4 165.4 165.4 162.6 161.3 161.7 161.6 162 162.3 162.6 162.6 162.9 163 163.4 162.3 162.2 162.1 162.3 162.6 162.5 162.1 162.2 162.3 162.3 162.1 162.3 162.4 162.2 162.5 162.9 162.5 161.9 161.9 161.9 162 162 162.1 162.3 162.2 162.2 162.2 162.4 162.8 162.6 162.7 162.9 163.7 163.6 164.2 164.9 165.9 166.6 167.1 167.6 169.3 170.5 173.7 177.2 182.7 185.9 191.8 200.8 208.9 219.3 225.1 228 231.4 233.1 235.5 236.5 236.8 236.4 236.8 237.3 237.5 240.8 241.9 245.6 249.1 252.3 255.2 257.4 258.7 255.3 251.8 245.7 242 237.7 236.1 235.8 238.4 242.9 249.6 255.7 260.6 270.9 276.8 280.4 281 276.9 268.5 254.3 241.8 233.9 225.2 217.9 209.3 200.7 194.7 189.4 185.6 182.7 178.9 175.6 172.5 170.7 171.8 172.9 174.1 176.3
584.2 580.6 576.5 572.2 572 571.6 570.1 566 556.9 546.8 540.1 530.3 515.2 502.7 493.5 482.8 479 476.9 476.2 477 476 477.8 479.7 483.5 485.8 483.3 480.5 477.1 471.7 471.2 474.4 476.1 474.1 469 459.5 447.8 434.7 421.3 408.1 387.1 367.1 349.4 337.4 323 311.3 299 284.8 280.4 269 263.8 251.6 243.5 230.5 220 216.2 209.4 207.2 204.7 198.2 189.4 183.8 181.3 178.2 174 168.6 165.1 164.9 164.8 167 165.7 165.5 163.2 162.7 162.6 161.6 165.4 165.4 165.4 162.5 165.4 165.4 165.4 165.4 163.9 161.4 162 162.4 162.8 162.2 162.9 163.1 163.5 164.5 164.1 162.9 162.3 162.1 162.4 162.5 162.1 162.2 162.1 162.2 162.3 162.1 161.9 162.1 162.1 162.5 162.3 162.2 161.9 161.8 161.9 161.9 162 162.1 162.1 162.1 162.3 162.1 162.5 162.9 162.8 163 163.2 163.3 164.5 164.6 164.8 166.3 167.3 167.7 168.8 170 172.6 174.3 177.8 183 187.7 193.4 199.7 209.5 222.1 229 233.4 235.3 235.3 237.6 236.8 237.1 236.6 236.9 236.9 236.9 237.9 240.6 243 245.6 247.7 247.5 248.3 248.3 246.6 243.2 238.6 234.1 231.2 231.8 231.9 235.6 241.8 247.9 254.4 262.4 276.4 284.5 287.1 288.3 284 268.7 254.5 244.2 234.7 227.1 219.1 211.1 201.9 194.7 190.2 186.5 183.2 179.6 175.9 174.6 175.3 175.6 176.5 177.8 179.6
588.2 586.2 580.5 574.9 573.3 571.7 569.2 563.7 557.1 545.9 538.1 526.6 510.7 500.7 489.9 483.4 478.5 476.5 477.3 478.6 480.3 483.4 486.7 490.9 493.1 487.5 482.1 477.1 470.8 469.7 469.9 472.3 471.2 465.4 460 446.7 434.3 420.1 402.5 383.2 363 344.9 337.7 328.2 313.3 297.9 285.8 280.9 279.5 269.7 253.9 240.7 230.4 222.2 217.9 211.3 212.7 201.7 197.2 191.1 187.5 182.5 178.1 173.5 168.7 166.8 165 164.8 164.2 163.9 163.3 162.3 162.1 162.1 163.1 165.4 165.4 165.4 165.4 165.4 165.4 165.4 165.4 162.7 162.1 162.7 162.6 162.4 162.2 162.8 163.9 165.7 164.9 164 163.5 163.2 162.1 163.4 162.1 162 162.6 162.1 162.1 162.3 162.3 162.6 162.6 162 162.1 162.4 162 161.9 161.8 162 162.1 162 162.2 162.4 162.6 162.8 162.1 162.6 162.4 162.5 163.5 163.8 164.8 164.5 165.7 165.7 166.9 168.8 169 170.2 172.7 173.2 174.7 178.4 182.8 188.7 194.9 202.4 213.9 226.8 234.8 240.1 240.9 240.4 239.2 237.9 237.3 237 237 238.5 237 236.7 237.9 238.5 239.3 238.7 237.9 238.8 237.7 235.6 233.2 230.5 227.5 225.4 225.5 227.8 232.1 238.9 245.1 253.7 264.3 274.3 284.8 295.6 292.6 284.3 272.1 259.9 250.2 240.1 230.8 223.3 214 205.5 198.7 192.9 189 185.1 182 179 177.1 177.5 178.5 180.7 183.6 186.6
593 591.1 584.4 577 577.5 574 568.7 563.7 555 543.7 531.5 523 508.4 497.2 486.3 480 476.3 475.1 476.7 479.2 482.1 487.8 490.6 498.1 492.9 485.4 477.4 472.3 470.2 466.5 464.9 465.2 465.9 463 459.9 445.7 430 416.5 396.7 375.8 359.1 346.7 338.1 330.5 314.3 303.1 290.4 287.3 286.5 273 257.4 242.3 230.7 222.9 216.5 215.9 210.8 201.6 198.1 192 188.1 181.7 179.3 175.1 169.5 167.1 165.4 164 162.8 164.6 163.6 162.2 162.3 161.5 161.5 161.2 164.3 165.4 165.4 165.4 165.4 165.4 165.4 161.8 162.6 162.8 161.9 161.9 162.1 162.7 163.2 164.3 164.8 164.3 164.3 164.5 162.8 162.4 162.7 164.2 162.4 162.3 161.5 161.3 161.9 162 161.8 161.6 161.7 161.3 161.6 161.4 161.9 162.3 162.4 161.9 162.6 163.1 163.6 162.6 162.9 162.2 162.5 163.6 164.3 165.1 165.2 165.5 166.5 167.7 168.9 169.9 170.1 170.8 173.3 172.6 174.6 179.3 185.8 192.4 198.7 209.3 221.8 233.4 241 244.6 247.4 245.1 241.6 238.6 239.6 239.1 241.3 241.7 240.5 240.1 238.5 236.8 236.3 234.4 232.8 232 230.3 229.2 225.5 223.2 221.6 219.8 220.4 220.8 223.9 229.3 236.6 245.9 257 266 278 287.2 288.3 283.2 275.1 264.4 253.5 243 234.5 225.8 217.3 209.8 202 196.9 193 188.3 183.9 181.3 180.8 182.8 182.9 187.4 193.3 197.4
598 593.2 586.4 580.6 576.1 572.9 566.4 561.8 552.2 538.9 526.6 518.1 504.2 491.8 483.2 476.4 473 473.2 474.5 478.3 481.8 486.4 490.5 491.7 486.3 478.6 472.6 468.1 464.8 460.3 458.8 459 461.5 459.3 454.8 444.1 427.7 410.6 390 372.9 354.9 346.8 342.3 328.4 308.8 301 299.2 294 285.7 275.3 258.8 243.1 232.5 224.2 218.2 212.2 206.5 201.4 196.4 190 184.8 182.6 179.8 175.4 172 169 165 164.9 163.7 162.8 162.3 162.4 161.8 161.8 161.5 161.3 161.1 165.4 165.4 165.4 165.4 165.4 165.4 161.9 165.4 164.4 162.3 161.8 161.8 162.1 162.5 162.6 162.7 163.1 163.7 163.6 162.9 163.7 163.3 164.4 163.2 162.4 161.8 161.6 161.4 161.6 161.7 161.9 162 161.6 161.9 162.6 162.5 163.2 163.2 162.4 163.4 163.4 163 163 163 163.6 163.4 164 164.1 164.7 165.9 166.8 167.5 168 168.4 169.4 170.4 171.3 172.1 174.2 176.9 182.4 189.7 197.4 206.1 219.8 227.7 237.8 243.5 248.6 249.9 248.6 243.4 241.5 243 244.4 249 254.4 253.8 247.5 242.5 239.5 236.9 234 231.8 230.3 225.6 223.7 221.6 218 215.5 214.9 213.6 215.5 218.8 222.9 229.4 237.4 246 255.4 268.2 278.7 281 280.2 274.6 268.2 257.2 245.8 238.2 230.6 222.6 214.7 207.3 200.9 196.4 192.9 188.8 185.6 184.2 184.8 187.5 192.6 198.3 205.8
599.8 593.5 588 581.6 575 572.6 563.8 553.1 542.5 533 521.5 511.4 499.8 489.1 478.9 473.1 468.9 468.9 470.6 474.1 477.1 481.3 484.6 483.8 476.9 471.1 467.8 460.7 457.6 455.1 451.7 451.8 456 455.2 448.6 438.4 423 405.9 392 376.4 360.9 355.1 340.5 322.4 316.3 300.6 300.4 297 293 276.4 259.8 244.6 234.9 225.8 219.6 212.4 204.2 199 197.5 188.9 187.4 183.4 181.6 177.2 174.5 170.4 166.9 165 163.5 163.3 162.9 162.2 162 161.8 161.7 161.3 160.7 165.4 165.4 165.4 165.4 165.4 165.4 165.4 165.4 165.4 163.4 162.1 162.5 162.2 162.6 162.5 162.2 163.1 162.6 163.7 162.4 162.9 162.4 165.3 163.9 162.5 161.7 161.7 161.7 162.2 162.4 162.7 162.4 162 162.6 162.3 162.7 164 164 163.8 163.2 162.9 163.2 163.8 164.1 163.6 163.7 164.9 164.7 165.9 165.8 167.1 167.1 167.4 169.4 169.9 170.3 171.5 174.3 176 181.5 190.7 197.9 203.9 215.8 227.5 233.6 242.7 248 249.9 249.6 245.4 243.6 245.6 247.4 254.9 263.1 264 260.8 250.5 246 240.4 239.1 233.6 229.7 226.4 222.3 218.3 215.3 212.6 210 210.1 209.9 212.3 215.5 220.1 230.7 240.1 246.5 257.9 267.4 280 281.7 281 279.6 270.2 255.9 245.1 240.9 231.5 226.2 218.9 211.3 205 201.2 197.2 193.1 188.6 187.1 187.6 189.5 194.1 201.8 212.2
598.8 592.1 586 578.9 575.3 567.6 555.7 544 532.6 524 512.6 503.6 494.4 484 475.9 469.9 465.7 463.6 466 467.7 470.7 473.7 475.8 473.5 468 461.6 459.3 452.2 449.1 444.9 442.3 445.1 447.6 449.1 445.2 436.1 424.2 411.9 396.1 380.9 371.1 358.4 341.3 330 321 302.8 297.1 293.1 286.8 270.9 257 244.7 235.9 230.1 218.7 212.2 203.7 202.5 193.3 192.7 191.2 186.4 184.3 181.8 178.1 173.4 170 167.8 165.7 164.7 163.7 162.4 162.1 161.8 161.7 161.3 161.3 162.5 165.4 165.4 165.4 165.4 165.4 165.4 165.4 165.4 165.4 162 162.3 162.4 162.6 162.6 162.7 162.7 162.2 162.4 162.3 161.8 162.9 164.9 163.2 163 162.5 162.2 162.5 163.1 163.1 163.1 162.8 162.3 162.7 162.6 163.1 163.7 164.2 164.7 164.1 163.6 163.4 163.1 164.4 164.1 164.2 165.3 165 165.8 166.5 167.3 167.3 167.5 169.1 169.8 170.7 174 176.8 182 190.4 198 206.1 212.4 221.1 230.1 235.9 243.4 248 249.4 247.3 248.1 242.7 247.7 252.6 263.4 266 263.5 260 253.5 246.4 238.1 233.7 229.1 226.9 222.5 218.3 214.3 210.9 207.7 205.7 206.4 208.2 209.9 214 221.2 228.6 235.2 245.6 259.5 268.6 280.2 282.7 280.7 277.6 265.8 249.9 241.6 238.1 233.6 226.7 218.5 211.8 207 204 200.2 195.6 190.7 189.6 190.6 192.9 198.9 209.1 221.2
594.8 589.1 586.6 582.8 574.8 566.6 555.1 541.5 531.1 521.3 510.6 499.1 487.8 478.9 472 466 461.9 460.2 459 461.6 463.2 464.8 464.4 462.6 457.4 453.7 449.1 445.5 439.4 434.7 433.4 435.2 437.8 444.3 440.6 439.7 432.3 417.5 395 382.1 372.8 357.9 342.8 341 323.4 305.6 300.6 290.6 280.2 268.3 254 242 230 224.3 213.8 208.4 202.5 198.1 196.5 195.2 193.9 188.5 186.5 184.5 181.5 178.5 175.9 170.4 167.6 165.4 165.6 163.8 161.3 161.9 161.7 161.5 161.4 161.5 165.4 165.4 165.4 165.4 165.4 165.4 165.4 165.4 165.4 165.4 163.2 161.6 161.9 162.2 161.7 162.8 162.1 161.2 160.8 161.2 161.5 163 163 163.2 163.4 163.4 163.3 163.1 163.1 163 163 163 164.1 163.5 164.4 164.2 164.6 165.1 164.4 163.5 163.7 162.6 163.1 165 165.1 165.4 165.3 165.9 166.3 167.3 168 168.8 169.5 170.4 171.8 175.3 181.9 189.2 196.9 204.3 212.5 219.6 227.5 236.2 241 245.4 246.4 246 242 241 241.6 249.4 257.5 264.9 266.1 264.1 258.1 249.7 240.3 234.7 229.4 226 222.6 218.5 215.4 210.4 207.9 204.1 202.3 203.5 205.4 209.1 213.9 219.6 226.2 235.4 243.5 251.9 265.1 271.5 273.9 272.3 268.2 253.8 243.8 238.9 235.7 229.2 223.6 216.2 212.7 208.7 205.1 202.4 196.6 194.1 194.3 195 198 205.5 217.3 229.9
590.6 589.3 585.6 582.7 576.2 566 550.3 535.5 522.9 513.8 507 495.7 484 474.6 466.8 460.7 457.3 455.3 453.8 453.3 454.4 454.6 452.1 450.7 447.1 444.6 441.8 436.5 430.5 425.9 425.3 425.7 428.1 437.5 443.7 444.2 435.9 419.4 400.4 382.9 371.5 359.6 348 341.2 324.6 305.5 301.8 288.6 272.9 262.4 251.4 238.9 231.2 224.1 212.5 207.3 203.2 201.8 200 197.1 195.1 193 188.4 185.5 183 180.9 176.8 173 170.2 166.1 165.6 166.2 163.8 161.6 161.6 161.7 161.6 161.2 165.4 165.4 165.4 165.4 165.4 165.4 165.4 165.4 165.4 165.4 165.4 165.4 162.6 161.3 161.6 161.8 161.3 160.9 161.6 161.4 161.2 162.4 162.5 162.7 162.3 162.4 162.7 162.7 162.7 162.7 162.7 163 163.8 165.7 164.8 165.3 165 165.5 163.7 163.5 162.7 162.4 162.5 164.2 164.6 165 165.1 165.4 166.2 167.6 168 168.3 170.1 171.4 173.9 178.3 186.4 193.2 202.5 214.1 221.5 229.5 241 250.8 255.5 251.9 247.1 243.7 238.6 237.7 238.5 242.4 244.2 248.5 250.8 250.7 252.3 240.5 230.1 225.9 222.4 219.2 215.5 211.9 208.7 204.5 202.1 200.9 200.2 199.9 202.6 210.1 216.5 220.5 225.1 233.8 240.5 249.2 258.3 257.1 260.7 257.3 255.3 245.5 241.9 237.8 233.1 226.1 218.2 217.3 216 212.3 208.8 204.8 203 201.1 201.9 203 210 215.3 225.3 239.5
586.9 585.6 582.7 580.2 574.6 559.7 542.2 525.6 517.9 511.9 503 492.1 481.5 469.2 460.9 454.9 451 444.5 444.9 445.1 446.3 442.6 440.4 439.5 437.4 434.5 431.2 425.6 421.1 418.9 417 416.8 419.6 429.9 438.1 444.1 435 418.7 402.4 383.9 372.1 357.2 346.5 338.7 320.5 304.2 300.1 283.9 268.6 256.4 244 236.7 230.7 221.6 214.9 210.3 207.5 205.7 201.4 198.4 197 195.7 192.7 188.2 183.6 182.8 179.8 177.4 176.1 173.4 170.1 166.5 165 163.3 162.1 161.2 161.6 162.8 164.8 161.1 165.4 165.4 165.4 165.4 165.4 165.4 165.4 165.4 165.4 165.4 165.4 165.4 160.6 162 161.5 161.7 161.7 161.7 161.6 161.4 161.5 162.1 162.1 162.3 162.5 162.7 162.6 162.5 161.1 161.8 162.6 164.8 164.2 164.4 164.1 163.7 163 163 162.7 162.2 162.1 162.8 162.5 163.2 164 164.8 164.9 166.4 167.8 169.4 170.3 175.5 176.7 181.6 192.1 198.3 211.5 222.4 236.1 248 258.6 260.8 260.9 254.9 246 240.3 236.5 234 232.4 230.1 227.2 227.7 232.6 232.6 229.2 222.9 218.2 217.6 213.8 210.8 210.2 207.9 205.2 202.8 201.4 200.1 199.3 198.8 203.4 208.7 213.2 219.2 223.7 230.5 235.5 241.6 244.9 246 248.4 248 246.9 241.7 238.4 235.7 232.1 228.5 223.6 220.8 218.8 215.7 213.8 213 212.7 210.7 212.7 216 220.5 224.6 232.2 239.7
581.2 580.9 577.7 574.3 567.4 548.7 530.9 521.8 514.8 509.5 502.4 491.4 477.9 466.6 457.1 447.9 442.7 437.6 434.8 436.4 435.9 434.9 432.8 430.2 428 424.7 423.1 418.9 411.1 408.3 407.7 406 411.6 419.9 428 432.1 429.9 417.7 404.1 385.5 367.9 354.3 342.3 330 312.3 298.8 286.8 273.9 264.7 252.6 240.7 234.3 228.9 222.7 214.5 214 210.6 207.7 203.2 200.7 198.7 196.6 195.3 193.4 191 186.6 184.3 183.5 182.6 180.7 172.7 168.2 167.2 165.6 165.2 164.5 163.5 161.6 161.6 161.2 165.4 165.4 165.4 165.4 165.4 165.4 165.4 165.4 165.4 165.4 165.4 165.4 165.4 164.3 162.3 161.7 161.7 161.7 161.5 161.4 161.2 161.1 162 162.1 162.2 162.6 162.6 162.1 162.7 161.8 161.1 163 163.7 164.3 164 163.1 162.1 161.9 162.1 162.2 162.4 162.4 162.8 163 162.8 163.5 163.7 164.2 165.8 167 169.1 173.8 180.4 189.9 196.6 208.4 221.9 234.8 246.7 262.6 271.1 272.1 260.6 250.6 244.6 237.9 233.1 230.7 228.3 224 221.1 219.7 218.8 217.1 215 213.5 212.8 211.2 209.9 209.3 210.3 206.6 203.3 201.6 200.7 199.7 198 199.7 203.4 207.4 210.9 216.2 220.8 225.8 230 234.8 237.5 241 242.9 243.2 242 240.2 240 238.7 236.3 230.5 225.8 223.1 221.4 219.4 219.6 220.3 221.4 221.3 221.3 224 227.4 231.4 236 235.3
575.1 573.2 570.2 567.3 553.7 538.4 525.3 521 516.9 510.2 500.7 490.5 479.6 467.1 455.5 445.8 438 430.3 427.6 427.6 427.2 424.4 421.5 421.5 418.3 417.3 415.3 409.7 401.1 398.7 395.6 396.7 400.9 408.6 413.7 418.3 413.8 405.5 392.6 384 366.5 348.5 336 319.2 306.1 292.3 278.6 266.5 257.1 245.6 240.6 235.1 225.5 220.5 221.8 217.2 213.2 210 206.1 202.8 201.2 200.9 201.4 200.1 199.2 195.3 189.3 189.3 183.6 179 173.3 174.4 171.2 169 167.1 163.1 161.4 163.4 161.2 165.4 165.4 165.4 165.4 165.4 165.4 165.4 165.4 165.4 165.4 165.4 165.4 165.4 160.8 163.3 165 161.8 161.7 161.7 161.4 161.4 161.4 161.3 161.2 162.1 162.1 162.5 162.9 162.7 162.6 162.1 161.3 161 162.1 163.5 163 162.8 161.8 161.4 161.2 161.1 161.3 161.3 161.4 162.1 162.5 162.9 164.8 163.3 165.1 167.2 169.5 177.2 185.2 196 203.4 217.2 232.7 247.9 263 274.6 275.6 270.6 259.7 249.1 242.6 236.9 232.3 230.4 226.6 226.6 222.9 219.5 217.4 213.3 211.6 210.8 209.1 211.4 213.1 210.8 205.8 202.5 201.6 199.4 198.8 197.5 197.9 203.9 205 208.3 212.8 217.6 222.4 226.9 231.2 235.9 239.1 242 244 244.2 243 240.6 239.6 240 238 234.6 232.1 232.5 230.6 228.3 226.9 227.2 228.9 227 227.6 232.8 233.3 233.7 233.9 235.6
567.6 567 565.3 560.2 543.5 530.8 526.3 521.6 519.3 512.7 505.9 493.1 481.2 468.2 455.8 446.1 439 431.7 422.3 420.1 417.9 414.1 411.7 413.3 412.6 409.7 405.5 395 392.7 390.4 387.3 385.1 389.4 395.9 399.7 401.9 396.9 392.5 382.3 375.4 360.7 348.5 330.1 316.5 299.4 284.2 268.8 258.8 250.2 244.5 234.2 226.9 225.3 223.7 223.7 219.8 216 211.5 208.9 207.2 206.7 209.5 209.5 207 205 200.8 197.4 191.4 186.3 180.3 175 170.1 169.9 168 169.5 166.4 163.9 161.3 165.4 165.4 165.4 165.4 165.4 165.4 165.4 165.4 165.4 165.4 163.6 165.4 161.5 161.9 162.6 163.2 162.3 161.8 161.7 161.6 161.5 161.5 161.4 161.4 161.1 161.1 162.8 160.7 161.9 162.4 162.4 161 161.5 160.7 161.1 160.9 160.7 160.7 160.8 160.7 160.7 161 161 161 161.1 161.7 161.8 162.3 164.2 163.5 165.2 168.7 170.5 180 189.7 201.6 213 228.1 243 257.8 272.3 277.4 275.5 268.6 254.2 247 241 235.7 231.2 228.1 225.7 223.1 220.9 218.3 215.9 212.7 211.5 208.9 207.9 206 205.5 202.1 200.3 198.8 198.2 197.6 197.2 197.7 199.2 202.2 206 210.6 215.4 219.9 223.5 228.4 233.6 237.8 241.1 244.7 245.5 244.4 241.1 240.1 241.6 239.5 239.3 240 242.4 248.6 244.1 239.9 239.4 236.5 232.4 228.9 230.7 236.1 236.2 234.9 234.1 229.7
560.4 559.4 557.1 547.7 536.7 528 524.9 526.4 522.1 516.7 509.3 497.5 485.6 473.3 459.1 447.8 440 433.1 423.6 413.3 409.4 405.7 402.5 405 405.7 405.5 395.4 386.7 381.9 376.7 377.5 376.6 376.4 383.6 386.3 387 382 378.7 368.2 366.6 345.7 338.9 325 312.1 295 278.5 262.6 252.7 245.8 237.3 240.4 239.5 232 230.6 226.4 220 216 214.4 213.2 213.1 216.8 218.2 217.2 213.3 209.2 204.6 198.2 192 183.5 180.8 175.6 171.5 167 166 166 166.1 161.4 161.2 161.2 165.4 165.4 165.4 165.4 165.4 165.4 162.3 163.3 161.8 163.5 162.4 162 162.5 163 163.5 163.2 161.9 161.5 161.6 161.6 161.4 161.4 161.4 161.2 161 161 160.9 161.6 162 160.8 161.2 161.4 161.7 161.2 160.6 160.6 160.7 160.7 160.6 160.6 160.7 160.8 160.8 160.8 160.7 161 161.6 162.4 163.4 164.8 168.9 174.5 183.2 193.8 202.9 214.3 228.6 242 259.3 270.9 270.3 264.1 252.6 244.4 239 234.3 230.5 227.3 224.2 221.8 219.5 216.6 216.8 212.6 209.9 207.3 205.1 203.5 201.2 199.3 198 197.2 197.1 197.5 196.6 197.5 197.6 201.1 205 208.6 213.6 218.8 224.2 229.6 233.2 237.5 242.9 245.1 245.5 243.9 244.5 241.9 240.8 240.1 241.2 242.6 247.1 252.6 253.7 252.3 249.6 245.2 240.5 235 231.9 232.7 235.2 238.2 234.9 230.8 225.6
552.6 551.5 547.5 541.1 531.1 525.9 526.3 528.2 524.2 520.6 512.2 500 490.8 479.2 463.3 451.9 443.7 436.7 429.1 417.3 406 395 394.7 395.2 396.8 396 388.5 375.2 375 369.4 366.8 366.6 363.4 372.1 371.2 377.1 366.1 363.5 359.3 351.2 335.5 331.9 321.5 305.7 289.9 273 262.7 252.3 246.8 248.7 242.3 243.7 238.2 233.4 230.1 224.6 220.5 220.6 218.7 220.7 222.9 224.4 222 218.7 213.1 203.9 198.3 187.6 181 178.9 173.8 170 165 165.4 163.2 161.8 161.5 161.3 161.1 162.2 165.4 165.4 165.4 165.4 165.4 162.9 163.1 162.7 162.6 162.4 163 163.1 164.7 165.1 166.6 163.5 161.8 161.7 161.7 161.1 161.2 161.2 161.2 161.2 161.2 161.7 161.1 160.3 162.1 162.5 162.1 161.8 161.2 160.8 160.7 160.9 160.9 160.6 160.4 160.5 160.5 160.6 160.6 160.6 160.6 161.6 162.2 163.3 165 169.6 176.2 183.1 194.9 207.7 214.5 218.9 230.9 246 252 247.4 242.5 240.4 233.7 230.7 227 224.6 221.9 220 216.6 215 213.2 211 208.9 206.4 203.8 201.1 200.3 198.8 198.1 196.7 197.3 197.1 197.2 197.6 197.4 197.7 201.9 206.7 210.3 216.2 223.7 228.8 233.4 237.7 241.7 245.8 247.6 247.3 246.7 245.1 242.8 240.4 237.8 238.9 241.3 249.5 260.9 256.3 258.4 253.8 249.5 242.6 236.6 234.8 235 237.7 239.9 234 228.2 222.7
545.6 545.3 545 537.5 525.3 525.8 530.3 527.3 526.3 522.2 512.3 500.7 494.3 483.9 469.4 454.8 448.6 445.3 437.2 415.6 402.9 387.5 384.9 387.3 389.1 381.5 375.2 363.4 364 361.2 356.9 355.5 353.7 355.8 358.6 358.1 352 348.9 342.8 331.6 329.5 326.8 317.9 301.1 287.9 276.6 264.5 253.2 248 247.2 248 245.5 243.1 239 235 228.5 225.6 224.7 225.4 227 231.5 229.9 224.5 220 210.8 201.2 193.6 185 180.1 177.8 170.9 168.3 166 164.2 165.7 162.4 161.5 161.1 161.2 162.9 164.1 162.1 163.6 163 163.9 163.8 164.3 164.5 163.1 163.8 164 163.6 164.7 166 166.2 164 162.5 161.6 161.6 161.6 161.1 161 161.4 161.4 161.5 161.7 161.6 161.4 162.4 162.7 162.3 161.8 161.6 160.8 160.7 160.5 160.8 160.5 160.4 160.4 160.4 160.4 161.8 160.7 161 161.3 162.2 164 166.9 169.3 175.1 184.2 192.1 197.5 203.4 210.7 217.1 222.4 224.3 230.9 232 231.1 227.4 225.3 222.4 220 217.8 215.3 212.2 210.3 208.9 208.1 205.3 203.6 202.1 200.6 199.3 198.2 197.2 197.2 198.2 197.9 197.7 197.7 197.4 197.7 203.2 208.9 212.9 218.5 226.8 232.3 239.6 247.4 254.4 253.5 251.4 248.6 246.7 244.7 243.2 237.2 234.1 235.6 238.6 244.6 251.5 255.5 256.1 253.6 249.3 241.3 237.2 239.2 238.7 240.2 237.5 231.8 224.8 218.1
538.3 536.8 535.3 528.7 521.2 520.7 526.5 526.6 524.9 526 507.9 503 496.8 487.9 474 458.3 456.4 456.8 444.4 413.6 394.5 382.8 370.3 377.3 377.2 369.6 361.3 355 354.5 353.8 351.5 348.1 347.7 346.2 346.1 342.3 340.2 336.4 330.2 327.8 321.9 316 313.7 300 286.6 276 266.3 255 257.3 254.6 254.2 253.4 251.4 247.9 242.1 234.7 231.4 229.6 228.4 230.9 240.3 234.1 221.9 213.2 202.6 195.5 189.4 185.7 178.4 178.2 174.1 170.8 169.5 163.5 169.6 163.3 161.4 161.2 161.3 162 162.1 163.2 165.3 165.8 166.6 166.8 165.9 167.5 166.7 169.3 168.7 165.8 165.3 166.9 166.6 166.3 165.8 165 165.2 164.6 165.5 162.2 160.7 164.3 161.3 161.9 163.2 163 162.9 162.9 162.4 161.9 161.8 160.9 160.4 159.3 160.2 160.4 160.6 160.5 160.5 160.5 160.9 161.1 161.5 161.9 163.3 165.7 167.4 169.8 175.3 180.2 185.9 191.4 199.5 205.9 208.3 210 216.2 220.8 220.9 221.3 221.9 221.6 220.7 218.8 216.1 212.5 210.2 207.7 206.2 204.6 202.9 201.1 201.4 198.9 197 196.7 197 197.6 197.7 197.5 197.7 197.7 196.2 200.8 206.8 213.1 218.5 224 232.7 241.4 248.5 255.1 258.1 253.9 247.5 245.1 242 240.6 239.4 232.7 232.4 231.3 233.7 240.3 251.5 253.9 252.8 250.7 245.4 237.2 239.1 238.2 237.7 235.2 230.3 225.1 217.6 212.1
529.3 527.5 524.3 518.3 517.4 518.1 522 522.1 520.9 516.7 508.7 503.9 499 488.9 477.4 464.5 465.2 463.6 445.7 409.6 390 376 365.8 365.1 364.5 359.7 354.3 347.3 345.2 346 341.4 340.9 340.1 337.3 335.9 332 332.1 332 329.9 325.2 318.1 312.6 302.3 296.5 283.1 275.1 265.9 262.5 260.7 260.6 260.7 262.4 262.1 257.7 250.3 242.5 236.4 231.9 229.2 231.4 236.9 227 215 206.9 198.7 189.8 185.7 182 180.2 175.3 174.1 171.1 167.9 167.4 164.5 165.6 162.3 161.3 161.6 161.5 161.9 164 164.1 164.9 166.1 168.8 170.1 169.5 170.7 171.2 169.6 169.5 168.1 167.6 167.2 167.6 169.6 167.1 167 166.1 167.6 167.3 164.1 163.2 164.2 162.9 163.8 163.6 163 162.9 162.3 162.1 161.9 161.3 161.4 161.2 160.5 160.7 160.5 160.6 160.6 160.8 161.3 161.2 162 162.5 163.3 165.7 167.4 168.9 172.9 177.9 183 187.7 194 201.1 205.1 209.8 212.8 214.5 215.4 216.7 218.7 219.8 218.4 215.8 210.7 208.2 206.1 204.2 203.1 199.7 199.6 197.6 197.2 197 196.4 196.7 197.2 197.1 196.7 197.8 197.7 197.7 198.3 204.2 211.4 217.7 223.4 229.4 236.9 244.3 250.3 255.1 253.2 245.1 241 239.3 237.9 234 231.6 231 228.5 229.1 230.2 235.9 242.5 247.3 243.9 240.4 235.4 235.9 237.1 234.8 233.3 229.2 223.5 216.1 211.9 208.3
521.4 517.6 513.6 510.9 510.7 513.7 516.5 518.5 521 517.6 510.4 504.6 498.8 489.1 476.4 466.3 469.8 467.4 446 405.5 384.1 369 360 353.7 351.4 348.3 343.1 338 339.9 337.1 337.1 334 336.5 333.2 332.2 328.9 327.6 325.5 323.6 316.3 308.9 305.4 300.6 294.1 283.4 273.1 265.2 265.5 261.3 264.2 269.6 273 272.1 265.2 255.5 246.7 239.8 232.9 228.7 226.2 223.8 217.7 209.9 201 192.9 189.5 185.7 183.6 179.7 178.9 179.3 169.8 164 164.9 164.3 162.5 161.7 165.5 163.8 164.5 166 164.3 167.4 167.9 169.6 171.4 173.2 173.7 172.9 172.3 172.8 171.9 171.4 172.1 172.8 172.6 170.4 169.7 169.4 168.3 167.4 168 168 165.1 164.8 165.6 167.1 164.5 163.8 163.6 162.8 162.3 162.2 162.1 161.4 161.2 160.6 160.6 160.6 160.6 160.7 161.1 161.6 161.2 161.7 162.6 164 165.3 167.1 168.3 172.7 178.1 185.8 190.3 194.1 199.1 203.1 207.3 208.7 209.4 211.4 211.1 211.2 210 209.2 207.1 205.2 202 200.8 200.7 199 197.7 197.4 197.1 197.1 196.9 197.8 196.8 196.6 197.1 197.1 196.8 198 197.7 200.8 208.3 215.1 220.7 225.7 230.8 239.2 245.4 250 249 241.2 237.4 235.3 233.3 231.4 232.7 228.6 228.4 227.2 227.2 229 234.2 237.1 237.6 235.6 232.6 232.3 232.9 234 232.7 227.6 223.2 219.3 215.7 212.5 210.7
