ncols 200
nrows 82
xllcorner 270000
yllcorner 84550
cellsize 50
185.6 183.9 181.4 175.5 167 158.5 155.8 153.3 151.1 151 149.5 147.4 146.1 143.6 143.2 143 140.3 142.9 143.3 148.5 162.4 171.1 170.1 166.8 165.1 163 165.3 163.9 163.6 168 171.4 172.2 171.4 173.7 175 173.8 171 169.1 164.7 161.7 159.4 156.4 153.7 151.5 149.5 146.6 143.4 142.1 142.5 143.8 147.4 151.5 157.4 165 171 179 191.3 199.7 207.4 212 217.5 225.2 233.8 241.3 250.4 254 256.6 263.3 270 277.6 283.6 289.4 293.6 296.4 297.3 299.8 302.4 305.5 307.5 308.3 307.5 305.7 303.8 301.4 299.3 296.8 295.6 294 293.6 296.3 298.7 302.8 307.2 310.7 313.1 315.4 318.3 322.2 324.5 325.8 327.1 327.3 327.2 329 327 321.7 311.6 301.2 298.5 300 305.7 311.4 315.2 314.4 309.2 299.3 288 280.3 275.8 272.4 269.9 267.9 266.4 263.6 262 261.4 260.4 257.7 254.6 250.6 250.6 255.4 257.3 260.5 263.7 263.8 262.6 261.3 263.1 266.2 266.1 264.1 259.5 253.7 242.9 231.7 234.3 242.3 248.7 252.5 255.3 257.4 259 260.2 260.3 259.1 255.2 251 246.9 244.7 245.8 247.5 248.6 248.3 246.1 240.4 231 211.7 184.9 160 173.9 184.9 189.7 189.1 185.3 179.5 173.4 169.1 166.6 166 170.3 172.9 178.4 174.5 161.6 143.8 129.3 115.6 107.3 102 89.2 74.9 74.4 89.4 124.8 155.8 160.2 153.7 135.3 117.7
184.1 184.8 183.2 179.8 173.8 165.5 159.3 155.9 155.2 155 153.8 150.1 145.3 144.3 143.2 143 141.2 143.3 143.1 144.7 153 157.8 158.5 158.7 159 160 160.7 159.8 159.6 164.7 167.7 168.7 168.6 173.3 176.5 176.7 175.3 172.4 167.7 163.4 159.5 156.4 154.4 152.1 150.1 148.7 143.9 142.6 142.7 143.6 146.1 149.2 156.4 162.9 168.7 174.7 183.1 194.6 204.5 209.1 213.6 219.4 226 235.8 247.6 248.4 249.9 254.4 261.3 269.2 276.2 282 287.1 290.8 292.3 295.6 298.4 301.9 305.9 307.1 305.8 304.1 302.5 300 298.2 297.1 296.3 296 296.5 299.5 303 306.6 310.9 313.7 316.5 319 322.4 326.4 328.9 331 335.6 338.7 338.4 336.2 332.7 326.5 316.1 305.6 300.9 301.5 305.6 311.2 312.7 311.3 305.9 299.2 290.7 281.8 276.6 272.9 269.9 268.4 265.9 264.5 262.2 261.7 260.4 258.6 254.4 251.5 251.6 254.1 258 262 265.2 265.1 264 263.7 265.5 267.5 269.1 267.6 263.8 256.9 246.1 244.4 244.7 251 255.5 259.5 262.5 263.9 265.4 267 266.4 264.7 260.5 255.3 250.9 247.6 247.6 248.9 249.3 248.1 245.3 237.7 225.5 203.8 179.2 181.8 195.4 207.2 214.2 213.6 209.3 203.7 199.6 196.1 194.7 196.6 199.4 195.3 183 168.5 151.4 134.4 125.4 118.8 108 100.6 93.6 80.1 72.6 77.8 117.3 148.5 148 133 111.6 91
181 184.4 181.6 175.5 173 167.3 163 159.7 157.7 155.3 153.8 150.4 145 143.3 141 140.4 143.3 143.3 143.3 143.9 144.2 147.1 150.7 151.7 159.7 158.9 155.8 155.7 154.2 161.4 166.1 164.9 167.9 173.7 178 178.1 176.5 174.4 169.2 164.5 160.6 157 155.4 153.6 152.6 150.2 143.9 143.1 142.9 143.5 145.7 149 155.4 160.1 164.6 169.1 178 190.3 200.2 206.3 210.4 212.8 217.8 228.9 240.8 243.9 245.4 247.4 255.1 262.3 269.2 276.7 282 285.4 287.8 291 294.9 301.6 307 307 304.1 302.4 301.2 300.2 299.2 298.3 297.8 298.1 298.2 300.7 304.3 307.9 312.4 315.9 318.8 321.8 326.8 331.5 335.4 339.5 344.1 345.2 343.2 339.9 334.9 329.7 321.6 312.3 303.9 300.7 304.4 311 312.4 309.8 304.6 297.5 290.2 282.3 276.7 272.4 268.9 267.2 266.2 264.4 262.9 261.9 260.4 258 255 253.8 254.2 255.2 260.8 264.2 267.3 267.2 266.4 266.3 267.5 269.4 271 269.9 266.5 259.9 252.7 251.2 252 258.2 262.1 267 269.8 270.9 271.6 273.8 273.6 272 268.7 264.1 258.5 253 251.1 251.5 251.5 249.9 246.4 237.8 224.6 205.2 196.7 205.8 216.1 226.2 234.3 234.1 230.5 226.2 222.9 220.2 217.3 209.4 192.5 174.8 158.6 142.1 123.5 107.5 101.2 96.5 88.1 80.9 78.2 76.5 74.2 73.6 111.9 139.4 131.8 111.5 87.4 71.5
175.5 178.7 174.5 172.1 170.7 166.7 163.2 159.6 157.5 154.9 151.9 148.6 143.8 142.6 143.5 143.4 143.5 143.3 143.5 144.3 144.6 144.8 146.3 148.9 151.7 151.9 149.1 149.8 151.6 155.6 159.1 161.7 167.3 174.5 178 176.9 176.6 174.4 169.8 164.9 160.8 156.6 153.9 151.6 150.9 146.2 152.2 143.6 143.1 143.7 145.4 148.9 152.9 156.6 161 164.8 170.9 183.9 196.1 201.2 204.9 207.1 209 217.1 228.6 236.4 239.9 241.4 248.7 256.6 263.5 270.4 275.7 279.1 283.1 287.4 293.1 301.7 307.5 308.2 305.4 302.7 301.5 300.7 301.6 301.7 300.2 300 300.4 301.5 304.8 308.6 312.6 316.1 319.6 323.8 329.6 336.4 342.3 346.3 349.1 349.2 345.9 342 337.4 331.8 325.2 317.5 305.3 297.4 299.3 306.3 308.2 305.3 299.9 293.7 287.4 281.6 275.8 272.3 270.4 267.4 265.8 265.2 263.8 262.2 260.6 259 257.4 257 257.2 258.4 263.7 266.7 268.7 268.8 268.8 269.3 270.4 271.6 272.9 272.6 269.6 266 261.4 258.7 260.4 264.7 269.7 273.5 277.6 279.7 282.7 284.2 283.2 282.9 279.2 274.5 269.7 263.8 259.2 255.9 254.5 252.7 249.1 242.6 234.9 221.5 219.7 227.4 235.6 243.1 247.3 249.8 248.4 244.8 240.8 232 207.8 185.7 164.5 144.9 127.8 112.5 96.4 89.1 86.6 83.9 81.4 81 94.7 93 74.6 71.4 106.4 120.1 109.7 87.4 72.1 70.6
169.4 169.2 165 164 163.3 160.6 158.5 157.3 156.6 153.8 150.5 148.2 144 142.9 143.9 143.3 143.4 143.2 143.2 144.8 145.4 145.6 145.8 146.2 146.8 147.7 147.2 147.9 149.1 152.7 159.2 162.3 164.2 170.5 172.8 175 176.2 174.4 170.7 166.7 162.6 158.1 154.4 152.1 149.6 151.9 156.3 146.2 143.8 144.1 145 147.5 151.1 154.2 157.2 160.8 165.4 174.4 185.6 193.2 198.7 200.4 201.3 207.4 218.1 227 231.1 234.4 242.6 250.9 258.3 264 269.9 273.6 279.4 285 292.9 302.6 307.8 309.8 307.8 304.7 302.4 301.7 303.7 304 303.4 302.1 302.2 303.3 305.1 308.4 311.8 315.4 319.8 325.1 330.3 337.1 344.5 348.7 350.7 348.9 345.3 341.5 337.1 331.3 325 317.5 303.5 293.9 292.7 297.6 301.8 298.9 294.9 289.4 284 279 274.3 271.5 269 267.3 266.4 265.6 264.5 263 262.5 262.6 260.9 260 260.1 261.3 265.2 268.5 269.8 271.3 271.5 272.4 273.4 273.7 275 274.5 273.5 271.7 267.9 265.4 265.8 269.8 274.8 280.2 283.9 288.1 290.7 292.5 293.1 292.3 290.8 287.1 281.7 276.2 270.9 266.1 263.1 260.3 258.6 253.9 246.1 238.7 238.2 243.3 251.7 256.2 258 258.5 257.3 250.3 230.4 207.5 183.4 159 136.3 115.9 100.3 93.2 90.4 88.7 89.2 102.6 106.7 114.3 117.8 98.2 76.3 72.3 90.4 89.7 74.2 71.9 70.9 67.5
161.5 161.4 156.5 154 153.4 150.7 148.5 152.4 152.4 147.5 144.5 143.9 143.9 143.4 143.9 143.6 143.5 144 145.4 146.1 146.5 146.5 146.5 146.4 146.8 147.6 147.8 148.6 149.1 149.3 151.1 158.1 163.5 166.3 168.3 173.8 176.9 174.6 171.9 168.2 163.8 158.7 154.7 153.6 151.5 153.4 157.7 156.5 144.5 144.4 145.3 146.5 149 151.5 153.3 156.2 161.8 166.9 176.9 184.9 191.2 194.7 197.4 201 211.5 220.1 225 229.1 236.3 244.3 251.8 258 264.7 269.6 277.5 285.3 294.1 303.5 308.9 310.8 309.2 306.2 304.4 303.1 304.7 304.8 304.4 303 303.2 304.7 306.3 308.8 311.4 314.9 319.3 324.7 329.3 335.1 342.5 345.7 346.3 345.7 342.9 338.9 334.2 329 322.6 314.8 299.9 289.9 288.2 290.5 294.7 293.9 291.1 286.5 281.6 276.7 273 270 268.2 266.7 266.6 266 265.8 264.7 265.1 264.5 264.3 263.1 262.8 264.1 267 270.7 273.2 274.3 274.6 276 276.9 276.8 278.2 277.7 277.9 276.9 274.4 272.6 272.3 273.9 280.2 285.9 291.2 295.2 298.9 299.3 300.6 300.7 299.6 297 294.3 288.7 281.8 276.6 272.9 270.2 267.7 264.7 259.2 256.6 255 257.2 262.5 266.1 266.9 265 259.6 237.5 211.2 184.5 157.5 131.5 109.1 99.4 95.5 104 114.3 116.9 122.9 132.5 135.3 139.1 127.6 107.2 82.6 73.2 72.8 72.6 72 69.9 70.1 84.9
155.4 153.5 149.6 145.3 143.5 143.5 145.4 144.9 144.6 144.3 144 143.8 144 141.2 142.8 143.8 144.6 146.2 146.8 147.2 147.3 147.2 147.2 147.2 150.4 150.9 150.6 153.7 150.1 149.3 149.2 153.9 159.2 160.5 166.2 173.3 177.7 175.3 172.4 168.9 165.4 159.4 157 154.6 154.2 153.7 154.3 154.9 147.2 145 145.2 146.4 147.4 149 150.6 154.8 159.9 163.8 171.6 178.8 183.9 187.4 193.9 198.7 205.5 216.5 220.1 223.1 228.7 237.2 246.2 252.7 257.9 265.4 276.6 286.5 295.8 303.8 309.4 311.7 310 307.2 305.6 304.9 305.1 305.2 305 304.1 303.9 304.8 306.7 308.6 311.3 314 318 322.2 326.7 331.5 337 340.1 341.1 340.6 338.3 334.4 329.8 324.7 318.8 310.9 295.7 285.7 282.7 284.2 288.2 288.2 288.3 285 280.9 275.5 271.4 268 267 266.3 266.6 267.2 267.5 266.6 267.7 267.2 267.7 266.8 265.9 267.3 269.5 272.9 276.3 277.4 278.9 281 280.9 280.4 282.2 282.6 284.4 284.9 283 282.6 281.9 281.8 286.2 290.6 296.8 302.1 306.2 309 310.5 311.8 310.6 306.7 303.2 298.8 292 286.5 281 278.3 276 273.4 269.7 267.8 268.4 269.8 271.3 272.5 273.5 270.6 248.8 221.3 191.7 160.7 130 105.5 104.8 109.6 120.2 130.8 135.6 142.6 151 156.5 154.2 146.8 136.7 120.9 97.3 75 71 72.3 69.9 71.3 80.8 101
150.5 146.8 145.8 145.4 145.5 145.4 144.6 144.7 144.2 144.7 143.8 144.3 144.2 141.2 143.6 145.1 146.4 148.8 150.4 151.1 148.4 148.1 148 148.6 155.9 158.1 156.7 160.6 156.3 150.2 149.8 151.1 153.5 159.2 165.7 172.3 177.5 175.7 173.1 170 166.8 163.4 161 158.7 155.9 153.2 151.4 149.5 148.8 145.7 145.2 145.9 147 147.6 150 152.4 157.3 161.1 164.3 174.7 176.1 183.4 192.4 196.5 199.3 206.6 212.9 217.8 223.7 230.4 240.7 247.8 254.1 263.4 276.4 288.1 297.2 303.7 308.5 311.6 310.7 307.9 306.1 305.4 305.2 305.2 304.7 303.5 303.5 304.4 306.1 308.4 310.2 312.1 315.1 318.2 322.6 326.1 329.1 332.8 334.4 334.2 332.5 329.2 324.5 319.6 314.5 307.3 292.4 282.5 278.2 277.6 279.8 283.9 285.5 283.9 280.9 275 270 266.8 265.5 265.9 266.6 268.2 269.6 269.9 270.7 270.7 270.9 270.6 269.8 270.2 272.9 276.5 279.8 280.9 282.9 284.7 285.2 283.8 285.1 287.4 290.3 292.2 292.7 291.8 290.2 288.4 291 297.4 303.9 309.1 311.4 315.1 317.3 318.4 317.8 315.5 311.3 306.6 301.3 295.5 290.9 286 283.8 282.7 281.2 279.3 278 277.4 276.6 275.5 273.3 263.2 229.8 201.8 173.6 140.3 110.9 110.7 114.5 132 145.5 154.2 159 165.4 170.6 169.2 163.5 156 145.7 131.3 105.8 94.7 75.4 70.9 71.9 77.3 101.5 120.7
146.4 146.1 145.5 144.7 145.5 145.5 145 144.5 144.3 142.3 142.3 141.5 143.4 144.2 145.4 146.9 148 151.6 153.9 154 152.4 149.6 148.9 149.9 159.2 165.9 162.4 160.8 156.3 151.4 150.6 151.1 155.4 159.1 165.7 172.1 176.3 175.6 174 172.4 168.9 167.7 167.4 165.5 159.5 154.8 151.7 149.6 148 146.6 146.1 145.5 146.1 147.2 148.3 150.8 155.2 158.4 160.4 165.6 171.7 181 189.9 194.6 197.4 199.9 206.3 212.3 216.8 224.5 232.4 241.3 251.9 262.4 274.4 287.5 295.5 300.4 306.2 310.2 310.1 307.6 306.2 305.4 304.8 304.2 303.9 303.1 303.4 304.4 305.7 306.6 307.5 309.2 311 313 316.9 319.4 321.3 324.7 326.3 327 326 323.4 318.8 313.1 308.8 302.6 289 278 273.4 272.4 274.1 280.1 283.7 282.3 279.9 274.2 268.4 265.5 264.5 265 266.5 268.9 270.7 272 273.5 273.9 274.5 275.1 274.8 275.6 276.3 280.5 284 285 285.7 288.5 290 288.2 290 291.7 296.9 298.8 298.8 298.4 295.9 294.2 299.4 304.4 310.1 314.9 317.4 321 323.6 324.5 323.6 321.3 317.3 312.3 307.6 302.6 298 293.5 292.3 290.5 288.4 286.3 283.7 281.2 279.3 276.2 271.4 251.9 213.3 181.3 152.6 124.1 115 121.4 134.8 149.8 160.7 167.4 171 176.3 180.1 177.9 171.9 165.5 154.2 133.5 122.7 122.8 107.6 95.9 100.4 110.5 127.1 142.1
145.4 143.9 145.8 149 156 147.3 146.4 146.5 146.6 146.5 146 145.7 145.1 146.2 147.5 149 148.4 151.3 155 155.8 153.9 151 150.4 150.5 161.7 165.8 162.4 160 157 153.4 151.3 151.9 160.3 162.9 167.5 171.6 175.2 175.6 175.9 174.3 172.9 173 173.1 169.6 161.4 157.2 153.4 150.8 149.1 147.2 146.6 146.3 146.4 147 147.8 149 152.2 154.5 156.3 160.3 169 177.5 188.7 192.7 194.7 197.9 200.7 204.2 209.4 218.6 229.3 236.3 246.6 259.8 271.1 282.3 291.4 297 302.5 306.9 308.3 307.3 305.6 305 304.6 303.9 302.5 301.5 303.3 306 307 305.9 304.6 304.8 305.8 307.3 309.7 311.8 312.8 314.9 317.7 319.3 318.2 316.3 312.7 306 302.9 298.7 288.9 276.4 268.2 268.5 270 279.6 281.8 281.4 278.9 273.6 266.5 264 263.1 264.5 266.8 269.2 271.3 274 275.7 277.2 278 278.8 280.1 283 284.8 285.6 288.7 290 290.2 291.8 293.4 291.9 293.3 296.9 300.7 303.2 303.7 302.6 301.2 301.8 305.5 310.1 315.1 319.7 322.6 324.9 327.2 328.2 327.7 324.8 320 315.6 311.3 306 301.7 298.4 295.7 295.4 293.3 290.6 287.7 283.6 280.3 275.8 269.3 250.5 208 171.3 138.5 119.4 123.4 135.7 147.5 158.8 167.4 173.3 179.2 184 187.4 185.9 180.1 172.3 161 150.8 150.2 146.1 138.3 129.9 133.7 141.6 151.8 149.5
145.9 147.8 154.5 161.4 165.6 159.8 151.4 150.4 153.4 148.8 149.9 149.6 146.7 148.1 150.5 151.8 150.7 151.4 154.9 156.1 156.1 152.8 151 150.8 155.9 164.4 162.5 159.7 156.8 153 151.6 154.5 166.1 167.1 173.1 173.2 174.6 176.3 176.8 177 176.7 177.4 177.1 172.7 169.1 163.1 158.7 152.8 150.1 148.6 147.7 146.7 146.7 146.9 147.6 148.1 149.7 151.8 154.7 156.2 166.3 176.7 185.7 187.9 192.9 195.7 197.7 200.1 203.3 210.7 222.9 231.3 241 255.9 265.9 275.4 286.8 294.8 299.5 303.3 305.8 305.8 304.4 303.5 303.3 303.5 301.6 300.7 301.9 306.2 308.2 305.7 301.1 300 299.8 300.6 303.5 305.3 306 306.9 308.5 310.4 311.4 309.7 306.3 301.4 298.8 296.2 289.8 277.4 268.2 265.9 266.2 274.6 278.6 279.2 276.8 272.1 264.4 262.1 262.2 264.3 266.7 269.7 273.3 275.8 277.8 279.3 280.1 281.1 284.3 287.4 289.9 291.9 293 294.8 295.4 295.4 295.5 294.8 296.5 299.3 303.7 306.1 307.3 306.3 306.1 307.5 311 315.2 319.4 323.7 326.6 328.4 330.3 330.3 329.3 326.9 322.8 318.2 313.4 308.7 305.5 303 300.1 298.1 295.9 293.6 290 285.2 279.5 274.6 266.8 248.9 212.4 173 135 122.7 128.9 144.2 155 161.5 171.5 178 184.5 189.2 191.3 191.7 188.8 181.5 177 173.6 168.8 162.9 161.1 159.4 163.5 166.1 158 133.1
152.4 155.2 157.3 167.6 169.9 165.4 158.2 158 158.2 156.3 154.6 151.6 148.5 148.9 150.6 153.2 153.2 152.2 153 155.6 157.9 156.2 152 152.2 154 161.3 163.6 159.3 155.8 153.1 152.4 156.2 169.4 167.8 170.5 171.7 172.4 174.1 178 181.5 180.9 182.4 181.5 177.4 174.3 167.9 165.9 158 152.8 150.8 148.8 147.9 147.6 147.4 147.4 147.7 148.5 150.1 151.2 152.9 155.4 171.5 177.9 179.9 191.9 194 194.1 196.2 199.7 205.9 217.4 226.5 238.3 251.9 261.1 269.5 281.4 291.4 295.5 300 303.1 304.1 302.2 302.5 302.9 302.4 300.4 298 300.1 305.6 308.7 306.1 300.6 294.7 293.9 292.1 297.1 299.4 299.4 300.5 301.2 302.1 302.9 303.2 300.5 296.3 296.1 294.6 290.2 279 267.7 264.3 263.3 268.3 274 276.2 274 269.5 262.4 260 261 264.4 267.1 270.7 275.1 277.4 279.6 281 282.3 283.6 286.3 289.9 293.8 296.1 296.9 298.2 297.8 297.2 296.5 297.7 299.9 303.5 307.3 309.6 310.4 311.1 311.7 313.2 315.9 319.8 323.6 327 329.4 331.3 332.3 333.6 333 329.9 325.2 320.4 315.6 311.6 308.4 304.5 300.7 297.3 295.6 293.4 289.6 284.5 277.4 270.7 262 244.1 214.7 178.2 144.9 125.2 132.1 148.4 157.6 167.6 178.7 184.5 189.9 194.3 195.5 196.5 194.8 191.2 189.1 190.6 189.7 185.3 185 185 182.7 174.1 149.4 126.2
163.8 164.4 162 169.9 169.5 164 160.6 162.3 161.4 160.1 156.8 150.4 149.7 150.5 153.3 155.8 155.9 154.2 154 156.5 158.9 159 153.4 153.2 153.3 164.1 164 160.3 155.4 153.7 153.5 153.5 160.9 166.6 167.6 167.5 168.9 172.9 177.9 183.2 186.2 188 186.1 182.2 179.2 174.8 173 167.8 159.5 153.4 149.7 148.9 148.8 149.6 148.4 148.5 148.6 149.4 149.5 150.6 151.6 158.9 164.8 172.5 185.5 190.5 189.4 191.8 196.5 204.6 212.6 222.1 234.9 248.1 256.4 264.5 274.3 285.4 290.6 295.2 300.9 302.5 300.6 301.9 302.2 300.7 298.2 295.5 298.1 303 307.3 305.8 300.5 292.7 286.7 288.9 291.7 293.6 294.2 294.1 294.7 295.7 296.3 295.6 294 291.9 293.7 293.4 289.9 280.1 268.2 263 262.1 264 269.5 270.9 269.4 265.6 260 258.5 261.3 264 267.3 272.1 276.5 278.9 280.4 282.4 284.1 286.4 289.5 292.6 296 298.7 300.1 300.3 300 300.3 299.7 301.2 304.3 309.4 312.6 315.1 315.9 316.6 316.7 318.2 320.9 323.7 326.2 329.6 332.4 334 335.3 336.8 335.3 331.8 327.5 322.7 318.4 313.9 309 305.2 300.6 295.9 292.2 290.1 286.3 280.7 272.5 264.1 254.8 235.9 211.9 185.5 153.9 130.3 135.2 151.3 168 180.6 186 192.2 198.5 201.1 202.4 202.3 200.9 197.9 198.8 201.9 204.2 206.7 203.7 196.7 188.5 171.6 145.9 133
165.2 165.4 164.8 168.4 168.9 166.4 166.7 166 163.2 161.2 155.5 150.8 151.3 153.9 158.5 160.5 159.4 155.8 157.6 159.6 159.3 158.2 154.8 154.7 154.7 159.7 162.8 160.8 156.7 154.2 153.8 154.1 155 161.9 162.3 163.6 167.4 171.4 177 182.3 188.7 190.4 188.8 185.1 182.4 180 177 173.1 166.3 156.1 151.7 149.6 149.4 149.6 150.4 150.5 149.9 150 150 149.7 150.7 154.7 161.6 168.2 180.9 184.2 182.5 186.9 192.7 202.5 209.6 217.4 230.6 243.7 252 259.8 270 278.4 286.6 294.1 300 301.1 299.3 301.3 300.3 298.5 296.2 293.5 296.2 300.3 303.5 302.6 298.2 290.6 280.8 282.9 287.5 289.1 289.2 289 290.1 290.4 290.5 289.2 288.3 288.9 291.7 292.3 289.7 281.4 269.3 262.8 260.3 260.2 263.6 264.8 263.7 259.7 258 259 261.7 264.2 268.4 272 276.4 279.4 282.4 283.8 285.7 288.1 292.3 294.8 297.8 300.6 302.1 302.3 302.9 303.5 304.1 306.1 308.4 314.2 317.1 318.6 319.3 319.9 320.7 322.4 324.6 327.3 330.1 332.9 335 335.2 336.7 338 336.5 333.4 329.4 325 319.7 315.4 312 307.2 302.2 295.4 287.5 283.9 282.2 276.6 269.7 257.3 246.8 226.6 203.6 183 160.3 140.1 138 161.2 176.1 185.4 192.9 201.5 206.2 208.2 209.4 209.3 207.7 207.7 205.4 210.3 216.1 218.2 215.3 207.3 190.1 167.3 146.9 149
166 166.5 167.5 170.7 169.2 170.1 169.7 167.6 164.8 160.6 153.3 152.1 153.5 160.7 163.1 164.4 163 158.1 161.4 161.8 160.4 157.3 156 156 156.2 158.4 161.4 160.2 158.7 155.9 154.5 154.5 155.2 157.4 161 164.5 169.1 173.8 178.7 184.8 191 194 191.8 187.9 184.5 182.2 178.3 174.1 167.5 160.3 153.5 150.9 150.6 150.8 152 152.5 153.1 154.3 156.1 154.8 150.9 152.3 157.8 166.4 175.7 180.4 176 182.7 188.5 198.8 206.2 213.7 226.3 239.6 248.5 254.8 264.8 275 285 293.6 299.5 300 297.4 299.5 298 295.7 292.7 290.6 295.2 298.4 299.6 298.5 294.8 285.8 274.9 277 283.4 284.8 283.8 284.4 284.2 284.9 285.3 285.1 285.7 287.5 291 291.3 289.2 283 270.5 262.5 258.9 257.7 258.3 258.2 257.2 255.5 256.4 259.4 261.9 265.3 268.9 272.1 276.4 279.6 283.3 285 287.6 291.3 295 297.8 300.4 303.1 304.6 306.5 306.6 308.4 310.2 312 313.1 316.8 319 320.7 320.9 322 323.6 325.5 328.1 330.8 333.4 335.6 337.1 337.9 338.5 339 338.1 335.2 331.9 326.8 322 317.3 312.7 308.4 302.3 293.1 284 274.9 273.4 269.5 263.2 250 235.2 218.7 198.2 177.8 160.8 143.7 151.3 170.3 181.8 190.6 200.2 210.3 216.7 220.1 221.6 221.4 221.5 220.2 220.5 225.3 229 228.9 223.6 218 198.3 176.9 153.9 164.9
167 168.6 170.6 172.2 172.1 170.9 169.9 166.9 162.7 157.4 154.1 154.3 156.7 164 166.7 166.5 164.2 162.3 162.7 163.2 161.1 158.6 157.6 157.5 158.1 159.4 160.7 160.9 159.7 157.5 155.3 154.8 155.2 157.6 163.5 169.2 173.9 179.9 184 188.3 193.2 196 194.3 189.3 184.2 181.5 177.3 173.3 168.8 163.3 154.6 154.9 153.1 153.1 153.6 154 155.3 157 159.1 158 152.1 151.5 155.4 162.6 173.1 170.5 173.7 183 189 198 204.3 210 220.3 233.7 243.2 249.8 260.3 273.1 284.1 292.7 297.5 297.5 293.3 296.4 294.8 291.9 288.4 288.9 293.5 296 297.3 294.6 290.5 282 271 273.5 280.2 280.1 279.1 280.3 281.1 281.4 282.6 283.8 285.3 288.2 289.6 290.1 288.6 283.3 270.9 261.3 258.1 256.2 255.4 254.5 254.1 254.6 257.5 259.8 262.5 265.5 269.6 271.9 275.7 280 284.2 286.5 289.6 294.8 298.5 301.7 305.2 308.3 310.1 312.2 315.1 316.4 317.8 316.4 317.8 316.6 320 320.6 321.2 322.9 325 327.4 330.1 333 335.7 337.6 338.9 339.5 340.5 340.7 339.3 336.6 333.8 330.1 325.4 319.7 314.5 308.9 302.5 292.6 276.9 266.4 264.9 262.3 252.3 236.5 223.5 211.7 195 177.5 159.1 150.7 166.6 178.1 186.4 198.7 208.1 224 231.6 233.5 236.3 240 240.2 237.8 238.2 239.1 239.6 238.5 234 226.7 209.1 190.1 165.1 179.8
164.2 169.7 174.3 173.6 172.7 170.1 167.4 163.7 158.9 157.4 156.3 156.5 159.1 165.6 168 167.8 166.2 164.5 163.7 165.3 165.2 161 158.8 159.4 160 161.2 161.7 161.7 160.8 158.2 156.4 155.4 156 163.4 170.4 176 178.9 185.9 191.2 193.5 195.6 197 195 189.3 183.1 178.6 173.2 168.8 163.9 160 165.7 163.7 154.5 154.4 154.8 155.4 157.6 159.5 159.2 158.5 154.1 152.5 154.1 157.7 160.7 166.8 185.2 187.1 192.5 199.6 203.9 208.1 214.3 226 235.8 245.5 257.9 270.3 281.7 291.3 294.1 292.7 288.2 291.6 290.9 287.9 284.6 285.1 291.3 292.8 294.3 292.5 287.4 278.5 268.3 269.8 273.2 275.2 277.1 278.8 280 281.5 282.9 284.5 285.9 287.6 288.8 289.2 286.9 281.8 270.2 259.7 257.2 255.8 254.2 253.6 252.9 254.7 257.5 259.3 264.1 267 270 272.9 276.8 280.5 285.1 288.1 294.1 300.4 303.9 311.3 315.4 318 319.5 321.1 323.5 325.1 322.6 321.4 319.8 319.4 320 320 320.7 322.3 324.7 327.6 330.5 333.9 336.9 339.2 341 341.8 342.5 342.6 341.9 339.7 336.6 332.5 327 321.5 316.3 310.2 302.3 291.9 274.3 259.2 252.7 245.9 238.7 226.4 214.2 206.3 192.8 175.4 160.5 164.7 177.4 184.1 193.7 203.9 219.3 233.4 240.1 242.9 248.9 250.8 248.5 247.5 249 247 246.3 245 239.4 231.7 216.5 199 179.9 190
170.7 175.4 176.3 174.4 171.4 167.7 164.5 162.1 159.8 158.8 158.3 159.2 160.1 165.8 169.4 169.6 168.5 165.5 165.1 168.1 166.7 163.8 160.3 161.2 162.8 162.8 163.3 163.6 162.3 162.1 159.6 156.4 156.8 170.1 176.8 179.8 183.5 192.2 197.6 196.6 195.3 197.3 193.9 188.1 182.3 176.1 170.4 168.6 170.5 175.4 172.8 164 156.8 157.1 156.4 157.3 157.8 158.7 157.7 156 153.1 152.8 154.5 156.4 158.2 165.2 181.8 189.6 192.9 200.3 202.7 206.1 209.5 218.7 229 242.5 256.7 267.9 278.1 287.5 290.5 285.4 281.7 285.8 286.3 284.3 281.1 282.8 288.2 287.4 288.8 289.7 284 274.1 265.6 267.3 272.9 277.8 279.5 280.5 281.5 283.6 285.2 286.1 286.7 287.6 288.2 288 285.9 280.7 268.6 259.5 257 255.7 253.9 251.9 252.9 255.2 257.6 262.8 267.3 269.4 270.7 274.8 279 281.5 288.5 293 299.1 306.6 313.8 321 324.3 327.6 330.1 331.4 331.3 330.7 328.8 324.1 320.9 320 318.7 317.8 318 319.3 322.4 326 330.1 334.6 337.8 341.3 343 345.2 345.2 344.4 343.5 341.2 337.6 332.2 328.5 323.2 317.3 309.8 300.5 289 270 252.1 240.9 235 228.1 218.2 210.1 200.3 191.8 174.5 165.4 175 182.1 189.2 198.3 210 223.3 234.6 243.1 249 253.6 255.2 254.4 254.5 254.8 253.4 251.3 249 244.2 237.8 223.2 207.6 192.7 199.2
179.1 179.5 178.6 175.3 170.6 168.8 166.1 164.6 164.5 161.2 165.4 162.4 162.5 164.6 167.3 172.1 171.7 165.2 167 170.7 170.4 164.6 162 163.2 166.7 166.6 165.8 166.2 165.2 167.5 170.7 159.6 156.9 165.3 175 180.6 186 197.5 201.6 197.4 194.5 192.8 190.3 186 180.3 174.4 178 180 182.1 181.4 173.9 162.3 169.3 163.3 159.5 158.9 158.8 157.7 156.1 153.9 153.5 153.4 153.2 153.9 156.8 160.9 176.5 181 185.7 194.9 198.3 201.8 205.1 212.2 224.6 239.8 251.8 261.4 272.9 283.3 286.3 272.5 272.4 278.8 282 280 276.7 280.8 283 281.6 281.6 283.7 279.7 266.1 262.5 269.1 275.9 279.1 281.2 282.3 283.7 285.2 286.7 287.6 288 288 287.9 287.5 285.3 279.6 269.8 260.6 256.8 254.1 252.5 250.4 253.1 255.4 259.1 266.9 271.7 274.1 274.2 277.6 280.5 285.1 292.6 297.3 304 312.8 321.7 328.5 333.5 336.5 337.8 337.5 336.5 335.1 332.5 326.1 321.1 318.2 315.1 312.9 312.8 315 317.8 323 328.1 334.2 338.6 342.3 346.2 347.1 346.5 345.1 343.7 341.1 337.8 334.4 329.9 324.4 317.1 308.4 298.1 280.4 262.6 245.2 234.5 225.2 219.3 211.9 206.1 197.2 190.1 175 172.1 179.9 186.7 194.1 202.2 211.2 224.5 238.3 247.5 253.3 257.7 259 259.3 259.9 258.7 256.4 253.4 250.4 247 241.2 228.1 213.4 199.3 212
184.5 182.9 182.2 177.2 171.6 169.9 168.9 166.5 167.4 164.1 170.5 171.8 165.2 167.5 170.6 176.9 174.9 170.8 171.8 174.5 173.8 166.8 164 168.7 176.5 176.2 171.4 170.9 169.5 169.8 171.8 164.4 157.4 158.2 166.6 177.3 181.8 195.5 200.5 197.3 194.1 190.4 187.5 182.5 178.1 177.5 183.2 186.3 187.2 182.9 170 166.4 175.2 170.3 165.4 161.2 159.8 157.6 155.9 154.3 154.2 154.1 154 154.4 154.3 156.3 162.8 170.9 176.5 183.7 192 196.5 201.6 209.1 221.2 235.8 247.4 255.6 266.8 278.6 279.2 263.4 259.8 270.8 278.4 274.9 273 275.9 277.7 275.3 274.1 274 268.9 259.6 261.6 271.1 276.3 279 281 282.7 284.4 285.9 287.9 289.3 289.2 288.3 287.8 286.9 284.9 281.5 273.6 264 258.4 253.8 250.5 250.5 253.2 256.2 262.1 270.6 275.4 278.8 280 281.6 285.7 289.9 296.1 300.8 308.2 318.7 326.7 334.2 339.1 341.9 343.1 342.3 340.3 338.6 334.9 327.7 320.5 315.4 311.4 306.8 306 308.6 311.3 317.2 324.8 332 337.8 342.8 347.1 347.9 346.7 345.1 343 341.1 338.3 335.1 331.3 325.6 318.9 310 295 274.1 251.5 238.8 229.3 219.3 212.9 208.5 201 195.5 189.3 177.3 175.3 183.2 189.1 196.9 205.2 213.3 228 242.5 251.6 260.8 265.7 264.1 264.7 263.7 260.4 256.8 252.9 248.8 244.1 239.9 228.3 214 203.4 218.1
188 187.3 183 178.6 176.8 173.8 171.5 168.1 169.6 169.1 178.5 176.3 170.9 171.3 175.8 181.5 180.8 173.8 175.3 179.1 173.1 168.3 167.2 178.1 189 188.7 184.1 178.3 173.3 171.6 170.4 166.8 159.1 158.4 162.4 170.2 179.3 192.5 199.4 196.8 193.1 188.7 184.8 182.2 183.3 184.4 186.5 187.5 186.1 181 168.8 176.9 180.6 177.5 168.5 162.7 160.2 157.6 156 155.4 154.8 154.6 154.8 154.7 154.5 154.8 156 160.1 170.3 182.4 188.5 193.4 198.6 206 217.1 229.4 241.3 249.3 261 271.1 270.5 251.2 252.5 261.2 270.9 268 264.4 269.6 270.9 267.9 265.4 258.7 254.8 256.2 261.5 269.1 275 278.3 280.8 282.7 284.7 288.1 291.6 292.3 292.7 289.9 286.3 284.5 283.4 280.1 274.4 266 259.4 253 249.2 252.4 254.5 256.8 264.5 272.3 277.9 281.7 284.1 286.4 289.7 293.7 298.2 303.5 312.1 320.8 330.2 338.1 343.1 346 347.7 347.6 345.1 341.4 338.9 333.3 324.5 316.5 310 304.1 301.3 303.6 306.5 311.1 318.8 327.1 334.9 341.3 347.2 348.7 346.5 344.1 341.7 339.9 338.3 335.6 332.5 327.8 320.1 309.8 291.4 265.7 242.9 232.2 226.4 217.1 208.5 203.6 198.1 193.2 187.6 181.6 182.6 188.2 193.1 201 209 219 233.9 246.6 258 270.4 271.8 269.4 269 265.5 260.9 254.3 249 243.3 238 232.6 223.2 218.4 217.4 217.6
190.2 189.5 186.4 184.6 180.7 178 179 174.5 176.3 173.9 188.7 180.9 177.9 178.1 188 192 189.1 184.1 180.1 183 175.8 170.3 171 183.4 193.6 194 192.3 185.3 175.9 170.3 168.4 166.9 159.2 158.9 163 172.4 184.3 193.8 197.8 196.3 192.6 189.5 188.8 188.1 187.8 188.5 188 185.6 181.3 176.1 172.4 180.5 184.3 183.9 179.9 169 161.2 159.2 157.9 156.7 155.9 156.6 157.7 157.6 156.6 155.3 155.7 157.4 170.5 180.7 186.5 190.9 197.8 204.1 210.1 220.4 232.3 244.1 253.7 260.7 258.8 239.9 241.4 247.9 261.2 255.3 259.5 264.5 264.3 259.5 255 249.5 253.4 257.3 260.6 266.4 273 277 280.5 283.4 287.7 293.1 297.5 298.6 298 294.2 287.2 280.2 278.1 275.9 272.5 263 256 250.9 248.9 252.8 256.1 259.6 266.6 273.6 278.6 282.9 286 288.9 292.5 295.9 300.6 306 313.9 322 332.8 341 346.1 349.8 352 351.8 348.3 344.3 342.2 338.4 331.4 320.8 310.5 302.3 297.4 298.7 300.8 305.1 312.9 322 331.4 340.4 347.2 347.5 345.2 342 339.4 337.9 337 334.7 331.8 326.6 317.9 303.9 282.2 255.9 237.9 227.2 221.7 215.8 204.1 199.3 195.3 190.6 186.9 187 187.7 193.3 199.4 206.9 214.8 228.3 245 257.7 278.5 278.4 275.3 271.2 268.3 263.9 257.6 250.5 243.3 237.4 231 225.7 227.9 233.3 234.4 224.2
192.4 192.8 191.6 190.7 187.7 187.9 187.2 184.3 186.9 192.9 194.5 186.5 182.6 187.6 196.3 201 201.4 194.8 185.9 186.2 177 172.5 174.2 182.1 189.3 197.3 198.5 189.1 177.6 169.4 167.1 163.1 159.1 160.9 171.7 185.8 187.4 195.9 197.2 195.9 195.8 196.4 195.1 193.3 191.5 191.7 190.5 187.7 185.1 181 176.2 185.2 188.8 190.2 188.5 179.4 165.1 161 159.7 158.4 157.7 158.9 160.2 160.8 162.4 160.9 155.7 156.8 162.6 183.4 187.6 191.8 198.5 202.6 203.8 209.7 221.3 235.3 244.1 249.7 249.2 230.2 229.4 238.4 243.6 248.9 256.6 259.1 256.3 251.6 246.4 247.7 263.6 267 262.8 265.5 270.4 275 279.8 285.3 292.1 297.3 301.1 302.4 302 298.7 289.8 277.7 271.5 271.7 268.3 256.4 249.4 246.6 249.9 253.1 256.9 262.6 268.8 274.2 279.2 282.9 286.5 290.3 293.2 296.2 301.8 306.8 314.7 324.3 333.4 341.6 347.1 351.7 354.1 353.9 350.8 347.6 344.6 340.6 335.1 325 313.7 302.5 294.8 293.8 296.5 300.6 308 316.5 329 339.5 345.7 345.9 342.1 337.8 334.8 334 333.3 329.8 323.8 312.5 299.7 286.8 270 248.5 229.2 219 214.5 206.6 197.8 194 191.3 187.7 190 190.5 191.9 198.1 205.2 213.2 224.4 240.2 254.6 274.3 286.4 281.2 276.5 271.4 266.1 261.2 254.9 248.2 239.5 235 230.5 234.9 239.1 242.7 241.7 232.2
194.4 193.7 195 194.7 195.8 196 192.3 192.4 193.4 201.8 202.8 196.2 191.1 193.4 201.5 210.6 213.4 207.3 196.6 192.2 190.9 176.9 177.7 187.9 192.1 196.9 203.9 195.3 179.6 169 165.8 164.1 159.9 166.2 181.9 191.1 191.6 191.8 196.3 199 203.3 204.2 202.1 198 195.9 196 194.4 193.1 189.2 184.4 181.4 188.4 192.3 193.3 192.2 187.4 176 163.7 161.4 159.5 160 161.2 162.4 164.3 166 164.1 157.8 156.4 160 180.2 187 192.3 198.2 199.3 198.5 201.6 211.9 224.9 232.5 238.8 239.2 224 218.7 235.6 231.6 238.1 251 250.8 247.4 245.8 241.4 247.3 263.5 269.4 270.3 269.7 271.3 275.3 281 287.9 293.9 299 303.1 304.3 303.7 300.2 290.5 275.4 264.2 263.3 261.4 250.2 245.2 248.7 252.3 260.6 264.6 269.7 273.5 274.9 278.8 282.5 286.4 289.9 293.7 297.6 302.7 307.1 315.4 324.4 332.7 340.1 346.2 352 354.8 355 352.7 348.8 346 341.3 336.3 327.7 316.7 303.6 292.6 289.8 292.3 296 303.3 312.8 327 337.8 343.6 342.3 337.8 332.9 328.6 326.4 325 317.9 304.6 291.5 279.8 269.4 258 243.6 224.2 214 208.5 201.6 194.6 191.1 189.8 191.3 191.8 192.7 194.8 204.5 212.1 224.2 236.8 253.2 272.4 288.2 287.4 283.3 277.2 270.3 264.2 258.3 251.4 244.3 238.9 236.2 237.1 242.9 247.9 248.4 246.3 238.6
196 195.6 197.1 198.9 201.6 201.5 199.2 198.4 204.2 209.8 212.2 206.8 200.9 206.8 213 221.4 223.8 215.5 204.8 204.8 199.4 181.8 183.4 193.7 188.5 211.9 211.2 201.6 183.2 171.9 165.7 163.9 161 169.6 185.4 190.8 187.1 185.2 192 199.7 206.1 207.6 205.4 201 201.3 201.6 201.6 204.3 198.8 189.7 188.7 191.8 194.5 193.8 191.6 188.2 180.5 168.5 163.2 161.5 162.4 163.4 165.2 167.1 168.3 166.9 161.3 155.9 157.4 172.4 181.5 189.7 191.5 190.9 192.8 195.7 205.3 213.8 221.1 229 229.2 218.2 214 233.5 223.4 226.4 237.8 239 240.5 237.1 236 249 263.1 269.8 274.3 277.7 278.6 279.3 284.1 290.3 296.3 300.8 305.1 305.9 304.7 300.6 290.4 273.8 258.6 252.8 252.4 243.5 244.6 249.7 257.4 268 274.9 276.6 276.4 278.1 279.2 281.9 285.8 289.3 294.3 298.5 302.2 308 315.6 322.7 330.9 338.1 345 351.5 354.4 355.3 352.6 349.2 344.7 341.1 335.2 328.5 318.9 304.3 290.8 286.8 288.3 291.7 298.5 309.4 324.6 335.5 340 337.6 331.9 326.6 321 317.7 312.4 301.2 286.6 275.7 266.2 258.9 248.4 236.8 220.3 207.4 203.8 198.6 195.1 192.9 192.6 192.9 193.9 197.1 200.1 207.7 220.6 232.7 251.1 269.9 283.3 289.3 288.7 283.6 278 270.1 263 256.1 247.7 242.9 241.6 241.7 241 244.6 249.9 251.8 249.9 245
195.1 194.2 195.6 200.2 204 206.7 204.6 207.8 215 219 219.3 215.2 212.7 217.3 227.7 232.7 232.6 219.3 221.2 212.2 201.1 185.8 192.1 200.3 208.1 219.7 217.2 207.8 189.6 174.6 167.9 163.9 161.8 163.6 175.1 180.7 178.3 178.6 182.5 193.2 202.8 206.2 206.8 206.2 207.1 208.6 213.7 220.9 210.4 198.2 195 193.6 195.5 194.8 191.9 187.2 181.3 174.2 165.3 163 164.1 165.8 167.8 169.3 170 169.4 165.6 159.2 156.4 162.1 176.7 183.6 183.3 182.7 183.4 187.7 196 205.9 211.5 216.2 218.8 214 214.7 228.8 215.2 215.3 224.3 226.2 230.6 229 239.2 253.7 263 269.2 276.1 282.9 288.6 289.2 289.1 293.9 299.1 303.7 307.4 307.9 305.8 299.3 286.4 268.3 251.4 243.5 242.6 242.6 246.2 250.4 260.3 271.8 278.4 280.3 278.7 279.5 280.8 282.4 286 289.4 294.4 298.2 302.1 306.9 314.1 322.3 329.7 337.3 344.1 350.3 353.6 354.4 351.4 347.1 342.8 339 333.8 327.5 319.4 306 291.5 282.8 283.7 287.9 295.7 304.5 318.9 329.8 332.8 330.3 324.4 319.1 312.2 306.7 299.7 285.9 273 262.6 257 250.3 240 228.5 213.1 204.1 201.4 199.1 197.5 196 195.6 197 198.2 203.6 209.4 214 229.7 243.5 255.9 279.9 288.2 290.8 289.9 285.1 279.1 269.9 261.3 250.6 246.2 246.8 248.3 245.7 244.7 247.5 253.6 255.8 254.9 252.3
187.4 189.9 192.9 200.6 205.8 209.9 210.2 215.3 223.2 227.2 226.8 222.7 219.4 227.3 239.4 244.7 239.5 232.9 227.9 215.7 199.5 195.3 205 220.4 222.4 223.6 220.3 213 196.3 182.8 171.4 166.1 164.9 163 163.6 166.5 170.7 173.4 177.1 183.3 196.4 204 207.4 210.9 214.7 221.2 228.5 231.8 220.3 208.7 202.2 199.3 197.8 195.8 192.6 186.8 181.4 178 170.9 165.3 165.8 167.2 169.7 171 171.3 170.5 168.1 165 159 157.6 167 175.7 174.9 175.4 178.5 183.1 188 195.2 201 206.5 209.3 204 214.2 221.6 209.8 205.9 212.3 214.3 221.2 230.8 244.9 254.8 261.4 267.7 275.9 285.1 291.7 294.5 294.6 298.1 302.7 307 310.4 310.2 306.4 298.2 281.3 262 249.1 239.6 234.3 236.9 244.8 251.8 264.7 273.8 279.9 282.4 280.8 281.1 282.2 283.6 285.5 289.2 292.4 297.2 301.7 306.6 310.8 320.1 328.3 335.4 342.7 349.6 353.4 353.9 350.1 345.1 340.6 336.1 331.2 325.9 318.8 307.5 293.6 280.9 279.5 282 287.9 296 309.9 321.9 325 321.6 316 309.3 303.5 296.4 286.2 274.3 263.8 254.4 248.1 241.4 231.6 220.3 209.4 205.6 205.6 205.7 204 203.4 201.5 203.5 207.7 221.8 225.2 221.9 237.5 250.7 265.2 281.5 288.8 291.3 290.9 287.4 281.3 272.4 261.8 253.5 253.5 256.4 255.6 250.7 248.3 251.6 260.1 262.3 262.7 262
180.4 189.2 193.1 200 205.6 211.7 214.6 221.1 229.4 235.5 236.7 231.9 228.4 232.8 247.1 252.9 246 244.9 235.7 219.1 201.1 205.9 214.7 230.5 232.3 224.9 220.2 216.2 201.8 188.6 175.6 169.6 167.5 166.8 166.1 164.7 166.5 170.3 174.1 179.3 189.4 200.6 205.7 210.4 223.6 234.5 238 240 226.3 224.5 216.1 207.4 201.3 196.1 191.1 185.5 178.7 173.7 169.2 168.2 168.1 169.7 170.8 171.6 171 169.6 167.2 164 158.8 157.6 159.2 166 166.2 170.8 175.8 178.6 182.5 184.8 191.5 197.7 202.3 198.8 210.1 209.3 203.1 202.7 206.4 211.1 221.3 233.4 244.9 253.6 259.4 266.4 275.7 284.3 291.1 295.2 297.9 301.5 305.7 309.3 311.9 311.2 305.5 295 275.4 257.3 245.8 236.8 234.9 237 243 255.6 267.1 274.6 279.7 282 282.2 282.7 284.7 286.2 287.6 289.2 293.1 296.4 301.1 306.3 310.4 317 324.5 332.8 340.8 351.3 356 354.2 349.4 344.2 338.8 333.8 328.9 323 317.1 308.8 298.2 283.5 275.5 275.5 280.7 287.8 303.3 315 316.5 311.9 304.7 297.4 291.8 283.6 276.3 266.1 253.8 243.2 238 232.1 222.3 212.5 207.8 208.6 210.5 212.4 212.9 213.7 211.8 212 220.9 237.3 241.6 230.3 244.5 256.1 269.8 283.5 290.8 293.6 293.6 290 283.4 274.6 265.2 261.8 264 266.4 265.2 258.5 253.8 259.1 266.3 271.8 274.1 272.6
176.6 183.5 190.2 195.3 204.4 212.7 217.7 226.7 238.1 244 244.9 243.8 234.7 237.4 248.7 256.3 253 254 243.7 224.8 213.2 216.9 226.5 234.7 233 223.9 216.8 211.8 200.7 191.6 180 174.1 171.8 169.4 168 166.9 166.1 166.2 172.2 180.2 185.6 192.4 201.8 211.9 231.3 243.5 245.1 244 235.3 238.3 230.2 212.1 202.8 195.6 187.8 181.9 175.6 171.7 171.6 171.6 174.1 172.9 173.3 171.5 169.9 168.2 165.6 161.5 159.4 158.2 158.7 160.6 163.4 166.8 170 172.8 175.9 176.8 181.9 191.5 197.4 195.9 206.5 201.9 200.3 202.2 205.8 213.1 221.4 232.6 242.8 249 255.3 263.9 272.7 280.7 288 293.7 298.8 302.8 306.5 309.9 312 310.1 303.4 289.1 270.6 254 240.4 232.4 229.4 235.6 245.7 259.7 266.9 273.4 278.2 281.6 283.6 284.5 287.3 289.5 289.4 290.6 293 296.8 301 304.1 309.5 313.3 321.2 328.7 339 350.6 355.4 354.2 349.7 343.9 338 333.1 329.2 325.4 321.3 315.8 309.1 293.8 271 271.1 273.2 283 298 307.5 306.1 300 290.9 287 282.9 276.7 268.4 256.8 243.6 236.1 231.1 224.2 215.3 209.9 210 212.7 215.7 219 222.1 224.6 225.8 224.1 235.6 249.7 254.4 246.7 247 258.1 271.2 283.8 292.5 296.1 296.5 292.7 285.8 276.8 271.6 271 273.3 273.5 271.5 265.6 260.2 264.1 272.3 279.1 282.7 282.8
177.4 183.7 190.3 198.9 207.1 214.2 221.6 235.2 247.2 252.7 252.7 251.5 245.1 249.7 253.2 259 259.5 259.9 248.7 232.8 219.9 224.7 234.4 240.1 231.2 222.2 212.6 204.9 198.6 191.1 184.2 180.3 175.7 173.5 171.2 169.8 168.8 167.7 168.3 177.2 180.3 186.6 197.5 213 234.8 249.7 248.8 245.4 242.6 243.3 235.1 218 203.3 194.1 187.4 182.4 177.3 175.7 176.5 181.1 185.4 178.8 175.4 172.4 169.5 166.7 164.3 162.8 160.1 159.1 159.1 159.3 160.8 162.7 165.1 166.3 169.7 170.3 172.1 178.8 186.2 193.4 197 198.3 201.2 203.4 207.1 213.3 219.5 227 236.6 245.5 252.2 258.3 265.3 275.1 286 294 298.7 302.2 305.4 308 309.1 306.4 300.1 283.8 266.9 246.6 233.9 230.4 228.9 237.4 249.2 259.7 266.1 271.6 278 284.3 289.4 287.2 288.4 289.9 291.2 292.4 294.2 297 299.6 302.5 308.2 312.3 316.2 324.5 337.1 349.3 354.3 354.7 350.9 345 339.6 334.8 331.3 328.2 324.3 319.2 311.8 298.6 276.6 268.1 267.2 275.1 288.5 297.5 295.3 286.8 280.7 279.4 276.6 270.4 260.7 249.3 236.4 230.7 224.6 217 212.6 210.9 213 217.1 222.2 227.5 231.8 236.1 240.5 243.9 247.5 256.2 263 260.2 250.1 257.6 268.9 283.9 292.2 298.9 298.6 294.8 288.2 283 278.9 278.2 279.9 280 278.3 272.4 265.6 268.4 277.2 284.3 289.9 291.6
177.8 185.5 192.4 201.9 209.2 219 233.3 247.1 254.7 259.8 259.6 256.9 255.5 262.1 265.8 264.6 263.2 261 252.4 236.1 224.7 229.6 243.4 247.7 233.7 221.4 210.1 205.2 197.7 192.7 189.7 183.9 178.9 177.5 177.1 175.1 171.5 170.8 169.5 169.7 175.9 183 191.6 207.2 231.1 247.3 251.7 247.4 244.3 246.8 238.8 220.9 205.7 194.8 188.7 181.8 179.3 180.6 184 192 194.3 189.5 180.5 174.3 171.5 169.1 166.7 163.7 161.3 160.2 159.7 159.7 159.5 160.3 161.9 163 164.7 166.4 166.5 167.1 171.2 183.6 192.5 202.7 206.1 206.2 209.1 213.7 220.4 228.6 239.3 245 246.2 248.9 255.7 268.4 283.2 293 297.3 299.5 301.6 303.5 303.9 301.7 296.4 281.3 259.1 240.1 229.6 224.1 228.9 239.2 249.5 258.4 264.9 270.3 280.3 289 292.7 289.6 287.4 288.6 290.1 292.2 294.5 296.5 298.9 301.7 304.6 308.1 313.2 321.9 334.9 347.5 354.5 356.1 352.7 347.4 342.2 337.2 333.6 329.7 325.1 319.5 311.5 300.3 287.6 270.8 262.6 267.2 278.3 286 285.6 278.5 272.6 271.5 269.7 263.7 255.3 240.5 229 223.6 218.9 214.4 212.5 213.8 218.1 225.8 233.8 240.1 245.4 253.5 262.6 265.3 259.9 260.4 267.2 266.2 256.8 256 266.4 278.2 289.6 296 298 297.1 294.2 289.1 284.9 284.3 286.2 286.7 284.9 280.2 273.2 273.1 282.1 289.5 295.8 300
177.4 186.2 194.9 204.2 211.5 225.9 241.5 254.7 261.4 265.7 265.8 262.7 263.7 269.9 273.6 271 266.9 261.8 253.2 237.5 231.2 235.9 248.5 255.3 242.5 226.6 212.6 208.8 203.7 196 191 188.1 186.1 182.7 182.4 185.4 184.1 174.8 171.1 170.5 176.2 181.5 189.7 202.7 227.2 244.3 248.3 246.1 244.2 243.6 240.3 227.1 211.6 202.8 193.5 182 183.5 186.7 195.5 202.3 202.7 200.6 188.9 178.7 172.9 170.7 167.2 164.1 162.3 161.2 161.1 160.9 160.4 160.7 160.3 161.3 162.2 162.9 163.9 165.1 168.9 182.7 204.9 212.7 213.6 214.5 215 216.7 225.7 234.1 235.9 236 238.1 238.8 247 261.6 278 291.9 294 294.7 296 298 297.9 295.8 291.1 278.3 255.4 237.5 225.9 223.5 229.9 239.2 247.6 256.1 262.7 268.3 280.4 291.1 294.3 287.7 283.3 284.2 287.5 291.9 294.7 296.4 297.6 300 302.7 305.3 310.1 318.8 333.7 346.3 354.1 356.9 354.1 349.1 343.8 339 334.5 330 324.9 318.7 309.2 299 288.9 273.8 258.9 259.9 270.2 277.6 276.4 271.8 264.9 263.2 260.4 254.5 243.8 228.3 222.3 219.1 216.5 213 215.9 219 227 238 247.8 256 264.2 274.7 281.8 280.6 271 265.8 269.9 270.3 263.5 256.6 263.6 274.3 284.2 291.3 295.9 300.2 298.2 294.3 290.2 291.2 293.2 294.2 293.4 288.8 281.9 278.7 286.8 294.3 300.8 307.2
176.5 185.1 193 200.5 213.3 230.1 244.9 258.3 266.8 270.2 270.6 268.7 270 275.8 279.6 277.9 272.5 264 254.3 237.4 236.3 240.1 252.2 264.4 255.4 237.5 222.1 211.9 206 199.2 194.1 192.4 190.3 187.7 189.6 197.9 201.7 185.1 173.4 171.5 173.5 181.2 188.3 199.5 219.2 234 240.1 241.8 242.7 244.6 243.2 234.8 225.6 218.9 204.6 187.7 188.3 196.6 208.6 211.2 210 207.9 199.4 184.4 177.1 172.2 167.9 164.6 163 162.2 161.3 161 161.4 162 161.8 161.3 161.7 162.2 163.6 165.2 169.6 178.2 201.3 215.2 214.2 214.5 219.8 230.8 235.2 232.4 231.3 230.9 230 232.1 238.8 250 270.3 285 288.5 288.1 288.6 290.4 290.6 288.2 284 271.8 252.2 233.8 223 219.4 224.3 236.4 245.8 254 260.1 265 276.8 287.2 288 282.2 277.1 277.3 284.7 291.5 296 295.7 295.6 296.8 299.8 303.3 307.5 317.8 331 344.7 352.1 356.1 355 349.4 344.2 338.9 334.1 329.7 324.7 317.2 306.8 296.5 287.3 269.7 255.3 255.7 264.4 271.6 268.4 263.5 257.3 254.2 248.4 239.8 228.1 222.2 218.2 217.3 215.7 215.8 219.1 224.9 236 248.1 259.5 272.5 284.4 291.6 293.1 288.2 279.1 271.2 271 271.2 267.6 259.8 261.3 269.7 279.4 288.2 298 303.8 302.3 299.5 298.2 299.9 301.4 302.8 302.7 299.1 290.8 284.8 290.7 297.1 303.2 315.1
176.3 182.9 190.9 201.4 214.6 231 246.6 261.9 271.5 274 273.4 272.6 274.6 280.7 284.8 284 277.3 268 253.2 240.3 242.7 246.9 260.9 272.9 265.1 253.2 234.1 220.3 211 204.7 198.8 196.5 194.9 192.4 197.5 204.4 208.3 195.9 179.9 172.6 173.7 181.3 187.7 194.2 208.5 223.3 231.7 236 241.8 247.1 251.3 248.4 239.3 228.5 212.1 193.5 199.5 210.7 217.1 217.1 215.4 213.1 207 194.5 180.8 174.4 169.3 165.5 163.3 163.6 162.5 161.6 162.5 164.1 164 163.2 162.7 162.3 163.8 165.4 169.6 176.4 191.5 203.5 206.2 210.6 225 238.7 234.8 229.1 226 224.1 222.5 225.3 233.4 242.2 262.7 279.5 280.3 279.8 280.5 282.9 283 280.1 274.9 262.5 246.4 232.7 222.5 216.4 219.8 232.3 245.9 255.5 259.5 262.6 270.5 277.3 280 275.4 270.5 272.3 280.2 288.7 294.2 293.8 291.5 292.9 297.2 302 306.4 313.2 326.7 339.7 349.4 354.6 353.4 349 344.5 338.1 333.3 329.1 323.6 316.7 307.4 297.3 285.9 269 254.1 252.3 260 266.6 262.4 256.5 250.7 244.4 236.7 229.7 227.1 227.9 221 217.6 218 220.6 223.9 231.3 241.2 255.6 270.5 285.4 295.1 298.9 296.4 291.4 285.1 278.1 272.1 270.2 268.1 263.4 261.6 268.1 279 292.2 302.9 307.9 306.9 306.9 306.5 308.2 310.8 311.7 310.3 305.3 297.9 290.9 292 296.7 301.2 304.1
178.1 183 192.4 202.5 215.7 228.9 249 266.2 273.6 277.7 278.4 278.1 282.6 286.3 289.7 289.2 283.5 269.5 255.6 245.7 247.7 255.3 268.9 279.3 274.4 266.1 245.2 230.9 218.3 211.7 205 201.5 200.3 200.2 202.4 208.4 212.9 206.6 183.7 177 175.2 181.5 186.9 192.3 199.2 212.3 221.5 230.4 241.4 248.5 252.6 252.2 244.5 231.8 219 207 203.6 214 221.3 221.4 219 216.9 212.9 205.3 184.2 176 170.4 166.4 165.6 165.4 164.4 163.2 162.2 163.8 165.5 165.2 163 162.7 163 165.5 169 173.1 181.3 192.3 197.4 215.1 233.4 237.8 230.3 223.9 220.2 215.8 215.1 217.6 223.9 238 252.9 267.1 270.9 271.6 271.6 273.9 274.4 271.5 265 251.4 239.5 233.7 221.6 213.5 214.9 227.9 244.9 256.2 257.4 259 263 267.3 268.4 266.2 264.4 265 274 282.4 289.8 291.1 288 288.5 293.6 298.5 302.8 307.2 319.6 333.6 344.2 351 351.9 347.1 341.8 337.8 333 328.7 323.2 317.5 308.8 296.1 282.8 269.9 254.4 249.2 253.2 260.8 256 251.2 240.4 234.6 233.7 238.2 244.5 234.6 221.7 219.9 222 226.5 229.7 236 244.8 261.2 278 290.5 297.9 299.8 297.8 294.6 289.5 283.1 273.6 269.1 267.5 263.8 262.4 268.1 281 293.9 303.9 308.7 310.6 312.7 314.1 316.5 318.5 318.9 314.4 307.6 300.3 293 290.9 293.4 295.9 297.3
180.8 184.6 194 205.1 216.5 230.8 245 262.9 274.5 282.3 291.7 292.2 293.8 293.9 295.7 294.5 287.8 272.7 258.3 251.5 256.9 264.5 275.7 284 280.5 273 257.7 242.1 230 222.6 215.2 210 205.4 205.5 207.1 212 217.4 214.9 190.8 180 175.9 180.2 183.9 188.3 193 203.8 215.6 226.1 237.9 249.2 253.4 251 245.3 235.8 226.2 216.2 212.5 219.9 225.9 225.7 222.2 219.4 215.5 208.5 190.2 175.1 169.9 167.7 168.2 167.1 165.8 164.1 162.8 164 165.3 166.3 164.6 163 163.1 164.1 167.3 172.9 177.6 182.8 190.2 204.4 221.9 226.5 221.1 216.5 214.6 206.9 206.4 209.4 215.2 228.2 247.3 256.5 260.1 260.6 262.6 265.5 264.2 261 251.5 240.2 235.9 231.4 220 208.6 214 222.9 241.8 254.6 255 254.6 252.7 256.7 258.5 260.5 258.8 257.8 266.7 274.6 282.1 285.5 282 280.2 286.1 293.5 299 303.6 311.1 327.7 338.2 344.1 346.7 344 341 336 332.3 328.3 323.9 318.4 310 301.5 294.7 279.4 259.6 248.1 247.4 253.3 246.2 238.2 235.3 235.5 242.4 246 241.3 228.4 224.3 224.4 228.1 233.7 237 240.1 248.3 265.7 280 289.7 296.3 299.4 299.5 297.6 293.4 286.8 276.5 268.2 265.5 264 264.3 269.9 279.4 290.7 300.2 308.2 314.6 317.6 318.9 319.3 318.5 316.4 311.5 305.6 297.9 290.7 287.8 289.5 290.9 291.1
187.8 187 195.1 208.5 224.8 236.2 246.6 260.8 276.9 289.5 302.5 306.6 303.6 301.5 301.7 299 292.9 279.1 262.1 260.5 266.1 274.5 282.7 286 284 277.8 266.4 252.9 242.7 231.9 224.4 220.1 214.7 210.3 209.2 210.2 212.7 212.4 192.8 181.3 177.4 178.8 182.3 185.6 190.4 198.3 210.5 222.4 232.6 246.8 254.4 251.3 246.7 239 229.7 225.6 228.4 228.3 232.7 230.4 224.6 220.4 216.6 206.9 194.2 177.4 172.5 171.3 170.4 168.7 167.2 165.3 163.7 164.5 166.2 166.8 165.9 165.2 164.1 163.6 170.8 171.3 175.2 178.9 183.2 196 206.9 212.5 211.1 209.8 208.2 199.6 200.7 204.1 211 222.7 242.1 250.3 249.8 249.4 253.1 256.4 251.9 248.6 239.3 234.2 230.2 227 216.4 204.4 209.3 222 238.5 250 251.9 250 247.7 247.8 253.9 256.5 252.9 251.9 257.4 266 272.6 276.4 274.8 275.3 280.9 287.2 294.3 299.6 305.2 319.7 331.3 337.9 340.2 341.3 338.5 333.1 329.6 327 324.6 321.3 318.5 311.7 299.7 283.5 264.7 248.4 243.7 243.6 238.6 236.1 236.4 243.4 246.1 241.6 234.2 229.6 228.1 229.6 233.3 238.3 243.1 246 252 264.6 276.9 287.3 295.7 300.3 302.4 300.9 297.3 291.8 282.8 269.5 265.7 264.2 265.7 269.4 276.8 287.8 299.5 309.1 316.5 319 318.1 315.6 313.6 310.8 306.7 301 294.3 288.3 285.6 285.3 285.7 285.9
205.2 191.2 200.4 214.7 230.2 241 250.7 266 284.9 301.7 313 315 311 308.2 305.9 303.1 297.6 285.5 273.1 268.2 272.4 282.6 288.8 289.2 286.8 279.8 270 260.9 251.5 239.7 230.8 226 220.5 213.8 208.3 205.3 205.4 201.1 188.5 182.1 179.7 180.2 181.1 184 187.9 194.6 208.9 220.8 230.4 244.6 254.1 251.5 245.7 240.1 232.8 233 240 239.3 238.1 234.7 228.4 223.3 217.4 209.5 203.7 182.7 176.2 174.2 172.5 170.4 168.4 166.3 165.2 165.5 168.4 169.2 168.4 168.3 166.5 164.9 165.5 169.3 172.7 175.8 178.5 184.2 192.2 201.3 202 202.7 201.2 191.6 195.1 200.7 209.4 219.6 234.7 241.5 239.7 240.1 243.4 247.7 242.9 236.7 231.6 229.2 226.6 221.9 211 201.4 207.3 223.6 232.7 241.3 246.6 244.7 244 243.6 249.7 254 248.5 247.2 249.3 258.1 264.3 267.9 266.5 270.4 274.5 282.8 289.3 296.2 304.2 314.3 325.4 329.3 332 332.5 333.1 327.8 322.8 324.3 325.3 325.5 322.6 314.9 302.7 286.6 268.6 253.9 247 240.8 238.9 239.7 250.6 251.2 247.6 240.2 235.8 232.7 233 233.9 238.2 243.6 248.7 252.1 259 267.5 278.5 289 297.3 302.5 304.5 304 301 295.7 286.4 272.1 266.7 266.5 266.6 269.7 275.7 286 299.7 309.8 316.6 316.8 314.3 311.3 309 305 300.5 296 291.9 287.2 284 283 282.6 282.6
217.5 201.2 204.7 219.5 234.9 252 265.7 282.3 305 317.2 321.9 321.8 318 313.7 310.1 305.6 300 290.4 283 276.3 279.8 289.5 296.7 294.8 288.9 281.2 274 265.5 258.5 246.5 236.9 228.8 223.6 216 208.9 203.1 198 191.2 185.9 183.4 181.5 179.3 181.1 182.7 186 193 208.2 219.5 228.3 244.1 254.4 254.2 248.3 242.4 237 238.3 244.9 246.1 244 240.2 235.2 230.9 223.3 219.1 210.8 196.3 182.8 177.9 174.3 171.6 169.3 167.1 166.1 165.2 169.4 171.6 171.7 171.3 168.2 166.1 165.2 167.9 170.3 172.4 175.1 178.3 186.1 191.5 193.7 194.3 192 188.3 188.5 198.5 206.9 215.1 224.5 228.6 228.5 229.9 235 235.8 231.9 228.2 225.2 223.8 221.9 219.3 207.5 197.8 202.7 222 227.5 235.7 241.5 240.8 239.5 241.4 246.3 251.1 247.8 242.4 244.9 250.4 255.9 258.4 261.6 266.5 269.9 276.7 284.4 293.6 304.9 313.6 317 321.5 322.6 323.2 320.3 314.4 314.1 323 325.7 327.4 323.7 316.6 305 286.9 274 265.8 259.2 256.4 246 243.1 255.8 254.8 252 248.5 247.5 241.6 239.4 239.9 244 248.7 257.8 265.6 274.2 281.7 289.8 293.8 299.2 304.1 306.8 306.6 303.3 297.9 286.5 275.2 269.1 266.8 266.7 269.6 274.7 286.1 300.6 309.2 314.2 314.5 312.7 308.4 304.5 300.6 296.4 292.7 289.3 286.7 284 282.6 281.4 281
225.8 218.1 213.7 227 242.7 265.3 284 302.9 318 326.3 330.3 327.6 322.7 317.5 312.7 307.1 302 296.3 290 283.3 286.8 295.2 302.3 301.7 293.9 285.4 278.6 271.2 264.6 254.6 243.1 232.7 226.1 219.9 212.6 205 197.1 192.2 187.2 184.7 183.3 181.1 181.4 182.2 185.7 191.5 201.3 214.1 225.5 246.2 257 258.2 252.4 245.6 242.1 240.4 250.7 252.3 249.9 245.2 241.8 238.2 228.9 224.8 218 208 190.3 180.6 176.4 173.1 170.6 168.7 166.5 167.4 170.2 173.2 173.2 171 168.7 167.2 165.8 166.6 167.6 169.7 171.4 173.1 177 179.9 183.9 184.9 186.3 183.5 186 193.9 200.8 208.9 215.9 218.1 220.6 225 229.5 227.4 223.2 220.2 218.7 217.5 216.5 219.1 209.6 196.1 201.5 213.5 224 231.7 235.5 237.8 235.9 240 244.3 247.9 245.9 241.3 240.1 242.2 245.5 250.9 255.8 263.1 266.8 273.1 284 297.7 307.1 312.6 313.6 310.4 309.3 307 303.9 304.1 314.1 320 323.3 325.6 323.1 315.6 304.9 291.5 284.8 277.6 268.8 261.2 248.4 247.6 257.1 260.5 262.3 265.4 264.4 251.4 247.5 248.8 254.9 262.4 274.1 281.9 291.7 296.7 299.3 302.2 303.1 306.6 309.3 308.7 304.9 298.3 290 281.6 272.8 268.3 267.5 269 274.6 288.6 301 309.4 313.6 314.3 311.9 308.5 304.4 299.9 295.7 291.7 288.7 286.1 283.4 282.2 281.1 280.3
232.1 233.6 235.5 236.2 249.1 268.2 289.6 303.8 317.5 328.8 332 328.4 323 318 312.4 308 304.3 300.5 295.9 289.9 294.1 301 306.1 307.3 303.9 296 287.6 279.8 270.4 261.6 250.8 241.9 234.2 226.8 220.1 212.6 204.7 194.3 188.8 187.1 185.8 184.3 182.2 182.7 184 189.7 197.2 209.4 223.7 246.8 257.7 259.5 255.9 251.6 247.4 247.7 254.6 256.9 254.6 248.9 245.9 243.1 235.8 229.2 225.3 216 199.4 184.2 178.1 174.3 171.5 169.2 167.7 169.2 171.6 174.7 175.1 173 169.7 167.5 167.3 167.8 168.9 170.1 170.3 171.2 173 174.7 175.9 177.5 180.2 181.4 184.8 188.4 193.3 198.5 205 210.6 218.1 225.2 224.8 221.7 217.9 213.3 211.2 210.9 210.2 214.5 205.8 194.2 206.1 214 225 230 231.4 232.8 233.1 238.9 240.8 243.4 241.4 238.9 230.6 233.8 239.1 247.9 251.7 258 264.7 270.2 285.5 298.3 307.2 309.8 309 301 295.7 292.8 293.5 302.3 308.5 312.8 316.4 319.2 320 315.5 308.3 298.5 290.1 281.9 269.1 256.1 248.5 252.4 265 276.5 280.5 281.3 273.8 261.1 260.7 266.7 275.3 280.9 286.9 295.2 301.5 305.3 306.4 308.5 308.7 310.6 311.8 311.2 307.2 302.4 296.1 287.7 277.9 270.3 268.7 270.3 277.7 290.7 301.9 309.1 313.4 314.3 311.2 308 304.1 299.7 295.7 292.1 288.8 285.7 283.7 282.2 280.9 280.1
241.2 242.7 244 242.7 252.9 266.3 282.2 297.5 312.6 324 325.1 321.6 316.8 312.9 309.9 307.7 305.5 302.9 299.2 296.6 301.5 306.3 311.2 313.3 310.8 306.3 298.1 287 277.1 267.8 259.7 254.4 247.5 239.3 231.8 226.1 220.9 206.8 193.5 190.1 189.5 187.4 183.7 183 184.2 186.4 195.3 206.5 225.3 246.2 256.9 260.5 260.4 258.6 254.3 251.8 256.2 260.1 258.2 252.8 249.5 245.8 241.8 237.5 231.4 221.6 205.9 186.7 179.9 174.9 172.3 170.4 169.3 171 173 175.3 175.5 174.1 172.2 168.8 168.5 166.5 171.8 173.4 174.9 176.8 177.6 179 181 183.4 187.5 189.6 189.3 188.6 191.1 194.5 203.6 214.1 218.8 222.4 221.4 220.5 218.3 212 206.5 204.7 202.9 203.9 196.5 192.4 199.9 217.3 226.8 228.4 227.6 226 235.1 236.4 237.2 238.4 236 228.9 227.5 231.9 239.5 246.2 255.8 264 266.2 271.9 282 293.2 301.6 305.4 304.2 297.4 287.8 283.7 291.4 297.2 300 302 306.7 310.9 316.8 316.4 310.1 301.6 292.9 283.6 266 251.5 250.7 263.7 277.7 287.9 289.5 286.9 278.8 271.9 275.9 283.5 291.7 297.7 297.6 302.1 307.4 311.5 311.8 313.7 315.1 315.4 315.7 314.6 312.9 308.5 303.5 294.2 284.5 275.4 271 272 277.3 288.7 300.1 308.2 312.5 312.9 310.5 307.3 303.8 299.2 295.9 291.9 288.8 286 284.1 282.1 280.7 279.9
250.3 251 249.4 247.6 253.3 263.4 275.8 290.3 304.2 314.1 312.9 307.8 304.7 304.8 306.2 307 306.4 305.1 304.3 302.7 307.2 311.8 315.7 318.3 316.6 312.2 305 293.7 283.3 275.4 268.8 265.6 258.2 250.6 245 239 231.9 218.9 206.4 199.9 197.4 195.6 188.5 184 184.8 185.4 192.6 202.1 219.7 237.1 254.4 261.6 263.5 262.7 260.6 257.6 259.5 263.9 261.4 256.2 252.1 251.5 248.2 244.9 238.7 227.7 210.4 189.9 181.1 177.1 174.2 172.5 170.9 173.6 174.1 176 176.2 174.8 172.3 171.6 170.8 168 170 174.3 177.7 178.9 181.8 184.4 185.5 187.3 189.5 192.9 194.7 195.5 200.4 204.6 204.2 211.1 215.7 218.1 219.2 220.1 220.4 216.7 209.6 205.8 197.8 194.4 192.3 190.5 202.6 219.3 225.5 225 223.6 221.5 232 232.6 234 233.5 223.6 222.3 229.7 239.9 248.9 253.9 259.7 264.6 267.9 271.4 278.5 286.7 294.9 299.9 299.5 295.3 285.7 278.3 282.8 287.7 289.7 290.7 298.5 308.3 313.3 314.1 310.1 301.8 293.3 285.7 275.7 253.9 252.4 261.5 275.6 285.2 289.2 288.8 285.7 285.4 288.3 294.4 302.7 307.6 307 308 311 315 316 317.6 319 319.4 319.6 320 318.2 314.9 310.8 303.3 294.2 283.9 275.9 273.9 278.5 286.6 297.7 307.3 311.3 311.9 310.6 307.2 303.1 299.3 295.8 292.5 289.8 287.4 284.5 283 281.1 279.9
258.2 256.3 254 250 252.8 260.8 268.6 280.9 293 299.2 298.1 294.8 294.6 298.2 302.8 304.9 306.7 306.3 307.2 307.1 309.7 313.9 318.7 322.1 321.1 316.4 310.5 301.4 290.6 282.2 275.3 272.7 265.7 258.7 253.2 246.1 237.2 224 219.5 220.5 214.3 205.4 193.8 185.2 185.7 186.7 190.7 198.6 209.1 230.2 251.1 262.5 264.2 264.6 263.9 263.2 262.7 265.8 264.9 260.8 260 258.8 256.5 254.2 248.8 237 221.1 199.9 185.3 180.2 177.4 174.6 173.4 174.5 175.9 177.7 177.7 176.7 174.5 173.9 173.2 170.3 168.4 171.1 174.8 177.6 181.3 185.9 188 189.2 190.8 193.2 196.2 198.3 201.9 205.7 207.6 208.6 211.3 214.9 217.8 220.8 221.7 218.4 214.5 212.9 209.2 202 191.1 188.6 200.6 215.9 222.1 220.5 217.4 218.1 224.6 227.3 232.6 226.2 215.9 229.9 237.4 240.8 247.1 252.3 256.7 262.5 265.6 268.4 274.5 281.9 289.1 292.9 293.3 290.1 284.4 274.3 274.5 278.3 281.3 285.8 292.9 302.5 308 310.7 308.5 303.6 300.2 296.9 284.3 263.4 251.8 256.5 266.9 275.7 285.2 291.9 294.1 295.8 298.2 303.1 310.1 314.6 313.4 312 314.2 317.8 318.9 319.5 320.8 322.6 323.5 323.4 323.1 323.3 319.9 314.7 306.2 294.1 284.3 278.8 280.4 285.7 295 304.9 310.8 311.7 310.7 307.5 304.1 300.9 297.8 294.8 291.7 288.8 285.6 283.8 281 280.1
266.1 261.7 257.6 254.4 254.8 258.8 265 270.4 280.4 284.1 285.3 286.8 289 294 299.3 302.8 304.8 306.8 307.5 308.6 310.5 314.6 318.8 322.9 323.2 319.4 314.3 305.3 296 287.2 280.9 276.9 272.6 265.4 258.6 251.3 242.4 232 231.6 236.4 233.1 219.1 200.1 187.9 187 188 190.7 196.6 205.4 219 238.6 256 264.5 265 265.4 265.6 266.3 267.1 267.8 267 267.5 266.4 265.4 263.5 259.4 247.9 233 215.5 195.6 185.3 181.1 178.8 176.9 176.6 177.3 179.4 180.1 179.3 177.2 176.7 174.9 170.6 169.4 170.7 172.6 175.3 179.8 184.9 188 190.1 191.4 193.6 198.1 202 204.8 208.6 211.4 213.2 215.3 216.9 216.8 217.9 218.6 216.9 214.5 215.1 213.3 208.4 198.1 188.2 192.3 210.5 218.6 214.7 206 213 217.1 222.6 227.7 220.1 212 226.6 231.6 235.5 241.1 247.6 254.7 260 261.9 262.3 269.9 277.2 284.2 287.8 287.6 284.3 278.8 270.2 268.6 270.7 275 280.1 286.1 295.9 301.6 304.8 307 308.6 306.2 300.8 292.7 276.5 258.1 254.3 258.7 268.1 283.8 294.6 298.9 303 305.7 310.2 316.4 319.7 317.5 314.8 315.9 318.3 320 321.1 322.9 324.5 324.7 325.4 327.5 330.5 329.2 324.2 315.1 304.5 292.8 283.6 283 286 292.9 300.5 308.3 310.9 311 308.9 306.8 303.5 300.2 297.1 294 290.2 286.9 284.3 282.4 281.8
272.1 265 259.6 256.8 257.5 258 262.4 266 270.9 275.2 279.7 281.9 285.9 291.8 296.2 299.6 303.1 305.5 306.8 307.2 309.4 312.7 316.9 321.3 323.6 321.3 316.6 307.8 296.7 288.6 283.5 280.5 277.6 269 263.1 256.2 247.6 241 243.4 245.1 243.2 229.7 209 191 189.3 189.2 190.9 195.1 202.8 210.1 227.6 249.9 261.1 263.8 266.3 267.1 268.3 269.2 270.3 270.9 272.5 272.5 271.9 271.1 266.8 257.2 247.4 231.3 210.8 194.7 188.2 184.1 180.5 178.9 180 181.9 182.7 180.2 178.8 176.5 174.2 171.7 171.5 172.7 173.3 174.3 177.5 181.8 185 186.4 189.4 193.1 197.7 202.9 208.1 211.5 214.4 216.6 218.5 217.5 215 213.8 214.1 213.2 210.8 211.5 209.9 207.1 204.7 196.6 185.7 203.9 210.5 207.3 196.2 203.1 214.3 216.3 218.8 214.3 207 217.3 224.4 226.6 232.7 245.9 253.9 257.3 256.9 255.9 263.1 272.1 279.4 283.8 283.3 277.8 269.5 265.8 265.8 266.5 269.6 274.6 281.1 289.1 293.6 304.4 311.2 310.7 307 300.7 293.1 278 261.3 257.3 257.7 266 280.3 294.7 301.8 307.2 312.6 317.1 321.3 323.4 321.6 317.8 316.3 317.3 319.2 321.5 323.2 323.6 324 326.5 330.7 334.9 333.9 330.3 322.4 311.8 299.6 289.3 285.2 286.2 289.2 294.7 304 309.2 310.7 310.5 308 305.4 302.4 298.7 294.9 291.6 289 286.1 284.9 283.9
277 268.3 262.3 261.8 262.4 264.3 266.7 267.8 269.3 272.7 276.7 278.8 283.2 288.1 292.1 296.3 300.2 303.5 305.1 305.2 306.7 309.8 313.3 318.5 321.9 321.7 316.7 308.1 295.2 289.2 284.7 280.6 277.4 271.1 265.1 260.7 252.3 248.5 250.1 249.6 246 233.6 213 196.7 192.8 190.9 192.6 194.6 200.7 208.9 218.1 236.6 251.4 260.1 264.6 268.1 270.1 271.6 271.5 272 273.9 275.5 275.7 274.9 271.2 263.5 254.3 242.1 222 202 193.5 187.9 183.6 181.3 183.9 184.4 183.8 181.2 178.2 175.1 172.6 171.9 173.5 174.3 175.7 176.8 177.4 178.3 179.5 184 189.4 196.9 199.8 203.4 209.4 213.6 216.1 217 217 215.1 211.9 209.2 208.9 207.1 206.5 204.7 204.9 203.9 202.9 199.4 180.9 188.1 202.5 198.8 191 199.7 205.2 207.7 209.2 206.9 204.3 209.4 214.6 218.4 231.1 246 253.8 254 251.1 245.6 252.5 264.5 273.4 277.5 276.8 269.1 263.5 263.5 262.3 264.4 266.1 269.5 275 282.3 299.1 308.5 312.5 309.1 305 298.6 287.2 272.4 262.6 265.7 262.7 265.3 277.8 291.7 300.9 309.4 316 321.2 324.6 325.6 323.3 319.2 316.9 316.5 318.2 320 320.3 320.5 321.3 325.7 329.7 332.2 331.7 328.4 323.2 315.7 304.5 291.9 285.6 284 284.6 289.4 299.9 306.2 308.8 309.7 308.6 306.1 303.2 299.7 296.4 292.9 290.1 287.3 286.1 283.8
279.9 271.8 268.4 269.3 272.5 274.5 275.1 273.9 275.1 275.5 276.1 277.5 279.3 282.9 287.4 292.1 297 300 302.1 302 304.2 306.8 309.8 314.8 319.4 319.9 315.3 306.9 293 287.6 283 279.2 276 271.7 267.6 263.7 258.8 254.4 253.8 251.6 245.5 233.4 215.6 213.5 206.2 196.9 193.2 196.1 199.7 206 212.3 223.6 238.2 252.7 262.4 267.2 271.4 272.9 272 270.3 273 274.9 273.9 272.8 270.3 264 256.1 245.5 226.7 208.5 197.2 190.8 186.1 185.1 185.2 185.6 183.9 180.9 176.2 174.5 174.4 175 175.7 176.9 178.8 180.7 181.5 182.9 185.2 187.4 186.8 192.5 198.5 203.8 210.4 214.9 217.4 216.6 215 211.9 208.1 206.6 203.9 203.4 202.8 200.2 199.6 199.3 198.7 199 182.6 180.6 189.8 190.3 184.5 186.1 195.2 196.4 194.3 198 201 206 212 221.4 233.6 244.9 250.6 249.7 240.8 232.7 238.5 253.1 267.2 271.6 269.6 262.4 259.5 262.5 266.3 267.2 267.9 268.3 271.9 281.9 297.1 306 308 305.9 302 295.2 284.2 273.6 267.8 271.8 268.2 265 275 285 296.4 308.3 316.3 322.3 326.3 326.7 324.1 320.2 316.6 314.7 315.4 316.7 317 316.7 319.6 323.8 327.3 329.3 328.4 325.8 322.2 316 305.6 293.8 285.1 281.7 281.9 284.4 292.2 300.7 305.5 307.4 307.7 306.1 303 299.2 295.7 292.9 290.7 288.1 285.6 283.1
288.1 279.7 275.2 279.6 284.5 285 282.5 279.6 279.1 277.7 275.7 274.5 275.2 277.2 280.7 287.2 292.1 295.4 297.3 297.3 300 302.6 304.8 310.5 315.9 318.1 313.5 306 292.6 283.2 279.8 276.9 272.4 268.4 266.5 265.2 262.9 260 256.6 252.7 245.3 233.1 218.5 222.2 221.5 206.6 197.3 196.5 199.5 202.9 207.6 217.1 229.6 245.7 257.7 265.4 270.6 273.2 272.8 269.2 267.6 269.7 270.7 269.6 267.2 262.3 255.3 245.5 233.5 218.3 202.3 194.3 190.9 187.8 186.6 185.4 181.2 177.1 176.4 178.1 179.5 179.5 180.8 182.4 184.3 184.6 191 192.2 193.1 198.3 192.8 191.6 195.5 204.5 211.5 215.4 215.9 213.8 210.9 207.7 204.4 202.1 201.3 199.8 197 194.8 193.2 191.9 189.9 189.2 191.5 185.9 178.1 177.4 178.3 180.8 181.4 186.6 198.8 207.9 214 218 222.9 225 231.5 240.5 245 245 235.3 226.7 227 246.2 261 265.5 263.5 258.8 261.2 265.3 270.7 273.7 274 271.9 272.5 278.2 290.6 302.1 304.4 303.1 298.5 292.8 287.5 283.8 276.8 275.7 269.2 266.4 273.5 280.5 292 304.9 314.5 321.4 325.9 325.7 323.3 319.8 315.6 312.8 312.3 312.3 313.5 315.8 318.7 322.7 325.9 328.1 327 324.3 320.3 315 307 294.8 283.6 279.1 278.3 279.6 286.2 295.9 301.3 304.4 305.7 306.2 303 300.1 298.5 296.2 293.2 290.1 286.1 283
296.5 288 285.7 290.7 293.5 291.9 287.7 283 280.3 277.9 274.4 272.2 271.8 271.8 274.2 279.4 285.5 289.7 291.8 291.3 294.4 297.7 301.1 306.2 312.7 317.3 313.2 305.3 292.1 279.4 274.3 270.3 268 264.2 263.5 264.5 264.6 263.3 259.6 254.7 247.4 235.5 224.2 227.5 226.1 215.3 202.7 197.5 198.4 201.8 205 211.3 221 236.5 252.3 263.2 269.7 273.8 274.2 267.2 260.9 263.8 265.7 265.3 264.1 260.6 254.4 246.7 237.2 225.4 208.2 197 191.5 189.9 186.7 183.1 179.7 180.1 187.3 191.3 190.1 188.5 191.7 190.4 194 194.3 199 205.2 205.9 207.2 202.4 199.2 203 204.5 211.2 215.4 215.2 213 208.5 205.3 202.4 200.9 200.1 196.7 197.4 196.1 194.7 195.4 194.8 198.8 204 203 195.6 184.8 175.5 176 176 187.5 204.2 217.1 219.2 222.5 222.5 224.2 228.1 235 238.8 238.5 230.5 220.9 222.7 237.2 252.6 259.7 257.3 258.7 263.4 267.2 273.6 280.3 283.7 283.8 278.1 278.9 292 298.8 301.6 300.1 296.2 292 291.6 287.7 282.4 278.1 270.1 267.4 272.1 279.2 288.3 300.5 310.1 317.3 321.5 322.9 321.5 318.9 315.2 312.3 311.1 312.1 313.8 316.4 320.1 323.4 325 326.1 324.8 322.4 318.5 312.8 306.2 295.5 281.6 277 275.2 275.7 280.9 288.5 295.3 300.2 303.9 306.1 306 304.5 303.2 300.8 297 291.8 286.9 283
303.6 295.8 294.7 296.8 298.5 296.9 292.6 285.9 280.5 277.2 273.3 271.4 269.4 268.1 268.7 271.6 277.3 282.9 285.3 283.4 288.3 293 299.1 302.9 309.6 315.3 312.8 305 292.3 278.5 269.4 264.7 262.4 260.9 259.1 260.5 262.4 263.6 261.2 256.2 248.8 237.3 228.2 233.8 229.6 221.8 212.6 208.8 200.5 200.3 203.9 207.8 214.8 228.5 248.4 260.2 266.2 269.6 269.2 263.4 256.8 257.5 260.3 262 261.5 259.2 254.2 247.1 236 224.4 211.4 199.8 194.2 189.2 185.1 182.5 182.6 188.5 192.7 202.6 204 203.1 198.2 200.9 205 203.3 206.9 213 212.7 214.5 213.5 213 214.4 214.6 216.1 216.9 216 212.4 208.1 204.2 201.8 201.9 199.7 200 201.4 198.9 200.2 201.1 205.1 205.9 208.6 207.8 204.5 197.5 186.2 174.5 173.1 177.9 192.8 205.9 215.5 219.2 218.3 219.5 222.8 227.3 231.3 231 222.1 213.8 218.4 229.1 242.6 251.6 253.6 259.1 264.4 270.9 278.1 286 292.1 297.3 294 284 293.9 302.6 303.6 302.5 299.1 295.2 293.7 288.5 282.9 276.7 270.5 268.6 271.1 278.8 286 295.9 304.7 312.1 317.1 319.3 319.1 317.2 313.9 311.1 310.5 312.5 315.2 316.9 320.4 322.2 322.4 322.3 320.4 318.3 314.2 309.5 303.4 293.5 282.1 275.8 273.1 272.2 274.6 281.5 289.3 296.7 302.1 306 308.2 308.6 306.2 303.2 299.1 294.6 288.2 284.1
305.9 299.4 297 297.7 300.3 299.9 295.9 289.2 281.9 277.9 274.2 273 269.4 267.1 265 266.7 270.5 275.5 276.5 275.2 282.2 288.8 296 301 307.1 311.8 311 304.7 292.6 277.5 265.7 260.6 257.8 255.9 253.6 254.9 257.8 261.9 259.4 254 246.4 235.3 230.7 238.3 235.8 230 223 225.7 209.5 204.3 203.5 204 209.7 221.2 240.2 255.1 257.7 259.4 260 257.3 252 253.5 257.2 259.9 260.5 259.1 254.3 247.4 236 222 206.4 198.1 193.6 189.7 188.4 183.6 189.8 196.8 195.6 205.5 213.3 213 205.5 212.2 212.2 211.2 212.4 216.1 216.8 217.9 217.9 218 218.8 218.6 218.7 218.4 217.4 214.4 209.4 206.6 205.1 202.8 203.7 203.8 204.4 201.6 200.7 202.2 204.3 205.1 207.8 207 204.9 202 198.1 183.8 172.7 172.4 179.3 194.4 208.1 211.4 211.1 213.5 217.6 220 223 222.4 211.2 206.4 216.1 224.8 236.2 245.5 253.7 262.4 272.4 279.8 287.9 294.9 306.6 316.4 309.9 294.4 294.8 307.4 310.6 310.7 306.6 300.3 295 288 279.8 274.4 271.3 270.4 270.2 276.5 283.4 290.8 300.5 307.3 312.7 315.4 315.9 315.1 312.8 309.8 310.9 313.9 316.5 318 319.5 320.1 319.7 318 316.1 312.8 308.2 303.8 298.6 292.2 283.7 279.7 274 270.3 270.5 276.3 285.4 292.8 298.5 302.9 306.2 307 306.3 304 301 296.6 291.9 287.6
307.3 299.6 297.1 295.8 298.5 299.7 296.5 291.1 283.5 279.2 280.2 281 275.9 271.5 266.4 262.3 263 268.9 270.4 269.4 276.2 284.8 293.7 299.2 303.8 306.7 307.3 302.8 295.2 279.7 264.2 259.3 255.5 252.3 249.4 251.1 253.7 256.5 254.4 249.7 243.4 232 232.7 238.6 241.7 238.9 231.5 235.4 222.3 210.5 207.3 205.8 208.3 213.3 227.3 242.8 247 249.3 250.1 249.5 246.9 250 254.9 259.4 261 260.4 255.9 248.2 233.2 219.6 206.7 200.1 195.9 192.9 187.8 185.8 191.8 198.6 204.8 209.5 217.6 219 214.6 216.3 216.9 217.3 217.2 217.5 216.8 216.9 216.8 216.8 218.3 217.5 217.2 217.3 217.2 216 213.6 210.6 208.5 207.4 207 204.6 202.7 201.2 199.5 198.8 200.4 202.8 203.4 203.5 201.7 200.4 198.1 183 172.4 171.9 172.6 181.9 197.7 200.6 201.5 207 212.2 213.4 214.5 207.2 201.5 205.9 217 226.9 237.3 246.9 260.4 272.4 286 295.6 303.5 311.2 322.3 326.3 321.7 306.7 300.5 309.4 315.4 315.5 311.4 304.9 295.1 284.5 278 275.2 273.7 272.3 272.3 274.7 279.5 283.8 293.7 300.9 308.4 312.1 313.6 312.7 310.6 309.1 311.5 316 319.2 320.2 320.1 318.3 316 313 309.4 305.5 300.4 295.9 292.8 288.5 285 281.6 275.2 269.5 268.3 272.3 280.6 288 294 299.1 302.8 305 305.3 303.8 301.2 298 293.6 289
306.6 299.4 296.3 293.5 293.7 295.2 293.6 290.4 286.1 282.6 286 286.1 282.3 278.5 274.6 266.7 257.7 260.4 262.6 263.2 270.9 280.7 289.9 295.3 299.7 300.7 302.2 300.5 294.5 281 264.9 257.5 254 250.5 248 246.8 247.9 250.6 248.1 242.2 237.5 233.5 235.5 241.2 246.8 246.9 242.2 244.7 237.8 227.7 221.6 214.6 211.3 211.4 216.3 226.8 234.7 240 243.5 243.8 243.4 247.1 255.9 261.4 264.8 263.3 258.5 251.4 240.4 226.9 215.3 205.8 199.7 195.5 191 190.4 196.6 206.5 215.6 222.5 224.9 223.9 221.6 219.8 217.2 216.6 216 215.9 214.2 212.7 212.5 212.8 214 214.3 213.9 215.6 215.7 214.6 214 210.7 209.6 208.4 208.4 207.3 204.2 201.1 198.6 194.2 196 200.3 201.9 200 197.3 195.7 193.3 190.2 173.6 170.6 170.7 175.4 183.2 188.3 192.5 203.1 208.8 206.6 204.4 196.7 199.3 208.8 220.2 230.8 240.3 255.4 270.9 285.9 297.1 306.7 317 323.6 327.8 331 328.4 316.6 308.2 309.2 316.5 317.5 313.5 306.4 296 284.9 279.6 278.3 276.2 274.2 274.8 277.3 279.2 282.9 286.5 294.9 305.7 309.8 310.7 309.7 307.8 309.8 313.9 318.8 321.1 321.8 320.1 316.2 311.5 307.1 301.4 296.7 292.3 289.2 286.7 284.5 282.2 280.5 276.3 270.2 267.7 268.3 275.3 282.9 288.8 294.5 299.5 302.3 303 302.2 299.9 296.3 291.9 286.8
307.9 300.5 295.9 291.4 290.5 288.4 288.6 288.7 286.6 283.7 285.9 287.5 285.1 281.7 277.8 271.5 263.4 253.4 254.5 256.3 262.5 275.5 283.1 287.2 291.5 292.7 294.5 296.7 292.4 282.8 266.9 256.4 252.3 249.7 247.5 245.5 242.9 241.3 237.9 237.2 236.2 238.7 243.4 249.2 254.1 254.2 251.1 254.2 249.4 245.4 241.6 227.9 219 214.4 212.9 219.2 227.1 233 235.9 237.8 242.3 253.7 262.8 265.7 266.3 263.9 259.6 253.9 245.4 237.9 230.3 217.2 206.7 199 194.4 193.1 204 219.1 225.4 227.6 227.3 225.9 223.3 221.6 218.4 214 211.8 209.5 207.7 204.8 205.2 206 206.8 208.5 209.5 212.1 212.6 211.8 209.9 208 207.3 206 205.3 205.4 200.4 199.2 195 190.7 191.7 195.3 197.6 195.8 191.9 189.2 189.9 190.2 182.6 170.5 169.9 169.7 172.9 178.2 192.7 200.9 206.1 201.7 193.3 193.6 202.7 216.5 226.8 238.3 247.4 264.1 280.3 293.8 305.2 316.5 326 327.4 328.7 329.8 328 323.5 314.4 309.3 315.3 316.9 314.7 309.6 300 292.9 285.2 281.4 278.2 276.1 277.2 284.4 289.6 293 289.5 291.2 300 305.7 305.4 306.3 308.6 312.8 318 321.3 323.2 321.4 318.2 313.1 306.4 299.7 295.5 292.2 288.1 283.9 281.5 279.3 278.5 275.8 272.3 269.9 267.2 266.1 269.7 276.3 284.4 291 295.6 298.5 299.5 299.1 297 293.2 288.2 282.7
311.9 301.4 293.9 290.3 287.5 286.9 286.3 285.7 284.3 282.5 283.4 286.2 285.7 282.6 278 272.9 267.8 257.7 249.3 249.8 253.4 263.8 271.4 276.4 279.3 281.9 283.6 289 289.6 283.8 271 259.5 252.6 249.2 246.8 245.6 242.7 243.2 243 241.1 242.8 247 251.2 256.7 261 261.8 259.6 261.5 260 255.5 254.2 244.2 229.2 222.8 218.5 215.8 220.5 226.5 235.7 244.9 250.8 260.3 265.9 267.1 265.9 262.8 260.1 255.7 251.6 247.5 241 230.7 218.1 208 201 197.6 211.2 223.8 228.5 228 227.4 225.6 223.4 221.3 217.7 212.6 204.4 202.9 202.9 200.7 199.4 199.5 199.7 200.9 204.8 207.2 206.5 204.8 203.7 202 200.3 200.1 200.5 200.3 198.7 197.2 192.8 189.6 185.9 190.3 192.1 190.8 189.4 184.7 185.3 188 187.4 181.6 170 169.4 169.5 180.1 189.6 197.5 203.7 195.6 189.7 196.2 206.2 220.7 233.4 244.9 253.2 270.1 283.9 298.2 310.2 319.6 327.1 327.3 325 325.3 324.8 323.7 318.4 311.7 314 316.5 315.3 312.2 306.8 300.3 295.1 289.4 283.6 279.2 287.5 296.3 304 302.9 297.5 293 296.2 299.7 303.7 306.9 312.1 316.4 319.7 323.1 322.7 319.7 314.7 308.1 300.5 296 293 290.8 285.8 281.9 279.2 277.6 275.3 272.4 270.1 268.4 266.9 265.6 265.7 271.9 280.2 286.5 290.7 294.1 295.5 295 292.8 290 285.7 282.5
316.3 302.9 294.8 290.7 287.3 285.7 284.8 284.3 283.7 282.4 281.7 283.9 285.3 282.1 277.6 272.3 265.6 257.6 246.8 245.8 246.7 252.1 257.9 261.5 264.3 268.3 271.9 279.1 285.5 286.3 280 266.5 254.9 249.3 246.7 245.1 244.3 249.5 250.4 246.7 248.4 253.5 257.6 261.6 265.4 267.1 267.1 267 266.2 263.8 260.9 252.8 243.3 232.4 225.4 219.8 218.8 233.8 242.7 249.8 257.3 263 265.1 264.9 262.9 261.1 259.1 255.9 253.1 250.7 246.2 241.5 231.7 216.2 206 205.1 213.8 223.6 226.9 226.5 225.4 223.8 221.1 218.6 216 211.6 205.5 198.4 201.3 199.2 195 193.2 193.7 199.6 201 200.6 199.6 197.6 197.8 197.5 194.8 194.3 194.6 193.9 193.1 191.7 189.6 187.1 182.9 183.4 186.4 186.4 184.6 181.7 179.8 183.5 184.6 187.1 178.5 169.2 169.1 178 185.9 197.3 203 194.3 187.2 198.5 209.9 223.1 237.4 249.7 259.7 272.1 285.9 297.6 310.1 317.5 321.6 321.7 318.5 319.4 321.9 321.9 319.7 315.3 312.8 315.2 315.3 313.7 311.6 308.2 306 302.9 294.7 286.6 292.8 303.5 310.4 308.4 301.4 294.8 296.7 299.7 304.4 309.7 317.5 322.2 323.8 325.2 321.8 317 309 302.3 298.7 295.9 294.4 293 290.4 287.7 287 285.9 283.9 279 274.4 268.6 270.8 269.9 264.8 266.7 273.7 280.1 285.1 289.1 291 290.5 289.8 287.5 285.9 283.9
317.3 311.2 305 298.7 292 284.8 282.8 283.9 283.4 282.8 281.5 281 283.8 280.4 274.2 269.5 261.9 255.2 247.3 242.5 242.5 243.8 246.4 249.3 251.5 254.6 259.6 265.9 278.2 286.9 284.1 274.4 259.5 250.5 247 246.2 247.9 253.6 255.3 254.5 254.7 258 261.4 265 268.6 270.4 270.2 270.1 269.7 267.8 264.9 260.9 253.1 241.8 232.3 223.7 220.4 228.9 239 248.3 257 261.1 261.7 261.6 259.9 258.9 257.1 255.6 252.7 250.9 249.1 247.2 242.2 229.1 214.2 215 220.6 224.4 225.3 224.6 221.1 218.4 216.5 213 210.6 208 204 198.2 195.6 195.3 191.9 187 191.2 195.2 196.3 194.3 192.4 189.7 191.7 192.4 189.3 188.6 188.8 188.8 187.9 186.4 184.6 182.6 180.1 176.9 179.9 179.2 178.2 177.1 173.3 176.9 178.2 178.5 176.5 167.8 167.2 175 191.2 200.5 202.8 191.1 188.5 192.6 211.1 225.2 241.2 253.2 263.2 273.4 284.5 294.8 302.5 307.4 310.9 311.6 311.3 314.4 319.3 321.1 321.4 319.1 315.3 314.6 315.9 315.9 316.1 315.9 317.2 316.1 309 297.1 293.9 305 311.2 309.8 302.2 296.9 298 300.9 309.3 316.4 324.3 318.4 330.3 326 320.5 312.8 305.2 302 300.3 299.2 298.3 297 296.1 296.5 296.6 294.2 289.7 283.9 276.5 271.2 271.7 271.3 266.8 264.4 268.3 273.4 279.1 284.4 286.5 287.2 286.2 285.9 284.6 282.7
327.8 322.7 315.2 308.5 299.7 287.3 280.3 282 282.4 283 281.9 276.4 278.8 276.7 272.7 267.9 261.6 255.1 249.7 242.2 239 239.4 239.6 241 243.3 245.7 249.8 254.7 266.9 280.6 285.2 279.8 265.9 254.3 248.7 247.4 249.1 255.2 257.8 259.8 260.2 262.4 264.6 267.5 270.6 272.5 272.8 272.3 271.4 269.3 267.1 264.9 260.7 252.5 236.3 228.6 224.3 225.3 233.4 241.4 250.9 255.4 256.1 256.5 256.8 255.9 254.9 254.2 252.5 250.9 249.2 249 244.9 232 219.1 219.4 221 222.8 223.4 220.7 216.4 208.6 203.3 201 202.1 199.6 193.8 190.3 186.1 184.1 184.3 183.8 186.4 188.4 188.6 186.2 185 184.4 186.2 186.4 187.7 185.2 183.2 184.2 183.2 182.5 181.4 178.8 177.9 174.5 174 171 170.8 171.2 169.9 169.5 168.5 167.7 167.8 167 168.4 175.9 191.1 199.3 205.4 192 185.5 189.7 207.7 223.3 240.8 254.7 264.4 272.8 282.7 287.2 292.6 296.9 299.6 302 304.7 312 317.6 319.9 320.1 319.6 316.9 315.1 316.8 319.9 320.3 323.1 325.5 326.8 321.6 308.5 298.7 299.2 306.2 307.4 301.7 299.5 300.9 307 314.8 322.2 328.8 334.8 330.4 323.7 318 310.4 305.7 304.2 303.6 304 304.1 306.3 308.9 308.4 304.2 298.7 291.2 283.7 275.8 271.3 269.9 269.5 267.2 263.2 263.6 267.9 274.2 280.5 284 285.1 284.7 283.5 282.5 280.7
335.4 329.7 322.5 314.1 305.5 292.2 279 279.2 278.9 282.2 280.5 273.4 268.9 271.1 271.5 268.3 263.4 257.2 251.6 245.9 240.2 238.6 235.8 236.6 237.7 240 243.3 247.5 255 270.3 281 281.6 273.5 261.6 251.7 248.9 249.8 255.1 259 262.3 265.1 266.6 268 270 272 272.8 273.5 273.1 272.4 270.1 267.7 265.7 263.1 256.4 243.8 234.1 228 227.3 230.3 235 240.9 247.3 249.3 250.1 251.6 253.5 253.7 252 250.7 247.8 246.4 245.5 238.6 228 220.7 218.1 216.5 218.5 216.4 211.6 207.6 210.6 212.5 205.8 198.6 197.1 197.9 195.6 192 185.9 182.9 181.6 181.6 183 183.7 181.5 180.4 179.6 182.4 183.5 183.7 183.9 179.8 180.7 179.3 177.6 177.8 176.3 175.2 172.7 171.5 170.1 169.6 169.8 169.8 169.8 169.7 168.7 166.5 166.7 166.3 174.2 188.2 194.5 202.9 200.3 181.7 183.5 197.2 213.4 235.7 251.4 263.5 268.6 275.6 279 282 285.8 290.5 294.2 301.2 311.6 315.6 318 319.5 320.1 318.9 317.7 319 323.5 324.7 327.4 330.9 335.5 329.5 317.4 307.6 300.9 301.5 305.1 302.9 301.8 305.2 308.5 315.9 323.9 330.1 332.7 329.3 322.8 314.8 312 310.1 308.9 309.4 315.8 319.9 322.1 320.9 315.3 306 297.5 288.5 280.3 274.3 272.2 269.8 268.2 266.4 262.8 261.1 262.9 269.3 276.7 280.7 282.2 281.8 281 280.3 279.5
338.2 331.3 324.2 316.2 308.1 296.9 283 274.2 274.8 279.1 277.9 270.9 261.4 265.1 269.3 267.8 263.8 258.6 252.9 248.5 241.6 237.2 235.3 233.5 233.4 235.5 238.3 242.2 247.3 259 274 279.3 276.3 267.3 258.6 251.6 251.4 254.9 258.3 262.5 267.7 270.8 271.4 272.3 272.3 272.4 272.9 272.3 271.5 269.8 267.3 265.7 264.5 260.2 250.8 238 231.8 230.2 231.7 233.8 236.3 239.8 242.4 247.1 251.4 252.3 251.7 250.4 247.7 243.9 239.7 236.8 230.5 223.8 220.7 217 214.6 214.4 213.3 212.9 217.1 220.9 218 213 207.7 205.4 201.3 196.5 191.8 186 182.9 181.5 180.4 179 178.5 177.5 177.7 176.8 176.6 177.3 177.7 176.8 175.3 174.5 173.3 172.7 172.4 171.8 171.3 170.8 170.2 169.5 169.2 168.8 172.5 178.3 173.4 171 172.5 169.3 165.8 165.4 176.7 185 194.3 198.5 181.2 178.5 188.6 204.6 227.2 244.6 258.1 262.5 267.3 270.3 273 277.8 282.5 292 301.5 310.4 313.5 317 320.4 322.8 324.6 324.4 324 326.4 327.4 330 333.2 335.9 334.4 327.4 318.4 308.4 303.3 303.9 305.4 305.2 307 309 314.7 324.2 329.2 332.5 330 323.9 321.1 320.9 319.8 329.4 339.3 336.6 334.8 331.3 325.1 316.9 306.6 297.3 288.9 280.9 277 273.1 269.4 268.5 266.4 262.9 260.5 260.2 265.4 272.3 276.3 278.8 278.8 278.8 278.1 276.2
333.8 328.8 322.7 315.1 307.3 298.5 287.6 272.8 269.8 275.2 275 269.8 260.2 259.7 264.5 265.3 263.2 258.5 253.8 249.5 246.3 240.7 236.9 232.4 230.7 231.4 233.7 236.7 241.8 249.9 265.2 274.2 276.4 271 264.6 257 253.5 254.6 255.7 260.4 267.5 271.7 272.7 272.5 272.2 272.2 271.9 271.2 270.1 269.1 267.1 265.6 265.2 262.1 254.5 241.9 238 233.5 234.3 239.3 242.3 243.9 247.4 248 250.2 250.6 249.6 248.7 244.6 238.5 233.2 230.1 225.9 222.8 221.3 218.9 216.9 215.2 220.3 222.1 222.8 221.2 218 214.1 207.7 199.5 192.4 189.6 186.5 184.9 183.5 182 181.3 180.5 179.4 178.3 177.8 177.1 176.7 175.8 174.6 174.5 173.6 173.6 172.8 172.9 173.6 173 172.6 172.4 172.5 172.2 172.3 171.7 177.5 184.2 182.7 180.6 178.9 176.3 170.3 164.3 165.4 173.3 180.6 184.9 172.5 174.2 183.8 197.4 217.3 234.2 246.3 252.2 256 261 264.6 269.9 280.7 292.2 302.3 308 312.2 316.2 320.1 323.4 326.2 328.3 327.7 326.3 327 330.3 335.1 340.8 340.6 333.4 326 314 306.8 305.8 306.7 307 308.5 310.6 315.3 323.9 329.6 332.5 331.2 329.1 329.2 331.2 346.9 339.9 340.5 339.4 337.6 333.3 328.2 322.5 314.7 305.9 295.9 286.7 279.4 276.8 272.7 270.9 268.4 264.9 260.7 259.2 261.6 266.7 271.4 274.9 276.3 275.7 276.2 278.2
326.7 323.3 318.4 313.1 307.2 300.4 291 279.9 265.2 271.5 270.9 267.8 260.1 257 258.4 262.2 263.8 260.4 255.4 251.5 249.7 246 240.6 236.4 231.2 228.4 229.2 232 236.8 242.1 252.7 265.1 270.9 269.6 264.9 259.8 253.8 252.4 251.9 256.6 263.2 268.4 270.5 270.2 270.5 270.6 270.3 269.8 268.6 267.6 265.8 265.3 265.2 262.4 256.5 246.7 239.9 238.8 240 244 248.3 249.7 248.8 248.3 247.9 248.7 248 246.4 241.7 237 234.4 233.8 230.4 227 223.2 221.4 219.4 219.3 222.1 224.4 223.6 220.5 216.3 211.1 205.9 200.1 195.3 189.3 188.1 188.1 190.8 188.5 189.9 189.1 185.5 181.5 179.1 178.3 177.1 176.5 175.8 175.6 175.8 176.7 175.3 173.4 180.2 182.7 182.4 184.3 180.2 179.4 179.2 173.9 184 186.9 184.2 180.5 178.1 175.8 172.5 166.1 164.2 164.4 167.3 170.5 167.7 167.7 177.7 188.1 203.9 220.7 232.3 239.9 246.5 252.3 255.2 265.8 278.6 291.2 300.1 306.5 309.8 313.6 318.3 322.6 326.2 328.1 326.8 323.6 325.1 329 334.7 340 339.9 335.5 328.9 319.2 313.3 310.1 310.1 310 309.8 311.7 316.8 323 329.5 333.1 333.4 332.4 331.2 332.1 333.1 334.7 336.3 337.7 337.9 336.3 334.1 330.9 323.5 315.2 305.3 294.6 285.2 280.3 275.3 272.2 270.8 267.8 264.1 258.9 258.7 260.2 265.1 270.1 273.4 274.3 277.6 279.3
315.9 314.7 312.7 310.2 308.2 303.3 295.9 284.3 266.6 261.8 265.2 261.6 258.8 255.3 258.3 264.2 265.1 262.9 258 254.4 253.1 251.2 247.7 242.5 236.2 228.2 226.2 228 231 236.2 243.4 254.4 260.4 264.5 263.3 258.8 252.7 249.5 248.5 250.4 255 261.2 265.7 267.2 268.7 268.8 268.2 267.9 266.4 266.3 264.7 264.4 264.6 262.6 257.8 249.1 242.9 244.4 245.7 247.8 249.7 250.3 248.4 247.1 246.8 246.4 246.4 245.7 241.3 240.8 243.3 242.3 237.5 233 229.9 227.3 225 223.9 223.8 224.7 223.1 219.9 216.7 215.4 210.7 206.1 203.9 191.4 197.2 201.4 201.5 197.7 196.3 193.9 189.2 183 179.9 179.7 182.8 183.4 181 180.8 180.4 180.3 179.2 174.2 178.7 185.9 187.4 187.1 185.4 184.2 181.7 175.6 184.4 186.6 183 179 175 173.2 171 169.2 165 163.1 163.7 164.6 164.6 165.9 173 180.7 192.6 207.8 219.4 228.8 235.5 242.7 252.1 262.1 274.8 287.4 296.7 302.4 305.3 310.8 316.1 320.3 323.9 325.7 324.6 320.5 321.1 325.8 333.9 338.7 339.5 337.2 331.8 326.7 324 319.7 316.1 313.6 312.6 313.6 317.9 324 329.5 332.9 333.6 332.3 330.4 329.7 330.1 331.4 333.5 337.3 340.5 341.8 339.6 335.1 328.7 322.5 310.8 302.4 292.9 285.3 278.8 273.7 271.5 268.4 265.5 260.4 258.6 257.3 259.5 264.5 269.3 273.1 277.5 279.5
306 304.6 306.2 307.4 306.9 303.9 297.5 287.2 272.7 260.7 257.1 255.2 253 252.8 258.6 264.7 265.3 263.9 261.6 258.7 257.1 255.5 253 249.1 243.8 238.9 231.3 224 225 229.1 234.6 239.6 246.2 254.9 257.5 255.7 249.5 246.1 244.4 244.8 247.2 253 259.5 264.3 267.1 266.8 264.8 264.3 262.8 263.6 262.5 262.5 263.5 262.3 257.8 251.5 246.1 246.4 246.8 247.7 248.7 248.2 246.7 245.8 245.5 245 245.1 245.7 246.6 248.3 250.4 249.1 245.7 240.6 236.2 233.5 233.5 229 227.7 226 223.4 220.3 221.1 218.1 213.5 209.3 199.2 199.5 204.8 208.7 206.2 202.3 198.1 193.3 187.3 182.8 181.5 186.1 190.2 190.1 187.4 185.1 183.3 181.5 180 175.4 175.9 181.5 185.8 187 186.4 185.2 183.4 178.4 184.2 185.9 182.6 178.4 173.3 169.5 168 167.1 165 163.7 163.5 163.9 162.7 162.3 166.9 174.4 181.8 193.7 205.8 217.5 225.2 233.5 245.9 256.8 268.8 279.7 288.7 293.7 300.4 307.7 313.5 317.8 320.4 321.7 321 316.5 316.1 322 328.7 336 337.8 337.6 336.6 335 333.5 329.7 325.6 322.2 319.8 317.9 320.9 324.6 328.4 331.7 332.4 331.2 328.3 326.4 327 329.6 333.5 337.6 341.3 343.2 341.9 337.7 332.2 325.7 317 309.2 302.1 293.9 285.3 277.8 274.5 273.1 270.8 265.2 259.8 255.8 255.9 259.5 264.6 271.1 275.4 278.2
297.1 294.5 297.9 302.7 305.6 303.3 298.8 291.6 279.5 268.3 257.9 252.8 251.4 250.7 255.5 262.5 264.3 264.2 262.7 261.1 259.7 258.6 256.2 251 246 240.9 235.8 226.6 221.9 221.1 225.8 229.7 232.9 239 248.2 248.6 244 240.5 239 239.3 242.4 246.5 255.8 261.7 265.7 265.4 262.7 260.8 258.6 260.1 260.9 259.5 260.3 260.1 256.5 251.1 246.6 244.1 245.1 245.4 245.8 245 244.3 244.3 244.2 243.8 244.7 245.8 247.8 250.8 254.2 253.4 251.6 246.9 241.8 241.4 238.8 235.6 231.4 227.6 224.3 222.3 220.5 217 210.6 201.4 201.8 209.4 213.2 212.6 207.4 201.1 195.1 190.3 186 184.5 193.1 194.2 195.1 192.8 188.5 184.5 181 178.9 177.7 176.1 176.1 179.6 184 186.7 186.8 185.5 182.7 181.8 183.3 185.5 183.7 178.2 172.8 169 167.2 166 167.2 168.9 170.5 170.5 165.7 161.8 162.3 167 175 182.4 191.2 200.8 213 224.4 238.1 247.6 258.6 270.1 278.6 287.8 296.6 304.6 311.1 315 316.8 316.9 316.6 312 310.4 316.4 324.1 332.9 337.1 338.5 341.4 343.2 341.9 339.7 336.5 331.7 326.5 322.5 322.3 323 326.3 329.8 331.1 329.3 326.1 323.1 324.5 327.4 332 336.4 340.3 343.2 342.6 339.6 335.2 329.4 325.1 318.5 311.6 303.5 292.5 283.8 278.9 277.8 275.3 268.7 261.5 257.3 253.3 256.3 261.6 268.7 273.1 276.7
288.9 287.7 291.4 298.5 302.6 301.9 298.9 292.9 282.6 271.6 261.7 253.2 250.3 248.7 249 254.8 259 261.1 261.8 260.2 259.8 258.8 255.9 250.1 245.1 239.9 234.6 230.6 221.9 220.7 220.4 222.7 224.2 227.3 232.4 237.4 231.1 230.6 231.8 235.3 239.3 247.3 255.3 261.4 265.1 264.9 262.7 259.1 256.2 257 257.7 256.9 257.8 257.4 254 249.3 245.1 242.7 240.3 242.1 243.6 243.1 241.5 242.1 241.4 243.6 244.8 245.6 247.5 252.7 257.2 256.8 255.6 252.7 251.6 248 243.6 238.9 234 228.9 225.5 222.8 217.9 211.3 206.5 213.1 213.3 216 217.7 215.3 209.4 204.1 200.3 193.9 188.6 189.1 200.6 200.6 196.7 193.1 186.3 183 181.3 179.3 178.5 177.8 177.4 179.9 182.1 186.7 187.6 186.9 185.7 185.3 184.9 185.7 185 180.6 176.2 173.8 171.1 166.5 175 183.9 183.3 183.3 176.2 165.4 160.5 163.4 166.9 173.7 178.2 187.3 200.5 213.2 226.6 236.9 248.3 260.3 273.1 283.3 294.3 303.2 308.3 310.9 311.9 312 311.2 305.6 303.1 309 317.2 327.5 334.3 339.1 344.1 347.1 348.5 349 343.7 337.5 329.9 324.1 320 320.1 323.4 327.1 329.3 328 324.9 321.4 322.5 325.4 329.2 334.3 339.5 342.2 343.2 340.5 337 331.9 328.9 324.9 318.4 310.5 300.2 289.6 283.8 281.4 278.2 271.6 263.9 259.2 254.9 254.4 258.1 264.1 268.6 274.6
282.2 282.4 285.7 293.5 299 299.8 297.9 293.9 286.8 276.3 267.2 255.1 250.3 247.1 246.1 246.3 252.3 258.1 258.8 255.8 253.1 253 252.7 248.9 245.7 240 236.3 231.2 226.1 219.5 219.5 218.6 219.4 219.8 222.2 225.3 222.2 228.7 232.6 238.3 242.8 249.7 256.9 261.3 264.3 265.5 264.5 260.1 255.1 253.8 254.8 254.4 254.5 254.1 251.1 247 243.7 240.8 238.2 237.7 242.1 241.4 239 238.8 238.8 239.5 242.5 242.6 245.7 252.6 258.2 259.1 257.9 256.8 255.6 251.3 245.7 240.3 234.1 227 224.4 222.1 212.5 212.1 219.8 223.8 221.7 222.7 221.2 217.3 212.3 207.7 202.8 193.3 188.5 201.3 205.3 202.1 193.5 189.9 188.3 189.2 186.9 185.5 184.1 181.7 179 182.2 187.9 190 192.4 191.2 190.5 189.5 188.4 187.2 185.4 182.3 180.3 177.8 173.6 168.2 169 178.7 183.5 184.6 179.5 167.8 160.5 160.6 161.3 166.9 170.1 179.6 191.6 203.4 214.6 224.6 236.7 250 264.2 281.3 294.2 301.1 304.8 305.8 305 305.1 303.6 296.3 292.7 300.7 310.2 321.2 331 339.1 343.7 349.3 351.7 351.8 345.6 340.8 332.7 325.1 319.6 317 320.1 324.2 326 326.3 324.1 320.3 320.3 322.8 327.2 332.3 338.6 342.2 342.9 340.1 337.1 333.1 329.4 326.2 321.9 313.9 304.8 296.2 287.8 283.8 279.7 274.2 266 259.7 256.5 253.3 255.8 260.4 265.6 271.2
275.5 277.2 280.6 287.8 294.4 296.7 296.7 294.8 289.9 282.7 274.5 264.4 255.1 249.2 243.8 244.2 246.7 252.7 253.2 247.3 236.9 239.8 240.2 244.6 240.5 228.7 229.8 226.5 220.4 219.1 217.8 217.8 217.3 217 216.2 216.1 216.7 224.3 232.2 239.3 245.2 251.1 256.9 261.5 264 265.6 264.8 261.7 256 249.6 250.9 250.1 249.8 250.1 248.8 246 243.5 239 235.9 233.9 236.5 238.4 236.4 234.3 233.5 233.1 236.2 237.5 243.2 251.7 257.5 259.4 259.2 257.9 255.3 251 244.6 239.1 232.8 225.1 221.3 216.2 216.3 223.4 225.7 227.8 227.3 225.7 222.7 218.8 213.2 207.9 198.3 191.1 196.1 209.8 208.9 199 196.7 195.1 196.6 201.1 197.9 194.9 189 184.4 182.1 183.8 191.3 196 198.6 196.4 194.7 192.4 190 187.9 185 181.6 178.6 176.1 173.4 168.9 168.2 173.2 178.9 181.8 181.8 174.8 164.1 165.1 160 159.5 160.8 172 181.8 190.3 199.4 209.5 220.9 235.5 256.8 278.1 290.1 297.2 300.2 299.4 297.4 295.9 291.1 284 288.4 293.4 303.4 315.8 328 337.7 344.8 349.3 350.5 349.2 345.9 342 337.3 328.6 320.4 315.6 316.3 320.8 323.2 324.1 322.5 318.9 318.6 321.4 326.1 332.3 337.5 339.9 340.4 339.1 335.6 331.4 329.1 326 322.7 316.6 308.6 299.7 292 285.7 279.7 275.2 267.8 260.6 257.1 253.8 253.3 256.6 261.9 267.9
269.7 271.9 275.9 281.9 288.8 292.5 294.6 295.7 291.9 285.4 278.5 270.9 261.8 251.8 245.4 241.9 242.8 246.5 242.9 232.3 227.2 227 224.9 226.7 221.1 220 219.7 219.1 218.6 218.2 217.7 217.4 217 216.7 216 215.1 215.3 215.2 227.7 236.7 241.6 246.8 254.8 260.6 263 264.5 264.7 261.4 255.8 248.8 246 246.4 247 247.9 247.4 245.6 242.8 237.9 234.9 232.6 230.4 233.4 232.7 229.7 229 230.5 232.1 234.8 241.1 249.8 256.6 258.6 259.5 258 255.1 250.3 243.7 238 232.7 227 222.9 218.1 220.7 226.3 229.7 230.6 229 226.4 221.3 215.5 209.1 203 197.6 196.5 206.7 216.7 212.4 201.8 206.2 202.4 206.5 210.6 208.1 202.9 191.9 190.3 188.5 186.2 193 201.4 202.8 200 195.9 192.1 188.5 183.7 180.7 177.4 174.9 172.4 170.6 168.2 169.1 170.5 175.3 179.9 183 188.2 181.7 182.2 175 162.7 157.9 161.3 171.5 178.7 184.8 195.7 207.5 226.5 247.8 270.6 286.1 291.8 294.7 292.5 288.8 285 278.4 276.9 282.1 288.6 299.2 311.7 325.1 336.2 343.8 347.8 347.3 347.3 344.8 341.7 338.4 332.1 322.6 314.8 312.1 316.2 320.1 321 320.3 318.1 317.4 320.4 325.1 331 334.8 336.9 338.5 337.9 333.4 330.1 328.1 326.1 323.4 317.8 310.9 301.5 292.4 284.9 280.3 275.1 267.8 260.9 257.2 255.1 252.8 253.4 257.9 265.4
266.7 268.6 272 276.5 282.7 287.8 292.1 293.7 291.6 285.9 279.4 273.2 265.7 254.6 246.7 240.7 241.6 240.3 230 231.4 240 246.2 232.5 222 219.8 219.8 219.4 217.7 217.9 217.4 217.8 217.6 217.1 216.4 215.4 215.4 215.1 214.6 216.2 227.3 232.6 239.7 250.4 256.6 259.2 260.6 260.6 258.1 252.4 246 242.9 244.7 245.9 246.7 246.5 245.4 243.2 238.8 234.5 230.6 227.9 226.9 227.8 225.5 226.6 227.8 230.1 234.4 242.4 250.8 255.8 257.1 258.5 257.5 255.8 251.7 245.6 241.7 235.6 230.1 225.6 221.9 223.1 228.6 232.1 232.2 230.4 226.5 219.8 210.1 207.1 209 202.8 200 214.4 221.7 217.3 207.6 211.4 210.8 214.8 215.6 211.5 202.6 202 202.3 197.3 192.4 201.5 205 204.2 200.1 194.2 185.6 180.5 177 174.6 173.9 172.4 171.4 171.5 170.5 171.1 171.4 174.8 178.8 183.1 189.2 192.8 192.2 185.1 172.7 160 157.2 164.6 171.2 177.4 187.1 198.1 216.5 237.5 260.2 277 285.5 288.3 285.6 278.5 272.5 269 273.6 278 284.9 296.5 310.5 325.4 336 342.9 346.2 344.8 344 342.5 340.7 338.8 334.7 328.6 317.8 309.9 310.8 315.5 317.6 317.8 317.2 316.7 319.7 324.8 329.9 333.8 335.2 336.1 335.3 331 328.8 326.7 324.3 322.5 318.4 310.7 302.2 292.6 284.3 279.3 273.7 267.7 261.1 257.5 256.5 254.8 252.5 253 262
263.8 264 266.3 270.6 276.3 282 286.7 289.7 288.3 284.6 278.8 273.7 267.2 257.4 247.3 239.2 240 236.9 234 245.6 257.8 255.3 246.7 241.5 236.4 227.9 220.9 219.5 220.7 223.5 218.5 217 216.3 222.5 227.8 222.4 216.2 214.2 214.1 216.2 222.3 230.8 241.6 248.3 252.2 251.4 252 249.5 245.2 241.9 242 243.9 244.7 245 245.1 244.6 243.7 239.7 234.6 232 227.5 224.5 223.8 223.4 223.3 225.3 230.8 235.4 241.6 248.8 253.9 255.5 257.3 257.7 254.7 252.9 249.8 246.5 240.6 233.7 228.9 226 226.6 230.8 233.6 232.9 230.2 226.2 221.5 211.5 217 215.8 204.7 202.8 216.3 225 221.6 213.5 213.7 218 222 221.3 213.7 208.3 212.6 211.3 205.2 197.2 209.2 208.3 205.9 201.2 193.9 183.2 180.5 182 186.8 184.4 177.2 174.7 175 175.4 174.2 174 176.9 179.9 184.3 189.7 195.8 196 189 175.3 160.9 157.4 159.2 163.8 171.5 181 189.7 206.3 225.8 249.7 266.6 276.5 278.6 276 265.3 261.2 262.5 268.4 275.3 284.9 297 312 328.1 337 342.3 343 340.8 339.9 339.7 339.5 338.3 336.5 331.7 322.6 312.4 307.2 309 312.7 315.8 315.6 316.1 318.9 323.6 328.4 332.9 332.8 332.9 331.8 329.7 327.6 324.9 322.1 320.4 316.1 310.2 300.7 290.7 283.6 278.5 273.9 270.8 269.4 265.7 263.3 258.3 254.4 252.1 256
263 263.5 262.6 264.1 268.9 273.3 276.7 280.3 282.3 281 277.3 273.4 268.3 260 247.1 238.1 236.1 242.7 252.2 258.9 262.5 260.4 256.7 257 253.1 242.9 231.4 226.5 227 226.4 227.3 224.7 227.6 233.6 235 230.9 221 215.4 213.8 213.5 214.2 220.6 229.4 236.3 240 238.8 239.8 241.4 239.5 238.7 240.2 242.2 242.3 242.5 243.1 243.7 243.6 241.2 237.3 236.3 229.3 224.6 222.6 221.1 221.2 224.8 230.6 235.4 237.7 244.5 250.2 253.3 255.8 256.4 255 252.8 250.4 247.9 243 238 235.4 232.2 231.4 234.3 234.9 231.1 227.6 220.8 216.3 221.8 223 218.4 210.4 210 217.8 225.5 225.5 215.7 223.8 225.8 230.8 227.5 220.8 218.7 218.7 214.9 203.3 206.1 211.5 208.9 204.4 197.8 189.7 192.9 193 196.6 196 188.5 181.7 181.4 184 182.9 179.5 176 181.9 186.3 190.3 193.4 198.7 200.1 192.8 178.9 163.5 157.9 156.5 160.5 165.5 174.6 184.8 197.9 217 235.3 253.6 260.6 265 264.8 253.7 250 257.2 265.1 275.2 287.5 302.4 318.6 331.9 338 339.1 337.6 336.9 336.5 338 338.4 337.7 336.1 332.4 326.2 316.5 308.5 304.7 309.9 314 315.8 314.1 316.4 321.4 326.2 331 331.8 330.4 329.1 327.2 325.4 322.2 319.8 317.1 313.7 308.2 300.6 292.8 283.2 279.9 277.9 277.2 275 271.1 265.6 264.3 260.4 253 250.5
262.8 262.5 262 261.4 262 261.8 265.5 264.8 272.2 274.6 272.4 270.8 268.7 262.3 248 237.6 240 242.4 249.2 255.7 260.8 262.9 264.3 266 265 258.8 248.5 243.2 236.3 233.2 233 230.2 234.6 237.6 238.2 234.5 226.5 218.9 216 213.7 212.9 213.5 215.4 222.6 224.4 228.3 232.3 237.7 234.5 235 238.8 240.6 240.4 240.8 240.9 242.3 243.1 242.2 241.4 240.6 234.8 226.2 221.9 219.7 218.9 221.9 226.8 229.7 232.3 239.8 247.7 251.3 253.7 255.2 253.9 252 250.4 248.6 245.8 243.1 240.2 239.3 240.1 239.7 235.9 230 224.9 220.5 219.5 226.9 225.3 220.8 214.5 212.1 221 227.8 231.2 221.3 228.2 233 234.6 232.3 228.1 225.1 220.5 210.4 211 214.3 212.1 206.4 198.7 194 196.3 204.2 208.7 208.9 201.5 196.5 188.2 190.6 192.6 188 181.9 181.8 183.4 189.6 196.7 201.2 205.2 205.5 199.9 186.5 168.9 159.4 156.5 156.2 160.3 168.3 178.4 189.1 201.5 214.2 229.6 242.9 251.8 252.6 241.7 243.5 253.5 266.2 277.4 292.5 307.1 323.7 332.7 336.2 334.6 333.9 333.7 334.5 335.3 335.5 334.9 333.2 330.7 326.8 322.1 315.4 306.1 303.2 310.2 312.9 311 313.9 318.8 323.5 329.2 330 328.5 325.7 324.2 322.3 320.8 318.5 316.3 313.2 307.2 302 295 289.3 286 282.6 279.2 275.5 272.3 269.1 267.6 265.2 258 253.4
263.4 262.8 262.3 262.2 264.5 264.6 266.7 259.6 254.5 260.2 261.6 264.3 265.5 262 250.2 237.9 238.4 241.2 242.3 248.2 256.5 262.1 265.6 269.7 270.8 268.8 261.9 255.6 247.3 241.7 238.6 235.9 238.3 240.4 239.3 235 227.2 222.2 224.8 221 214.3 212.7 212.8 213.7 216.8 222.5 230.6 234.4 229.9 232.8 238.1 239 238.4 238.9 239.5 240.7 242.6 244.4 245.5 246 242.6 229.9 222.6 219.9 217 217.3 220.2 222.6 227.1 236.3 244.5 248.2 250.2 251.5 251.5 250.2 249.1 248.4 248.2 246.5 244.6 244.6 245.1 243.9 239.6 234.6 227.1 222.9 226.5 230.3 225.6 218.6 221.4 215.4 222.7 229.8 232.9 228.3 231 235.9 237.3 234.6 231 226.8 219.8 215.2 218.3 214.1 206.7 200.2 197.3 197.5 198.9 204.6 213.7 216.1 211.8 205.8 198.9 200.6 199.6 193.2 187.9 187.4 190.7 193.7 201.6 206.3 207.9 209.5 208.6 199.3 180.6 162.3 156.9 156.1 155.3 161.8 172.6 182.5 189.4 197 210.1 228.8 236.1 235.7 231.1 238.8 253.9 266.3 279.5 295.1 311.2 322.8 329.1 331.1 329.7 329.9 331 332 332.7 331.9 330.7 329.2 327.3 325 321.7 317.9 308.9 300.1 302 305.1 305.1 310.3 315.4 321.5 327.1 327.9 327.1 324.7 322.9 321.8 320.4 319.5 318.7 315 311.4 306.4 301 294.5 288.8 284 279.4 274.9 272.4 269.1 269.6 265.6 261.1 254.6
264.1 263.9 264.4 264.1 274.3 277.7 279.9 273.9 261.4 248.2 247.6 249.3 256.9 258.3 251.7 238.7 238.8 241.5 242.8 245.5 253 259.4 264.2 270.3 274.8 274.7 271 264.1 257.6 249.9 244.8 240.5 241.2 241.8 240.2 236 230.1 230.8 233.6 232.3 221.7 213.9 212.4 214.7 214.2 214.1 219.6 227.2 224.8 232.1 237.4 237.5 236.3 236.4 240 242 243.4 246 249.1 249.6 247.7 234.6 224.9 220.1 217.1 215.6 216.8 218.8 223.3 233 240 243.9 245.4 245.6 246 245.9 246.6 247.7 249.1 248.8 248.4 248 249.1 247.9 243.7 235.6 228.5 228 230.5 230.3 224.9 221 226.9 222 222.6 229.2 233.5 233.1 233.3 238.1 238.8 236.3 232.9 226.2 220.3 223.3 221.5 213.6 207.3 207.9 207.4 206.3 207.8 212.7 219.4 219.6 217.5 213.3 209.9 209 205.7 204.2 199.4 195.8 196.9 202 205.5 207.4 209.5 210.2 212 209.6 194.6 169.8 158.1 155.7 154.7 155.5 163 173.8 179.4 184.9 194.8 202.7 209.3 216 221.8 239.2 254.7 265.1 278.8 293.8 308.2 316.1 319.8 321.8 324.2 326.9 328.5 329.8 329.2 327.4 325.4 324.2 322 321.6 319.5 316.8 311.7 301.3 298.6 298.9 302.3 307.8 312.7 319.5 324.5 326.8 326.1 325 323.3 321.9 321.1 320.5 319.2 316.9 313.5 308.3 302.2 295.3 288 282.5 279.9 277.2 273.5 268.4 264.8 260.4 255.4 251.9
264.7 264.7 264.9 264.9 274.3 279.3 281.3 281.1 277.3 261.8 243.2 243.4 244.3 248.6 245.4 240.7 239.8 242 244.1 246.2 250.1 256.1 261.5 269.6 279.4 280.8 278.6 273 268.5 259.6 250.9 245.7 243.1 241.2 239.1 236.2 233.3 236.2 235.5 234 225.8 214.8 213.7 211.9 211.8 212.2 213.7 216 225.1 231.8 233.7 235.1 232.9 232.9 239.2 243 243.4 246.7 250.8 252.5 251.3 243.8 230 222 218.6 215.5 214 214.9 219.5 228 233.9 237.3 238.8 239.3 239.9 242.3 244.6 246.8 248.5 250.3 251 250.7 250.3 248.6 242.8 233.2 230.7 234.1 233.6 232 226.6 227.5 230.4 224.4 226.6 233.6 236 236.5 237.5 240.1 240.1 237.8 233 230.7 231.5 229.2 226.9 217.6 216.3 220.7 221.9 221.9 220.5 221 221 218.2 215.3 212.7 211.3 209 208.2 207.4 206.6 205 204.1 205.8 205.8 205.3 205.4 207 208.3 209.4 204.1 177.3 160.3 156.1 155 154.1 155.8 164.4 169.9 172.3 178.4 183.8 190.1 204.2 226.3 241.8 252.3 261 272.8 286.9 299 305.2 311.3 315.3 321.2 325.4 327.5 327.3 325.2 321.6 319.1 317.8 317.5 317.5 316.6 314.3 311.5 304.6 295.8 297.5 299 303.6 309.5 316.2 321.1 325 326.4 325.1 323.2 321.9 321.6 319.8 318.1 316.4 312.5 306.5 301.7 294.9 288.1 284.1 281.7 277.7 272.8 266.8 259.8 258.9 262.1 258.1
271.9 266.6 265.5 265.8 273 279.1 280.8 281.4 279.2 272 246.8 240.7 241.3 242.3 241.4 239 243.5 245.1 245.6 247.7 250.3 254.1 260.6 274.2 284.1 286 284.9 281.1 275.3 268.2 257.8 250.2 243 239.1 236 233.7 231.7 232.1 231.1 227.1 219.7 220.5 221.8 212.4 211.8 210.4 212.4 213.7 218.3 226.5 230.3 231 229.4 230.1 236.6 241.2 242.2 246.7 252.5 255.9 255.8 251.1 238.7 224.6 220.2 216.7 214 212.7 214.6 221.5 227.1 231 233.9 235.9 238.1 240.6 243.7 246.2 248.7 251 251.9 251.7 250.6 248.3 242.4 236.5 237.8 237.6 236.3 233.5 231.2 232.4 233.2 226.7 229.8 235.3 237.8 238.4 239.5 240.6 240.7 237.5 236.7 235.7 234.1 230.7 224.7 227.6 228.5 229.5 231.8 229.4 227.4 224.6 218.9 213.7 207.5 204.3 204.1 204.4 204 202.9 202.2 202.7 202.1 202.6 202.1 200.4 199.6 199.7 200.9 200 196.9 184.7 163.5 156.9 154.6 154.4 153.6 155.4 159.5 162.4 163.9 162.9 180.3 203.2 222.5 237.6 248 254.5 265.3 276.2 287.2 295 304.8 314.2 320.6 324.8 325.4 323.7 320.2 316.1 313.1 313 313.4 313.8 314.1 312.6 310.1 306.1 297.9 294.7 295.3 299.4 304.9 311.3 317.1 321.8 324.8 323.5 321.2 320 319.9 318.5 316.7 314 309.7 304.5 299.4 294.8 289.9 285.5 280.7 276 269.2 264.1 263.8 270.8 269.1 263.6
278.3 273.5 267.2 267.6 270.1 277 278.9 279.5 277.6 269.2 250.4 241.6 240.3 240.2 240 241.5 250 250 248.4 250.2 252.1 255.6 263.1 279.7 288.6 290.6 288.8 284.8 279.3 272.3 260.2 251.5 243.4 237.7 233.2 230.9 228.2 227.3 223.9 221.2 225 231.5 236 221.1 212 210.4 210.4 211.8 211.9 219.8 224.5 225 224.5 226.7 234.4 238.9 239 244.7 252.5 260.4 259.6 254.2 246 230.9 221 217.6 216 212.2 211.6 216.3 222.6 226.9 231.1 232.8 235.5 239 242 245.2 248.1 250.7 252.3 252.3 250.9 247.6 244.4 243.4 240.8 239.9 237.7 235.1 235.3 235.2 234.2 231.4 231.1 234.5 237.8 239.1 239.9 240.8 240.7 239.7 239.5 238.1 235.2 231.4 231.6 234.1 235.1 235.4 234.3 231.9 228 222.6 215 206.2 200 194.5 195.6 196.4 196.4 193.9 193.5 194.5 196 197.4 197.7 193.6 189.5 190.8 193.9 192 183.3 173.7 163 156.7 154.9 154.7 153.9 153.1 152.2 151.7 155.8 159 169.1 189.6 208.4 226.4 240 247.2 256.2 264.7 274.5 289.3 304.8 315 320.7 322.9 320.2 316.7 313.9 310.5 309.7 309.8 310 310.8 311.6 309.8 307.9 304.3 299.2 293 289.7 293.4 298.8 305.2 311.1 317.5 320.2 320 318.7 318 317.2 316.1 314 311.6 306.8 302 297.8 293.6 289.6 283.8 276 271.6 265.4 263.1 273 276 273.6 267
280.6 277.2 269.1 268.2 269.4 274.1 277.4 277.9 276.4 270.3 256.4 257.5 256.9 253.7 253.7 256.6 258.8 258.9 257 256.8 257.2 258.6 267.5 283.7 292.7 294.3 291.9 287.7 281 273.7 264.4 251.8 242.7 237.1 232.5 229.2 228.1 225.3 224 224.3 230.9 237.4 242.7 234.3 220.4 211.2 210.7 209.5 210.1 212 217.5 216.8 220.2 225 232 233.4 234.8 242.5 248.6 257.1 259.8 255.4 249.5 237.7 221.1 217.5 215.8 211.4 210.3 214 222.3 224 227.4 231.3 234.6 239.1 241.5 244.4 248 250.6 253.5 254.9 253.9 250.1 248.5 246.3 243.8 241 238.2 237 237.2 236.5 235.2 234.4 234.3 235.4 237 238.4 239.7 240.3 239.8 240 239.9 238.7 236.8 237.2 237.4 237.9 238.8 238.4 236.5 232.2 226.2 218.4 210.8 204.2 201.9 196.1 188.8 186 183.4 181.9 181.1 181.8 185.1 190.2 194.1 191 181.4 177.6 182.8 181.2 170.1 163.5 158.6 156.2 155.8 155.5 155.4 156.7 158.5 152.2 151.2 154.8 164 177.1 196.2 210.8 226.4 236.2 245.2 257.4 272.6 289.4 303.4 311.5 316 316.2 313.4 310.4 307.5 306.7 307 307 308.8 309.6 309.4 307.5 305 302.6 299.1 294.4 288.7 287.9 293.9 298.1 304.9 311.7 315.7 315.1 315.4 314.5 313.6 312.8 311.1 308.8 304.3 299 293.9 290.1 284.9 278.8 272.5 270 265.3 267.7 277.2 279.7 277.7 269.9
279.4 276.5 271.2 269.4 269.2 272.5 276.4 278.2 277.3 273.7 265.5 268.3 273 272.9 272.8 271.9 271.7 272 271.5 266.9 266.8 265.7 271.4 286.8 295.2 296.7 293.8 288.9 281.6 274.8 265.5 253.7 244.4 238.7 233.3 230.1 228.2 226.5 225.6 226.3 230.9 238.7 246.1 244.9 232.8 223.9 213.7 209.6 209.2 210.7 210.4 211.5 215.1 224.6 226.6 227.9 232.8 240.2 247.2 249.9 254.8 253.3 247.5 238 221.9 214.4 211.8 209.7 209.6 212.5 216.2 221.8 227.8 231 235.4 239.1 241.5 243.9 247.7 252.1 256.6 260.4 259.4 254.5 250.8 247.8 243.7 240.8 239.1 238.3 237.7 236.9 236.8 236.4 236.1 236.3 236.7 237.7 239.1 238.9 238.9 239.2 239.4 238.7 239 239.8 240.8 241.2 241.4 240.6 237.9 233.9 224.6 215.5 214.7 212.2 206.9 199.5 192.6 188.1 182.3 178.3 175.6 174.3 175.6 180.5 189.3 189.3 181.6 169.6 168.8 167.6 162.6 159.4 157.1 159.7 166.9 164.4 157.4 160.4 160.5 158.6 150.8 151.3 159.1 168.4 182.5 196.3 208.8 223.9 240.8 258.6 273.1 287.4 298.1 305 308.9 308.3 307.6 305.5 304.5 304.6 306.3 308.1 309.2 308.6 307.9 305.6 303.2 300.1 297 290.9 288.1 284.1 287.9 292 297.5 305.2 309.6 311.4 311.8 311 310.1 309.3 306.9 304.8 301 295.7 291.5 288.9 286.7 284 279 273.2 268 270.6 278.3 282.5 282.9 278.5
279.1 277.9 274.2 271 270.5 272.6 275.7 278.5 279.2 278 273 274.3 280.5 284.1 285.8 287.2 285.5 287 285.2 275.2 274 273.2 276.1 287.2 295.9 297.5 294.5 289.8 283.1 274.3 266.5 257 245.7 239.4 235.4 232.9 229.5 227.9 227.7 227.9 230.5 237.7 246.5 249.6 249.6 241.9 227 214.2 209.9 208.9 208 209.8 211.7 217.8 221.2 227.3 233.5 236.9 242.8 245.5 245.3 245.4 243.7 237.8 227.1 214.7 210.4 208.5 209.7 211.8 214.4 222.1 228.5 232.6 236.5 238.1 240.9 243.8 246.9 251.9 259.5 263.6 262.8 258.7 251.2 248.2 243.5 240.9 238.9 238.3 237.8 237.1 237.1 237 236.4 235.7 236.2 237.1 237.2 236.9 237.1 238.4 239.9 239.8 240.3 241.3 242.1 242.6 242.9 242 240.3 235.1 226 224.5 222 217.5 212.2 205.6 205.2 195.5 188.2 181.6 176.8 174.7 172.8 171.8 177.7 182.2 173.2 166 163 161.5 162.1 166.5 166.9 172 176.6 170.3 162.3 155.7 154.7 150.9 149.7 150.3 158.3 164.9 172.2 186.5 199.8 218.4 238 258.3 272.4 284.2 293.3 300.3 303 302.9 301.2 302.9 305.5 307.6 309.6 310.1 309.5 308.1 306.5 303.9 301.8 298.4 294.1 289.8 286.1 284 283 286.1 289.3 298.6 304.5 306.9 308.4 307.8 306.5 305.2 303.8 302.7 300.4 298.4 297.3 293.7 290.3 287.9 282.8 273.5 268.4 271.8 279.9 287.3 289.7 287.2
