ncols 200
nrows 84
xllcorner 190000
yllcorner 800100
cellsize 50
422.7 398.9 378.7 359 343.8 325 303.6 289.9 280.4 274.3 267.3 261.8 254.8 232.5 218.5 202.9 190.9 178.8 164.8 157.8 156.8 153 154.1 146.1 144.1 143.5 144.9 145 146.2 147.4 148.6 150.1 158.1 177.2 186.6 196.2 220 234.8 236.5 243.7 264.6 301.3 322.8 345.1 361.9 374.8 412.2 451.4 478.1 496.1 518 532.9 551.7 583.6 617.7 623.8 654.1 694.7 731.4 762.4 787.5 801.3 805.3 806.1 799.7 785.8 753.1 725.1 696.2 669.4 647.8 630.1 614.7 594.5 566.2 545.1 530.4 512.2 493.3 480.9 477.5 475.2 471.2 466.5 458.6 463.1 466.5 473.6 482.5 494.3 498.7 497.2 489.9 483 485.9 497.7 504.3 504.1 516.1 525.5 529.1 509.2 488.5 464.6 446.4 437.5 420.5 404.4 392.1 381.3 373.7 365.6 349.6 337.4 321 293.3 288.7 278.7 280.5 279.6 284.6 281.6 286.4 266 237.2 212.8 191.7 177.1 172.5 185.7 198.2 193.7 199.5 211.4 214.1 200.3 217.7 245 254.1 265.2 258.7 262.5 278.3 299.4 295.7 285.2 288 282.1 290.4 297.6 277.7 300.6 317.3 339.5 348.5 359.1 371.4 386 391.8 397.5 404.2 397.7 400.2 397.5 405.3 416.6 434 433.3 434.7 432.2 435.8 435.9 440.8 436.5 433.7 428 433.8 445.9 445 439.5 441 428.2 426.8 427.3 410.6 397.7 382.3 371 365.4 355.2 348.8 350.7 355.5 356.2 350.9 334.7 320.5 302.6 314.4 319.5
396.1 374.6 356.1 340.8 326.6 307.1 293 281.2 278.8 266.9 257.8 241.9 219.9 214.8 201.9 186.7 166.7 155.7 153.3 147 140 135.5 141.2 141.4 142.8 148.2 155.3 147.1 146 147.5 154.5 157.3 153.6 153.1 163.6 177.3 203 210.2 211.9 230.5 251.4 273.3 288.1 306.2 316.2 350.7 394.5 436.4 457.1 467.3 489.9 492.2 530.8 551.8 573.7 595.5 644.4 680 712 741.6 771.2 784.5 790.8 787.6 786.8 762.5 731 702.9 679.1 658.4 638.7 622 613.5 598.2 582 561.8 545.3 525.7 503.6 491.8 488.2 483.3 476.2 469.3 473.2 476.7 479.3 488.8 497.2 505.5 513 504.1 496.3 494.2 496.7 504.9 516.2 523.7 541.3 550.6 538.3 501.4 477.5 460.5 442.6 425.1 409 396.3 383.1 371.5 367.2 357.7 346.4 340.3 320.5 315.8 303.8 301.2 303.6 298.1 291.5 289.7 276 259 242 218.2 198.2 184.2 176.9 194 204.5 215.2 220.6 220.4 214.2 202.2 202.2 218 238.4 242.1 247.7 234.5 245.6 277.6 280.2 271 262.6 262.5 272.4 282.7 266.4 291.7 307.9 330.4 332.3 336.1 349.7 371.6 369.2 368.4 369 375.4 368.7 375.9 377.2 388.7 396.8 403.4 407.5 410.6 411.6 412.5 417 413 411.6 409.1 413.9 426.5 423.7 419.8 417 411.4 406.8 408.1 399.1 384.7 371.5 360.7 355.9 346.9 342.2 351.3 353.6 345.9 335.9 326.4 316.4 305.5 308.9 317.7
368.6 348.1 330.4 318.9 310.9 294 280.9 287.3 282.9 269 258 241.1 220.1 196.1 179.6 167.4 153.2 143.9 142.2 132.5 136.1 144.9 144.6 144 145.9 167 168.3 159.6 151.7 150.2 172 196.5 182.7 156.4 153.9 170.4 180.9 184 192.7 218 237.8 247.9 262 271.4 300.3 333 364.9 407.6 425.9 443.2 452.8 477 500.7 510 536.7 583.5 623.8 660.9 684.8 721.7 751.5 757 767.5 776 782.9 760.2 726.6 703.3 682 658.4 643 632.8 626.2 616.1 601.7 585.3 564.8 544.4 523.9 506.4 498 492.7 485 483.1 488.4 494.3 498.5 505.8 514.8 525.2 518.7 509.9 511.5 517.1 525.2 533.7 535.2 551.1 570.3 568.4 540.6 516.4 482.9 454.6 441.5 424.9 413.9 408.4 383.9 370.5 363.6 355.3 350.5 348.6 344.4 335.8 317 315.6 316.7 316.6 304.7 291.1 286.7 265.5 239.2 222.7 207.1 195.3 182.8 187.4 204.1 218.4 214.1 211.1 205.3 197.8 199.8 203.3 224.7 231.4 235.6 225.6 222.5 248.2 260.6 248.9 235.6 241.3 262.5 273.6 261.1 287.6 304.1 320.5 313.7 314.5 333.2 357.4 351.2 347.6 343.1 346.6 347.1 342.5 353.5 360.3 370.3 380.8 383.4 390.5 384.8 389.3 391.2 392.5 389.2 385 389.4 398 399.2 396.7 393.2 392.1 388.4 388.6 380.3 369.9 358.1 351.1 344.6 335 339.1 348.9 338.2 328 324 317.4 310.7 302.3 306.4 314.4
346.7 324.1 293.3 276.8 276.9 265.4 272.3 280.1 268.7 258 248.2 234.5 217.2 197.9 179.5 162.3 147.9 130.6 129 127.2 139 155.1 155.1 143.6 164.2 186 184.8 174.6 166.6 162.9 182.7 208.5 197.2 176.5 157.1 157.5 154.7 159.7 167.1 191.6 210.6 218.9 214.6 250.6 278.1 317.4 345 371.4 397.1 407.8 420.3 440.5 444.1 490.5 524.6 558.3 592.1 621.9 661.6 698.4 726.6 742.9 753.7 765.7 774.4 765.8 742.2 718.5 689.3 670 655.3 647 642.9 642.6 632.5 606.2 586.1 563.8 549 521.4 519.6 519.1 510.2 497.2 509 515 522.5 537.3 533.5 537.2 544.5 545.6 547.6 555.1 559 566.6 559.8 575.8 573.8 558.1 526 505.3 484.2 453.7 463.4 442 435 419.6 395.4 375.9 366 360 362.8 374.9 356.2 341.7 338.7 334.1 329.7 316.5 302 289.8 282.8 264.9 247.7 228.6 218.4 200.2 191.8 195.8 201.3 208.4 206.4 204.9 203.7 203.3 204.1 209.1 211 228.2 225.8 222.9 217.9 217.7 243.6 231.7 222.7 231.8 253.9 256.4 259 283.3 301.2 303.9 298.3 303.7 324.7 332.6 336.1 329.5 323.7 316.8 324.5 323 332.3 338.1 348.3 354.6 360.1 362.4 363 365 366.4 371.8 368.1 362.1 366.2 367.3 375.9 374.1 369.5 372.1 373.5 371.4 363.1 354.3 342.9 340.7 331.7 324.2 333.5 332.8 322.4 314.9 313.7 310.5 304.5 297.5 302.3 309.3
309.3 288.6 254.1 232.9 230.5 234.5 218.9 241.1 256.8 243.8 230.2 215.3 203.1 190.5 173.9 157.6 143.4 126.1 127.7 139.9 145.1 148.8 138.2 129.7 150.5 196.4 204.1 193.7 184.3 182 211.5 218.1 200.9 191.4 189.1 175.2 172.9 168.3 161.5 161.1 173.2 183.7 204 231.3 258.3 289.1 326.7 357.8 375.4 370.5 379.7 392.8 441.9 476 512.3 542 577 615.2 648.1 680.6 709.6 732.7 746.3 758.6 767.6 773.9 760.6 733.1 708.9 692.1 677.4 670.4 672.1 673.5 649.4 620.4 589.4 575.2 556.9 548.7 547.8 546.4 536.8 524.6 536.2 548 547.9 554.2 554.6 571.4 581 578.4 575.2 582.6 591.1 595.5 590.9 586.3 568.6 543.5 513.9 496.6 473.3 480.6 476.4 459.5 462 438.1 410.3 387.8 380.7 373.6 379.9 377.8 364 348.6 348.5 339.4 325.7 311.8 296.4 286.2 273.2 261.1 245.5 230.6 215.5 210 205.5 204.7 212 215.4 209.5 208.3 210.8 213 212.2 210.2 211.3 211.5 222.9 219.9 221 214.9 231.6 229.6 212 217.8 241.8 241.1 259.7 275.2 289 287.3 280.6 300.9 317.9 314.5 315.2 310.4 301.9 297 304.6 305 305.3 310.2 317.4 331.8 331.6 341.1 336.3 335.9 344.8 348.6 347 342.7 342.6 345.6 354.7 353.2 347.9 354 357.3 357.3 345.7 337.5 333 329.6 318.1 314.5 319.2 312.6 307 304.4 305.7 303.4 298.9 290.7 292.3 299.1
266.4 242.5 219.8 197.9 186.6 182.8 173.1 183.8 209.9 200.2 190.7 190.9 185.9 182.8 167.9 150.5 132.9 113.5 98.4 132.4 133.5 120.8 104.6 121.2 159 203.7 223.9 219.3 209.1 210.8 229.2 219.7 214.2 213.3 197.4 192.8 190.7 180.8 174.4 191.5 173.6 168.5 181.5 211.3 240.5 271 299.6 327.1 328.6 333.7 379.6 413.8 443.8 476.5 504.9 533.8 568.5 608.6 639.4 665.2 697.9 722.1 740.4 759 769.9 778.9 776.2 759.6 733.4 719.8 708.9 704.6 701 687.8 652.6 617.8 598.8 585.5 578.4 569 570.3 567.5 555.8 555.2 565.7 569.7 571.9 580.5 596.7 600 613.8 609.7 609.4 608.9 613.7 607.5 602.9 599.3 575.9 538 515.1 489.1 495.4 492.9 495.6 475.2 464.7 445.6 421.7 409.7 401.9 389.1 384.6 377.1 367 352.5 347.8 335.6 320.4 306.9 294.3 283.9 271.8 255.7 244.2 237.9 227.5 216.7 219.8 216.4 229.8 227.6 215.2 215.1 215.5 220.8 214 209.5 222.6 222.8 223.4 222.1 242.3 225.1 215.6 225.5 211.6 215.1 236.5 237 260.1 268.1 271.7 271.9 267.5 291 296.9 294.9 293.9 293.3 283.4 276.6 277.8 278.2 284.8 284.8 290.4 297.8 307.2 313.8 308.3 312.8 321.9 327.7 323.5 324.9 322.7 325.6 331.3 331.4 326.8 334 336.5 340.7 328.2 321.8 321.1 313.7 303.7 302.5 303.7 300.3 300.2 299.1 296.3 294.7 289.2 288.6 281.3 290.9
227.4 211.6 193.4 172.5 161.7 148.3 143.9 133.8 146.2 144.5 143.3 163.4 168.2 156.8 136.1 127.8 122 100.9 95.2 108 102.8 98.7 120 139.6 169 228.4 248.4 234.8 223 238.2 235.1 229.8 233.7 222.9 217.2 204 192.8 180.5 183.3 191.9 179.1 170.3 172.7 197.1 229.7 264.9 291.2 291.5 318.6 344.3 367.2 392.4 420.9 458 489.4 521.2 558.1 592.2 617.5 656.9 683.8 710.2 730.3 750.4 760.2 763 758.4 760.4 762.7 758.4 750.1 744.3 718.3 680.7 652.5 630.3 617.5 611.7 600.7 596.4 589.2 578.4 576 588.6 592.9 585.5 598.3 612.7 625.7 632.5 637.8 628.4 623.9 618 609.7 608.4 602.9 598.9 569.3 541.1 519.9 511.7 509.4 511.2 507.2 483.6 463.9 450.7 434.2 426.9 436.3 419.9 396.1 387.9 371.8 366.3 358.2 345.1 334.5 321.2 318.2 309.8 291.6 271.5 263.2 248.4 235.1 234.5 234 233.9 244.4 243.5 230.3 227.6 225.3 217.8 214.9 212.9 225.8 224.4 224.3 229.9 244.2 228.6 212.7 210.4 211.4 214.5 225.9 233 257.6 264 259 254.8 260 274.6 272.6 270.2 278.4 275.2 267.8 259 255.3 258.8 267.9 265.5 270.9 278.8 283.8 288.5 284.4 295.4 292.5 296 308 305.6 301.7 301.5 306.5 308.3 309 314.5 318.1 318.4 310.3 306.6 309.5 300.5 293.7 294.2 294.7 292.7 289.6 293.4 288 285.6 282.4 278.9 274.6 281.6
197.1 173.8 162.1 149.5 138.7 119.4 105.7 102.6 97.7 106.8 117.5 131.6 128.3 119 115.9 108.4 100.7 90.1 79.2 85.9 92.6 116 136.4 156.4 200.8 258.6 261.3 246.9 245.4 252.6 248.1 239.3 240.4 228.9 215.7 203.6 189.3 177.2 180.7 184.5 179.7 170.3 174.2 196.8 231.3 251.8 262.3 285.2 300.7 319.9 343.8 361.4 392.4 428.1 466.6 506.3 538.8 564.5 596 627.8 660.7 692.7 713.9 723.7 726 725.5 728.3 734.6 743.3 757.6 764.4 759.4 714.1 680.3 655.2 646.3 647.5 639.5 637.7 617.5 603.8 599.1 609.1 616.1 612.1 617.9 622.7 636.6 653.3 663.9 662.4 645.1 630.8 618.7 617.2 608 600.3 584.4 562.8 542.2 526.7 528.7 535.7 539.8 515.7 491.8 475 456.2 455.5 464.2 456.7 434.9 409.9 389 380.1 381.2 381.8 368.6 348.6 345.7 340.9 326.5 302.1 291.8 274.4 264.4 247.3 258.3 252.7 250.7 265.2 256.6 244.2 248 228.7 220 229.8 233 230.9 227.8 237.2 237 248.1 237 216.7 210.2 210.3 213.7 226.1 227.5 244.1 255.4 247.1 244.3 247.6 252.9 251.7 254.1 260.3 258.8 254 245.6 241.7 245.8 253.3 249.1 252.7 264.9 267.5 271.6 265.9 273.2 274.5 272.7 283.4 289.2 281.9 276.7 279.9 286.2 291.4 298 300.7 297.9 299.1 295.9 295.5 290 285.2 289.5 290.8 283.8 282.6 282.9 279.7 276.4 272.8 271.3 274.7 277.5
153.9 147.4 141.8 127.6 110.3 95.4 85.9 81.8 81.6 91.5 106.1 108.3 106.1 99.8 97.7 89.9 83.2 75.8 76.5 91.7 110.1 133.3 152.2 183 244.1 277.5 273.1 284.1 279.2 268.6 263.5 263 248.9 233.4 212.7 192.5 181 175.6 176.6 175.9 173.8 174.5 182.4 201.9 221.7 237.1 250.5 259.3 279.4 299.2 321.1 341.4 369.2 405.9 447.1 481.5 513.5 546.6 575.6 610.6 631.4 657.6 681.3 693.6 699.2 703.4 705.6 711.8 718.5 726.6 736.4 736.4 730.8 702.1 685.9 675.6 674.9 659.9 644.5 630.7 622.9 631.8 636.7 637.1 640.8 641.2 653.5 667.7 675.7 690.1 675.4 652.7 633.5 628 623.5 619.4 595.1 573.7 556.8 541.7 542.9 558.4 557.9 546.4 530.1 504.4 483.1 468.7 485.3 482.5 467.2 437.1 419.3 401.6 394.3 396.7 389.1 376.3 365.2 353.9 342 329.1 317.6 298.1 292.6 273.3 259.9 271.7 277 289.1 282.5 271.5 254.3 256.7 235.4 230 239.3 249.1 244.2 236.9 241.5 251.4 255.7 243.1 215.4 210.2 210.2 211.3 221.6 220.4 244.9 242 234.7 231.4 234 239.4 241.4 236.8 246.1 244.1 240 235 233.7 235.5 239.1 237.5 237.8 249.4 249.2 253.5 251.5 255.7 255.6 257.1 265.7 268.5 268.7 257.5 261.4 268.7 277.3 280.2 284.6 288.2 286.8 282 281.6 275.7 281.9 284.1 282.1 274 272.3 275.1 268 268.3 267.7 259.8 267 275.1
136.9 129.6 116.4 99.3 85.3 76 68.5 68.4 72.1 81.9 93.8 90.4 89.4 83.3 79.8 74.5 71.8 77.1 90.9 106.7 127.8 150.3 174 214.1 268.9 293.3 299.9 307.6 290.1 282.6 278.2 267.7 246.7 225.9 209.2 189.8 180.3 184.7 180.5 174.9 174 178.2 187.9 193.4 206 226.3 242 244 255.7 272.6 288.7 307.8 346.5 379.3 432.9 466.8 500.5 530.9 563.4 586.3 610.8 636.2 647.4 654.8 668.1 680.7 681.3 685.4 693.2 703.6 711.7 726.6 737.9 727.9 715.6 711.3 702.2 688.2 668.9 649.5 651.1 661 662.4 665 668.5 678.3 686.6 699.1 705.3 710.2 691.2 659.4 643.2 637.4 629.2 621.1 597.9 579.1 561 547 564.3 576.3 567.1 546.6 526.9 510.7 493.9 485.9 491.9 492 469.2 456.1 439.8 424.1 412.3 402.3 391.8 379.4 367.4 358.6 347.3 335 320 315.3 300 288.2 281.5 301.7 299.6 311.1 292.7 281.3 260.8 246.9 241 236.6 240.9 269.1 249.8 245.6 250.3 256.3 254.6 240.2 217.5 210.5 210.4 210.2 210.2 219 231.6 224.9 221.6 222.1 225.1 230.8 234.7 226.5 226.4 229.9 225.3 224 221.3 223.9 225.4 228.4 225.7 235.1 237.3 239.6 237.2 242.5 245.7 244 251.1 250.4 253.6 240.1 242.6 249.2 261.2 269.8 273.5 274.7 271.5 269.9 269.4 265.9 273.7 274.1 268.7 265.9 266.1 261.2 258.5 264.3 261 251.4 262 265
113.9 111 91.5 78.3 70 68.2 65.8 66.3 67.8 67.8 69.7 73.9 71.8 70.9 70.2 69.8 74.9 89.1 107 125.7 150.4 166.2 189.1 238.8 284.1 312.1 330.3 322.6 295.9 295 275.3 257 239.5 223.5 205.5 191.6 183.7 179.8 178.5 177.6 179.4 196.5 213.1 210.9 205 228.5 238.7 233.9 232.8 243.7 261.1 282.8 321.7 367.4 415.2 456.1 483.8 517.4 544.5 560.6 581.3 596 614.4 632.7 645.1 651.7 654 663 670.3 678.7 690.7 704.8 721.4 731.2 742.6 735.3 723 703.8 691.1 684.1 683.3 693.1 698.6 699.1 704.9 711.6 718.9 728.4 724.5 707.4 689.1 665.5 650.5 637.5 624.8 611.9 596.9 581.5 564.8 557.6 581.2 581.2 567.1 546.1 530.9 527.1 520 504.5 500 496.6 482.7 467.8 452.5 439.8 435.3 415.5 400.3 392.6 385 386.4 372 353 334.5 330 314.9 305.3 302.3 322.3 319.9 321.4 310.5 289.2 267.2 255.5 251.6 245.4 249.5 275.9 255.6 251.2 260.4 261.7 250.6 228.9 213.9 209.9 210.2 210.2 208.4 206.1 215.2 217.4 212.2 213.4 216 219.8 223.6 223.5 221 219.1 218.5 214.8 212.8 212.4 213 218.7 217.1 221.6 228.7 229.2 222.5 226.4 236.9 232.3 232.2 240.3 234.1 221.2 229.5 238.9 250.4 260 258.7 253.1 259.4 257 254.3 259.3 266.2 263.1 255.6 255.3 257.7 251.7 252.5 257.3 255 242 252.8 260.2
91 86.2 74.4 66.6 65.1 64.8 65.3 66.1 66.7 67.2 68.3 66.5 69.8 74 78.6 83.1 90.2 110 125.4 147.9 164.3 188.6 210.1 269.7 314.3 333.5 333.8 317.9 303.9 295.5 279.5 267.3 249.9 232 211.7 195.4 187.8 188.1 188.9 186.1 200.6 223 231.2 208.1 208.4 217.5 226 219.6 221.3 228.1 240.2 268.1 307.3 347.8 385.1 435.6 470.7 497.8 519.6 534.4 553.2 582.9 610.7 618 629.7 638.9 639.9 646.9 651.2 662 669.1 681.3 700.2 719.4 728.6 731.1 732.6 732.4 726 725 731.1 732.8 740 750.6 752.7 750.1 753.8 743.7 727.1 703.2 687.8 667.3 649.8 633.2 622.9 598 588.6 582.1 569.7 572.1 589.7 589.9 577.2 559.2 554.8 561.6 546.4 521.9 512.4 509.7 489.8 484.5 488.2 469.6 447.8 434.4 423.5 429.3 420.8 428.9 413.7 392.5 371 349.6 341.7 326.9 328.8 345 331 328.4 309.9 284.1 275.5 267.9 267.1 260.8 265.7 272.9 257.7 263.4 274.6 267.3 248.7 228.6 214.1 212.6 212.4 211.1 210.5 211.2 206.1 212.1 209.6 209.6 208.8 212.8 213.1 221.5 213.3 211.1 210.1 209.8 209.2 207.5 207.3 209.8 214.2 221.2 229.8 219 215.5 223.3 230 223.9 217.6 227.5 216 210.6 216.9 228.3 239.1 244.3 245.2 239.3 245.1 243.7 242.7 250.9 256.5 250.3 244.4 246.2 251.6 243.1 248.2 252.6 247.9 240.3 245.3 253.4
72.5 70.2 68 63.4 63.9 64.9 64.2 65.2 64.8 68.8 75.8 85.7 89.2 95.7 103 108.1 118.1 134.3 151.6 164 193.5 208.4 247.9 287.6 334.4 345.6 338 325.1 312.7 303.4 286.7 271.9 254.7 237.8 218.7 211.5 199.7 198 195.1 201.8 220.3 244.2 232.3 211.8 216.8 214.7 214.6 216.3 220.5 223 242.1 267.7 299.5 341.4 372.2 413.6 448.5 474.9 490.5 513.9 539 564.6 583.3 598.1 609.8 619 616.9 624 632.3 644.8 655.4 662 676.9 694.6 706.5 712.6 718.9 728.5 752.1 772.3 775.2 778 781.7 789.3 797.6 796.4 778.9 751.6 730 707.4 694.4 681.1 650.2 644.3 622.8 597.3 587.6 577.2 579.3 581.8 601.9 614.2 600.2 590.4 581.8 562.4 543.7 530.9 517.7 517 509.9 507.5 508.1 492.7 482.6 473.7 460.8 463.7 471.8 450.9 431.2 415.8 395.8 381.2 369 358.8 361 360.5 339.1 326.7 310.2 303.2 291.4 291.2 290.4 285.7 285.5 274.2 269.6 275.7 293.2 275.7 253.7 233.7 214 213.6 214.6 214.7 215 213.9 212.5 206.1 206.1 217.1 212.8 206.1 213.4 216.6 206.1 206.1 206.7 210.4 208.9 205.6 206.9 205.7 211.8 216 221.9 212.2 210.3 212.9 217.2 211 208.4 207.7 200.3 195 192.4 220.1 230.4 230.4 232.2 231.1 233.1 232.8 231.7 243.4 241.5 234.4 236.8 238.6 238.9 238.9 242.3 246.7 238.4 235.9 241.5 248.3
63.5 63.3 64.2 63.5 63.7 63.8 64.6 70.4 83.4 92.8 102.3 108.6 113.1 120.7 128.3 132 141.3 156.5 165.6 187.5 212.1 244 279.8 304 330.1 353.5 349.8 334.1 332 329.2 322 299.4 279.4 257.9 241 234.9 218 210.4 210 221.4 244 247.5 233.1 221.9 240 227.3 216 217.8 219.7 221.1 249 272.9 304.6 336.7 361.2 385.2 418.5 445.7 469.7 493 521.4 544.3 561.4 586.8 601 601.8 599.4 604.6 614.8 621.4 635.7 642.3 651.4 670.1 680.5 690.9 701 725 744.2 767 787.5 805 813.4 819.9 818.9 810.5 784.4 759.1 737.3 715.7 694.7 677.9 667.2 660.8 630.5 600.3 591.4 591.2 599 593.5 608.6 614.6 606.1 595.4 585.3 562.2 551.5 532.2 526.3 532.5 532.8 538.9 544.7 540.8 521.1 518.2 503.2 492.3 491.4 481.9 472.8 452.5 434.8 418.5 411.6 397.2 381.2 362.7 344 329.6 329.3 325.2 317 310.5 305.5 303.5 298.3 280.2 276.1 288.7 293.6 280.8 257.2 237.4 218 217 223.7 216.7 219.6 222.7 221.3 211.1 211.4 216.5 216.1 212.5 206.1 215.4 206.1 206.1 206.1 205.7 205.7 214.7 208.9 211.6 205.2 211.1 216.1 210.9 210.7 206.8 212 197.3 192.1 192 194.7 192 192 208.7 220.8 220.9 222.8 223.1 222.3 218.2 225.8 234.8 227.7 226 227.8 229.5 227.9 233 236.5 239.5 228.7 233.7 237.5 239.6
62.6 63.1 64.1 65.7 65.6 65.4 76.8 94 105.5 120.3 132.1 138.9 143 147.8 154.4 160.1 170.2 178.3 188.1 208.3 240.5 272 301.3 323.2 345.6 363.2 357.4 361.9 361.8 347.5 330.6 313.2 296.4 278.2 268.2 247.3 230.4 226.2 234.3 238.4 256 246.4 237.4 234.2 253 230.3 218.6 217.6 218.4 223.8 254.7 276.7 309.7 337 364.3 388.5 408.3 431.5 456.2 488 507.7 531 547.1 564.6 577.6 576.5 574.4 591.9 603.3 609.2 621.1 628.5 637.9 644.3 657.4 662.5 690.5 713.6 738 753.1 782.2 805.8 823.8 835.5 828.2 827.7 809.4 783 754.6 726.7 704.6 692.8 677.3 669.7 637.4 609 600.9 598.1 604.1 606.3 617.2 620.5 611.7 594.7 579.3 565.6 551.7 541.5 541.8 542.8 556.6 566.3 575.5 573.7 565.4 551.6 534.9 518.8 524 517.6 499.2 472.2 458.2 438.4 423.5 405.6 384 364 353.2 342 347.3 341.1 336 333.8 330.1 325.1 301.5 283.1 286.7 291.3 301.1 280.2 264.6 239.2 222 224.8 230 223.1 222.6 228.7 230.8 225.8 211.3 228.4 222.4 224.2 218.1 206.1 206.1 206.1 206.1 207.1 211.7 217.1 210.8 216.3 212.2 205.9 207.2 205.5 205.2 214.6 205.7 192 202.6 192 192 192 192 192 206.1 210.3 213 216.7 213.8 209.8 218.2 223.1 220.6 221.4 224.5 224.8 225.7 229.4 230.4 229.9 225 231.1 233.8 234.7
69.6 70.9 70.5 75.2 80.9 87.2 102.9 115.2 127.9 141.5 151.5 167.6 180 186.7 193 198.4 204.3 217.1 225.6 238.5 273.2 303.9 328.8 351.7 358.6 362.1 376.7 389.4 377.1 357.8 339.3 320.2 301.9 286.9 266.8 259.8 258.4 248.7 265.4 260.6 254.9 245 245.3 255.1 246.4 232.6 218.8 217.6 218.9 235.1 263.5 288.6 320.9 344.5 365.4 376.6 394.2 409.8 436.6 483.4 510 520.6 535.8 544.4 551.6 553.6 567.6 575.6 586.2 591.3 602.5 610.5 616.5 619.8 619.9 646.8 675.7 696.7 723 736.1 759 787.5 813.1 824.6 828.4 826.9 809.8 792.7 763.9 738.5 722.5 705.7 691 670.9 644.6 620.9 613 609.5 613.7 621.3 628.9 627.9 619.6 608.2 603.5 586.7 569 559.8 563.2 560.5 574.6 590.9 596 592.8 581.3 573.2 554 534.9 540.8 531.3 509.3 490.6 469.3 447.1 417.1 401.8 385 368.9 356.8 358.4 366.3 353.9 359.6 355.2 346 329.6 306.2 298.3 300.7 296.8 302.3 284 262.4 240.2 229 234.4 240.5 231 225.3 233.4 230.6 222.8 224.2 245.8 244.3 238.1 221.2 205.7 206.1 206.7 208.6 212.7 219.7 221.6 220.9 217 216 215.3 211.4 207.8 215.7 217.1 207.9 192 192 192 192 192 192 192 202 194.6 204 209.4 205 203.8 212.3 216.7 216.4 207.9 216 217.5 222.4 225.2 228.5 231.3 222.4 227.3 229.7 231.3
76.3 79 84.8 89.6 101.8 106.5 121.8 133.5 151 166.2 181.1 200.7 213.9 221.2 230.2 239 248.8 251.5 254.2 271.3 296.5 327.2 363.1 386.1 394.3 393.9 405.2 408.5 389.5 365.5 342.8 324.8 306.6 299.1 304.4 300 291.4 280.5 277.7 268.4 260.7 253.6 254.1 254.4 243 234.2 222.6 218.8 235.2 254.4 269.9 299.1 330.4 340.2 355.5 360.1 363.6 379.2 423.4 448.1 478.7 510.1 521.8 538 543 544.9 549 551 559.2 566 576.8 587.5 593.1 596.1 586.3 629.8 654.8 681 708.5 723.8 734.2 759.3 794.4 814.7 818.3 822.7 807.5 792.4 782.6 760 738.6 717.3 708.3 700.4 666.3 641.9 634.1 628.4 633.7 635.5 644.4 633 636 640.5 634.7 614.1 604.5 594.2 583.3 586.5 599.3 613 620.1 614.1 604.8 598.3 580.3 558.4 550.8 544.7 527.5 506.3 469.2 444.7 423.9 403.1 387.7 375.5 368.9 380.9 382.3 370.8 369.3 364.3 353.4 337.1 306.6 314 310.6 308.1 305.8 287.1 268.5 242.7 241.4 243.1 250.4 238.5 234.1 239.2 231.4 232.9 243 255.9 258.9 253.9 228.1 212.5 210.5 212.9 214.6 222.7 229.6 234 234.3 223.7 228.2 228.8 223.2 217 224.5 224.8 212.3 199.4 192 192 192 192 192 192 192 192 192 207.3 192 194.8 208.3 202.2 198.4 203.9 211.3 214.1 219.8 221 224.7 229.4 219.8 224.3 225.5 221.9
75.3 85.9 97.1 107.7 116.1 123 145 159.6 179.5 202.9 215.7 232.6 245.6 260.2 269.5 277.4 290.3 289.8 292.8 303.4 321.9 359.2 400 417 424.2 427 423.2 411.1 402.4 393.8 382.7 361.1 348.1 337.7 336 331.4 315.2 295.6 295.7 297.4 291.9 270.5 274.6 261.1 244.4 232.4 224.8 228.6 243 245 265.3 282.7 311 327.1 338.4 345 349.5 368.2 387.2 417.8 452 475.2 491.6 507.8 520.4 526.1 520.7 528.9 536.4 543 558.4 568.4 566 561.5 577 615 636.6 664.4 691.6 707.6 721.4 738.4 770.1 801.3 803 813.2 801 789.5 783.4 765.7 750.5 724.7 710.5 702.8 683 669.2 653 645.9 643.5 645.8 649.9 657.6 668.4 663.4 670 646.6 626.2 614.7 613.2 614.6 621.1 622.5 627.7 629.1 624.9 614.7 598.4 585 562.9 553.6 536.2 509 478.4 452.8 435.9 422.9 409.9 397.2 392.6 392 390.3 379 377.3 375.6 357 338.2 317.8 332.6 325.2 313 304.6 293.7 270.5 251.6 254.9 251.8 258.4 256 239 235.9 247.2 251 259.4 257.4 264.9 246.5 230.2 225.3 222.9 223.2 227.2 239.2 245.3 244.3 243.5 245.8 247.4 245.1 237.2 227.5 232.4 226 216.5 208.7 192 192 192 192 192 192 192 192 192 192 192 192.6 202.8 192 192 204.7 208.6 211.9 212.9 215.4 216 214.7 210.7 221.4 224.7 217.4
96.9 109.6 113.7 118.4 120.9 134.8 169.5 187.8 208.7 234.2 250.3 263.1 282.1 298.9 310.7 314.6 326.2 329.7 327.3 336.7 361.8 394.6 423.8 445.4 449.1 447.1 440.1 427.8 431.1 429.2 416 403.1 382.7 370.7 364 354 335.4 324.3 336.6 336 321.6 306.9 279.1 277 260.9 237.1 245.3 249 240.4 244.5 262.1 279 295.9 306.6 312.1 330.1 343.1 357.5 384.2 413.9 423.8 452.5 478 491.7 494.9 496.2 497 508 515.7 521.4 528.6 533.2 529.7 533.1 559.6 593.1 618.2 648.4 673.8 688.5 710.2 731.5 750.3 771.8 781.3 793 790.5 790.6 779.2 764.7 749 729 713.2 698 686 673.3 661.2 656.5 657.5 662.9 675.3 682.2 696.3 697.7 694 673.4 652.5 646.6 643.6 643 647.7 637 632.5 639 636.6 628.2 612.2 587.2 569.3 553.8 540 514.4 497.6 488.1 476 461.6 442.3 422.1 406 402.3 400.4 397.4 387.1 376.8 361 328.8 347.2 340.6 334.2 317.4 307.9 294.6 270.7 268.2 261.3 266.6 271.5 264.2 254.8 250.7 266.5 278.3 271.9 264.1 257.1 253.3 240.5 240 239.9 238.6 243.5 257.1 254.4 256.1 259.6 257.7 264.5 255.7 247.1 244.3 237.6 228.6 221.4 212.5 204.6 192 192 192 192 192 192 192 192 192 192 192 192 192 192 194 204.5 208 209.2 208.5 211.6 209.5 207.6 216.2 215.9 215.2
94.4 121.7 137.5 140.3 151.9 161 180 205.2 231.8 253.3 274.9 297.1 320.9 333.2 341.9 355.3 360.5 365.6 367.9 379 410.6 433.1 445.6 457 467.7 460.2 459.9 464.9 470.5 463.4 450.2 432.9 413.2 401.5 387.5 365.3 349.7 356.7 364.2 353.9 331.8 310.9 285.7 276.6 260.4 246.6 253.6 249.6 249 248.6 251 261.7 279.4 281.5 304 324.7 345.5 347.1 365 383.7 403.1 424.7 444.9 464 470.8 481.5 474.7 479.8 487.3 494.6 500.7 498.1 492 510.3 540.8 569.4 597.4 628.1 654.5 670.8 684.5 705.8 726.1 741.2 754.5 761 766.4 778.2 780.1 760.3 750 734.8 721.6 703.7 691.8 684.9 676.4 672 676.9 694.3 697.2 718.1 721.9 719.5 709.3 696.7 688.7 677.7 660.6 660.1 661.2 658.3 648.9 645 642 629.7 615 593.7 573.6 557.9 543.7 534.7 527 518.1 501 479.2 455.9 442.6 427 421.1 416.9 404.5 387.7 378.1 359.1 336.5 360.2 355.4 339 322.3 312.6 293.8 286.3 282.5 276.3 284.1 283.4 280.3 270.7 273.6 285.2 291.1 283.7 283.6 277 267 249.8 252.1 253.8 256.9 262.6 267.8 272.4 275.2 268.6 271 271.3 265.8 258.3 258.8 246.2 233.2 225.2 221.1 209.2 201.8 192 192 192 192 192 192 192 192 192 192 192 192 192 192 203.1 205.1 206.7 206.4 207.5 205.8 209.5 211.7 211.2 206.3
128.7 134 138.5 155.9 174.3 192 205.9 229 254.9 278.1 300.7 314.1 339.9 363.9 382.9 395 395.8 399.2 410.9 426.8 449.3 465 472 473.7 481.3 488.3 494.4 506.8 505.3 500.9 488.9 466.6 438.7 422.3 408.8 396.7 390.2 391.9 379.4 356.6 340.9 313.5 292.2 275.7 264.8 258.6 259.4 255.7 255.7 249.1 249 253 258.8 272.3 296 334.2 336.6 340.7 356.5 372.3 393.6 410.6 424.6 430.5 444.3 460.2 452.6 454.8 466.6 471.1 469.8 459.9 472.5 496.5 525.1 554.3 575.9 604.9 623.7 640.8 656.3 682.2 702.3 715 723 728.5 741.1 769.1 783.7 776.5 762.4 748 733.6 721.5 715 698.2 691.5 697.1 706 718.4 733.1 741.6 737.5 734.3 725.7 715.1 702.3 689 682.7 671.1 684 677.8 658.1 656.7 651.6 629.8 613 591.2 566.9 559.6 555.2 542.6 531.6 525.3 505.3 485.6 472.5 460.8 449.5 433.5 419 408.9 390.2 378 357 363.5 366.2 352.7 340.1 325.6 318.5 302.7 297.1 282.3 294.1 297.5 290.2 290.8 284.6 286 305.3 305.5 306.3 306.7 290.1 270.6 263.8 266.7 269 275.4 280.8 284.1 285.6 279.2 274.1 282.4 282 277.5 274.2 269.2 252.2 237.7 231.4 226.6 210.8 205.1 192 192 192 192 192 192 192 192 192 192 192 192 192 192 192 199.3 205.6 205.6 205.1 203.8 209.6 215 208.9 203.2
156.3 158 167.8 176.7 194.6 226 244.2 260.6 285.8 312 329.3 345.7 377.8 402.6 411.3 421 429.2 435.3 452.3 469.2 482.9 491 496.1 498.4 506 503.4 510.2 515.5 516.5 507.2 494.7 477 468.6 460.7 451.9 436.7 426.7 417.2 400.3 380.3 354.5 330.1 324.1 302.7 280.3 285.7 277.8 269.3 262.1 250.2 249.6 252.6 264.3 276.9 309.6 314.7 331 345.2 368.1 392.2 404.8 409.9 408.5 414.2 421.5 426 424.2 438.8 440.2 439 430.5 441.7 457.5 484.1 503.9 527.1 550.1 584.1 602.5 621.6 636.1 660.8 679.9 693.1 700.7 706.5 720.8 745.6 760 758.4 748.3 755 755.9 752.1 742 730.4 721.7 727.9 734.8 748.4 774.6 779.1 770.8 763.7 744.9 728 713.9 705.3 698.1 693.4 693.2 674 655.3 644.3 635.4 617.4 602.6 583.9 567.4 543.5 533.9 522.1 513.4 513.5 488.1 474.7 466.5 456.8 450.8 433.5 421.1 415 396.1 379 354.1 374.7 363.9 351.7 337.6 333.8 322.6 310.6 310 303.1 306.9 303.7 302.3 298.1 291.9 294.3 310.9 320.3 322.3 319.4 296.4 283.2 279.1 275.5 279.9 281.7 284.8 287.5 283.9 280 281.6 290.2 293.4 292 285.4 273 257 242.9 239.9 231 216.1 214.3 209.6 199.4 192 192 192 192 192 192 192 192 192 192 192 192 192 205.4 203.6 203.7 205.5 203 206.2 213.6 208.9 201.7
175.3 185.9 200.6 212.8 227.6 247.1 272.8 298.8 321.4 346.9 368 389.4 414.3 430.5 443.5 455.3 465.4 473.9 488.2 497.3 509.6 518.3 521.5 524.2 524 521 519 516.3 516.4 513.2 516.2 506.4 498.5 482.1 464.6 456.2 443.7 428.1 416.8 390.1 369.2 362.3 342.9 330 299.9 305.8 294.6 282 266.2 261.1 252.7 253.1 272.5 286.4 297.9 319.3 325.1 328.9 347.3 367.5 384.6 382.5 373.8 382.9 393.2 389.9 398.5 412.2 414.4 408.1 399.6 415.5 434.9 460.3 486.2 504.3 533.1 563 586.5 609.7 622.9 641.9 659.7 668.6 672.2 687.1 701.7 712.4 718 716.7 732.7 741.8 761.5 779 769.9 763.4 754.9 761.1 779.6 798.1 808.6 805.9 795.5 785.1 767.4 758.9 752.1 741.5 732.8 718 701.7 681.9 659.7 646 627.9 620.3 616.2 593 560.3 536.8 516.4 502.3 491.7 483.1 472.6 464.7 455.9 445.3 436.5 426.4 414.8 404.1 389.8 375.7 382.4 372.1 359.1 349.5 340.5 334.4 325.4 322.5 318.8 313.8 317.7 315.7 310.4 316.5 313.1 312.9 319.4 318.5 317.8 311 301 292.7 289.1 284.5 284 289.7 286.9 284.1 281.6 280.2 282.6 290.2 299.7 298.4 291.8 276.3 261.8 255.6 249.2 232.5 228.4 224.5 221.6 214.7 205.5 195.3 200.3 192 192 192 192 192 192 192 192 192 192 204 192 202.1 205.1 201 206 209.7 201.4 201.1
196.8 212.7 229.8 237.4 263.7 286.1 299.6 329.9 357 388.3 410.1 425.9 445.3 462.1 474.9 490.6 499.5 504.5 515.4 527.5 534.9 544.3 543.4 542.4 540.1 530.3 540 546.8 537.8 537.3 530.8 520 511 498.9 488 467.6 454.1 439.5 428.4 417.7 392.7 380.3 371.3 344.1 316.8 319.2 317.3 306 285.4 272.9 256.3 272.5 264.6 281.6 295.2 303.3 309.6 316.7 330.5 332.6 340.8 347 344.9 348.6 350.7 349.5 363 373.7 377.2 378.9 379.3 403.2 433.5 457.9 479.4 491.8 522.8 550.1 566.6 583.3 604.2 630 636 647.5 664.5 679.1 683.9 680.6 679.1 681.1 694.8 714.8 742.1 754 764.8 767.7 770.1 776.1 794.4 806.3 819.7 819.2 826.2 823 814.2 793.6 782.1 765.7 744 719.9 697.3 679.8 658.5 643 639.8 634.7 637.8 620.9 579.1 552 529.1 509 492.8 484.7 473.6 462.7 451.4 435.3 426.3 418 409.3 403 398.1 394.9 386.3 371.9 360.9 350.4 345.7 339.8 333.2 330 323.2 319 320.8 319.6 324.2 327.9 331.1 333.2 334.7 329.3 327.9 327.1 316.8 306.4 298.2 298 291.5 290.6 287.8 286.6 283.8 286.1 289.3 292 293.5 293.3 288.1 282.9 271.5 265.8 255.9 238.9 240 236.1 227.9 220.2 214.4 206.6 208.4 198.4 192 192 192 192 192 192 192 192 192 192 192 198.6 200.8 201 206.2 205.7 192 205.5
218.1 230.4 248.7 268.6 294.2 316.9 337.7 363.5 393.7 425.2 442.6 459.7 479.4 495.7 516.4 524.7 531.3 541.6 556 563.3 569 581.7 588.6 583.6 572.3 569.6 562.9 558.7 560.3 553.8 535.8 528.4 522.2 516.2 511.4 494.2 486.8 472 450.2 434 424.3 412.6 387.4 353.9 352.7 351.6 329.3 319.5 302.8 295.9 284 267 265.3 285.9 295.6 291.8 295.3 290.7 293.7 299 304.5 308.3 316.1 326 326.7 335.7 347 351 353.1 353.4 373.1 399.2 424.6 442.7 446.4 472.3 500.5 520.3 537.1 555.6 586.3 608.1 628.5 645.2 657.1 662.7 667.6 669 664.4 660.1 662.5 686.1 705.3 727.9 742.2 751 746.1 757.2 766.4 790.4 803.5 818.8 830.5 835.2 839.5 827.8 814.5 782.9 749.9 727.3 713.3 698.7 670.2 655.2 648 645.9 646.5 623.2 598.4 576.6 563.8 542.4 516.1 501.3 491.4 481.8 474.8 452.8 436.3 423.5 422.9 418.5 421.9 406.5 386.4 371.1 359.3 349.9 343.8 338.5 333.5 328.3 327 326.9 329.8 329.8 342.1 349.4 358.7 358.6 357 356.7 359 352.5 343.1 330.1 321.8 311.1 313.8 310 314.6 307.7 303.9 310.7 313.9 308.1 305.2 302.7 294 284.7 281.2 273.8 260.4 250.1 246.2 242.8 230.6 225.2 216.7 219.2 218.4 207.7 192 192 192 192 192 192 192 192 192 192 192 192 192 192 203.8 207.7 192 204.7
226.8 244.9 262.5 297 323 351.1 378.4 391.6 421.6 458.3 477.5 494.5 508.6 531.8 543.7 555.3 568.9 580.9 589.5 594.4 607.8 612.1 615 615.6 602.5 592.2 587 588.8 582.4 564.6 558.4 553.3 543.9 538.2 533.9 522.2 504.1 495.8 480 461.9 453.3 430.7 406.6 376.9 382.2 381.5 365.9 339.3 313.4 294.1 275.1 263.4 265.3 272.9 279.9 271.9 270.9 271.9 274.1 282.6 297.7 303.5 310 322.1 316.1 312.2 322.1 331.9 329.6 341.1 366.9 378.5 379.3 416 435.7 460.4 493.5 520.6 528 557.9 578.3 599.2 630.8 637 650.4 653.3 652.5 648.8 651.4 646.5 647 657 679.9 693.5 698.8 711 711.3 722.9 742.5 755.6 781 787.7 812.9 809.1 821.2 823.1 816.9 803.8 771.9 754.3 738.4 726.8 700.3 678.6 668.4 667.4 657.7 628.8 615.9 615.8 602.6 577.5 539.5 536.1 515.7 498.2 481.5 463.4 449 440 442.2 438.1 443.8 421 397.9 378.7 365.7 355.6 352.1 345.5 338.1 335.3 336.3 337.5 343 342.2 361.8 376.3 376.6 379.1 379.8 382.3 378.4 378.1 365.3 353.3 336.8 328.9 337.3 344.1 339.8 335 326 334.3 331.1 328.3 324 318.5 303 301.3 289.9 278.8 267.7 264.2 258 241.7 235.5 232.4 226.6 226.9 226.8 211.2 197.8 192 192 192 192 192 192 192 192 192 192 192 192 192 192 192 202.4 207.2
221.6 242.9 269.5 311.5 344.9 360 394.9 424.7 445.3 484.9 513.9 526.4 538.8 558.7 574.3 593.5 610 618.9 626.9 629.8 629.6 640.8 642.7 646.1 649.3 636.9 625.8 617.3 603.5 586.9 587.3 580.5 574.8 571.7 561.3 543.7 525.4 513.1 491.5 475.1 459.5 447 418 404.1 400.9 384.5 374.6 358.2 335.4 315.3 300.9 284.7 267.6 266 266.5 268.2 277.6 280.8 290.3 299.1 284.1 290.5 305.3 297.8 294.1 297 307.9 311.5 311.9 322.5 340.3 357.6 391.2 408.6 424.7 452.2 479.5 511.8 526 540.6 561.3 575.5 605.7 618.7 630 635.9 630.7 632.8 635.9 631.8 636.1 635.9 646.2 686 689.8 681.2 680.4 688.8 711.9 727.1 751.1 760.4 777.4 790.6 785 789.8 806.2 806.8 785 780.1 766.2 746.1 720.1 694.9 680.2 669.6 650.3 643.3 644 637.2 615.7 586.1 572.1 553.8 539.7 517.2 495.6 483.2 467.2 460.4 460.3 468.7 448.6 432.1 412.3 402.4 379.5 370.7 369.3 359.3 350.6 345.6 343.4 347.1 351.3 359.8 382.2 395.9 399.8 401.8 401.1 412.7 412.7 394.7 381.9 367.5 358.2 350.7 354.8 364.6 359.9 361 364.9 356.3 346.5 350.2 339.8 324.2 325.6 314 301 291.9 286.8 283 273.2 253.3 245.9 239.9 237.9 234 230.4 212.8 199.9 193.9 192 192 192 192 192 192 192 192 192 192 192 192 192 195.6 197.7 202.4
192.6 226.7 270.4 301.7 309 343.3 397 445.5 478.5 494.8 503.8 518.5 559.9 583.6 603.3 624.7 640.9 643.5 647.3 650.2 659.2 661.9 665.1 660.2 651.6 648.9 644.4 639.9 625.9 604.1 605 594.7 593 591 581.1 564.1 545.5 526.7 503 483.4 472.3 453.2 434.1 420 405.4 390.9 374.4 357.6 346.2 325.4 313.9 298.9 274.5 267.7 275.9 286.5 305.1 286.6 286.7 279.5 282 272.9 272.9 276.7 288.2 299.9 296.2 293.2 296.3 310.8 339.4 365.8 388.7 397.1 414.9 446.2 466.7 501.6 510.2 516.6 540.3 552.5 573.3 590.4 592.5 611 609.1 614.6 620.8 620.3 620.1 627.5 631.4 651.2 676.4 679.6 672.4 670.1 678.1 701.5 728.7 737.3 747.8 760.1 762.7 766.2 779.9 792.9 793.2 790 778.7 759.2 744.3 720 695.2 680.5 666.2 658.7 662.8 647.2 623.2 604.3 593.1 568.4 550.8 531.2 514.6 503.9 484 489.3 498.1 484.2 463.1 444.5 432 412.1 388.6 395.7 390.9 373.3 370 364.3 356.9 360.5 370.1 381.4 389 403.6 421.2 419.6 430.7 439.3 428 415.6 402.4 390.6 383.4 373.6 377.3 380.2 379.3 384.1 387.3 373.2 364.2 359.9 352 338 336.4 326.5 311.4 304.9 306.1 301.3 281 267.2 259.3 249.7 241.9 238.9 232.4 218.2 209.4 205.7 202.2 203.5 192 192 192 192 192 192 192 192 192 192 192 192 192 192
182 214.9 252 260.9 283.3 337.8 373.6 427.6 459.5 449.4 469.9 511.7 550 560.6 579.7 599.2 613.2 641.9 670.3 682 679 679.8 675.5 674.2 668.2 652.3 638.4 617.1 614.8 607.5 602.3 592.8 586.3 578.9 571.1 569.4 562.4 543.8 523.9 513.2 489.7 461.3 446.4 431.5 407.3 396.5 378.2 360.8 349.9 334.6 315.8 295.6 280 290.9 307.1 309.4 294.1 274.1 274.2 265.8 265.8 265.8 269 285.9 286.7 293.1 288.9 280.8 289.8 326.9 358.1 386.2 391.2 403.1 416.8 436.1 452.7 476.4 502 497.1 516.1 528.2 536.6 553.2 570.5 577 588.7 596.2 599.3 603.2 604.5 609.8 617.8 618.1 648.3 655.5 653.8 652.1 652.2 673.2 703.7 716.6 725.4 728.1 730.3 731.9 743.7 756.9 771.6 780.9 767.4 749.7 745.8 725.7 708.1 696.8 678.4 665.2 668 659.9 641.7 626.1 609.4 592.1 577.3 550.3 533.9 512.8 507.2 519 512.2 495.9 473 461 439.2 418 413.4 418 409.1 397.4 388.6 377.1 377.1 386.9 401 401.9 403.4 412.6 432.6 437.4 451.8 451.1 437 428 415.8 416.7 409.2 401.3 400.4 395.7 394.3 399.7 396.4 386.1 382.7 378.2 365 351.7 350.4 338.3 326 321.7 322.2 308.4 295.6 283 277.3 265.5 253.5 246.2 238.6 224.8 217.6 212.9 210.5 209.4 207 192 192 192 192 192 192 192 192 192 192 192 192 192
170 193 208 225.5 258.2 308.8 330.3 375.9 380.1 409.1 439.5 473.1 493.8 515.4 532.2 552.8 599.1 643.7 670.1 682.1 682.3 680.6 682.2 679.1 663.1 645.9 626.6 605.3 588.9 578.7 571.5 566.9 564.4 567.7 566.1 561 550.5 543.6 540.1 521.1 494.4 475.4 465.5 451.5 432.6 416.2 387.5 371.1 356.2 339.3 319.6 301.3 310.3 305.9 285.1 289.7 268.1 265.8 265.8 265.8 265.8 267.9 278.9 275.4 277.8 273.3 271.9 276.5 289.1 328.7 355.1 378.9 398.2 400.4 408.6 421.5 440.6 471.5 485.8 484.3 500.6 511.8 522.2 530.6 540.6 555 565 577.1 573 587.8 592.2 596.7 602.8 600.7 626.5 635.4 627.4 624.9 635.1 640.2 658.9 687.6 697.9 699.6 700.7 705.1 713.9 733.9 743.8 744.6 738.9 731.2 731.8 721.8 713.3 711 694.4 672.1 670.4 665.9 652.9 643.1 627.7 619 591.7 569.3 541.9 526.8 527 533.9 519.3 498.7 488.6 470.5 451 453.3 448.6 435.1 424.5 415 403.2 394.7 395.3 407.2 421.5 413.4 420.4 420.5 441.4 451 461.9 452.2 452.6 446.3 441.8 440.3 431.2 428 421.6 412.7 413.3 411.5 405.7 404.3 397.9 391.1 378.1 367.1 360 349 340.1 340.3 334.9 322.5 314.2 307.1 297.2 283.8 267.9 260.5 247.3 232.2 226.2 222.2 219.7 212.4 209.6 192 192 192 192 192 192 192 192 192 192 192 192 192
148.4 162.3 181.7 203.2 229.6 252.8 294.3 316.2 333.4 362.2 402.9 410.3 446.8 472.3 518.9 576.5 619.9 647.9 673.3 689.5 692.6 691.9 678.1 674.9 661.3 641.6 611.3 580 563.5 555.6 559.8 556 554.8 554.2 548.2 539.1 537.3 539 537.1 531.8 507.9 493.3 487.2 474.1 452.3 436.9 415.6 400.4 386.6 368.3 345.4 332.6 317 292.7 276.4 265.8 265.8 265.8 265.8 264.6 270.5 264.7 264.7 264.9 266.1 268.4 270.9 278.5 303.6 316 338.6 364 372.1 380.7 394.2 410.3 433.2 465.4 475.1 469.6 482.8 486.4 503.6 513 517.9 534.2 539.7 551.2 556.3 560.9 573.4 586.1 586.4 578.3 588.5 594.7 591.6 595 603.6 617.8 627.2 647 667.7 674.5 675.4 674.4 685.8 703.2 707.7 708.3 709.8 707 721 713.3 695.2 700.4 695.1 686.7 668.7 665.8 663.5 662.1 651.5 628.8 600.1 577.2 558.2 555.5 555.6 546.1 527.1 512 498.9 477.3 477.1 476.1 475.6 463.4 445.3 435.1 421.5 412 413.4 431.4 434.5 428.7 434 436.2 450.7 465.9 466.5 467.1 470.3 467.1 465.6 459.3 446.6 443.8 438.2 432.1 434 427.7 422.2 420.4 409.3 399.2 388.5 383.3 374.6 364.7 355 355.3 351.5 344 338 328 318.1 299.2 281.5 270.9 256 241.3 237.9 232.7 223.8 216.9 211 198 192 192 192 192 192 192 192 192 192 192 192 192
171.7 168.4 172.1 187 204.6 226.8 252.3 278.3 306.4 340.9 377.5 415.2 453.4 487.2 538.3 597 631.6 662.2 685.1 693.2 695.2 689.8 675.7 660.5 640.9 624.7 596.1 565.6 544.8 532.8 530.2 540.3 544.4 543.9 532.2 517.6 513.4 513.1 512 512.8 521.8 520.7 502.1 492 484.8 465.1 451.8 431.9 399.9 370.9 342.6 312.7 291.7 273.7 265.3 265.8 264.9 273 291.2 285.9 282.4 276 277.1 270.3 264.5 265.7 271 284 302.8 308.2 315.2 333.6 348.7 371.2 388.6 401.9 429.1 455.9 454.2 454.4 465 468.7 478.6 487 497.2 506.4 512.8 528.1 528.6 537.4 550.4 561.9 568 569.1 572.3 568.9 571.3 576 580.4 598.6 608.5 618.7 632.1 647.6 649 650 655.4 667.5 673.8 674.6 677.7 682.5 688.3 689.9 672.6 673.3 671.5 668.6 665 657.9 661.9 665.6 664.9 637.2 605.8 583.8 581 582.5 577.6 562.4 547.7 530.9 514.1 513.1 521.4 515.3 500 475.4 476.5 469.1 447.1 431.4 440.1 456.9 450 451.3 457.9 455.4 463.5 474.3 480.2 487.8 496.9 498.3 486.7 479.6 464.9 466 471.1 462.7 452.6 447.7 438.7 433.7 426.2 411.5 407.7 409.6 399.2 386.6 382.7 382 373.7 370.3 368.1 358.2 342.8 316.7 298.2 283.7 266.8 255.8 253.7 249.5 239.1 227.4 220.3 208.4 197.8 192 192 192 192 192 192 192 192 192 192 192
198.4 194.1 197.3 204.1 215.2 235.5 257.1 283.8 306 336.7 376.4 419.8 458.9 498.4 549.7 598.4 640.9 661.6 672 679 684 682 670.9 663.7 649.6 626.4 596.5 558.1 535.7 518.2 512.9 519.8 524.6 518.8 515.7 501.2 487.1 483.2 486.5 481.4 484.5 494.1 491.3 476 467.3 450 433 409.2 380.4 353.3 331.8 306.7 293.5 284.1 277.8 284.5 296.7 298.7 307.2 290.6 278.5 273.3 270.2 263.1 263 266.4 273.7 288.2 293.4 298.9 302.5 310.2 329.5 353.5 377.9 387.7 419.8 432.6 437.9 438.2 441.3 448.4 460.5 473.5 480.2 481 483.3 501.8 503.9 507.9 520.5 535.5 554.3 553.7 553.9 547.9 541.5 543.7 562.3 587.7 589 587.4 604.3 615.1 617.2 622.1 625.7 630 635.3 641.1 648.7 647.7 652 654 644.3 641 644.9 652.7 648.8 646.4 645.3 658.7 664.1 641.5 614.3 607.8 598.2 602.3 595.4 586.7 566.5 548.8 540 548.9 552.9 538 511.7 496.8 498.9 484.9 465.5 457.6 462.9 472.2 475.6 475.6 479.5 469.7 476.9 476.8 488.9 499.4 513.2 513.8 507 499.2 493.5 488.9 486.7 479.5 466 456.8 448.5 441.2 431.4 423.6 425.1 423.5 416.5 411.5 409.8 403.9 398.8 399.8 395.4 378.6 356.5 332.7 310.6 290.8 276.7 272.2 273.7 263.5 253.5 242.1 230.1 218.5 208.6 202.8 192 203.2 192 192 192 192 192 192 192 192
235.4 234.6 231.5 225.1 227.4 250.1 275.9 289.7 306.6 337.9 374.8 412.6 471.9 503.7 552.4 599.9 623.7 639.4 653.3 654.2 658.9 662.7 656.9 648.9 633.1 608.5 576.3 556.5 536.6 511.9 494.3 495.4 495.9 494.8 490.4 477.9 465.4 470.2 467.3 455.7 449.2 443.7 445.7 439.8 430.6 427.1 423.4 406.4 390.8 370 354.9 326.2 321.5 320.4 312.5 311.1 310.6 297.5 297 287.2 279.4 268.4 261.1 260.8 262.2 264.9 275.8 281.3 285.3 299 309.8 307.1 330.2 352.5 368 371.2 394.5 408.6 417.4 417.6 425.3 435.8 442.9 457.5 460.6 455.1 465.7 482.1 486.6 497.4 505.6 515.1 528.6 535.6 539.6 536.8 531.7 533.3 547 571.9 574 570.7 573.2 581.4 589.3 600 604.8 601.9 609.9 613.2 618.9 623.5 622.5 615.7 624.5 621.6 625.3 631.1 628.1 631.6 630.8 639.2 664.5 650 624.8 619.4 615.3 616.6 615.3 599.6 580 568.6 572.9 576.9 576.7 553.2 528.6 528.9 523.2 502.3 498.6 485.8 494.9 499 501.7 497 492 486.4 493.5 487.9 492.4 504.6 517.6 516.4 516 519 514 509.3 503.9 490.6 480.3 466.7 454.5 450.3 443.9 438.9 441.5 437.6 436.1 437.9 437.7 430.6 428.7 427.4 416 391 376.4 349.9 327.7 311.4 303.1 291.1 288.1 274.5 264.2 251 241 228.9 218.4 213.1 213.8 207.2 192 192 192 192 192 192 192 192
272.9 265.7 254.8 249.1 251.3 258 269.4 281.6 306.3 336.1 364.7 416.4 445.9 499.2 559 593.7 607.2 609.7 617.9 615.4 628.4 635.3 655.8 648 649.8 622.5 598.3 566.5 539.9 511.1 492 478.8 474.7 471.3 463.6 455.7 454.2 449.7 444 434.5 425.1 421.9 423.8 425.8 428.7 422.9 412.5 397.3 381.3 376.2 349 353 346.3 328.5 308.2 306.2 304.1 297.8 289.9 281.9 274.9 261.4 259.8 259.1 263.4 260.8 261.5 267.7 283 299 301.7 307.4 318.6 341.2 355.1 359.1 369.1 385.5 398 396.1 412.5 417.9 420.9 438.1 446.9 437.5 446.8 459.8 463.4 470.6 489.9 493 505 512.4 526.8 524.8 523.4 524.7 536.8 551.7 552.2 551.9 548.6 546.8 561.4 577.8 583.2 578.3 582.6 594.5 606 598.6 588 591.4 606.6 601.9 602.2 607.5 609.7 610.6 615.9 621.2 635 639.3 624.7 622.8 621.2 626 620.4 604.5 598.9 591.9 594.2 600.7 587.8 562.5 544.1 546.7 541.5 532.7 525 512.8 522.6 526.6 523.8 516.3 520.1 519.5 504.4 499.4 509 513.6 521.5 526.1 527.8 529.1 522.9 520.2 507.6 499.6 486.9 472.4 464.1 460.6 454.2 459.7 463.2 461.3 462.1 467.5 462.5 457.3 451.6 443.3 429.3 409.4 392.6 366.9 345.3 334.7 323.3 313.9 305.3 290 272.2 264.8 247.6 236 226.8 218.1 215.5 212.5 202.5 197.8 192 192 192 192 192 192
306 293.8 282.6 277.6 283.7 278.6 288.1 295.1 321 353.2 371.9 408.1 449.3 504.5 561.9 586.7 591.6 585.7 587.1 605.2 631.8 629.6 632 650.8 644.1 632.9 611 581.3 549.1 518.7 499.2 475.5 463.7 456.9 444.8 435.9 430.9 427.3 417.4 409.9 407.9 412.5 414.4 410 403.4 400.2 395 387.3 376.6 361.2 362.3 354.8 347.2 347.2 328.3 304.5 293.9 292.7 289.6 285.4 274.9 257.7 257.8 261.5 260.8 264.1 265.4 267.9 283.5 288.5 291.6 291.7 299.8 322.8 339.5 343 353.5 364.2 369.4 370.3 398.4 401.6 406.5 417.2 428.8 425.6 424.7 434.5 443.1 441.9 455.8 463.8 473.8 479.5 493.1 506.7 498.1 504 512.7 517.5 526 524 520.8 519.1 535.4 543.3 560.5 558.9 554.6 569 574.8 566.3 566 575.2 586.5 580 582.7 584.3 589.8 589.2 600.8 605.3 610.6 618.1 614.6 616.6 610.8 623.2 617.8 610.4 607.5 604.1 610.9 606.9 592.5 567.2 568.6 571.7 569.3 564.5 549.9 544.8 550.3 547.3 541.1 538.1 538.3 531.2 512.5 520.8 527.5 528.6 526.8 528.5 532.4 532.9 523.9 517.4 511.8 502.9 491.4 479.5 472.9 465.4 464.8 472.7 473.7 473.8 474.2 475.7 472 468.3 459.1 447.5 436.9 420.3 404 389.2 371.6 356 338.2 335.3 325.3 304.2 285.2 263.1 249.8 243.8 229.9 225.3 217 210 202.4 208.5 202.4 192 192 192 192 192
363.6 341.1 329 325.6 314.5 306.5 308.8 326.9 338 357.4 385.4 418.5 453.9 510.1 557.1 562.6 556.6 560.8 574.6 600.3 626.8 624 623.6 635.4 633.8 638.9 619.5 594.4 555.1 528.7 506.9 481.8 467.6 460.8 449.8 441.1 431.3 423.1 413.7 407.4 403.3 405.9 406.9 400.9 393.1 387 379.7 372.1 361.5 362.6 351.7 347.5 344 334.9 318 303.4 309.6 303.9 295.9 278 262.7 257.3 263.8 263.9 269.2 267.8 268.3 268.9 269.5 275.8 289.1 281.8 293.2 313.4 322.6 331.2 345.4 341.9 343.7 356.9 386.9 393.2 394.6 398.1 408.9 408.8 401.2 414.7 417 420.6 430.8 435.1 443.1 450 459.9 469.5 473.5 476.4 490.4 502.2 502.6 502.5 496.5 497 502.9 527.5 541.5 539.3 531.7 541 540.7 539.9 544.6 554.4 554.3 555 557.3 566.3 567.5 572.6 587.4 589.7 590.4 594.7 600.3 597.4 591.9 601.6 607.4 600.1 604.5 618.4 616.5 603.1 592.2 586.5 589.8 594.2 589 580.2 566.6 564.1 564.6 561.6 562.4 556.8 549.3 534.9 523.1 532.3 540.3 540.8 539.5 530.2 531.4 534 532.3 527.9 521.2 506.1 495.1 485.5 479.1 470.6 472.3 474.4 472.8 473.6 476.3 473.2 466.8 461.2 451.9 442 438.1 426.7 413.2 395.3 383 365.3 350.1 343.8 328.7 311 287.3 266.1 250.4 241.7 230.9 223 213.9 208.7 204.8 208.8 204.4 192 192 192 192 192
388.9 371 355.8 341.3 330.8 331.1 341.4 349.2 359.2 365.4 396.4 426.5 461.3 511.2 545.2 555.8 558.3 563.8 582.9 606.6 630.3 623.4 619.1 619.9 627.3 625.7 613.8 593.2 565.3 538.6 513.5 490.6 469.4 461.3 453.9 442.8 431.1 422.3 407.8 403.6 399.2 397.6 395.2 392.4 391.7 392.3 377 360.5 350.5 338 333.5 334.1 325.1 324.9 311 298.7 303.4 300 288 276.9 258.4 262.8 265.2 270 269.2 270.2 270.4 266 262.4 267.7 273.4 270.8 289.4 302.8 314.5 325.1 321.4 325.5 323.5 337.9 350.6 361.7 378.2 383.4 391.4 388.1 386.2 390.4 400.2 402.7 409.5 423.4 425.8 433.7 448 452.7 452.9 448.5 465.8 491.4 488.4 486.1 480.8 479.5 480.9 509.9 523.1 509.3 506.1 505.9 502.7 514.4 521.7 531.2 532.8 529.6 534.1 545.6 546.6 554.2 565.3 572.1 569.3 576.1 578.8 575.9 575.2 585.4 589.7 586.6 590.7 608.4 605.9 601.5 595.2 597.2 604.8 603.9 600 590.3 581.8 581.4 577.3 576.4 572.3 566.5 563.1 554.8 530.3 535.6 549 542.7 540.1 535.8 530.2 536.9 531.3 529.6 520.7 509.8 499.8 488.5 476.8 472.6 472.4 466.4 460.7 466.1 460.6 454.5 446.3 447.2 436.2 434.2 426.9 417.7 402.2 382.9 372 357.6 346.2 335.8 323.5 308.1 283.8 263.9 247 232.4 224.2 218.5 210.4 206.8 204 204.5 205.8 196.5 192 198.8 192 192
424.7 408.2 388.1 369.9 364.8 370.7 382.4 385.6 376.4 391 407.7 432 458.7 495.1 510.3 540.1 553.8 557.5 584.3 596.9 614.6 618.5 609.3 616 615.2 613.2 603.3 583.6 558.6 540.5 518.4 500.2 482.2 464.3 454.2 441.4 428.8 417.1 404.2 401.5 397.5 396.3 395.4 393.3 385.1 380.2 365.9 350.9 337.4 327.3 318.7 312 308 305.8 291.9 282.6 284.3 284 287.6 268.6 256.4 266.3 271.5 269.3 268.8 270.8 268.7 261.7 260.8 258.4 261.2 268 283.1 289 305.1 305.6 306.5 312.4 308.4 320 322.5 338.3 361.4 364.9 368.7 371.2 370.1 365.6 375.1 383.5 393.9 416.5 410.4 414.1 420.2 426.2 424.1 421.8 447.5 467.5 472.3 473.9 471.2 460.9 459.7 469.5 488.2 484.5 484.6 477.3 477.1 487.6 494.7 510.2 514.9 510.9 510.3 520.6 523.6 536.2 543.4 546.4 544 550.4 553.9 551.9 556.2 565.7 567.6 566.2 568.4 585.2 587.3 592.5 593 605.8 610.7 604.2 601.7 603.4 591.8 590.5 584.5 583.2 581.4 574.6 562.2 560 538.9 534.1 541.7 539.6 534.5 532.1 523.4 529 524.6 520.2 509.8 500.6 492.5 483.4 472.3 466.6 462.3 449.4 442.4 446.5 437.5 427.9 420.1 415.4 409 406.1 405.8 391.2 372.3 359.1 347.9 341.2 331.7 320.1 306 294.2 276.4 256.8 239.2 230.5 219.9 216.9 210.9 207.1 206.4 199.6 207.7 201.9 198.3 196.1 192 192
463.3 461.7 444.6 423.4 421.7 416.2 408.5 398.2 390.2 400.3 415.2 447.5 451.1 464.6 487 520.5 545.7 562.4 582.9 585 597.4 594 599.2 592.8 594.7 586.5 574.8 557.8 544.5 526.6 514.3 495.5 488.6 470.9 462.3 446.7 428.2 415.3 404.2 400.1 398.2 397.5 398.7 396.1 379.3 362 347.6 341.9 331.1 321.3 310.8 300.1 295.4 283.8 271.3 262.9 261.4 268.9 268.2 259.1 253.8 274.7 272.4 273.4 278.5 265.5 261.2 259.4 259.8 261.7 256.5 265.3 271.9 273.4 278.8 291.8 291.6 293.7 291.8 298.5 304.7 320.5 335.9 344.8 346.8 349.3 352.8 349.7 348.2 367.7 380 385.3 389.5 388.3 392.9 394.9 403.1 395.5 425.2 437.4 449.9 448.2 449.4 439 439.2 435.7 446.9 456.5 462.9 455.8 453.8 467.5 481.6 477.8 483.6 490.1 494.5 498.5 497.4 512.6 518.2 519.7 520.3 522.8 529 535.1 532.7 537.8 544.4 547.8 543.1 556.6 567.7 572.3 578.6 589.6 595.4 597.1 601.9 596.3 589.6 585.7 587.3 583.2 578.1 567.7 553.8 547.3 537.7 530.9 531.5 531 518.9 525.3 516.3 512.8 511.1 499.1 492.3 479.3 467.7 460.7 452.1 445.4 440 427.5 420.6 417.8 411.6 400.9 390.9 385.2 385.1 377.2 375.2 367.4 347.3 329.8 314.3 309 308.6 304 289.9 279.2 265.4 245 233.3 223.9 214.8 213.6 209.2 207.2 201.3 192 192 192 192 192 192 192
509.2 487.8 466.9 452.1 437.3 428.3 419.6 405.5 399.2 402.6 430.6 435 438 450.3 479.5 507.1 544.5 563.5 577.7 582.5 583.9 581.1 582 576.3 572.9 568.7 557.2 542.1 526.7 509.2 507.4 499.9 492.2 476.5 456.1 443.2 428.8 421.4 411.3 408.3 402.8 396.5 397.8 381.5 367.8 357.2 354.8 349.7 332.5 323.1 313.9 303.6 291.7 281 273.9 267.9 262.3 253.5 250.9 266.3 268.9 266.7 269.8 274.1 275.3 262.5 258.6 259.3 259.9 260.4 255.4 262 263.8 265.6 273.1 268.5 276.9 278.7 277 298 296.6 301 315.6 321.3 323.7 332.1 348.3 339.6 337.3 347 359.3 367.9 373.4 372.3 367.4 371.1 379.5 371.9 397.3 415.9 416.5 418.1 422.2 408.7 412.9 411.7 410.3 422.1 431.5 433.4 426.7 439.4 458.4 463.5 468.2 465.9 474.2 479.8 473.4 487.9 491.1 492.8 498.6 501 505.7 512.7 509.9 512.9 524.9 531.8 527.2 534.2 541.6 543.7 552.3 568.8 576.6 583.8 588.6 590.3 578.5 576.9 576.6 575.9 566.6 556.2 542 525.4 518.8 516.3 508.4 503.8 498.6 505.2 501.9 487.6 473.2 467.2 460.7 456 445.9 437.1 424.5 412.5 400.3 399.4 396.4 391.9 388 379.2 367.9 361.2 359.2 351.3 347.7 336.7 323.6 307.7 294.1 291.1 293.1 286.9 273.7 265.9 253.6 243.9 227.7 212 206.6 205.7 200.9 192 192 192 192 192 192 192 192 192
532.8 511.1 494.3 466.2 447.7 436.7 415.1 400.4 397.1 398 406.7 416.6 425.4 446 466.1 514.2 550 564 576.6 576.1 577.8 573.7 567.5 564.4 553.4 546.3 533.2 515.6 502.4 490.4 489.6 487.4 479.6 465.1 450.6 433.2 420.7 419.6 419.7 409 397.7 391.7 380.2 367.8 363.1 364.1 360.5 348.9 334.6 327.1 319.9 303.1 294.7 286.7 279.3 273.2 263.7 255.7 256.6 248.2 245.6 258 267 267.6 260.6 257.2 258.2 261.3 257.3 257.8 253.5 258 257.1 260.7 262.9 264.7 264.9 263.2 267.1 280.5 287.9 289.2 293.1 306.9 303.4 315.7 329.8 327.2 331.3 329 335.2 345.1 346.1 342.2 349 350.4 354.3 352 368.3 399.4 403.1 398.8 396.8 387.5 380.7 388.7 383.3 392.7 394.9 407 398.3 405.5 424.6 437.6 451.2 453.4 451.1 451.7 449 462.9 466.4 466.7 476.6 480.3 483.3 487.6 485.1 489.3 503.6 508.1 512.5 518.7 516.5 525.7 531.1 549.2 562.9 565.5 567 570.4 562.7 561.3 555.9 555 553.5 533.5 522.2 503.2 492 486.4 480.3 475.4 472.3 486.9 476.9 454.8 438.1 433.7 431.5 424.1 418.4 410.2 398.8 386.4 371.8 372.8 373 366.9 364 358 343.1 337 332.3 329.5 324.2 313.4 301.4 291.8 277 273.7 272 265.3 258.5 255.3 249.2 233.9 216.8 203.6 201.9 205.1 192 192 192 192 192 192 192 192 192 192
514.1 494 473.7 452.2 434.7 417 402.7 398 397.9 397 398.9 417.6 431.6 448.8 482.2 519.2 540 554.4 568.4 558.1 560 562.8 557 549.6 536.4 520.1 504.3 489.4 480.7 466.3 463.2 466 449.9 447.9 442.7 425 411.5 412.8 411.3 397.2 386.4 382.9 372.3 367.1 364.5 365 359.2 355.1 339.5 325.9 314.9 300.2 297.2 292.6 289.9 281.6 263.3 256.4 256.6 258.9 264.3 258.4 248.1 243.6 249.7 255.1 257.1 254.8 252.3 251.7 249.6 252.5 254.8 260.4 260.2 255 252.2 254.5 255.5 270.5 278.5 277.4 283.1 289.2 293.3 304.4 308.5 312.4 318 308.7 312.3 320.8 321.4 322.8 326.9 328.4 330.5 333.1 345.6 364.4 375.4 375 371.6 360.4 357.3 361.6 367.6 359.7 374 377.4 378.4 377.1 394 407.3 421.3 430.2 424.5 431.3 425.6 433.2 440.1 442.5 447.2 457.7 463.6 474.2 468.4 472.8 481 486 494.9 490.1 490 505.3 509.5 527.6 531.7 546 543.7 543.6 536.7 531.6 531 532.3 534.2 520.5 502.5 480.8 464.2 453.4 448.9 457.3 463.5 450.2 438.5 423.8 410.9 398.5 400.6 397.1 386.2 380.3 373.4 363.8 345.8 343.2 340.7 339.2 338.8 335.6 320.6 315.3 309.8 306.4 300.6 290.3 279.6 269.7 260.6 256.4 253 245.3 246.3 241.7 238.3 220 205.4 193.3 192 192 192 192 192 192 192 192 192 192 192 192
505.9 488.8 470.6 441.1 421.5 410.6 403.5 400.3 398.9 399 417.2 439.7 456.8 479 504.3 521.8 526.8 534.1 544.9 541.9 543.8 542.4 531.9 520 505 489.9 481.1 472 456.8 443.7 439.2 433.6 434.1 434 428.7 416.6 406.8 400.9 394.7 386.8 378.4 370.7 365.1 363.1 357.4 356.7 348.9 340.3 329.6 314.3 303.9 298.6 296.9 297.1 297.9 280.3 279.3 282.3 282.4 275.3 263.2 256.1 248.8 244.2 240 247.9 245.7 246.5 245.6 242.9 247.7 251.7 256.4 252.9 254.1 244.3 242.2 242.2 244.5 258 268.7 266 270.5 273.6 276 286.7 290.6 296.4 296 291.3 286.7 294.3 302.1 304.2 312.9 313 312.1 314.2 321.4 324.2 335.6 348.4 345.5 337.4 334.7 337.3 344.9 341.8 348.9 359.4 357.4 358.5 366.7 369.8 393.9 402.2 405.2 408.2 401.4 409.2 412.3 418.5 423.8 432.8 438.8 451.7 446.3 452.8 459.9 465.6 474.5 462.8 467 484.9 488.1 503.4 509.1 522.2 515.1 508 508.5 508.5 506.8 509.7 500.5 491.4 479.7 459.6 440.7 431.7 426.3 434.7 441.4 424.8 409.7 393.5 383 377.3 371.1 363.3 357.6 350.9 342.4 336.5 329.2 321.4 314.1 310 308.6 306.1 298.2 288.4 283.8 281.2 271.5 263.7 257 250.5 244.1 244.2 236.9 224.5 224.3 223.9 221.6 204.9 192 192 192 192 192 192 192 192 192 192 192 192 192 192
491.1 472.6 453.3 434.4 418.2 409 403.5 401 399.1 417.7 435.5 449.7 460.8 466.5 481.5 494.5 488.1 505.2 513.6 499.1 502.9 494.7 485.1 478 470.5 462.2 453.1 443.6 436.7 428.8 423.5 418.6 416.4 413.7 410.6 408.3 401.7 395.6 389.1 383.8 376.4 365.8 359.3 354.3 347.6 345.6 340.7 327.6 315.2 304.1 299.9 298.1 298.1 295.7 293 302.7 304.6 297.7 282.5 266.1 253.8 247.5 242.3 246.8 233.3 237.2 234.1 232.3 232.2 238.5 245.6 241.9 250.4 251.6 246.4 244.6 241.7 239.3 232.7 240 254.6 252.8 255.8 257.3 258.3 250.8 255.4 277.2 277.4 276.6 279.9 274.3 281.8 289.3 295.9 296.3 295.7 294.8 298.8 299.7 307.4 321.1 320.7 315.8 316.2 315.1 318.3 326.2 323.4 339.1 335.9 333.7 350.4 345.7 362.6 375.9 375.5 382.9 378.1 387.2 390.7 395.1 397.9 402.4 412.5 426.5 423.5 431.4 437 445.9 447.5 443.2 443.5 457 464.2 474.8 480.4 493.9 492.1 478.6 478.9 480.3 482.1 480.1 474.4 461.9 453.6 434.7 420.1 405.4 404.4 401.5 403.4 395.6 383.7 369.8 364.2 355.3 346.7 337.3 329.5 326 313.3 307.6 302.9 299.5 294.2 289.8 286.6 282.7 275.2 265.5 263.4 259.6 251.6 244.6 237 235.6 227.4 225.8 217.1 210.4 206.9 206 196.8 192 192 192 192 192 192 192 192 192 192 192 192 192 192 192
486.5 463.9 440 426.6 415.9 407.9 404.2 402.4 400.4 405.3 417 429.9 430.3 436.2 439.8 448 453.4 457.3 468 473.6 473.4 465.3 465.3 465 463.4 456.9 445.7 433.9 427.7 427.9 423.8 411.6 408.5 414.6 410.3 408 406.2 393.5 393.7 391.1 378.8 363.6 351.8 343 338.1 332 322.8 310.4 303.8 303.1 302.7 300.6 298.6 306.8 310.1 314.2 305.7 299.1 288.8 277.2 264.1 267.2 261 259.8 255 245.4 242.1 242 238.3 229.5 233.4 229.1 233.1 245.3 243.9 253.3 252.7 241.2 230.3 236.3 239.9 243 245 246.7 250.2 243.2 249.2 256.6 261.3 265.2 264.7 256.1 270.3 277.8 275.2 275.9 282.6 280.6 272.4 277.2 282.3 290.8 294.7 297.4 295.1 288.9 293.2 304.4 304.1 308.1 313.1 309.8 324.9 324.7 335.7 347.7 347.3 356.1 357.2 365 372.1 374.1 374.8 378.9 388.1 396.6 400.4 403.9 411.7 419.5 425.1 421.2 423.1 434.8 438.3 451.6 454.8 463.5 464.9 452.9 456.4 455.4 454.2 452.8 445.5 437.5 421.8 407.9 391.8 380.9 373.3 372.5 374 369 361.6 351 348.5 338.7 328.9 318 312.3 303.8 297 291.4 289.2 281.5 276.6 270.2 268.3 263.7 259.2 251 243.8 241.9 235.3 227.5 220.5 215.9 212.8 199.1 192 192 192 192 192 192 192 192 192 192 192 192 192 192 192 192 192 192 192 192
495 469.9 454.1 441.4 424.1 421 413.8 415.1 412.6 410.3 425.7 470.8 466.7 462.4 440 442.5 446.1 461.8 451.8 450 448.4 441.7 446.1 455.9 450.6 445.2 431.7 422.1 422.1 414.5 406.7 405.3 409.4 408.5 404.8 399.7 391.8 387.5 387.9 380.8 373.8 361.7 349.4 337.6 333 328.8 318.6 313 315.5 312.5 314.5 313.7 319.9 325 343.4 352.9 352.1 341.5 315.6 292.3 283 287.6 286.8 291.2 278.6 262.2 253.6 249.3 246.5 233.6 227 226.4 227.7 228 234.8 239.3 249.9 243.1 233.6 232.7 231.1 232.9 237.6 240.2 244.5 245 236.7 250.1 253.4 253 248.8 244.3 251.2 260.2 261.8 259.1 265 271.1 270.9 255.9 255.6 272.7 276.2 276.4 276.4 268.4 268.4 270.2 280.1 282.9 286.9 289.5 297.9 312.8 306.6 325.3 325.4 330 333 339.7 348.3 353.4 354.5 358.8 366.5 370.5 378.5 375.7 386.6 392.2 400.7 400.3 394.6 409.4 412.8 419.4 424.9 431 434.8 425.1 424.6 428.8 436 433.1 425.4 415.9 405.8 384.9 374.4 359.7 349.7 346.5 347.7 348.4 343.1 335.5 334.1 325 312.6 302.2 296.3 287.7 282.8 275.7 278.4 266.8 257.9 252.9 248.5 244.9 243 235.6 227.9 222.7 219.1 212.9 201.9 200.7 192 192 192 192 192 192 192 192 192 192 192 192 192 192 192 192 192 192 192 192 192 192
520 508.7 488.4 461.8 446.4 432 433.2 429.1 432.4 431.1 432.8 456.1 453.9 451.6 436.4 437.2 437.4 444.7 442.1 433 425.3 426 433.3 436.4 436.2 428.3 418.4 408.3 407 401.4 402.3 401.9 402.2 398.5 394.7 389.1 384 384.2 381.9 375.7 366.6 353.1 340.3 333.5 327.2 319.2 314.9 311.4 315.1 323.9 327.2 331.9 345.7 353.4 374 382.8 381.8 372.8 346.9 323.3 304.9 293.8 291.5 287.3 282.1 268.9 258.8 250.6 245.5 239.8 225.8 226.4 225.9 226 224.7 225.2 223.7 221.8 224.9 225 224.6 231.6 236.6 233.4 236.5 239.8 229 233.9 237.2 240.8 237.9 234.6 233.8 244.9 244.3 246.8 252 256 255.8 251.6 239.6 246.6 251.1 257.5 250 250.2 251.6 248.8 258.1 265 271.8 273.1 275.4 294 287.7 296.8 302.9 302.3 309 315 323.2 329 333.7 338.9 343.6 346.7 359.4 354.5 360.2 366.2 376.9 376.7 368.9 382 391.3 391.8 394.6 398.9 401.4 399.6 401.1 402.3 404.7 411.1 399 392.8 379.8 366 356.2 346.5 335.1 328.3 327.9 328.2 326.4 321.5 323.6 311.4 297.8 285 276.6 271 260.7 259.9 263.1 250.6 242.1 236.3 232.2 228.1 225.8 219 212.2 202.5 199.1 192 192 192 192 192 192 192 192 192 192 192 192 192 192 192 192 192 192 192 192 192 192 192 192 192
564 547 528.3 500.3 468.1 453.1 461 451.1 438.8 443.9 436.9 430.9 443.1 433 426.3 424.8 423.8 432.3 437.8 427.7 424.3 426.4 426.9 427.1 422.1 413.9 405.4 402.5 402.2 399.6 396.3 393.4 392.8 389.1 385.2 378.7 378.4 374.4 369.6 358.6 352.4 342.8 336.1 329.7 323.2 316.1 316.2 317.9 322.5 328.8 341.1 362.8 379.7 373 384.4 396.5 399.7 384.2 363.4 356.5 343.2 318.3 300.4 291.4 283.1 283.2 274.5 265.7 258.6 250.6 235.6 237 229.2 231 234.7 230.2 227.9 233.1 225 221.4 223.7 222.1 220.4 219.8 220 235.5 229.9 222.8 226.9 228.3 227.3 227.5 223.9 224.3 227.4 236.6 235.7 240.6 239.6 237.4 231.4 226.7 232.3 232.4 237.8 238.3 241.6 242.4 244.7 251.2 253.7 256.1 256 272.1 273.5 267.4 276.8 283.7 284 296 298.7 309.6 314.9 319.5 324.9 325 332.9 337.2 333.9 341.9 346.9 350.8 347.7 364.9 376.3 389 382.7 383.1 380.6 380.3 379.3 376.9 380.3 378.3 371.8 363.6 354.9 346.7 338.1 330.5 322 313.5 313.4 314.6 311.8 302.8 299.8 290.8 280.6 269.7 256.9 251.7 244.6 240.4 239.3 232.5 223.4 218.2 216.1 212.3 205.7 198.8 192 192 192 192 192 192 192 192 192 192 192 192 192 192 192 192 192 192 192 192 192 192 192 192 192 192 192 192
568.1 552.8 530.9 500.4 483 486.7 488.9 470.7 466.8 445.6 433.2 429.6 429.2 422.3 423.5 420 418.4 420.3 419 416.5 414.3 411.3 414.6 411.1 409.3 407.7 401 409 408.3 398.8 394 391.5 378.6 370.1 372.9 371.5 368.3 366.6 354.2 345.2 336.2 333 324.5 321.3 320.7 322.7 327.6 334.8 339.9 349.7 369.7 389.2 395.5 392.2 407.1 421.2 414.3 405.6 394.8 384.7 371.4 350.3 332.9 325.1 315.9 305.3 299.1 286.5 279.7 260.6 255.7 246 243.6 244 244 238.7 239.8 235.7 231.4 225.6 220.9 220.4 223.1 223.2 221.8 220.6 219.2 219.9 221.2 222.1 221.1 218.8 220.7 220.2 220 220.5 222.9 223 221.5 219.9 220.5 219.6 219.7 222.3 226.6 232 233.1 239.1 237 238.6 235.4 239.4 239.2 252.5 256.6 254.5 259.1 264.1 262.6 277 283.5 286.4 296.7 299.8 302.1 309.1 311.6 312.3 302.7 311.5 318.1 329.6 338.9 348.5 358.1 362 364.3 358.5 357.8 359 360.6 351 355 353.7 348.5 341.6 332.7 325 318.9 313.9 308.2 297.3 300.1 298.6 292.9 283 275.1 269.3 262.5 249.3 240 234 228.1 222.2 219 213.4 200.8 197.2 192 192 192 192 192 192 192 192 192 192 192 192 192 192 192 192 192 192 192 192 192 192 192 192 192 192 192 192 192 192 192 192
568.1 553.9 539.7 511.9 527.3 517.2 498.3 495.7 475.7 458.7 443.3 428.7 423.2 419.7 415.8 414.1 423.4 411.6 404.7 404 401.6 401.3 399.5 404 414 405.6 400 402.7 401.7 389.3 387.2 380.9 369.2 363.7 362 362.4 357.4 350.6 344.4 337.6 336.1 336.2 333.3 333.7 333.9 336.1 344.9 355.1 360.6 366.6 378.6 395.5 406.1 415.5 433.9 450.3 447.7 433.8 427.3 403.8 386.9 380 365.2 350.1 337.9 331.4 321.1 305 286.7 280.6 281.5 268.6 264.4 265.5 254.1 253.5 253.3 245.9 244 234.4 236 234 231.4 230.5 228.1 223.6 223.5 226.2 221 219.2 220.7 221.9 219 219.6 219.9 219.2 217.6 218.6 219.1 219.2 218.8 215.7 218.2 218.2 216.5 222.7 226.1 235.6 233.1 228 223.7 225.5 231.3 233.7 242.2 242 245.4 246.8 247.1 258.9 261 264.3 274.5 278.3 281.8 286.6 284 287.1 278.2 288.1 303.9 312.4 323.2 329.3 336.3 337.8 341.5 334.7 332.4 331.6 335.7 329.2 328.8 328.2 326.5 321.9 310 304.9 299.3 292.4 287.5 283.6 283.4 280.8 274.9 266.7 259.5 249.7 242.6 232.3 226.6 218.4 211.9 198.8 192 192 192 192 192 192 192 192 192 192 192 192 192 192 192 192 192 192 192 192 192 192 192 192 192 192 192 192 192 192 192 192 192 192 192 192
589.5 579.2 555.9 542.9 535.7 524.5 515.3 521.2 500.8 473 452.4 435.7 429.5 424.6 413.5 409.9 406.7 402 401.1 403 400.5 398.6 398.3 405.3 402 398.5 393.7 390.9 387.6 385.8 380.2 371.7 368.1 364.7 356.2 352.3 347.4 346.6 342.8 337.1 343.6 348 352.1 348.8 350.3 350 358.4 372.5 378.4 387.1 406.2 429.2 440.8 451.3 466.3 476.4 474.4 464.4 454.4 430 407 390.5 387.6 379 356.6 345.6 331.2 320.3 308.4 303.3 299.4 289.2 293 274.5 265.9 273.3 262.1 258.3 256.2 247.8 265.6 253.5 247.1 240.3 235.6 229.3 225.4 229.7 224.9 224.4 225.2 225.3 223.9 222.8 229.1 221.7 218.4 219.1 219.5 219.7 219.4 218.9 217.8 218 217 216.4 218.1 224.2 225.8 222.5 218.9 219.7 220.1 219.5 226.4 228 231.5 232.7 233.7 235.6 244 247.3 249.2 257.1 263.1 258.8 260.5 262.8 257 271.8 285.6 294.7 298.5 303.7 310.9 314.3 313.2 313.4 309.2 312.8 311.5 305.6 293.9 297.5 305.7 301.4 288 284.1 277.9 273.3 266.4 269.2 267.8 261.4 256.9 251.5 241.6 233.1 224.9 217.2 211.8 199.3 192 192 192 192 192 192 192 192 192 192 192 192 192 192 192 192 192 192 192 192 192 192 192 192 192 192 192 192 192 192 192 192 192 192 192 192 192 192
613.6 595.8 563.2 572.4 565.5 558.2 555.1 541.2 517.5 491.8 474.8 454.1 447 433.7 415.9 406.7 404.5 404.1 405.9 409.1 410 406.3 407.3 410.5 405.6 395.1 387.4 381.6 380.4 375.8 374.7 367.3 361.2 357.9 355.8 354.9 357.5 353.9 351 355.5 361 359.6 363.4 362.7 366.7 369.8 382.5 393.4 407.9 408.8 431.9 451.3 462.2 478.3 488.2 492 491 484.2 471.2 450.6 437.5 417.9 410.4 396.9 374.4 355.6 340 334.5 320.2 318.7 308.7 305.5 293.1 287.1 279.7 279 274.7 274.4 272.1 272.6 286.7 271.2 258.4 249.8 242.3 236.5 233.2 234.1 230.9 235.4 234 236.2 232.6 228.4 227.9 225.7 223.1 219.1 220.8 220.1 219.8 219.3 219 218.5 218.1 217.8 216.1 215.3 216.2 216 214.1 216.3 214.3 217.4 218.5 221.4 222.1 221.5 221.5 224.3 230.4 231 225 232.3 238.6 243.7 248.1 243.6 241.2 249 271.1 273.6 272.8 278 282.9 287.1 288 291.1 287.4 289.4 285.9 282.5 273.6 274.7 277.8 281.4 270.2 263.4 260.4 254.7 249.9 252.8 252.7 247.5 242.8 235.3 227.5 218.4 211.3 195.4 192 192 192 192 192 192 192 192 192 192 192 192 192 192 192 192 192 192 192 192 192 192 192 192 192 192 192 192 192 192 192 192 192 192 192 192 192 192 192 192
640.8 609.5 608.7 610.3 583.7 575.5 565.9 547.1 519.9 496.2 479.3 457.9 451.1 430.7 418 414.1 411.4 416.5 415 424.2 423.5 414.1 424.7 430.5 426.2 404 387.2 382.6 375.8 374.7 369.7 362.9 362.5 360.1 359.9 366.1 370.6 370.1 373.3 388.9 384 382.3 383.9 385.2 390.9 400.8 407 417.5 432.5 432.8 452.8 473 489.5 492.9 498.3 501 494.8 489 482.2 474.1 462.2 445.1 429.4 421.8 396.9 370 352.1 348.5 346.7 327.3 312.4 307.3 313.8 298.7 294 297.8 290.7 293.9 305.2 310.8 318.8 300.1 278.6 270.5 261.8 258.2 249.3 244.4 244 248.8 245.1 242.6 240.1 236.3 236 237.4 233.9 224 221.8 221.1 222.1 220.2 219.2 218.9 220.4 219.6 215.7 217.9 217.3 218.1 217.6 217.4 216.6 216.1 216.7 216.8 217.8 218.3 218.2 220.8 217.7 217.2 213.7 214 224.3 231.9 235.3 225 222.9 234.1 246.8 249.3 255 256.3 262.2 267.2 268.4 271.7 271.6 271.9 268.2 260.8 256.2 250.9 255.3 257.5 248.1 241.6 240.6 235 230.3 236.4 235.2 234.4 230 222.8 215.4 208 192.5 192 192 192 192 192 192 192 192 192 192 192 192 192 192 192 192 192 192 192 192 192 192 192 192 192 192 192 192 192 192 192 192 192 192 192 192 192 192 192 192 192
661.5 634.2 639.4 621.5 609.9 584.9 567.3 547.9 521.4 498.4 481.2 469.7 469.6 455 438.3 435.9 422.7 436.5 434 438.4 430.2 430.8 431.7 438.8 419.5 400.9 383.8 379.1 379.8 378.3 375.4 373.8 370.1 368.2 373.4 380.1 387.6 382.3 405 408.8 410.6 411.9 405.6 404.9 413.2 427.3 433.7 450 452.4 453.3 474.8 491.9 504.4 508.6 514.8 522.1 519.1 510.8 499.7 494.3 484.7 471.8 454.6 438.5 416.2 400 373.6 364.6 358.4 333.8 319.1 322.5 319.5 316 323.1 323 309.6 314 338.6 338.8 337.3 321.3 307.1 297.2 289.2 281.1 269.9 267 263.6 262.5 263.3 255.4 254.6 254.4 252 248 239.2 234.7 230.5 225.2 224.7 222.2 224.7 223 223.4 222 221.1 219.6 218.4 219.1 224.5 224.3 219.1 216.3 216.7 215.8 215.7 216.7 216.2 217 219.9 218 217.5 213.6 220.2 222.7 214.9 199.3 203.1 218.3 228.7 225.4 238.3 245 246.7 248 253.9 258.6 256.5 258.8 251.4 246.1 238.8 234.1 235.6 238.3 230.7 226.2 222.4 218.6 213.4 214.4 215 217.2 215.8 212.7 195.3 192 192 192 192 192 192 192 192 192 192 192 192 192 192 192 192 192 192 192 192 192 192 192 192 192 192 192 192 192 192 192 192 192 192 192 192 192 192 192 192 192 192 192
680.9 667.1 658.4 648.2 627.1 608.2 591.5 568.7 554.8 524.2 506.4 503.7 496.1 472.4 453.9 445 439.2 451.1 444.6 442.3 442.8 434.1 437.5 431.3 411.8 403.8 396.6 391.1 390 391.4 389.5 385.9 384.9 392.8 395.8 398.1 406 401.3 411 412.1 419.5 428.6 431.4 433.8 434.7 446.6 460.4 479.3 476.3 481.2 497.6 509.1 528.6 536.6 536.1 531.6 531.3 528.8 514.7 507.4 495.1 478.1 463.7 444.2 424.8 405.1 388.9 375.8 369.1 362.1 350.7 337.4 334.9 339.1 356.8 340.2 315.2 339.1 364.2 356.9 345.9 347.6 341.5 329.9 311.9 302.6 289.1 282.6 279.9 285.9 278.3 272.6 274.5 271.3 265 254.9 247.8 243.3 243.6 241.6 239.4 236.3 233.8 227.1 227.6 229.5 229.1 225.9 223.5 226.4 227.2 230.3 225.7 218.7 221.9 217.3 216.5 218.2 221.5 221.8 220.5 220 217.3 217.5 219.7 216.3 192 206.4 211.8 204.8 192 206.5 217.7 229.6 231.7 232 236.3 242.4 236.8 243.9 236.9 229.3 224.1 218.5 215.7 215.2 212.8 213 208.4 201 192 192 192 192 195.2 198.2 192 192 192 192 192 192 192 192 192 192 192 192 192 192 192 192 192 192 192 192 192 192 192 192 192 192 192 192 192 192 192 192 192 192 192 192 192 192 192 192 192 192 192 192
717.7 710.5 694.8 683.8 666.9 657.6 629 612.7 597 558.8 538.9 520.7 502.9 497.2 482.8 467.5 458.2 463.1 461.8 456.4 465.8 453 443.6 435.5 434.6 428.9 421.7 408.1 403 401.5 398.1 397.6 406.1 415.6 424.5 432.6 423.9 418.4 422 428.4 437.9 446.1 453.8 461.6 456.4 468.6 478.8 504.6 502.1 507.1 516.2 529.6 545 556.3 559 552.3 551.7 545 528.5 507.1 498.6 486.5 473.6 451.7 424.1 406.9 391.2 388.8 395.1 390.8 364.8 358.6 356.2 373.8 367.8 345.5 337.5 365 373.5 369.8 364.6 361 358.5 345.3 339.7 324 317.7 312.6 302.1 293 302 317.5 310.2 301.7 282.1 266.6 266.5 266.6 256.7 252.5 259.6 254 251.3 246.5 241.1 235.7 237.5 236.2 237.4 245.9 240.7 247 239.7 229.8 231.4 222.4 225.1 236.2 232.1 225.1 227.7 222.3 219.9 223.2 230.9 220.4 215.4 221.9 222 229.7 216.8 192 206.3 213.8 217.8 223.4 224.4 225.3 220.1 224.1 220 213.2 210 209.1 198.5 192 192 192 192 192 192 192 192 192 192 192 192 192 192 192 192 192 192 192 192 192 192 192 192 192 192 192 192 192 192 192 192 192 192 192 192 192 192 192 192 192 192 192 192 192 192 192 192 192 192 192 192 192 192 192
750.5 738.6 731.6 710 701.5 677.4 664.1 648.5 629.3 593 559.6 541.6 525.1 519.9 508.7 501.6 499 484 481 481.7 478.3 463.9 453.9 456.7 458.2 456 443.7 424.1 418.1 413.1 409.4 411.9 430.4 441.1 450.9 446.1 435.9 429 435.6 445 453.2 462.2 470.2 479.1 478.1 488.3 503.4 525.6 527.6 530.1 545.6 557.3 569.3 577.9 586.5 578.6 566.3 568.7 546.1 523.1 523.1 520.3 505.6 471.5 451.5 426.9 417.6 415.9 412.4 406.6 391.7 385.8 392.9 393.2 373.1 353.4 353.2 377.7 385.6 383 382.1 389.7 384.8 372.5 362.8 352.6 350.8 333.2 334.4 341.6 348 349.7 326.2 307 295.5 288.9 287.3 285.4 274 275.8 281.2 284.3 281.7 265.7 255.2 254.3 246.6 248.4 253.4 251 248.5 248.4 245.5 247 258.9 258.4 256.3 248.1 241.6 237.5 236.6 230.3 225.9 232.4 228.6 223.2 224.7 230.7 235.3 237.4 215.6 192 192 207.9 211 213.8 211.9 209.3 205.6 194.2 192 192 192 192 192 192 192 192 192 192 192 192 192 192 192 192 192 192 192 192 192 192 192 192 192 192 192 192 192 192 192 192 192 192 192 192 192 192 192 192 192 192 192 192 192 192 192 192 192 192 192 192 192 192 192 192 192 192 192 192
778.7 764 762.9 740.9 708.6 699.9 688.2 659.5 629.3 610.8 591.4 577.9 559.3 541.2 538.8 536.3 518.3 512.1 513.4 504.9 493.8 476.4 471.7 466.7 470 472.6 461.5 444.7 431.7 426.6 424.2 435.4 451.6 469.8 467.7 455.4 446.8 443.7 448.5 457.3 472.4 485 488.7 494.7 496.7 504.1 525 540.1 549.6 561.6 569.7 581.8 589.7 599.4 605.9 600.1 583.3 580.5 564 555.4 548.6 535.1 514.6 499 477.1 459.2 447.5 448.8 443.2 432.3 415 409.7 417.5 400.9 386 366.7 374.1 388.5 396.7 403.2 408.9 409.3 408.6 390 388.3 392.3 375.3 368.7 368 379.3 379.6 354 335 330.8 319.4 310.9 309.3 299.8 299 295.9 299.1 301.8 292.1 288.2 280.7 271.8 271.1 274.3 267.5 259.8 261.3 264.6 272.7 268.6 281.2 281.8 272 265.7 253.8 250.4 242.2 237 236.8 236.8 229.5 227.5 233.2 235.5 238.1 235.5 215.9 192 192 195.8 210.8 215.8 213 201.3 192 192 192 192 192 192 192 192 192 192 192 192 192 192 192 192 192 192 192 192 192 192 192 192 192 192 192 192 192 192 192 192 192 192 192 192 192 192 192 192 192 192 192 192 192 192 192 192 192 192 192 192 192 192 192 192 192 192 192 192 192 192
813.6 808.4 787.6 749.6 730.1 718.3 706 687.3 674.1 645.8 633.7 616.5 586.4 582.4 571.4 551.7 537.4 541.9 538.6 523 512.1 503.6 496.5 485.1 482.8 481.4 470 462 459.2 456.9 457.5 467.6 479.4 483.8 481.4 467.1 462.9 462.7 473.1 482.1 480.1 490.6 503.3 510.7 512.2 526.6 544.2 563.7 565.3 574.7 593.3 603.8 613.1 619.9 626.5 618.6 591.6 577.8 568.1 554.2 540.9 538 538.1 528 516.5 502.5 488.5 482 473.6 456.2 435.5 430.1 429.6 415.3 394.8 380.7 384.3 400.2 412.6 426.8 434.1 433.2 419.5 418.1 423.1 408.6 402.7 397.4 395.8 402.8 385.2 366.2 366.2 355.1 343.9 330.9 328.2 325.4 317.4 316.1 316.4 315.3 313.9 307.1 298.5 295.3 296.5 289.9 281.4 272.3 282.1 288.9 298.7 299.6 298.8 292.8 287.9 277.8 266.9 259.4 248.5 246 250.4 244.1 239.3 237.1 238.4 234.1 233.8 224.2 213.4 192 192 192 211.7 211.1 206.5 192 192 192 192 192 192 192 192 192 192 192 192 192 192 192 192 192 192 192 192 192 192 192 192 192 192 192 192 192 192 192 192 192 192 192 192 192 192 192 192 192 192 192 192 192 192 192 192 192 192 192 192 192 192 192 192 192 192 192 192 192 192 192
860.3 848.4 801.1 762.2 743.2 727.8 725.7 715.8 703 677.5 665.1 638.7 627.2 602.6 591.5 577.7 572.1 566 554.1 547.9 526.7 514.8 512.9 508.8 495.2 495 509 495.9 495.3 491.8 494.8 501 510.4 505.9 492.6 484.5 477.1 479.4 487.9 492.6 499.4 511.2 517.6 531.8 543.6 559.4 573.5 583.1 588 598.2 615.3 632.4 641.8 640.4 634 616.6 600.3 590.7 588.5 571.6 558.5 550.5 547.9 549.6 542.6 528.7 510 510.9 492 468.1 464.8 458.3 449.4 427.5 415 393.4 403.5 419.6 430.3 440.7 455.2 446.5 445.1 442.2 438.9 439.2 432.1 422.9 420.2 411.6 396.8 386.8 387.7 382.9 368.5 357.6 351.1 349.3 340.1 341.4 341.6 337.4 336.2 324.3 317.2 325.3 313.8 308.4 297.3 296.2 306.8 316.8 326.5 325 311 302.3 301.9 287.5 284.3 273.4 261.8 260.2 261.3 250.4 243.5 243.1 238.2 227 225.6 217.6 197.4 192 192 192 209.1 205.9 192 192 192 192 192 192 192 192 192 192 192 192 192 192 192 192 192 192 192 192 192 192 192 192 192 192 192 192 192 192 192 192 192 192 192 192 192 192 192 192 192 192 192 192 192 192 192 192 192 192 192 192 192 192 192 192 192 192 192 192 192 192 192 192
845.2 842.7 816.9 785.3 769.9 748.1 739.7 727.3 717.5 711.9 683.8 666.3 648.4 629 623.9 614.2 601.5 583.3 568.8 566.8 560.3 534.5 524.4 524.2 516.1 515.5 527.1 532.5 529.1 520.9 514.7 523.1 535.9 522.4 509.8 501.7 494.1 494.7 501.7 504.1 514.4 525.3 534.7 560.4 573.3 579.7 585.5 594.7 616 624.8 636.1 649.4 661.2 657.6 646.4 631.7 615.8 600.7 590.5 583.4 576.7 568 567.2 566.6 558.7 543.6 528.6 525.3 502.8 502.5 495 485.7 473.4 449.3 425.1 410.8 431.8 439 451.3 458.4 470.8 466.9 465.2 463.9 460.2 456.2 449.9 442 433.3 425.4 426 413.7 404.2 392.6 381.9 373.6 374.1 370.4 367.6 366.3 363.8 360.9 353.6 348.7 340.5 335.7 329.4 320 323.1 318 325.2 338.7 345.6 345.2 334.7 325.5 308.5 306.8 298.9 288.9 279.4 280 272.2 256.9 248.2 247.2 236 219.9 215 207.5 192 192 192 192 192 192 192 192 192 192 192 192 192 192 192 192 192 192 192 192 192 192 192 192 192 192 192 192 192 192 192 192 192 192 192 192 192 192 192 192 192 192 192 192 192 192 192 192 192 192 192 192 192 192 192 192 192 192 192 192 192 192 192 192 192 192 192 192 192 192
808.9 822.6 837 825.8 822.5 808.7 780.9 751.3 732.3 723.3 701.8 690.3 679.9 672.7 654.6 649.1 640.9 628 616.2 588.1 578.3 575 571.4 555.4 561.9 565.2 571.1 571.4 554.8 550.3 540.1 552.5 555.9 545.1 530.9 522 518.3 513.6 512.1 518.3 534.3 544.3 553.5 573.6 578.3 589.3 601.2 602.5 615.1 628.7 648.7 651.9 660.9 656 648.1 644.5 629.3 618.3 605.6 587.8 574.1 570.2 568.4 562.9 561.6 553.5 540.5 531.8 526.1 524.1 510.7 502.5 486.9 473.7 442.7 432 456.7 465.2 474.9 482.7 485.9 485.1 483.8 482.6 478.9 478.5 467.5 464.3 465.3 465.8 453.1 431.4 427.9 422.4 410.8 405 396.8 401.1 398.2 388.6 385.2 383.4 378.3 371.1 362.3 359 349.3 342.4 352.2 342.8 352 360.3 376.2 366.1 349.1 333.2 334 323.6 305.7 297.7 285.9 284.5 269.3 255.6 242.3 241.5 229 213.4 206.1 192 192 192 192 192 192 192 192 192 192 192 192 192 192 192 192 192 192 192 192 192 192 192 192 192 192 192 192 192 192 192 192 192 192 192 192 192 192 192 192 192 192 192 192 192 192 192 192 192 192 192 192 192 192 192 192 192 192 192 192 192 192 192 192 192 192 192 192 192 192 192
780.8 789 805.9 824.2 855.7 828 790.1 768.3 757.1 745.9 734.8 712 709.1 706.2 691.4 681.7 676.9 662.5 651.1 637.5 639.4 630.4 609.3 597.7 601.2 605.7 610.8 611.3 594.1 581 579.4 582.8 569.7 555.8 547.8 540.1 544.1 543.9 539.6 536.2 548.5 564.7 581.7 589.6 593.4 617.1 624.4 626.5 632.3 641 655.5 664.5 666.3 663.4 654.8 647.7 640.9 633.2 612.2 591.5 575.8 568.9 558.7 553.8 550.5 546.3 536.9 529.5 524.7 531.2 535.4 525.3 500.9 478.6 462.4 450.5 472.9 488.6 492 505.4 506.5 504.2 508.9 499.5 496 498.8 494.1 497.7 492 486 466.6 459.5 462.5 452.7 438.8 431.1 429.6 428.3 421.6 408.2 415.2 410.5 401.3 390.4 393.9 389.2 378.1 382.5 384 379.9 383.4 381.2 384.5 373.9 359.8 356.7 353 329 309.2 305.9 291.1 277.2 263.6 248.6 232.7 228.2 221.3 206.2 192 192 192 192 192 192 192 192 192 192 192 192 192 192 192 192 192 192 192 192 192 192 192 192 192 192 192 192 192 192 192 192 192 192 192 192 192 192 192 192 192 192 192 192 192 192 192 192 192 192 192 192 192 192 192 192 192 192 192 192 192 192 192 192 192 192 192 192 192 192 192 192
754.2 769.7 767.2 784.9 809.3 834.2 811.1 803 784.7 768 747.2 732 732.2 726.8 723 713.7 703 698.9 693.3 684.8 677.5 671.1 655.5 649.9 648.8 644.9 640.9 636.8 636.2 610.2 611.6 606.1 599.9 587.2 574.3 566.1 557.8 555.3 556.7 560.2 581.6 600.8 617.6 620.3 628.6 640.2 648.3 646.9 654 665.8 670.9 678.6 686.2 676.8 666.9 657 648.3 631.8 617.2 602.6 581.2 575.5 564.8 558.2 548.8 536.4 531.4 535.4 542.9 550.3 549 545.1 518.7 498.6 474.5 472.8 489.9 502.8 511.1 520.3 524.6 520.2 520.7 518.3 521.8 518.6 521.5 521.6 506.4 502.1 495.4 491.3 486.2 473.1 464.8 461.7 457.3 444.8 435.6 433 434.5 427.5 422.6 422.3 426.4 421.6 416 411.2 418.9 411.2 405.8 396.2 399.9 396.6 374.5 371.2 352.2 329.6 311.3 307.2 294.3 275 258.6 240.4 223.2 218.2 210.7 192 192 192 192 192 192 192 192 192 192 192 192 192 192 192 192 192 192 192 192 192 192 192 192 192 192 192 192 192 192 192 192 192 192 192 192 192 192 192 192 192 192 192 192 192 192 192 192 192 192 192 192 192 192 192 192 192 192 192 192 192 192 192 192 192 192 192 192 192 192 192 192 192
717.4 719.8 737 760.1 780.8 792.6 789.4 804.6 810.6 789.7 774.2 767.1 759.3 757.9 749.1 743.2 738.6 726.2 727.9 720.1 714.8 711 713.5 714.3 709.9 703.4 683.4 658.8 650.8 644.6 629.3 621.6 622.4 616.8 607.1 589.1 579.3 574.7 581.9 595.7 616.8 629.1 632.9 646.1 652.6 665.4 671.5 678.7 685.2 685.7 701.2 705.4 702.6 694.9 683.3 669.8 656.5 646.7 635.5 615.5 616.8 609.9 581.4 571.9 561.1 550.6 551.1 556.6 565.7 577.2 579.2 564.9 541.8 512.7 485.5 487.9 502.7 519.6 528.4 545.5 561.5 556.3 543.5 541.7 543.4 547.3 547.6 540.8 535.6 526.4 519.1 514.1 508.5 501.2 496.6 493.3 475.9 470.8 464.4 454.3 453.2 450.8 458.8 455.1 451 443.2 442.8 447.1 437.9 434.2 434.5 420.3 423 401 393.2 367.2 347.9 324.6 309.1 296.5 288.2 269.3 251.5 233.7 213.9 207.9 195.4 192 192 192 192 192 192 192 192 192 192 192 192 192 192 192 192 192 192 192 192 192 192 192 192 192 192 192 192 192 192 192 192 192 192 192 192 192 192 192 192 192 192 192 192 192 192 192 192 192 192 192 192 192 192 192 192 192 192 192 192 192 192 192 192 192 192 192 192 192 192 192 192 192
678 676.3 692.5 715.1 734.7 765.7 758.1 771.2 796.6 807.4 808.3 806.3 796.3 790.2 773.4 763.9 758 757.6 761.9 759 754.1 753.6 751.8 748 743.6 736.8 705.7 683.7 674.7 659.9 643.8 642.1 640.5 634.2 628.2 619.3 612.9 613.4 619.7 633.1 651.2 653.4 661.1 659.3 669.9 694.5 704.1 714.1 709.8 719.6 735.2 742 733.6 716.8 692.8 682.3 675.7 667.9 644.6 641.8 639.7 628.6 603.5 597.2 582.1 580.5 586.4 586.6 578 597.6 596.5 578.2 560 528.4 506.5 501 522.9 544 557.7 573.1 570.3 563.7 565.2 564.2 569.1 569.8 570.7 570.8 565.8 562.4 549.8 550.8 541.9 533.7 526 507.4 509.7 495.5 488.3 482.1 477.3 484.2 487.6 494.3 483.1 472.2 467.9 461.6 464.5 452.7 445.6 435 420.7 407.5 385.8 355.6 338 315.6 304.9 284.7 270.3 255.9 243.2 227.9 210.6 204 192 192 192 192 192 192 192 192 192 192 192 192 192 192 192 192 192 192 192 192 192 192 192 192 192 192 192 192 192 192 192 192 192 192 192 192 192 192 192 192 192 192 192 192 192 192 192 192 192 192 192 192 192 192 192 192 192 192 192 192 192 192 192 192 192 192 192 192 195.6 192 192 192 192 192.8
629.8 636.5 652.5 674.4 698.6 717 711 729.7 769.8 795.5 800.8 797.5 794 783.8 770.3 764.4 760.3 759.6 758.8 754.5 749.5 757.9 764.6 767.4 767 753.9 725.7 704.2 693.3 669.9 656.6 649.8 651.9 646.4 646.9 643.8 638.8 646.8 654 658.3 678.2 677.3 674.3 672.7 690.2 712.7 728.8 734.5 742.7 752.1 754.6 764.4 760.8 743.2 725.3 712.1 694.4 668.7 662.3 652.3 650.9 638 625.3 615.2 607.3 612.9 608.5 604.6 606.6 616.2 614.5 592.7 566 548.7 533.5 523.9 546.8 558.5 572.2 576.8 578.3 577.8 581.8 593.6 595.1 601.7 603.7 600.7 600 588.7 582.7 578.6 569.1 558.8 539.8 532.6 534.1 527 520.3 509.9 514.8 508.2 509.8 517.7 497.5 489.9 478.3 468.2 473.2 465.7 447 434 413.2 397.4 382.7 347.8 324.3 303.4 293.4 271.2 255.3 246.5 239 217.4 207.4 192 192 192 192 192 192 192 192 192 192 192 192 192 192 192 192 192 192 192 192 192 192 192 192 192 192 192 192 192 192 192 192 192 192 192 192 192 192 192 192 192 192 192 192 192 192 192 192 192 192 192 192 192 192 192 192 192 192 192 192 192 192 192 192 192 192 192 192 206.2 199.4 192 192 193.2 199.7 206.7
601.4 608.2 617.5 634.5 656.7 670.6 661.5 699.2 736 755.8 773.6 773.4 768.9 761.2 753.6 748.2 748.4 743 743 737.6 732.3 736.8 745.4 754.5 759.6 749.6 733.5 713.9 692.5 680 668.3 660.2 661.2 663.4 662.3 670.1 677.2 685.3 686.5 694.6 695.3 690.3 691.4 696.5 710.5 730.9 743.4 754.8 767 769.9 766.9 772 765.7 756.6 736.8 722 702.3 682.3 666.2 658.6 652.8 647.3 640.2 640.8 634.7 630 620.8 623.5 629.3 634.1 629.6 607.8 585 573.4 548.6 543.5 553.5 564.2 574.5 585.5 593.3 598 606.1 610.5 615.5 618.2 617 615.5 610.2 605 602 597.1 586.3 579.6 568.2 553.7 553.2 543 542.1 536.2 537.5 530 516.8 523 499.9 488 476.6 470.3 481.3 459.9 434.2 420.7 406.1 380.8 363.2 336.5 309.3 292.2 276.6 258.2 243.4 231.3 226.2 207.7 201.9 192 192 192 192 192 192 192 192 192 192 192 192 192 192 192 192 192 192 192 192 192 192 192 192 192 192 192 192 192 192 192 192 192 192 192 192 192 192 192 192 192 192 192 192 192 192 192 192 192 192 192 192 192 192 192 192 192 192 192 192 192 192 192 192 192 192 192 201.8 211.5 204.7 205.5 210.6 202.7 203.9 210.6
566.7 575.1 581.1 586.9 601.3 613.5 630.6 672.8 686.8 702.4 721.2 734.7 729.2 726.3 724.2 725.8 722.9 720 720.8 716 708.4 708.5 716.1 722.4 732.2 732 724.4 719.8 712.4 703.2 693 671.3 671.8 676 687.9 699.1 712.8 715.8 711.5 708 705.7 705.2 706.1 719.4 730.8 747 757 757.7 768.9 773.4 769.4 773.1 765.7 754.6 741.4 723.9 708.3 695.5 675.2 665.1 658.3 663.2 660.5 659.6 654.6 647.4 647.2 647.9 650.4 647.3 636.1 614.3 599.1 586.7 561.6 557.9 561.6 573.2 588.7 600.1 606.7 613.5 624.4 626.8 624.9 623.7 626 626.3 618.9 615.2 611.8 606.7 588.1 589.9 575.3 558.1 564.3 550.7 550.3 544.1 546.2 530.8 516.3 502.6 482.2 468.5 462.4 459 453.3 435.1 425.8 408.7 390 369 337 317.6 297.2 278.3 259.4 245.8 232.1 222.7 215.4 193.3 192 192 192 192 192 192 192 192 192 192 192 192 192 192 192 192 192 192 192 192 192 192 192 192 192 192 192 192 192 192 192 192 192 192 192 192 192 192 192 192 192 192 192 192 192 192 192 192 192 192 192 192 192 192 192 192 192 192 192 192 192 192 192 192 192 192 201.1 212.5 216.8 222.2 216 218 215.2 213 210.5 216
536.6 541.5 548.8 556.4 560.5 570.6 595.2 637.5 656.6 663.9 674.7 684.3 691.3 694.5 693.2 696.7 696.9 694.8 700.9 691.8 686.9 679.9 675.4 684.7 697 705.8 708.9 712.7 718.3 716.9 707.7 686.5 683.8 689.7 707.2 721 738.6 740.2 723 715.5 714.1 712 719.2 733.4 746.2 751.8 762.5 761.2 771.4 772.2 767.7 761.2 760.8 751.1 737.4 722.5 713 696.1 685.3 676.7 676.6 668.9 668.9 667 667.9 666.5 666.7 670.6 667.5 663.3 649 625.8 604.2 589.9 570.4 564.2 579.6 596.1 607.5 614.2 619 628.2 637.4 636.6 634.6 627.7 627.1 623 623.4 606.2 597 594.6 587.9 571.7 559.5 556.7 559.6 550.7 536.5 538.4 519.3 510.3 495.5 475.3 455.4 447.5 442 438.2 426.4 421.4 406.9 376.5 359 344.6 317.1 299.1 282.5 261.3 245.9 237.5 226.8 214.8 208.6 192 192 192 192 192 192 192 192 192 192 192 192 192 192 192 192 192 192 192 192 192 192 192 192 192 192 192 192 192 192 192 192 192 192 192 192 192 192 192 192 192 192 192 192 192 195.1 192 192 192 192 192 192 196.2 192 192 192 192 192 192 192 192 192 192 205.6 209.2 206.7 209.8 216.9 219.3 225.6 222.4 220.5 220.9 218.2 219 218.8 220.3
487.2 504 503.9 510.2 520.9 541.3 557.5 583.3 622 630.1 636.5 645.3 648.3 647 651.5 658.9 660.9 663.7 661.4 662 653.5 647.5 645.9 652.7 668.6 673.1 675.9 680 697.1 707.5 710.7 697.2 702.1 720 738.5 736.6 745.8 750.8 730.3 720.7 723.5 718.3 722.2 731.8 739.2 749.8 754.9 755.5 756.1 765.7 763.3 757.9 739.1 743.4 731.6 723.1 710.1 702.2 696.2 688.8 682 672.5 680.7 670 670.4 678 682.7 681.1 677.8 668.4 659.2 634.3 610.6 593.8 578 577.5 594.5 607.1 616 621.3 627.5 636.4 646 643.5 632.6 623.3 606.9 598.5 595.1 592.5 588.2 571.8 571.5 557 545.9 538.6 541.8 532 514.6 502.9 493.4 487.8 473.8 452.8 435.9 427.3 417.3 415.2 413.4 406.9 381.2 356.5 336.3 317.1 302.5 284.4 266.1 249.5 237.9 231.1 220.6 210.5 192 192 192 192 192 192 192 192 192 192 192 192 192 192 192 192 192 192 192 192 192 192 192 192 192 192 192 192 192 192 192 192 192 192 192 192 192 192 192 192 192 192 192 192 192 201.7 213.5 208.6 197.4 192 192 192 205.3 207.4 196.9 192 192 192.8 194.5 192 192 198.7 207.6 210 212.4 212.3 213.3 216.9 222.5 225.3 228.6 225.1 226.4 225 223.9 225.2 226.3 223.4
445.3 453.7 467.5 466 504.6 526.3 523.6 550.8 574 585.6 589.9 609.2 617.3 620.1 617.5 622.2 622.4 624.3 625.2 622 617.2 611.1 620.6 621.9 639.2 636.4 638.1 642.5 653.7 678.6 700.5 706.4 730.2 737.9 743.7 740.7 728.6 728.1 725.4 720.1 715.6 711.3 710.5 713 719.5 724.6 722.2 731.9 737.5 738.3 738.3 723.1 701.3 706.9 705.5 712.4 702.7 701.5 696.2 684.2 681.6 673.8 672.7 663.6 665.1 665.2 667.4 670.7 671.4 665.5 655.4 637.8 619.7 598.9 589.2 597.9 613.1 622.1 626.6 632.9 633 641.3 646.2 643.9 630.3 611.3 590.6 588.8 588.4 572.7 553.9 541.3 542.6 549.8 532.8 523.7 511.2 503.1 490.4 478 472.6 464.6 454.4 440 414.3 399 394.6 397.5 393.2 380.4 360 344.2 323.9 307.4 285.8 270.3 254.1 240.4 232.9 228.2 215.7 203.1 192 192 192 192 192 192 192 192 192 192 192 192 192 192 192 192 192 192 192 192 192 192 192 192 192 192 192 192 192 192 192 192 192 192 192 192 192 192 192 192 192 192 192 192 192 209.7 213.2 211.6 209.6 192.4 192 203.8 208.7 210.2 206.3 205.5 208 208 208.5 207.4 208.2 211.4 213.2 215.7 217.5 215.6 221.8 223.6 225.2 229.2 232.2 229.5 229.9 230.5 230.3 232.6 232 228.8
408.4 415.5 423.3 437.5 484.1 493.8 489.4 511.1 539.9 548 554.2 573 581.1 582 583.1 580.1 573.8 577.6 581.2 588.1 589.4 579.8 584.4 592.3 602.5 600.5 602.4 607.1 619.8 639.6 663.4 671.7 680.6 692.3 704.4 692 681.2 694.9 696.1 696.1 691.7 687 685.9 686.1 690.1 689.3 687.8 694 707 708.7 704.8 688.5 665.2 662.1 672.1 687.7 688.3 676.9 672.5 672.9 669 659.7 655 650 642.8 645.9 649.7 644.6 646.2 644.9 646.4 627.7 618.5 607.3 608.4 617.2 626.6 627.7 631 635.8 638.4 642.7 644.6 642.4 622.6 601.1 583.9 579.3 571.8 552.9 536.7 519.3 519.2 530.5 522.5 501.7 494.9 480.5 465.7 456.8 455.1 446.6 431.8 419.3 394.9 376.7 372.3 372.9 371.4 351.6 338.1 323.1 311.1 287.5 273 257.5 242.8 232.9 225.1 218.8 210.2 192 192 192 192 192 192 192 192 192 192 192 192 192 192 192 192 192 192 192 192 192 192 192 192 192 192 192 192 192 192 192 192 192 192 192 192 192 192 192 192 192 192 192 192 192 202.3 210.3 212.1 214.5 212.6 210.6 205.3 209.9 212.7 210.9 210.7 212.4 214 215.3 214 214.6 215.4 218.2 219.3 221.2 220.5 223.4 229.2 231.5 231.7 237.1 237.9 234.5 237.3 236.7 237.4 240.1 239.7 238.1
377.3 384 387.3 408 439.1 438.8 449.1 461 497.8 511.3 514.5 525.9 536.7 538.6 548 540.1 543.7 545.6 560.6 563.8 567.9 550.3 554.3 562.2 566.2 567.4 565.9 573.6 583.4 599.8 614.2 630.4 633.3 645.7 644.9 640.9 629.4 640.5 646.9 652.9 654.1 654.5 648.5 646.7 650.7 646.9 652.6 664 672.5 674.5 665.5 660.2 638.3 622 621.9 649 656 655.6 643.9 640.2 638.4 631.1 626.7 621.4 621.2 620.8 620.8 618.8 615 612.3 620.4 615.2 609.2 614.9 621.3 632.2 634.8 636.4 634.6 639.4 638.1 638.9 639.8 629.2 603.5 583 567.1 556.6 548.7 535.9 521.8 502.9 491.1 495.5 493.6 487.1 469.1 460.4 453.1 438.2 432 421.2 409.4 397 379.6 361.1 358.5 348.3 334.2 329.3 320.6 302.4 287.5 271.9 258.7 246.9 238.2 223.7 216.5 208.6 196.5 192 192 192 192 192 192 192 192 192 192 192 192 192 192 192 192 206.3 198.9 192 192 192 192 192 192 192 192 192 192 192 192 192 192 192 192 192 192 197.9 192 192 192 192 192 192 192 196 204.1 212 214.6 215.2 214.9 209.3 211.4 215.2 217.7 214.7 215.4 218.7 221.4 222.6 221.1 222.9 222.2 225.4 226.6 228.4 230.7 233.1 236.5 241.7 243.3 245.6 248.1 241.3 244 243.2 244.7 246.9 247.4 246.2
341.9 345.6 374.3 378.7 400.4 408.5 413.7 422.4 460.4 489.6 477 485.4 494.1 509.6 508 505.6 512.8 523.7 531.7 529.9 536.1 532.1 524.6 522.9 527.8 530.5 535.5 534.5 546.3 572.1 577.5 587.4 596.5 603.8 602.4 592.8 584.4 595.6 608 611.2 614.8 614 612.8 611.5 607.1 610.6 622 628.3 631 629.7 632 625.1 609.9 593.4 577.8 586.4 604 613.9 618.8 614.7 607.9 600 596.9 593.9 593.7 598.4 595.1 592.5 583.9 581.6 582 582.5 592.4 601.1 608.3 627.3 631.9 636.2 635 637.9 636.9 634.6 637 621.6 593 563.5 545.2 534.2 524.9 513.8 497 483.3 470.5 469.7 465.1 461.7 448.5 435.2 433.3 416.3 410.8 398.1 394 384.5 367.3 349.3 333.4 327.6 319.9 306.6 296.8 281.9 268 254 243.5 230.1 227.4 215.1 207.9 196.6 192 192 192 192 192 192 192 192 192 192 192 192 192 192 192 192 196.9 219.6 192 192 192 192 192 192 192 192 192 192 192 192 192 192 192 192 192 192 208.1 212.1 208.3 206.7 209.6 207.2 208.4 211.3 211.4 212.5 214 218.6 220.7 221.9 219.8 213.9 216.9 221.3 224.7 220 222.6 225.7 230.3 230.1 231.2 230.3 232.1 233.6 237.5 241 243.2 245.5 250.7 255 255.9 255.9 251.9 250.8 251.1 251.7 252.9 252.4 251.8 253.4
303.8 324.3 340.8 368.2 374 384.4 395.8 405.3 423.7 447.2 442.7 449.4 456.8 467.4 479 485.8 486.4 490.8 492.4 498.5 508 506 497.6 490.1 493.4 497.9 496.5 502.1 514.1 530.1 538.9 548.8 560.8 562.8 559.1 546.1 547.6 558.6 560.2 570.4 576.3 575.4 575.7 578.8 575.9 576.4 581.4 584.1 595.8 594.5 588.5 584.6 577 560.2 547.6 544.2 545.2 545.4 567.5 593.6 584.8 574.2 568.3 565.6 568.3 569.4 567 560.3 553 550.2 554.3 560.4 571.2 575.3 586.8 613.4 623.4 626.9 628.1 625.8 620.1 620.1 623.1 604.9 580.7 550.8 530.1 516.5 508.9 497.5 480.6 469.3 450.9 443.7 437.5 433.1 423.2 417.9 414.6 399.2 384.6 374.8 372.7 360.3 343.4 330.9 322.2 309.7 294.5 285.5 273.4 264.7 253.3 238.2 226.6 218.2 212.1 205.8 206.9 192 192 192 192 192 192 192 192 192 192 192 192 192 192 192 192 192 221 223.4 193.8 192 192 192 192 192 192 192 192 192 192 192 192 192 199.1 198.3 206.9 216.6 220.9 223.9 221.7 219.9 220.9 220.5 221.1 225.3 225.3 223.1 225.1 227.6 230.3 229.1 224.7 218.5 219.9 224.9 224.9 226.1 228.4 235.8 240.1 241.5 239.5 240.5 243.2 243.6 249.9 250.2 254.5 260.2 263.3 267.1 267.7 265.6 261.2 260 258.4 262.3 259 257.1 259.1 262.1
288.8 326.3 346 362 381.6 382.1 380.3 379.6 390 408.8 417.6 418.8 431.5 443.6 456.4 462.7 465.4 463.5 461.7 465.4 478.5 481.3 472.3 463 461.3 461.2 464.7 468.9 483.5 494.1 503.9 510.6 519.7 523.1 518.9 500.8 506.8 512 516.1 525.3 531.1 542.9 555.5 564.4 562.5 554.4 549.2 546 548.5 554.9 556.2 553.7 548.1 535.2 525.9 519.5 517.7 520.3 531.4 558.1 558.7 545.8 538.5 542.8 546.8 545.6 538.6 532.7 531.7 526.8 527.9 542.9 549.1 549.2 568.7 596.8 605.5 608.4 609.4 603.4 593.8 592.2 597.6 587.9 568.6 539.6 512.4 488.5 481.6 471.4 465.2 452.9 432.6 418 416.1 408.5 402.8 397.5 390.6 377.5 366 363.5 354.8 343.2 324.9 317.2 307 292.8 277.5 265.7 256.8 242.3 232.3 219.6 212 207.9 192 203.7 208.9 192 192 192 192 192 192 192 192 192 192 192 192 192 192 192 192 209.1 227.3 223.5 207.1 203.3 205 196.4 192 196.1 192 192 192 196 211 210.3 210.5 210.6 215.8 217.6 225.9 232.3 240 246.9 238.8 236.3 233.4 236.2 235.2 238.8 238.8 233.8 233.6 235.6 235.9 234.4 231.3 222.7 222.5 227.6 228.7 232.1 235.9 245 247.8 251.5 250.3 249.3 251.1 255.8 261.4 264 270.2 273.1 277 279.1 277.4 274.8 271.1 269.6 268.6 269.8 266.4 264.9 269.9 268.6
268.4 277.2 297.5 322 337 333.1 345.2 362.5 364.6 387.5 405.4 398.9 402.7 412.7 431.8 440.4 446.4 443.7 436.6 437.6 446.3 452.5 442.5 431.4 426.9 425.3 431.9 435.7 442.2 457.4 465.4 471.2 474.6 469.9 471.3 473 471.6 476.2 489.7 503.4 510.4 529.1 537.5 534.6 537.3 530.9 522.8 524.5 527.8 524.5 520.4 524.9 516.7 509.7 501.5 500.8 495.8 493.1 490.1 499.5 505.7 506.9 504.8 512.4 520.9 516.6 506.4 510.9 507.2 502.9 503.9 518.7 522.9 521.6 543.6 556.8 566.8 573.5 574.8 569 560.4 560 564 562.9 542.1 521.2 494.5 466.8 454.1 448.7 441.9 431.8 417.5 396.3 392.9 390.6 378.3 374 372.3 360.4 357 350 333.6 322.9 313.8 303.7 292.7 278.9 268.7 249.8 240.6 232.6 220.8 212 205 192 192 192 192 192 192 192 192 192 192 192 192 192 192 192 192 192 192 192 207.9 218.4 218.4 218 214.8 211.7 213 213.2 212.3 215 210.7 200.6 200.3 219 224.5 222.8 222.7 225.8 230.1 236.8 246.2 250.3 256.1 267.1 253.5 250.9 249.1 253.1 247.5 252.1 248.2 240.3 244 244.6 245 243.1 238.5 226.4 228.9 233.2 235.6 239.7 245.7 252.4 257.7 261 261.2 254.7 262.1 269.1 273.5 277.5 283.8 285.1 288.6 287.8 286.4 285 282.5 281.7 276.9 276.9 274.1 273.6 276.8 274.5
264.2 272.8 270.3 276.8 284.8 289.4 302.4 319.4 342.9 370.6 374.8 380.2 370.6 386.7 402.8 403.9 396.8 402.7 410.4 409.3 417.2 426.8 418.4 405.4 392.5 393.8 402.1 404.6 409.7 423.7 432.8 430.5 432.8 426.9 428.2 431.8 440.9 450.5 470 474.5 485.1 488 492.9 498.7 504.2 496.7 489.5 487.6 490.9 505.3 501.4 498 487.6 478.4 480.1 475.7 474.4 477 466.3 460 464.4 470.6 475.8 481.9 485.8 481.5 478.7 480.2 481.8 472.1 475.9 486.7 497.3 501.7 522 538.7 546.7 543.9 539.4 538.6 536.1 535.1 531.7 523.7 516.6 496 477.8 455.5 433 430.4 424.7 415.5 400.6 381.5 371.1 368.9 359.2 354.5 350.1 338 334.1 332.7 319.6 305.9 293.7 283.5 272.5 262.2 256 239.9 232 223.1 208.9 192.7 192 192 192 192 192 192 192 192 192 192 192 192 192 192 192 192 192 192 192 207.6 213.5 217.3 217.6 219.3 223.3 217.2 217.3 221.4 221 222.1 216.6 217 222.7 229.6 234.4 233.5 232.6 243.5 248.3 258 261.8 264.2 273.5 275.3 258.6 262.8 270.2 267 258.4 260.7 256.6 252.3 258.2 253.9 255.7 252.1 242.2 230.7 238.7 241.7 243.1 248.9 255.6 259.1 265.8 269 272.1 272.3 278.9 284.2 287.7 294 299.2 299.6 299.1 298.2 297.6 295.5 295.1 291.9 286.5 284.2 280.2 280.6 282.7 280.2
249.9 259.7 258 249.5 255.2 263.3 282.5 315.4 320.9 339.3 353.3 353.5 344.8 355.5 367.6 373.8 371.4 370.2 385.2 380.7 394.6 399.5 384.4 373.8 365 371.1 373.7 375 386.2 394 397.9 396.4 395.4 394.9 408.3 412.4 416.7 432.4 440.7 444.5 449.2 448.8 451.7 462 472.3 472.7 462.8 461.3 460.2 472.3 480.7 471.6 455.2 454.7 457.3 450.6 445.6 454.8 450.8 439.6 433.4 440 446.9 450.9 449.6 448.9 451.7 455.8 452 447.4 451.9 462.9 480.3 479.5 496.9 511.5 514.9 519.8 517.7 515.5 514.4 514.5 512.9 507.1 491.9 475.6 458.1 437.7 418.5 409.5 402.1 394.6 380.4 368.7 354.5 345.8 343 337.3 332.6 323.8 315.7 311.9 303.3 291.9 276.5 265.8 254.9 247 241.3 230.4 226.3 213.1 192 192 192 192 192 192 192 192 192 192 192 192 192 192 192 192 192 192 192 192 197.5 212 214.3 216.9 218.6 222.5 222.6 222 224.2 227.1 228.4 229.4 225.3 233.4 239.7 242.4 244.8 245.8 243.1 256.1 268 282 285.2 278.6 283.2 272.8 269.5 276.5 280.4 274.9 267.5 268.7 265.2 263.6 261.4 269.2 265.7 256.8 248.3 237.2 239.9 246 251.1 257.4 264.9 269.3 277.9 282.3 283.8 291.2 298.6 301.6 303.5 309.8 312.1 312.4 309.2 309.7 311.8 308.7 306.6 300.8 296.9 288.4 290.4 288.3 288.5 286.1
247.4 249.5 253.4 242.5 239.6 256.5 268.1 286.4 307.3 317.9 319.4 316.7 317.5 319.3 333.2 339.8 357.9 355.8 359.9 357.5 371.1 371.9 355.6 348.2 344.6 345 345.4 346.1 357.5 367.4 381.2 378 376.6 374.8 386 398.5 403.6 403.8 406.5 412.9 418 419.8 418.8 424.6 437.4 438.7 434 433.4 436.1 438.2 438.8 451.5 441.1 429.6 425.9 427.3 426.5 415.2 421.8 414.1 409.2 414 414.6 414.5 412.9 422 431.7 432 423.4 421.1 428.5 439.4 448.2 453.4 468.7 471.7 479 481.2 484.3 485.4 491.7 486.6 479.9 466.3 459.7 452.9 440.5 418.6 401.9 394.1 383.3 372.9 362.5 353.2 341.2 330.3 325.3 317.6 319.7 310.7 303.9 302.8 285.4 273.1 259.3 248.3 240.2 230.4 225.9 219.7 218.9 197.1 192 192 192 192 192 192 192 192 192 192 192 192 192 192 192 192 192 192 192 192 210.1 215.9 216.9 218.2 222 226.8 226.4 228 229.7 234.1 239.6 231.3 239.7 251.9 253.8 253.7 253.7 252.7 256.5 271.8 286.9 293.8 293.7 295.8 287.3 283.6 287.1 287.8 295.7 282.6 278.2 280.3 281.4 276.8 279.7 280.4 274.6 265.7 254.7 243.7 241.6 248.2 258.2 266.8 274.5 279.3 287 295.8 300.1 309.4 317.4 320.6 320 324.1 326.8 324.6 324.9 324.7 323.5 321 317.3 310.7 305.3 297.9 300.6 295.4 295.6 291
256.8 254.8 244.2 232.2 223.9 238.1 263.3 269 293.9 293.8 305.9 302.6 301.6 306.8 298.2 298.1 329.5 337.8 338.9 335.7 342.4 341.9 331.2 321.9 315 323.2 321 327.7 337.3 351.8 369.1 369.4 358.7 358.9 366 366.3 367.4 370.1 383.5 391.5 396.5 391.4 396.3 392.4 392.2 395.8 407.1 413.9 413.1 411.2 406.1 414 416.8 407.5 400.4 399.1 393.9 387.6 394 393.1 384.5 383.5 386.5 384.1 398.8 405.5 412.2 404 398.4 396.2 404.1 416.6 417.1 424 426.8 435 449.6 460 462.5 465.2 474.1 470.9 458.2 442.3 432.9 421.9 409.5 395.6 387.8 380.6 369.5 359.6 346.6 341.2 333.3 318.1 302.5 302.9 304 291.8 288.6 287.5 278.9 261 243.8 232.2 230.9 221.9 218.2 213 210.8 192 192 192 192 192 192 192 192 192 192 192 192 192 192 192 192 192 192 192 192 203 216.7 221.1 220.2 221.1 225.3 229.4 231.6 234.3 240.3 245.3 242.9 241.1 255.9 267.4 267.4 263 258.8 266.3 280.2 297.7 306.6 307.3 308.5 312.6 308.2 300.9 299 307.6 305.7 292.9 295.4 299.7 299.9 293.2 290.9 292.4 285.3 271.6 257.9 248.8 243 254.3 264.3 273.6 283.3 290.6 299.6 313.1 320.1 331.3 337.8 339.4 343.7 338.1 340.9 337.7 338 340.1 335.6 329.6 323.6 318.9 311.6 309.1 308.3 303.7 302.9 297.4
254.4 248 241.2 232.3 218.8 232.7 244.5 249.5 262.9 275.9 279.4 282.5 291.3 278.5 285.3 283.7 288.2 306 317.6 312.2 321.3 318.3 305.4 296.2 295.9 300.7 301 313.7 319.9 338.2 344.3 345.3 350.8 345.9 343.5 344.3 350.3 354 357.2 367.5 368.1 365.7 366 358.2 365.5 371.6 386.1 385.8 385.7 387.7 381.4 373.4 379.2 381.3 373.4 371.9 367 364.4 370 366.1 362.7 360.8 362 369.9 382.6 383 384.7 380.3 376.5 375.3 386.2 393.5 393.1 392.7 399.4 417.2 432.4 435.8 437.9 436.1 437.4 432.3 426.4 417.7 409.3 398.1 390.8 378.7 367.6 371.5 362.3 347.5 333.6 322.2 325.5 310.7 293.4 289.2 280.7 277.8 270.2 272.4 259.7 248.3 235.8 227.3 227.7 212.9 210.5 206.7 195.3 192 192 192 192 192 192 192 192 192 192 192 192 192 192 192 192 192 192 192 199.2 214.6 224 228.3 224 225.1 231.1 236.4 243.3 251 254.6 250.7 247.1 253.3 266 277.9 278.7 274 279 296 304.7 319.8 322.9 321.4 320.8 323.7 318.9 318.6 315.7 322.2 310.5 308.5 312.6 311.8 313.6 304 300.1 299.8 290.4 277 262.2 254.4 242.3 258.7 269.1 279.9 291.5 303.7 319.5 333.8 342.6 352.1 359.5 362.8 369.5 365 356.9 355.9 352.8 351.9 346.6 337.6 335.3 329.9 322.5 323.1 315.2 313 307.7 303.4
