ncols 200
nrows 82
xllcorner 280000
yllcorner 123900
cellsize 50
186.3 196.6 205.3 214.7 218.7 221.7 220.3 203.7 178.8 166.8 172.1 184.9 197.5 207 212 215.9 217.6 218 217.4 215.1 209.9 191.8 179.2 175.4 182.6 189.4 197.2 204.2 211 215.8 218.8 220 218.8 215.4 209.8 190.5 182.5 195.2 204.6 210.4 215.3 219.1 221.2 221.7 220.7 217.4 212.4 198 184.2 194.7 206.7 212.1 216.4 217.8 214.9 202.9 182.7 176.3 182.5 198.4 217.3 227.2 234.9 242.1 248.1 252.5 255.7 257.4 257.5 257.3 256.1 254.4 249.5 253.5 256 256.5 255.6 255.7 258.8 261.4 263.1 263 261.9 259.1 254.3 244.8 229 217 213.2 218.7 217 212.5 215.1 227.5 236.3 241.5 246.2 246.7 245.8 242.5 232.9 223.7 236.8 250.6 258.6 266.6 272.2 277.3 281.4 285.5 289.2 292.1 294.2 295.5 295.5 294.8 292.2 289.4 286.1 283.6 281.7 279.9 263.6 249 267.9 270.6 265.6 250.7 250.4 268.6 281.7 286.6 289.9 291.3 291 288 282.8 282.3 286.5 287.3 285.6 280.3 270.6 271.2 264.7 261.3 268.7 274.3 276.2 275.5 272.1 268.1 264.3 258.4 250.6 237.1 247.9 259.1 265.1 270.8 274.6 276.1 275.7 274 268.6 257 255.5 257.1 261.8 266.6 271.2 274 275.8 276.1 275.8 274.3 271.7 268.1 263.8 260.5 254.5 248 240.5 231.8 220.2 213.1 207.8 201.1 194.9 196.2 203.7 214.1 216.5 210.5 196 194.1 199.8 205.1 209.6 218
195.8 208 217.4 221.7 224.4 223.9 219.1 198.4 172.1 166.5 181.5 194.2 207.1 213.9 218.9 222.5 223.5 222.7 220.3 215.4 197.2 179.6 174.6 178.9 188.9 198.7 208.1 214.3 217.6 221 222.6 222.9 221 216.3 207.3 192.1 180.7 191.9 203.7 209.6 214.9 218.8 221.3 223.1 222.5 219.7 215.2 205.9 184.5 189 204.6 211.7 216.3 218.5 216.9 210.8 190.1 174.1 179.6 193.9 211.9 221.1 229.4 236.8 242.8 246.3 249 250.6 250.6 250.1 248.1 244.5 239.1 244.7 246.9 247.4 247.1 247.8 250.6 253.6 257.4 257.6 257.5 256.6 253.9 250 244.1 233.5 217 209.7 210 214.3 225.3 234.2 238.8 240.9 242.7 242.4 240.9 236.9 224.8 225 241.9 253.1 258.8 264 269.1 273.9 278.1 281.9 284.6 286.7 288.3 289.4 289.1 288.4 286.2 283.5 281.2 277.7 275.2 273.2 261.4 241.3 258.8 263.4 259.6 243.3 256.7 272.4 279.5 283.1 285.6 285.3 283.7 277.5 272.9 278.8 282.5 283.7 281.5 276.9 267.3 261.7 259.7 251.7 261.5 267.1 269.1 268.5 265.4 262.2 257.8 251.7 245.1 235.6 244 255.2 261.2 267.1 271.2 273.7 274 272.1 267.9 258.2 248.4 248.1 251.2 257.7 263.5 267.4 268.5 269.7 269.1 268 265.4 262.8 257.8 251.6 250.6 245.5 240.6 236.4 232.4 230.3 227.2 219.2 209 199.1 187.9 195.4 202.4 196.1 185.9 197.7 206.2 213.8 221.9 230.8
212.9 220.4 225.4 228.9 229 225.4 218.9 195.7 166.2 171.7 187 202.4 211.8 218.2 223.2 226.3 228 225.9 221.9 210.3 185.6 173.4 177.1 186.5 199.2 208.7 216.3 221.7 225 227.7 229.9 229.4 226.5 220.5 210.7 191.4 179 190.9 201.5 208.7 214 218.1 221.6 222.7 222.6 219.7 214.5 194.8 180.9 188.4 203.9 211.5 216.2 217.9 215.8 209.8 190.8 174.7 178.8 189.5 201.7 213.3 225.5 234.7 239.9 243.3 244.5 245.5 244.6 243.3 241 235.3 231.7 234.2 236.8 237.3 237.6 239 243 247.9 252.4 254.4 254.6 254.8 252.6 249.1 244.3 236.1 215.1 206.9 210.4 222.6 232.3 237.2 240.7 241.7 240.5 238.5 235.4 228.3 217.1 229.6 244.8 252 256.2 260.5 264.3 268.1 271.6 274.9 278.4 281.5 283.1 283.7 283.3 282.3 280.6 277.8 275.3 269.9 267.9 267.5 256 236 253.9 256.6 248.6 241.7 260.8 271.4 276.8 279.4 280.5 279.4 276 267.6 270.8 276.8 279.1 279.3 276.7 272 266.4 255.1 253.8 244.5 255 259.6 260.8 258.5 255.3 251 244.9 237.3 235.5 233.6 241.7 251.3 258 263 266.5 268.2 269.6 268.2 265.3 259.7 255.2 247 240.4 241.6 250.1 258 261 262 261.4 260.8 259.2 256.7 253 248.4 245.3 240.3 237.3 235.9 233.9 233.2 231.2 227.7 223.6 216.5 205.4 192.9 184.5 181.6 182.2 205.6 214.6 221.9 229.8 235.6
220.4 226.1 229.9 232.2 230.2 225.9 219 194.8 163.8 171.2 191.4 205.3 214.7 221.8 225.9 228.9 228.7 226.5 220.3 202.1 177.6 173.3 184.4 195.8 207.5 214.4 220.8 226.4 230 234.1 236 235.8 232.8 227.9 217.2 192.2 177.9 189.8 200.1 208.1 214.3 219.5 222.8 225.1 224.7 220.6 210 187.9 178.3 192.6 208.2 217.5 222.3 221.9 217.6 206.6 185.3 172.7 182 198.9 212.4 223.2 231.4 235.9 239.5 241.6 241.9 241.1 239.7 237.6 233.8 224.4 227.7 228.4 229.5 229.8 231.2 235 241.5 247 251 253 253.7 253.3 251.8 248.6 243.3 226.1 206.2 206.1 220.4 232.2 237.4 241 242.4 241.5 238.9 234 224.2 215.7 220.6 236.1 245.6 250.5 253.1 256.2 259 261.6 264.7 268 271 274 276.5 278 277.8 276.9 275.3 272.4 268.9 264 257.6 259.8 250.9 231.9 242.8 244.5 235.9 241.4 260.2 268.8 273.1 274.6 273.4 271.9 266.3 257.2 267.9 273.4 274.9 274.8 272.3 268.5 263.8 255.5 246.2 240.3 247.4 251.3 253.3 252.5 247.8 241.7 235 230 230.7 233.7 242.1 248 252.2 256 261.4 265.4 268.7 269.5 269.4 268.3 266 260.3 251.8 239.9 235.1 246 253.8 255.7 257 256.6 254.9 252.3 248.7 243.2 236.3 233.7 232.7 231.6 232.1 232.8 232.5 232.5 231.6 228.2 221.8 211.6 199.7 190.1 178.6 195.3 213.6 223 230.5 235.9
223.4 228.1 230.8 230.1 226.5 221.6 206.8 189.5 165.2 170.1 192 207 217.5 224 228.3 231.5 231.1 227 218.8 195.9 172.7 177.1 192.1 204 212.1 218.8 224 229 233.7 238.5 241.2 241.6 239.5 234.8 225.4 200.7 178 177 190 205 214.5 222.3 227.7 229.6 227 222 205.3 183.1 179.7 199 217.5 228.5 231.7 229.4 221.2 200.2 180.3 171.9 188.4 209.2 220.9 228.4 233.9 238 240.9 241.5 239.5 237.2 235.2 232.9 229.7 222.7 221.1 221.5 222.7 222.8 231.1 238.6 243.1 247 250 251.6 252.5 251.6 250.3 246.7 241.3 221.1 203.4 211.3 228.2 236.4 241.5 244.1 243.7 241.3 237.3 227.3 212.5 218.6 232.8 242.3 246.3 248.1 250 251.6 253.5 255.9 258.6 261.7 264.7 267.6 270 270.9 271.4 272.1 270.6 266.4 263.5 259.3 245.7 250.7 245.6 228.3 231.9 234.1 227.9 242.4 257.3 265.2 268.8 269.5 267.4 262.8 254.8 256.7 266 270 271 270.8 268.6 265.9 261.3 255 247 239 239.6 245.2 247.3 243.6 236.3 229.7 226.6 229.9 234.3 237.4 236.1 240.9 247.5 257 263.1 268.1 271.7 273.7 274.3 273.6 272 268.4 263.4 253.3 238.7 232 244.7 250.6 251.9 253.1 252 250 246.7 240.3 233.1 217 225.8 227.9 228.4 231.1 234.1 236 238.6 236.9 231.5 224.4 214.2 200.9 179.4 185.4 208.1 221.2 228 232.8
224.8 227.7 227.5 224.4 216.9 203.3 194 180.5 161.8 169.7 194.5 211.2 220.5 226.5 230.3 231.2 229.2 224.6 214.6 192.4 169.3 178.6 194.5 204.3 212.2 218.8 224.4 229.7 234.2 239 242.3 244.2 242.8 238.7 232 210.9 190.1 174.5 175.8 190.4 211.6 221.6 227.2 227.7 223.4 215.2 196 176.5 184.4 204.2 222.3 231.2 234.2 231.7 222.2 199.2 178.2 171.2 189.6 205.9 216.9 225.5 231.2 235.8 238.4 239 237.6 234.8 231.6 228.3 223.7 219.1 212.3 216.3 223.7 228.7 235.4 239.8 242.9 246 247.6 248.8 249 247.7 247 244.7 237.8 217.7 201.6 208.6 223.8 233.2 238.9 241.5 241.3 238.9 233.7 216.4 211.6 226.1 238.5 242.8 244.8 245.5 245.5 246.7 248.4 250.4 253.9 257 260.2 263.1 264.6 265.7 265.9 265.6 263.4 259.6 259.1 257 248.6 236.5 229.5 226.3 223.1 224.6 229.6 245.3 256.2 261.7 264.3 264.5 259.7 253.7 246.3 257.8 262.1 264.2 265.5 265.8 264 261.5 257.6 253.1 247.8 240.4 233.1 235.1 237.8 233.6 226.9 223.9 234.5 240.8 246.6 249.3 249.6 248.3 250 259.9 266.9 272.2 275.7 277.4 277.9 277 275.2 272.3 267.9 261.9 249.4 231.8 233.2 246.4 248.7 250.4 250.5 249.4 247.1 242.9 237.4 221.3 215.8 219 220.7 226.4 231.9 236.6 238 237.2 234 227.9 219.1 203.1 182.6 178.6 198.6 213.6 220 227.2
226.3 226.6 223.9 214.1 198.3 188.1 178.4 165.7 156.7 177 198.9 214.5 222.9 227.8 230.4 230.3 226.6 220.7 214.2 191.3 166.7 172.6 185.9 198.5 209 216.1 222.7 227.5 232.3 237.1 241.6 244.2 244.6 241.7 236.4 222.3 201.8 182.7 173.2 175.1 196.1 216.4 221.3 220 212.9 196.8 183.8 172.6 190.1 208.7 224.3 233.2 236.7 234.8 223.2 200.7 179.7 170 176.2 188.9 206.8 218.9 225.6 229.7 232.4 233.7 233.9 232.2 229.1 225.7 219.1 212.3 214.4 222 228.3 235.5 237.9 239.9 241.7 243.8 245 245.2 245.2 245.1 244.5 243.4 237.6 221.1 204.6 198.8 211.5 228.5 234.8 237.2 237.5 235.4 227.8 209.3 218.7 232.9 240.4 242.8 243.5 242.3 241.6 242.2 243.3 246.2 249.5 253.1 256.3 259.6 261.4 261.7 260.8 258.9 256.1 255.2 256.6 256 252.3 246.8 238.7 220.3 215.8 224.4 236.7 247.2 253.2 257.3 259.2 258.8 257.3 244.3 248.4 255.6 258.5 260.3 260.9 260.6 258.4 255.8 252.9 249.3 245.1 239.3 237.5 229.7 227.4 225.7 220.9 234.8 243.4 248.7 252.3 255.2 257.2 257.2 256.9 262.3 268.9 274.5 277.9 280.2 281 279.9 278.4 275 271 265.8 258.3 236.5 223.3 236.7 243.8 243.9 244.9 244.3 241.4 236.6 228.8 214.4 199.9 199.3 199.8 210.6 224 230.7 232.8 232.8 231.8 226.9 218.3 201.1 181.8 173.2 189.4 202.1 212.2 223.3
223.2 220.7 213.6 196.5 181.4 169.3 160.3 154.1 167.2 186.3 206.6 218.7 223.6 226.4 227 225.3 222.2 217.2 211.3 199.1 168.3 165.8 177.3 187.5 203.8 212.4 218.3 223.5 229.7 236.4 241.1 243.9 244.4 242.3 237.9 230.9 213.6 196.9 178 171.4 182.4 204.4 214.1 211.2 199.1 181.6 170.1 181.3 199.6 217.2 231.6 238.6 241.9 239.4 229.4 209 189.1 171.3 168.9 174.2 191 210.1 218.2 223.1 226.2 229.3 230.5 230.2 227.1 222.5 215.7 206.7 217.1 224.6 232.1 236.6 236.6 237.9 239.6 241 241.2 241.2 241.2 241.8 242.2 242.3 239 232.9 215.6 199.8 199.5 214.6 228.9 232.6 232.8 230.9 216.1 209.6 226.1 237.5 242 243.2 242.6 240.4 237.8 238.2 239 241.9 245.5 250.1 253.5 256.6 258 256.9 255.5 251.8 249.5 252.2 254 253.2 249.3 245 235.1 215.9 224.6 237.8 243.9 248.3 252.5 255.7 256.7 256 253 242.3 247.9 252.1 255.3 257.7 257.3 256 253.9 251.1 248.8 245.5 241.8 239.3 236.7 233.4 228.3 222.1 228.6 239.4 244.9 249.8 253.9 258.5 261.5 263.8 264.9 267.6 272 276.4 280.2 282.5 284.1 284.2 281.6 278.2 273.5 268.6 261.7 243.1 221.4 224.4 233.9 239.8 240.4 238.9 235.7 228.7 212.4 199.2 188.6 186.5 182.8 188.9 204.2 215.2 221.9 223.6 224.3 220.5 209.5 190.6 177.4 169.9 180.1 192.3 206.1 217.7
220.2 215 196.7 178.3 163.8 154.2 151.6 164 179.2 196.9 213.5 219.9 223 223.9 222.4 220.6 217 212.2 206.1 194.5 169.4 164.8 187.1 190.7 196.8 207.2 214.4 221.7 229 235.6 240.1 243.7 244.4 242.2 238.1 232.2 223.7 206.9 186 171.8 170.5 193.4 207.5 204.8 187.5 168.2 176.6 192.9 209.7 225.1 234.1 239.9 241.9 239.6 233.2 220.9 203.2 186.1 171.1 167.4 176.8 196.7 212.3 218.8 223.1 227.5 229 228.7 225.9 219.1 209.9 207.4 217.5 228.1 232.7 234.5 233.9 235.4 236.6 237.1 236.6 235.3 236.3 238.3 239.7 240.5 238.7 234.6 225 208.8 195.8 199 212.9 223.9 226.9 223.3 206.9 213.5 230.8 238.2 242.5 243 241.5 238.1 232.3 232.1 233.7 238.1 242.9 247.9 251.7 254.3 253.7 252.7 249.1 245 247.6 252 252 248.8 244.1 237 221.6 211.5 226.9 238.5 245.7 251.7 255.1 257.7 258.6 256.7 251.6 234.6 245.5 250.4 253.7 255.4 255.2 253.2 250.1 246.6 244.5 241.6 237.6 234.9 231.2 229 225.7 219.8 230 233.9 240.5 246.9 253.6 259.8 264.7 268.2 270.1 272.3 276.4 280.3 283.1 286 287.9 287 283.8 279.6 274.8 269.2 261.8 246 225.4 218.3 215.4 221 225.6 229.4 225.4 211.8 196.2 196 205.3 209.2 199.2 181.5 183.5 195.2 205.4 210.7 213.5 210.8 195 179.5 171 169.7 180.3 191.6 201.7 211.1
213.7 198.1 181.2 164.5 150.1 149.6 161.8 175 190.7 205.5 215.1 220.1 220.6 219.3 216.6 213.4 208.5 203.6 197.7 182.9 164.2 166.5 191 203.9 205.4 209.1 216.1 224.4 228.8 233.8 239.4 243.4 244.2 241.9 237.4 232 224.4 211.7 190.1 175.6 167.6 187.2 198.9 197.2 178.3 170.5 186.8 204.5 220.4 229.7 234.9 237.2 237.3 235 230.6 224.8 216.2 202.7 182.9 167.3 169.9 188.4 208 215.1 221.7 226.1 228.6 228.8 226.5 220.6 209.4 202 210.4 224 229 230.5 229.7 229.7 231.6 231.7 230.5 229.9 231.5 235.9 237.6 240.5 239.4 236.8 233 223.4 205.5 193.9 197 207.3 218.6 213.3 199.7 218.1 231.4 238.3 241.3 241.7 239.9 236 230.8 228.4 230.5 235.5 241.8 247.3 250 251 249.7 247.5 240.9 239.5 247.8 251.6 250.2 245.4 238.1 222.4 209.2 213.2 226.1 236.7 245.4 252.2 256.8 259.6 260.7 258.5 248.9 229.7 244.7 247.7 251.1 252.4 252.7 250.6 247.2 242.8 239.4 237.3 231.3 224.3 218.3 217 218 223.7 233 240.7 243.8 247.2 253 260.6 266.8 271.7 274.9 278.1 281.5 284 286.7 288.6 289.1 287 283.4 279.1 273.6 268 256.9 245.3 245.7 236.9 221.5 213.1 206.5 209.9 209.3 197 201.1 212.3 221.6 223.8 213.2 191.2 177.3 176.6 184.7 191.9 198.7 197.7 181.3 171.7 167 170.4 175.1 184 191.7 198.4
200.8 183.9 167.9 150.5 147.6 159.9 173.1 186.9 200.7 212.4 217.9 217.3 214.4 210.4 206.2 199.5 195.3 189.2 182.5 170.4 158.7 173 191.8 205.2 210.9 214.6 220.4 225.9 230.7 235.4 238.9 241.8 242.7 240.8 237.6 231.5 222.9 212.1 199.3 183.5 168.1 176.3 189 186.6 167 173.2 192.8 211.6 221.3 229.5 233 233.4 232.4 229.7 225.7 219.8 213.2 200.8 185.1 168.1 167.6 183.5 203.6 211.7 220 225.5 228.6 228.7 226.9 221 211.8 197.5 199.1 207.3 222.7 225.2 224.5 224.2 225.2 225.8 224.5 222.6 228.5 235.1 239 241.9 242.1 240.1 236.8 233.3 223.3 207.1 193.7 192 201.8 197.3 205.6 223.4 232.1 236.6 239.1 239.3 237.7 234.5 230.6 226 230.5 237.4 243.3 246.8 247.4 246.6 243.4 237 231.4 239.5 247.6 249.3 247.1 241.7 229.3 208.6 207.3 218.2 232.6 242.3 249.8 255.1 258.7 261.8 262.9 260.6 250.2 230.8 234.8 244.8 247.1 249.1 249.3 248.2 244 237.8 232.4 229.8 219.8 212.9 216.5 220.3 225.7 237.1 244.8 249.5 253.6 256.9 262 266 270.6 276.1 281.1 283.2 285.1 286.7 288.2 289 288.7 286.4 282.6 277.6 271.9 265.6 258.4 256.6 253.8 249.3 242.7 234.9 223.7 214.4 212.2 214.1 221.7 230.7 233 231.2 222.5 206.2 189.6 176.5 170.6 174 180.1 183.3 172.6 166.4 168.9 182.2 190.6 196.9 205.6 213.9
186.2 168.7 151.4 147.4 158.1 170.6 183.9 196 207.9 213.1 214 211 205.2 197.1 189.5 183.9 177.3 172.2 166.5 158.6 161.9 178.9 198.7 209.2 216.2 220.2 223.8 228.5 232.6 236.2 239.2 241.2 241.9 240.6 238.3 234 228.3 220.5 211.5 192.6 173.6 165.7 168.8 172.4 163.9 169.4 184.7 199.4 214.3 221.7 226.7 227.3 225.5 221.9 216.7 210.2 195.7 184 172.4 165.3 168.5 183.6 200.9 212.2 220.1 225.6 228.9 229.7 227.7 224.2 218.8 211.8 197.7 195.6 215.1 219.2 218.6 217.4 218.1 216.1 215.4 222.2 230.2 236.8 240.9 243.4 244.6 243 239.9 236.2 231 222.5 203.5 188.2 191.6 199.4 215.3 226.9 232 233.9 235.2 235.8 234.2 230.9 222.4 228.3 236 240.6 244.1 245.2 244 240.5 231.1 223 232 243.6 247.6 245.9 241.2 234.8 216.6 201.9 212.8 227 239.6 248.6 253.4 257.5 261.5 264.3 264.2 262.6 254.6 232.4 226.3 241.2 244.3 245.5 246.5 246 242.4 235.7 227.9 218 212.6 221.5 231.3 237.3 240.9 246 253 259.6 263.9 267.1 269.8 272.8 275.6 279.5 283.4 286.4 288 289.3 290.1 289.5 288.1 285.8 282.1 278 272.1 266.9 263.2 260.4 258 255.1 250.9 247.1 241.2 235.1 231.8 232.5 236.2 239.4 240.2 237.8 231.9 220.5 207.3 194.2 177.8 164.1 167.3 169.2 166.6 163.6 177.9 195.6 205.1 211.1 217.7 223.3
173.4 154.9 144.2 152.8 168 182.4 192.1 201.5 205.6 207.9 207.2 201.7 190.8 178.3 169.3 163 157.9 155.8 155 162.9 174.7 189.9 204.5 213.1 219.8 223.8 227.5 230.1 233.4 237.1 239.6 241.1 241.6 240.6 238.2 234.2 229 222.7 212.5 193.4 178.2 174.2 167.8 163.5 163.4 161.6 166.2 182.7 201.4 213.8 219.3 220.5 218 213.5 206.5 192.6 178.1 169 164.4 163.3 177.1 193 205.8 216.2 222.1 226 228.1 229.4 228 227 227.1 222.2 206.4 190.3 208.9 212.6 211.5 208.8 208.2 212.1 216.8 228.3 236.1 240.3 243.5 245.8 246.6 245.7 243 238.5 232.3 217.7 194.6 189 202 213.5 220.2 224.6 227.4 228.2 229.4 229.9 227.8 220.9 221.6 233 239.4 242.5 243.2 242.5 240 232.9 218 224.7 237.5 242.4 243.2 241.1 235.8 224.5 204.7 207.2 222 235.3 245.3 252.4 257 262.4 266 267.2 265.6 263.6 257.6 236.4 221.6 231 239.1 241.6 243.2 243.8 241.9 234.5 221.5 209.2 220.6 230.6 235.5 239.7 243 248.1 254.9 262.2 267.5 271.6 274.7 277.8 280.7 283.2 286.5 289 290.8 291.9 291.9 290.7 288.6 285.6 281.8 278.1 274.3 269.8 265.6 262.9 260.5 258.6 257 255.1 250.3 245.4 241 239.2 240.1 242.7 243.9 242.7 239.6 234.9 223.8 212.2 198.9 182.5 173.8 165.4 161.6 163.4 182.5 201.5 208.1 210 215.1 219.1
161.1 143.8 144.8 159 176.5 183.7 190.6 194 196.7 197 195.9 190.8 174.7 161.2 153 150.6 152.1 159.5 167.6 178.1 188.7 202.8 212.5 218.8 223.2 226.6 230.1 232.9 235.9 238.2 240.1 241.2 241.2 240.3 238 234.5 230.7 222.8 211.1 196.3 195.1 192.3 186.4 182.9 179.9 166.8 160.2 166.5 185.6 205.9 212.3 213.3 210.5 204.8 195.9 176.4 164.7 162.2 162.6 176.3 192.4 205 214.8 221 222.9 224.2 225.6 227.7 228.7 229.9 228 223 207.4 188.8 200.7 203.9 202.6 200.3 210.2 217.7 225.7 232.4 238.1 242.8 246.3 248.1 248.4 247.5 244.8 239.8 232.5 212 189 188.7 208.3 216.1 214.4 210.6 213.7 216 217.4 216.1 215.6 221.1 230.9 237.2 240.5 242.6 242 238.5 233.5 218.1 213.5 224.5 234.9 238.9 238 233.9 226.7 214.5 198 213.3 228.5 240.4 248 254.6 259.9 263.5 265.6 265.3 262.9 259.7 254.5 239.6 220 219.1 230 236.3 239.4 239.2 237 231.5 215.2 209.8 222.9 225.3 227.5 232.5 237 246.2 254.7 263 268.7 273.6 278.4 282.2 284.6 287.2 289.9 292 293.7 294.1 293 291.1 288.3 284.5 280.9 277.1 273.7 270.8 269 267.9 265.6 263 259.6 255.8 251.2 246.7 243.4 240.9 240.7 241.5 243.1 243.8 242.5 238.9 233.4 226.2 215.4 199.7 189.7 185 177 161.2 172.5 192.7 201.8 202.6 206.6 215.6
150.8 141.7 151.2 159.2 172.5 176.5 178.7 182.6 184.6 184.5 182.9 177.3 160.4 148.5 150.1 160.3 169.1 175.9 183.3 190.1 201.9 210 215.1 220.2 224.3 228.4 231.9 234.7 237 238.8 239.8 240.3 239.9 239.4 238.2 235.5 231.5 226.1 219 213.7 211 208.3 204.1 200.2 194.8 183 165.8 159.5 174.8 192.4 205.2 205.8 201.3 194.2 181.5 163.9 160.5 162.9 175.9 188.7 202.6 214.8 218.8 220.4 220.2 221 223.1 226.6 230.8 230.1 227.2 220.5 196.2 186.9 191.4 192.5 197.5 205.3 216 223.6 229.9 235.4 239.8 243.9 246.7 248.6 248.7 247.8 244.4 240 234.3 215.3 192.5 186.3 206.5 207.3 199.3 203 206.9 209.9 214.1 218.8 225.1 232.9 237.3 240.4 242.3 242.7 240.9 236.3 225.4 203.7 212.5 224.7 231.7 233.4 229.8 222.7 213.5 201.2 197.9 216.6 232 241.1 247 252 255.7 258.3 259.4 259 256.7 253.7 249.8 240.3 225.1 213.3 223.6 231.9 235 233.1 229.9 225.1 210.2 208.2 212.5 217.3 222 226.7 227.7 238.1 254.2 264.4 271.6 277.5 282.1 286 288.5 291.4 293 294.4 295 294 291.9 289.2 285.8 281.7 278 274.6 271.6 270.1 268.7 266.9 264.4 261.2 257 252.4 247.5 243.5 240.1 236.7 234.1 234.6 235.7 237.3 237 235.4 232.5 227.8 221.6 213.1 207.8 202.8 189.1 168.3 161.2 184.1 193.1 195.4 206.7 220.6
146.6 140.9 149.5 156.7 160 164.3 168.4 171.3 171.4 171.9 169.6 165.9 152.1 145.3 160.5 172.5 181.1 189.2 196.8 203.5 207.3 211.3 215.4 219.4 223.3 226.6 229.5 232.3 233.4 235.5 236.1 236.8 237.5 237.5 236.9 234.8 231.9 227.9 223.8 220.7 219.3 217.1 215.8 213.6 208.5 195.9 175.7 159.1 162.7 180.4 197.3 197.7 192.3 180.2 166.5 158.5 161.6 172.9 187.1 198.6 211 216.9 217.9 217.2 216.2 217.2 220.9 226.7 229.9 228.7 224.5 213.6 190 181.1 189.3 199.1 208.5 216.6 223.1 228.2 233 237.6 241.1 243.2 244.8 246.1 248 248.1 244.5 240.8 235.6 223.2 199.3 181.3 188.1 191.3 205.1 216.3 222.4 225.6 229.7 234.1 236.9 239.5 241.2 242.6 243.7 242.8 239.5 233.7 220.5 199.9 200.9 215.7 223.9 224 219.3 210 199.7 193.4 203.7 220.2 231.3 236.8 241.4 245.3 248.7 251.2 252.3 251.5 250.4 248.1 244.8 239.5 230.3 212.9 215.1 227 229.5 228.7 224.7 219.1 209 209.7 219.8 229.1 235.8 241.3 241.6 234 250.2 266.4 276.1 281.7 286.2 288.6 291.2 292.9 294.1 294.7 294.5 293.2 290.7 287.7 283.9 279.4 274.8 271.1 268.5 266.9 265.1 263.4 260.6 257.3 253 248 242.4 237.7 233.5 227.6 219.6 217.8 218.6 223.2 224.1 225.1 226.2 225.4 223.6 220.2 215.3 205.1 189.5 169.6 158.8 174.3 183.1 199.6 213.3 226.1
143.3 138.5 142.2 148.1 151.6 153.8 156.4 159.6 161 161 160.2 157.5 147.4 145.1 158 172.3 182.3 191 197.3 201.8 205.4 209.4 212.7 215.7 218.7 221.3 223.8 225.9 227.4 228.9 230.7 232 233 233.8 233.6 232.1 230.6 229.2 227.5 226.1 225.1 223.7 222.9 220.6 214.5 204.9 185.6 165.3 156.6 169.9 187.6 187.9 178 166.3 157.5 160.4 168.5 186 199.1 207.9 212.5 213.8 212.7 210.8 210 212.7 216.4 220.7 222.6 221.7 217.5 203.9 183.6 181.9 197.3 208.8 216.7 223 227.3 231.3 234.8 237.4 239.2 239.3 240.3 243.1 245.2 245.9 244.4 240.8 235.9 227.3 207.2 189.5 182.9 199.6 215.8 228.2 233.7 236.7 237.9 239.5 241.8 243.4 243.8 244.1 243.4 241.5 238 232.2 220.4 199.8 194.3 204.4 216.4 216.6 209.2 198.4 190.5 198 211.4 222.1 226.3 229.9 232.7 237.1 240.7 243.2 244.3 244.1 243.1 241.6 239.3 235 229.6 216.7 207.6 217.6 219.3 219.1 214.7 208.6 205 214.2 227.1 237 245.1 251 254.3 246.7 249 268 277.5 283.2 287 289.7 291.2 292.3 292.8 293.3 293 291.6 289.3 286.2 281.8 276 267.6 264.3 262.6 261.8 260.3 259.2 256.1 252.3 247.8 242.4 237.1 229.7 218 204.4 196.2 193.2 193.4 196.7 207.3 216.7 220 222.9 223.7 220.4 210.3 193.3 178.2 161.8 157.3 172.9 189.7 205.6 217.7 227.1
142.4 138.7 137.7 141.9 144.3 147.4 149.5 151.6 152.7 153.5 153.1 151.6 145.2 145.5 154.6 165.8 174.4 181.8 188.2 193.5 198.1 201.7 204.4 207.4 211 213.9 216.7 218.5 220.3 221.8 223.3 225.2 226.8 227.6 227.4 227 226.7 226.6 225.6 224.1 223 221.6 221 219.8 214.2 206 192.7 175.3 157.5 159.5 177.6 174.6 165.2 157 158 167 182 198.2 204.5 207.3 206.9 206 204.9 203.8 200.8 206.8 209.4 212 213.5 212.6 210.1 200.4 180.2 184.8 198 207.6 215.3 220.1 223.8 226.4 228.7 230.4 231.3 231.5 232.1 235.3 237.6 239.4 239.3 236.3 230.7 214.9 197.5 181.8 185.8 204 223.4 232.1 238 241.4 242.8 244.1 244.9 244.5 243.1 242.2 240.5 238.3 234.6 229.4 221 200.3 188.7 199.3 211.7 212.2 204.7 189.5 195.7 207.2 213.4 213.6 213.1 214.3 217.1 222.3 227.7 233.2 235.6 236.6 235.7 233.9 231.5 228.9 223.2 214.3 202.8 211.4 210.2 207.4 203.1 207 215.5 223.6 235 244.7 253.2 259.4 262.5 257.7 253.7 269.6 278.4 283.4 286.7 288.5 289.4 290.1 289.9 289.8 289.7 288.6 287 285 281.8 276.5 269.1 260.1 253.3 255.2 254 251.7 248.6 245.2 241.5 235.5 227.1 212.6 199.6 190.9 184.6 179.1 174.8 176.8 187.7 204 214 219.5 220.8 215.5 199.6 180.8 167.7 157.2 160.4 178 194.6 206.8 216.5 223.8
139.3 137.3 136.4 138.4 140.5 142.2 143.7 146 147.6 147.6 147.5 146.4 143.2 141.4 149.5 157.4 163.9 170.1 176.2 181.5 186.7 190.4 193.1 194.6 199 201.9 205 208.1 210.5 212.5 213.7 216 218.8 218.8 219.3 219.8 220.3 219.7 217.7 216.3 215.3 214.7 213.9 212 207.7 201.3 194 180 158.8 156 167.1 164.5 157.2 155.8 163.9 178.2 190 196.2 199.8 201.1 200.2 199.5 199.1 197.8 194.3 198.9 200.8 202.4 203 202.1 199.9 196.3 181.5 178.4 185.6 199.2 207.3 212.3 215.2 217.3 219.1 220.5 221.2 221.6 223.4 226.3 229.3 230.7 230.8 228.3 223 204.4 187.5 178.3 188.9 205.9 224.4 232.7 237.8 240.9 243 243.6 243.2 241.2 238.6 235.7 233.2 231.3 226.7 221.7 214.2 198.4 187 194 205.4 206.2 199.7 185.8 197 197.5 196.2 193.8 194.2 195.1 197.3 202.1 211.1 222 227.1 228.7 227.8 225 219.3 215 211.5 205.5 200.8 201.9 200.2 205.3 212.2 221.5 230.1 238.4 248 254.9 261.8 266.8 269.9 269.6 267.3 271 278.9 283.4 285.4 286.6 286.5 285.8 285.6 285.7 285.5 284.9 284.2 282.7 281 277.5 272.9 264.8 248 240.6 241.5 240.4 238.7 236 232.8 223.9 209.5 199.2 189.3 191.8 194.1 194.1 189.7 179.9 170.5 185.4 202.5 212.4 211.5 204.5 187.7 171.5 157.7 154.3 171.4 187.6 198.9 206 211.4 215.2
136.4 136.1 135.1 136.1 138.2 139.7 140.9 142.3 143.7 143.6 143.6 142.8 140.6 140.6 143.5 150.4 155.4 160.7 164.8 169.2 173.2 176.2 180.1 182.1 185.9 189.5 193 196.3 198.6 200.3 202.1 204.2 206 205.7 208.5 208.5 208.9 208.7 207.4 205 204.1 203.2 201.2 199.9 196.7 192.3 186.6 177 158.8 154.7 158.8 159.1 153.9 155.9 171.4 178.2 183.7 188.5 191.4 192.4 192.3 191.6 191.4 189.5 185.8 188.4 189.6 190.3 190.5 190.4 189.3 186.1 182 178.6 176 186.2 197.2 202 205.2 206.9 208.2 209.1 209.5 209.2 212.4 214.9 217.7 219.3 219.3 217.6 211.8 192.9 178.7 178.1 191 208.5 220.5 227.8 232.8 235.8 237.7 238.1 237.3 234.8 231.7 228.3 224.5 221.6 216.3 207.9 197 189.3 183.2 188.7 195 197.2 193.3 184.1 187 186.3 185.5 184.6 185.6 185.4 186.7 187.5 196.3 207.2 216.5 218.2 217.1 212.8 205.7 202.7 199.6 197.5 197.8 203.6 210.4 217.5 225.5 235.7 244.9 251.5 257.7 263.5 268.8 273.4 275.6 276.5 276.6 277.4 280.9 283.1 283.6 283.8 282.4 280.6 279.9 280 279.8 279.7 278.5 277.8 276.4 274.7 271.4 266.2 255.2 238.1 226 226.4 227.1 223.2 216.7 208.7 198.8 201 204.1 206.9 209.1 207.7 202.7 189.9 170.5 173.4 183.1 197.2 202.9 197.3 182.5 165.1 154.2 162.9 177.8 186.4 192.9 196.1 200 204.3
134.9 135.2 134.4 134.3 136.6 138.1 139.2 139.9 140.5 140.5 140.5 139.4 138.9 138.7 141.5 144.3 148.2 152.3 155.6 157.7 160.1 162.7 164.5 168.6 171.7 174.9 177.8 181.5 183.2 184.5 186.5 188.8 191 192.7 193.1 193.2 194.4 194.6 194.2 192.1 190.4 189.4 188.7 186.7 184.6 180.8 176 167.3 157.9 154.6 153.9 153.3 154.1 161.2 167.9 172.9 176.5 180.3 182.4 183.6 184 184.5 184.8 181.6 179.6 179.2 179.1 179.1 180.1 179.7 179.4 179.1 178.6 174.9 171.5 177.1 186.3 190.8 193.7 195.1 196.3 196.9 197.4 198.6 200.9 204 208.9 210.8 210.5 206 203.9 184.4 175.5 179.7 195 204.9 213.2 220.5 225.7 228.9 230.5 230.4 228.5 225.6 221.5 216.2 211.4 207 200.4 190.1 181.9 178.4 178.2 179.9 183 186.1 187.1 182.7 182.2 181.6 188.7 194.2 197.1 197.9 196.3 190.6 188 195.9 203.7 205.5 205.8 199.7 195.2 195 196.4 199.5 206 210.5 218.9 230.5 240 248 254 259.7 264.8 269.9 273.9 277.6 280.1 282 282 282.1 282.6 282.5 280.4 279.5 277.2 274.9 273.2 272.5 272 271.7 270.9 270.2 270.7 269.2 267.3 263.3 256.7 247.8 236.6 226.4 217.9 213.9 211.7 211.3 214.1 216.2 217.4 217.1 216.4 213.3 208.3 199.2 179.9 166.5 168.1 180.1 190.7 188.6 177.3 160.6 153 161.9 173.4 181.2 183.9 189.3 197.5 205.1
134 134.1 133.3 133.2 135.9 137.2 138.2 138.7 139 138.8 138.4 137.9 137.8 138 138.4 140.7 142.4 145 147.1 149 149.4 150.5 151.9 154.8 158.3 160.1 162.6 165.8 167.6 169.5 172.1 174.7 176.6 177.3 177.8 177.9 179.2 179.4 179.8 179 177.4 176.7 175.2 174.3 172.4 169.3 165.5 160.7 156.4 154.3 153.5 151.3 154 159.3 163.4 167.3 170.1 172.3 174.6 176.4 177.6 179 179.1 176.7 174.1 172.5 173.2 173.8 175.1 178.3 176.1 176.1 175.3 173.8 169.5 171.2 178.5 181.9 184.2 185.3 186.8 187.9 189.1 190.7 193.6 199.1 204.2 207.6 207.6 203 190.6 177.7 173.8 178.7 185.5 191.2 203.1 212.4 219.6 223.1 224.5 223 219.9 215 208.7 201.4 197.3 189.3 180.2 176.6 175.3 176.5 179.5 178.7 179.1 179.6 179.5 180.8 186.3 193.4 201.4 206 208.7 210.1 209.4 202.8 191 189.6 191.8 193.8 192.4 192.7 195.5 199.1 204.3 210.8 218.9 224.9 226.9 237.1 249.2 256.1 261.5 266.2 271.2 275.5 278.8 281.9 284.3 285.6 285.3 284.3 282.3 280.6 276 274.2 271 268.7 265.5 264.1 262.8 261.7 261.4 261.9 262.1 261.7 258.4 256.3 252.1 247.7 241.6 233 227.6 225.4 222.7 220.8 219.2 218.5 217.5 214.3 211.8 209.9 206.9 201.1 190.3 171.6 161.5 165.1 177.7 179 170.4 158.2 150.2 160.4 172.1 178.2 179.5 189 197.6 205.2
132.7 133 131.9 133 135.9 136.7 137.4 137.9 138.6 137.8 137 136.5 136.4 136.3 136.9 138 139 139.6 140.5 141.5 141.8 142.7 143.6 143.8 146.4 148.1 149.1 151.9 153.6 155.6 157.7 160.5 162.9 164.4 164.3 166.1 166.9 168.1 167.8 167.7 166.7 166 165.7 164.3 162.9 161.7 157.5 156.6 154.2 153.2 152 152.2 152.8 157.2 160 162.5 164.9 166.6 168.6 169.9 170.9 172.1 172.7 171 169.3 167.8 167.7 168 168.7 169.9 171.8 173 173.3 172.6 170.3 167.7 169.7 174 176.6 177.6 179.1 179.9 181.2 185.1 191.7 198 203.4 207.4 208.3 204.7 190.5 174.6 173.3 182.1 192.9 198.9 204.1 211.6 218.8 222 222.7 220.3 215.3 209.6 201.8 191.3 183.5 176.4 174.3 175.2 180 187.7 193.7 198.1 196.3 194.2 192.7 195 201.4 206.6 213.2 218.1 223 225.7 224.4 216.5 202.4 194.2 193.6 193.7 195.4 199.9 205.5 210.9 216.8 224.8 233.6 240.6 242.7 245.1 256.6 263.5 268.9 273 276.8 280.3 283.8 286.1 287.3 286.8 285.4 283 280.5 276.9 270.9 267.3 263.4 258.7 253.3 250.5 251.2 251 251 250.5 248.3 248 248.7 248.6 245.6 240.7 234.3 229 226 223.7 221.1 218.3 215.8 212.7 210.1 206.8 205.5 203.5 199.9 195.5 189.4 177.5 167.2 156.9 169.5 174.2 170.5 161.1 149.6 162.2 169.9 168.8 181.5 187.9 197 204.9
131.3 131.4 130.8 132.6 134 134.8 135 136.1 136.4 135.9 135.3 135.1 134.8 134.8 135.5 135.6 135.6 135.4 136.3 136.3 137 137.2 137.8 138 137.6 138.9 139.6 141 142.7 144 146.9 149.7 150.6 152.3 153.2 154.9 156.4 157.5 158.4 156.9 158.6 158.7 159 157.9 157.1 155.9 154.5 153.3 152.4 152.2 151.6 151 151.2 155.4 157.9 159.3 160.2 161.5 162.8 164.6 166.6 167.5 167.4 166.7 166.3 164.7 161.8 163.1 165.5 168.7 171 173.6 174.1 173.9 172.8 169.2 164.6 165.9 169.2 170.1 172.6 177.3 184.3 191 196.7 200.9 204.7 208 208.8 205.3 187.9 173.1 173.7 188.3 201.4 208.3 213.6 218.2 222.2 224.8 223.8 220.7 216.3 209.4 196.7 181.9 172.4 173.3 173.9 181.9 191.7 200.1 205.7 211.5 213.1 213.9 214 213.6 216.5 221.2 227.2 234 236.7 238.2 235.9 229.7 218.2 208.7 205.3 205.3 208.1 212.6 219.6 225.7 234.5 241.9 248.3 252.9 255.4 255.8 262.4 268 272.6 276.2 279.7 283.1 285.7 287.3 286.8 284.6 282.2 279.7 276.3 269.9 262.3 256.8 251.6 246.5 236.8 236.7 238.7 237.8 236.2 236.1 237.7 240.5 240.7 238.7 235.7 231.3 227.1 223.3 219.7 217.2 216.2 213.7 210.8 205.4 202.6 200.3 198.3 195.8 192.7 189.4 184.4 178.2 171.8 156.2 163.4 172 170.9 162.2 149.9 156 164.7 174.5 185.3 193.4 201 206
129.9 130.2 130.3 130.6 132.1 132.3 131.8 132.2 132.9 133.4 133.8 134.2 134.2 134 133.9 134.1 133.3 133.1 134.2 134.8 135.4 135.4 135.8 135.9 136.9 137 137.1 137.5 137.6 138.6 138.6 139.4 140.1 144.9 146.6 147.9 149.6 150.5 151.4 152.3 151.3 153.2 153.2 152.6 152 151.5 151.5 151.7 151.2 150.7 150.5 150 151.5 154.7 156.3 157 158.3 159.2 160 161.2 162.6 163.4 163.1 162.4 161.9 161.3 159.2 164.3 170 172.1 175.2 177.4 178.1 179.4 180.1 178.8 173.4 162.3 162.4 171.7 179.4 185.7 191.5 195.8 200.1 204 207.5 209.4 208.7 203.4 184.4 169.7 176.2 193.8 204.8 210.7 215.4 220.2 223.9 225.4 223.7 220.3 214.6 202.2 183.6 174.1 170.8 176.2 184.5 193.8 204.4 212.1 220.2 225.3 229.2 232.7 233.3 234 235.2 238.5 242.6 245.5 246 245 241.9 235.8 230.7 225 220.9 219 220.5 225.2 232.4 238.7 246.2 250.6 254.6 257.9 260 262 264.9 269.2 273 275.7 279.2 281.9 284.4 284.7 283.4 281.1 278.2 272.8 266.1 258.8 252.6 245.6 240 234 230.2 225.9 224.4 221.3 222.1 224.5 228.6 230.8 229.7 228.6 226.6 224.1 220.3 215.3 211.3 210.4 212.1 211 208.8 204.4 199.6 195 192.4 190.3 188.2 185.5 180.2 174.5 168.7 159.2 158.2 167.8 167.5 158 149.1 161.3 173.4 183.3 191.4 198.9 204.1 206.9
128.1 129 128.8 128.9 128.9 129.5 130 130.6 132 132.4 132.5 132.9 133 132.7 132.3 132.9 132 132.1 132.9 133.7 134.2 134.7 134.8 135.4 135 135.3 135.6 136 136.3 136.5 137.3 136.9 136.4 138.6 141.5 143.6 144.9 146.2 147.2 149.3 149.6 149.6 149.4 149.2 149.7 149.7 149.9 149.9 150 149.6 148.9 148.7 151.9 153.8 155 155.6 157.1 156.9 157.6 158.2 158.7 158.8 158.7 158.2 157.4 156.8 157.9 164.7 169.4 171.3 174.1 175.7 178.3 180.3 181.7 180.3 177.2 166.4 161.3 176.5 183.1 188.1 192.4 195.5 198.9 201.9 205 206.6 206.4 201 181.8 168.7 175.8 196 202 206.9 211.4 215.6 218 218.5 217.6 214.1 207.8 189.8 175.2 171.1 174 182.9 192 203.3 215.5 225.9 232.8 237.1 240.3 241.7 243.6 243.9 245.6 247.2 249.4 249.6 248.7 246.4 243.2 239.5 235.6 232.4 231 232.5 235.9 240.3 245.7 250.8 254.2 256.9 258.9 260.8 261.8 263.4 265.4 268.5 271.4 273 276.2 279 280.4 280.1 277.5 274 268.9 263.9 258.8 251.9 241.6 235.5 229.4 224.5 225.3 221.4 215.3 211.5 211.4 213.5 217.6 219.8 220.3 219.1 217.8 216.2 213.1 207.6 203.5 206.5 208.1 208.5 208.4 206.4 202.6 197 189.5 181.6 182.1 179.4 174.8 169 161.7 156.7 151.9 160.8 161.7 154.3 147.5 161.4 175.1 185.2 193.1 199.9 203.7 203.3
126.4 128.3 128.1 128.1 128.7 129.1 129.6 130.2 131 131.5 131 131.7 131.8 131.5 132.1 132.4 132.4 132.1 133.5 133.5 134.1 134.3 134.6 135 134.7 135.2 135.3 135.8 135.4 136.5 136.5 136.7 137.7 137.1 138.5 139.1 141 143.3 145 146.3 146.9 147.2 147.1 147.6 148 148.3 148.8 149.3 149 148.9 147.8 149 150.9 152.9 153.7 154.2 154.1 153.4 154.7 154.9 154.5 154.3 154.4 153.8 154.4 153.1 156.7 160.5 163.3 166.1 167.6 169.6 172.1 174.8 175.6 174.8 172 162.1 162.2 176.9 181.4 184.7 186.7 189.5 192.8 196.1 198.7 200 199.6 196.1 179.4 167.6 177.4 190.9 194.8 199.7 203.9 206.7 208 207.9 206.5 204.2 197.9 180.3 171 171.2 180.9 191.6 202.3 212.9 225.7 232.9 238.7 240.5 241 241.1 241.9 243.3 244.7 246.9 248 247.6 246.1 242.3 238.8 237.9 238 238.8 240.7 242.6 245.8 248.8 251.1 253.4 255.5 257.1 258 258.3 259.1 260.7 262.4 264.8 267.9 270.9 272.2 273.4 273.4 272.1 268.8 266.5 264 260.2 255.1 246.7 235 225.5 219.2 215.2 221.1 220.9 217.3 211.9 203 207 210.1 211.3 211.2 210.2 208.8 207.5 205.3 201.7 196 199.4 201.9 204.2 206.1 207.2 206.4 204.1 196.7 186.1 173.4 170.7 167.7 157.5 151.9 149.7 146.8 152.8 154.7 151.5 146.3 163 176.6 184.3 191.5 195.8 198 197.1
128.6 129.2 129.3 127.4 128.6 128.7 128.4 129.4 130.4 129.4 130.2 130.2 130.5 131.8 131.1 132.7 132.9 132.8 133.5 132.8 133.2 133.8 134.5 134.4 134.8 134.3 134.8 136.6 136.2 137.7 138 137.6 138.1 138.3 138.4 138.7 139.3 140.1 142.4 144.6 145.4 145.9 146.2 146.2 146.7 147.3 147.8 148.3 148.6 148.7 147.2 148.4 149.9 151.5 152.4 152.6 152 150.9 151.8 152.1 151.5 150.6 151.6 151.8 151.8 151.9 153.7 154.9 156.5 158 159.5 161 162.9 164.9 165.5 166.3 165.5 159.5 165 171.8 174.8 177.3 179.5 181.9 184.6 186.8 188.5 190.3 190.1 187.1 177.9 167.3 177.9 184 187 190.5 193.6 195.7 196.2 196.5 194 192.1 185 171.3 169.1 176.9 190.8 202.7 215.4 223.7 228.9 234.1 237.4 237.4 235.5 234 234.8 236.5 238.2 240 240.5 239 236.4 233.6 231.6 232.2 234.9 237.9 240.1 242.8 244.7 246.1 247.7 249.5 251 251.5 251.2 251.7 253.2 253.9 256.2 259.2 262.1 265.6 266.4 267.2 267 265.9 264.2 261.9 260.1 258.2 252.8 247.1 240.8 234.9 225.4 211.5 215 216.3 212.2 207.5 203.1 198.5 204.5 203.8 201.5 202.5 201.2 201.4 199.3 194.7 188.8 192.6 195.4 199 202.1 204.9 205.3 203 198 190.3 177.4 162.7 155.6 150.5 148.1 149.4 149.3 145.9 145.2 146 148.4 164.6 174 179.8 185.4 189.7 191.2 191.2
131 131.2 131.2 131.1 127.4 128.4 128.3 131 130.7 130.2 129.8 131.4 132.3 132.7 134.2 134.6 134.9 133.4 136.5 137.7 137.8 137.9 138.6 137.2 137.9 139.1 138.7 139.7 139.8 139.4 139.2 138.9 139.6 139.4 138.4 137.7 138.8 138.5 139.7 141.7 143.6 144.7 145.3 145.8 146 146.1 146.6 147.9 148.1 148 147 146.9 148.5 150 151.2 151.2 150.1 148.8 148.8 148.9 149.1 149.6 150.2 150.5 149.6 151 150.9 151.7 152 152.3 153.8 154.9 155.8 157.3 157.8 158.6 158.9 156.9 157.9 162.7 164.4 166.8 168.3 170.1 172.2 174.5 176.5 177.8 178.1 177.9 171.8 165.6 169.2 177.7 180.6 182.5 184.7 185.6 185.3 184.6 182.9 178.3 170.8 168.3 172.7 187.2 199.6 207.8 213.1 219 222.8 226.1 227.6 227.2 226.9 225.8 225.1 227 227.4 227.9 228.7 226.9 224.7 222.7 223.4 226.5 229.8 232.5 235.5 237.8 238.7 239.6 240.9 241.5 244.3 244.7 243.9 244.6 244.6 245.7 247.7 251.5 256.2 260.1 261.5 262.1 262 261.3 259.8 257.9 256.6 253.9 250.1 245.2 239.7 234.4 227.5 213.5 206.1 208 203.1 199.6 196.6 191.6 193.7 193.5 194.7 196 195.5 194 191.8 187.3 181.3 184.5 186.1 188.8 191.9 195.4 197 195.6 191.6 183.9 170.4 157.3 151.2 149.1 157.1 165.3 167.5 162.8 149.1 144.4 150.1 161.1 167 171 177.3 182.9 184.3 185.2
132.8 134.1 133.4 133.9 133.8 133.8 132.6 132.4 131.8 132.3 133.4 133.9 135.2 135.5 136.4 136.8 137 137.4 138.4 139.1 139.7 140 140.5 140.1 139.5 139.6 139.6 140.7 141 140.8 140.6 140.3 140.3 139.9 140.1 139.9 139.8 139.6 140.4 140.4 141.4 143.6 144.5 144.8 145.1 145.2 145.8 147 147.2 147 146.5 146.6 148.1 149.5 150.1 150 147.6 147.9 148.1 148 148.4 148.9 149.7 149.5 149.2 148.8 150.3 150.7 151 151.5 152.3 152.6 153.6 154.6 155.2 155.6 156.3 155.4 156.6 157.4 158.6 160.3 161.4 163 164.6 166.3 167.9 169.4 169.9 169.2 166.8 164.9 170.2 172.8 175.1 176.2 177.5 177.9 177.2 175.9 173.4 170 168.1 168.4 177.8 186.9 192.8 197.7 201.9 206.4 211.4 215.4 217.5 217.6 217.2 215.2 214 212.6 213 214.4 214.2 212.7 211.9 213.1 216.4 218.8 221.9 224.3 227.6 230.3 232.3 233 235.4 236 236.2 233.6 231.2 233.3 236.5 237.9 241.1 246 250.2 255.9 258 258.4 258.1 257.6 255.7 253.1 250 246.1 242.5 237.5 233.3 229.1 224.1 215.1 204.2 196.5 193.5 192.7 190.5 188.7 188.4 188.9 188.8 188.4 187.3 185.2 179.4 176.6 172.9 172.3 171.6 172.5 176.5 181.9 185.6 188.2 186.7 180 165.1 153.2 149.7 161.6 174.6 183.1 186 183.6 169.7 144.9 146.1 151.4 159.1 163.9 170.6 176.6 176.4 174.6
136.6 137 136.8 137.4 138 137.6 137 135.9 135.4 136.4 136.1 136.7 138.1 138.9 139.3 139 139.3 139.4 139.9 140.3 140.7 141.2 141.6 140.9 141.1 140.3 140.7 141.5 142.1 141.5 141.1 140.8 141 141.2 140.8 140.5 140.6 140.5 140.7 140.4 140 141.6 143.7 143.3 144.1 145.7 145.7 146.1 145.7 145.2 145.9 147.1 147.7 147.4 147.7 146.5 146.8 146.6 147.4 148.4 148.6 148.3 148.9 149.3 149.8 150.3 150.8 151.2 152.1 152 152 152.2 152.4 153 153.4 153.8 154.3 154.9 155.6 156 156.1 156.7 157.5 158.9 160.4 161.6 164 164.6 165.1 164.9 164.8 163.1 165.7 169.2 170.7 171.5 172.3 172.6 172.2 171 169.1 167 167.8 171.9 175.5 179.2 185.2 189.2 193.7 197.8 203.5 207.2 209.9 209.2 208.9 207.4 204.8 204.2 205.5 205.4 205.2 204.3 204.2 205 208.7 212.1 214.9 217.8 221.3 223.9 224.8 227.7 230.4 230.4 228.7 226.9 224.6 227.7 229.7 231.3 237 243.5 248.3 251.2 252.5 252.4 251.8 249.8 246.8 243.7 240.7 237.6 233.5 230.8 228.5 224.7 220.1 214.4 206.3 199.3 194.1 189.7 186.9 185 183.5 181.6 179.7 180.2 178.5 178.1 180.3 182.5 182.6 179.6 176 171.9 165.2 174.1 181 184.4 183.9 178.9 164.5 151.1 155.2 175.3 186 188.2 187.5 183.2 174.9 149.1 143.1 143.1 149.8 154.9 160.5 163.8 164.8 162.8
140.9 139.9 140.1 141.4 141.9 141.7 142.3 142.3 141.5 141.2 140.1 141.1 142.5 143.6 145.4 146.1 145.9 145.3 144.3 143.2 143.2 143.8 143.8 142.8 143.4 143.2 143 143.3 143.2 143.2 142.7 142 141.9 142.3 141.1 141.2 141.3 141.3 141.1 140.7 140.7 141.2 141.9 141.4 143.4 144.2 145 145.3 145.2 144.2 146 146.3 146.2 146.3 146.2 146.8 147.9 148.5 149.7 148.5 151 150.9 151.4 151.4 152 152.2 152 152.1 152.3 152.4 152.6 153 153 153.7 153.6 154.8 154 154.3 155.3 154.3 156.5 156.7 156.8 157.3 157.8 157.5 160 162.2 162.7 163.1 163.5 163.6 164.5 167 168 168.8 169.1 168.6 167.9 166.8 166.5 166.4 168.5 169.8 172.4 175.6 179.4 183.3 187.3 191.1 195.5 199.2 201.8 202 201.1 199.8 197.8 197.9 199.1 198.7 199.3 198.7 199.1 200.5 203.4 204.3 207.7 210.2 213 215.9 217.8 220.2 222.8 223.6 223.3 222.1 219 220.6 223.2 224.6 230.8 237.4 241 243.2 243.9 242.4 239.6 238.1 236.7 233.7 230.7 227 224.4 223.7 222.7 219.7 216.2 212.4 207.1 201.8 196.9 195.3 194.9 193.9 193.2 192.7 191.8 190.4 190.5 190.9 192.4 192.4 190.3 187.7 184.4 180.8 171.2 163.6 175.6 179.6 178.6 174.7 163.4 150.8 153.3 173.1 177.7 175.7 177.7 175.9 168.9 158.7 145.5 142 142.9 145.8 151.8 156.9 160.4 160.5
146.3 144.9 143.2 144.7 146.8 147.2 148.8 150.1 150.1 149.3 148.5 148.2 149.3 150.7 152.4 153.7 153.8 152.6 150.8 148.3 145.5 145.5 145.5 147.1 147.5 147.1 146.4 145.9 144.4 143.3 143.1 143.6 143.3 143.6 143.7 143 142.4 142.4 142.5 142.1 140.3 140.6 141.8 141.8 142.8 143.5 143.7 144.2 143.8 144.8 145.5 145.6 145.7 145.7 145.8 147.1 148.6 149.8 150.8 151.5 151.6 153.4 153.9 153.9 154 154 153.8 153.3 153 153 153.5 154 154.4 154.9 155.2 156.1 156.3 155.2 156.7 156.9 156.8 157.8 157.8 158.4 157.9 158.1 159 159.5 161 162 162.1 162.6 164.1 164.8 165.6 166 166.4 165.1 164.5 165.3 166.1 167 168 169 171 173.5 175.7 179.7 183.5 186.9 189.5 192.3 194.5 194.4 193.3 192.1 192.5 193.8 194.1 193.1 194.4 194.9 194.1 195.5 196.9 199.3 200.6 203.7 206.7 208.7 210.6 214.2 216.4 217.2 215 215.6 214.6 216.5 218.2 221.7 227.2 230.4 233.3 234 234 233.1 232.2 230.2 228.3 226.9 223.5 220.7 216.8 216.9 216.7 215.6 213.4 210 206.8 202.6 200.5 199.2 198.3 198.5 198.7 197.7 196.9 195.6 195.6 195.5 193.8 191 187 184.1 181.7 179.1 173.9 163.3 165.7 170.1 169.4 165.1 159.6 151.3 152.4 158.3 164.4 170.3 171.5 169 164.3 156.9 148.4 143.8 141.2 141.9 143.9 150.3 152.3 151.6
152.2 150.3 147.1 149.2 151.6 154.8 157.3 159 159.4 159.2 157.7 157.7 158.7 160.1 161.1 161.6 160.7 159.2 155.8 151.7 148.1 147.8 150.8 152.6 152.9 152.6 151.9 150.2 147.3 145.3 143.2 143.8 145.4 146.7 147.9 148 147.6 146.1 145.6 144.1 143.7 141.9 141.9 141 142.2 142.4 142 142.7 142.8 144.7 144.7 145.1 145.3 145.1 147 148 149.3 150.6 151.8 153 152.8 154.5 157.9 157.6 156.8 156 155.9 155 154.8 155.8 155.7 155.9 156 156.2 156.3 157.2 157.8 157.2 158.5 158.3 158.5 158.5 159.1 159.7 159 159.2 159 158.8 159.8 160.5 160.8 161.3 161.9 162.5 162.5 163.1 163.3 163.4 165 166.1 166.6 167.8 169 169.9 170.2 171.7 173.1 175.8 178.3 181.1 183.6 185.1 186.9 187.9 188.1 187.6 187.2 189.3 190.4 191.1 190.7 190.8 189.2 191.1 192.5 193.2 195.3 197.4 200.3 202 204.9 208.6 210.6 211.5 211.3 209.3 210.7 212.5 216.9 220.7 224.6 227.3 228 228.9 227.8 226.6 225.1 223.5 221.3 219.8 216.9 214.6 211.6 211.7 212.9 212.7 210.8 209 206.3 203.1 200.7 199.5 198.2 195.7 195.5 195.1 194.2 192.7 191.2 189.5 186.6 183 179.7 177.8 175.8 173.3 169.5 165 157.4 164.2 163.4 160.5 156.1 151.8 153 156.8 161.9 166.1 168.3 166.5 161.8 157.5 153.5 149.1 144.2 139.7 139.9 141.3 144.4 144.2
156.9 155.4 150.7 156.8 159.8 162.8 166.1 167.9 170.1 170.3 170.5 170.7 170.6 169.4 168.8 167.9 166.2 163.7 159.7 154.6 149.9 150.1 155.6 157.6 157.1 156.9 156.7 153.9 150.2 146.3 144.2 145.3 147.9 150.2 152.1 152.9 152.6 150.8 148.8 146.8 145.2 145.6 144.7 143.8 143.4 143.1 143.6 142.5 143.6 142.4 144.6 144.1 145.7 146.4 148.5 149.7 150.6 151.7 153.6 155.3 156.4 154.3 156.3 157.7 158.2 157.7 157.6 158.8 159.1 160.1 160.1 158.8 157.2 157.3 158.1 158.9 159.8 159.3 159.3 159.5 160.5 161.7 160.6 160.8 161.2 161 160.9 160.2 159.4 160.2 160 161 161 161.8 163 164 164.6 165.7 166.4 166.9 167.3 169.5 169.6 169.4 169.4 171.5 171.5 172.4 174.2 175.6 177.4 179.1 180.7 182.5 182.4 183.7 185.5 186.7 187.2 188.1 188.3 187.1 185.4 186.5 188.5 189.5 190.1 192.1 194.3 194.7 199.9 202.3 203.4 204.6 205.6 205.6 209.6 212.9 216.4 219.7 222 223.1 222.8 222.6 222.2 220.8 218.9 217.3 216 213.2 211.4 209.4 207.7 207.3 209.2 209.6 208.3 207.1 205.1 201.8 198.2 194.5 192.4 189.1 186.9 188.3 187.5 185.7 183.5 179.3 176.5 174.4 171.8 169.9 168.4 167.1 164.5 160.8 158.4 154 155.2 153.7 153.3 152.9 154 158.5 162.2 165.8 168.9 168.3 167.5 165.2 161.9 158.2 153.7 147.2 141.7 138.9 139.5 143.5
161.5 160 155 161.9 166.1 169.3 172.6 175.2 177.2 177.8 178 177.6 177.1 176.2 174.9 173.1 170.8 166.4 161.5 155.4 152.7 158.4 161.2 162.8 163.1 163.2 161.4 157.8 152.6 147.4 145.4 148.4 151.5 153.6 156.1 157.3 157.5 156.8 154.3 151 147.7 147.7 148.4 149.8 151.2 148.6 147.5 146.8 146.6 146.5 146.6 147.8 148.5 149.8 151.3 152.7 153.5 157.1 160.6 161.8 161.2 156.5 157.3 159.1 159.4 159.3 160.2 162.7 164.5 162.9 162.9 161.6 159.8 159.3 161.1 161.3 162.4 162.3 162.1 163.1 163.4 164 163.1 162.5 162.9 163.8 164 163.6 163.9 163 162.7 162.5 163 162.2 163.7 165.1 167.4 168.2 168.9 168.8 168.3 168.9 169.2 170.3 170.8 171.2 170.9 171.4 172.2 173.4 174.6 175.6 177 178.4 179.5 179.8 181.6 183.2 185 185.6 185.4 184.3 182.6 184.8 186.1 187 189.5 191.5 192.3 193.1 193.5 194.8 197.1 200.2 204.7 207.5 208.5 212.9 214.9 217.5 218.8 219.5 219.1 217.3 217.3 214 213.1 211.7 209.5 207.8 206.1 204.8 203.6 202.7 205.2 206.7 206.8 206.2 204.4 202.1 201.6 199.5 196.2 191.5 186.6 182.5 180 178.1 176 175 174.4 173.6 173 171.2 169.6 168.8 167.1 165.3 163.4 161.9 160.8 159.6 156.4 152.9 158.3 167.4 171.1 176 179.4 182.3 181 175.4 171.2 166 160.5 156.6 150 139.5 138.9 146.4
165.4 164.3 162.6 162.6 168.2 172.6 177.1 180.7 182.8 183.1 182.7 182.3 181.5 179.7 178.5 176.2 173.6 168.8 163.3 158 155.1 162 164.8 166.4 167.1 166.3 164.3 160.7 156.3 149.6 146.2 151.3 155.2 158 160.1 162 162.1 161.4 159.5 156.8 149.5 153.2 155.8 156.8 157.2 155.4 153.6 150.9 151.4 151.3 151 152.4 154.4 156.8 157.9 158.2 158 160.1 162.4 162 159.3 157.7 159.3 160.9 161.5 162 163.9 166.8 168.5 168.7 167.2 165.1 162.9 165 165.9 164.6 165.3 164.6 164 164.7 165.7 167.2 166.8 165.7 165.3 165.9 167.3 167.3 166.2 165.4 165.2 164.5 163.3 162.5 163.4 165.7 166.6 167.7 168.1 167 167.3 167.5 168.3 168.6 168.4 169.8 170.9 171 172.5 173.3 173 172.9 173.7 174 176.4 176.8 177.6 178.9 179.8 180.3 180.3 185 188.9 190.4 191.4 193.7 195.8 196.9 198.1 198.4 198.7 199.5 198.9 202.1 205.5 207.9 210.5 212.1 214.7 215.9 216.9 215.8 215.1 214.1 211.4 211.1 208.6 206.3 204 203.6 201.6 199.8 198.1 199.3 203.2 204.8 205.5 205.5 205.9 204.4 202.3 199.2 196.2 193.6 192 191.7 188.8 183.1 182.8 183.6 185.1 185.1 183 180.1 178.4 179 177.9 175.9 173.6 171.4 168.9 163 156 155.4 174.4 181.8 185.3 190 191.6 190.4 186.5 180.7 176.5 172.1 167.6 162.1 154.7 142.7 138.3 141.5
169.4 167.4 166.5 165 167.4 172.2 175.9 181.8 185.4 186.1 185.2 183.7 182.8 180.8 177.7 175.2 171.9 168 163.5 161.1 159.2 163.9 167.2 168.6 168.7 167.1 164.2 160.6 156.9 151 147 150.4 155.4 158.4 161.6 164.2 165.1 164.3 162.5 159 152.7 158.7 162.4 163.9 163.4 161.5 158.4 154.2 155.4 158.8 161.3 164.4 166.9 167.8 167.1 165.8 164.5 163 163.9 162 158.8 160.9 161.8 162.7 163.9 166.3 168.9 170.6 172.6 172.5 170.4 167.4 166.1 165.3 166.6 168.5 168.3 166.4 167.4 168.3 170.8 171.3 171 170.6 168.3 169.5 170.7 170 168.3 167.8 167.7 166.2 164.9 162.9 162.2 163.3 164.4 164.6 165.2 165.6 166 166.6 166.4 167.4 168.7 171.2 172.6 173.7 174.6 174.3 174.9 175.3 176.2 177.5 179.2 180.9 181.5 182.9 184.8 187.4 190.1 193.4 195.8 198.1 198.9 201.2 201.8 202.2 202.8 203.2 203 204 204.7 205.1 205.3 206.3 208.7 211.6 213.8 214.6 213 211.6 209.7 207.4 204.7 201.5 199.3 200.2 199.6 198.2 196.5 196.1 195.6 198.8 203.2 204.2 203.9 205.1 206.6 207 205.7 203.6 201.2 199.7 198.9 196.7 192.1 186 187 189.9 193.1 192.6 190.2 186.8 185.7 185 183.5 181.2 178.8 175.2 168.2 159.6 155.1 163.5 179.9 188 192.8 195.2 194.3 191.3 186.7 182.5 178 172.7 167.9 162 156 147.3 139.9 137
176.3 172.3 169.5 169.2 170.1 173 178.9 184.5 187.6 187.5 187.1 185.5 183.4 180 176.9 173.8 170.3 166.5 166 163.8 164.8 164.7 167.4 168.9 168 165.7 162.6 158.2 155.2 150.5 148.4 148.6 152.6 155.8 159.3 162.3 164.3 163.4 161.7 160 155.1 161 165.1 167.8 168.8 167.7 165.7 160.4 164.6 167.1 169.5 173.2 175.8 176.3 174.4 172.2 169.7 167.8 165.3 161.2 163.5 165.3 167.1 168.4 171.1 173.2 174.5 175.4 176.5 176.1 173.8 173 170.1 169.8 170 171.5 170.7 169.3 170.1 172.1 173.8 174.6 173.5 173.7 172.4 173.9 173.3 172.6 170.6 170 169 168.2 167.4 166.6 166.4 167.1 167.7 166.2 166.1 167.1 168.1 168.8 168.9 168.9 168.7 170.6 173 174.2 175.9 175.9 177 176.7 179.4 182.7 185.2 186.9 188.9 190.7 193.4 197 200.2 202.3 203.6 203.7 203.6 205 204.5 205.2 204.9 204.9 204.9 205.8 206.2 207.4 207.6 209.1 211.8 214.5 214.8 218.4 218.5 218.1 215.2 213.4 212.4 209.6 205.7 203.8 200.5 197 196.3 191.9 196.4 201.5 204.3 204.6 203.3 203.7 205.6 205.7 205.2 204.1 203.6 202.5 201.2 198.2 193.5 187.7 185.8 191 193 191.7 189.3 186.8 184.7 183.1 181.3 179 176.7 173.4 164.2 156.5 158.5 171.3 183.5 191 195.6 195.5 192.8 188.6 183.5 178.8 173.8 168.6 163.9 157.8 151.9 144.3 139.6 138.6
183 179.8 175.9 174.6 175 180.1 186.6 191.1 192.7 192.3 191.1 189 186.3 182 177 173.7 171.5 170.1 168.9 167.7 166.8 167.1 167.7 169 167.9 166.5 163.2 159.4 155.9 152.7 150.2 148.9 150.8 154.1 158.3 162.1 164.8 164.3 162.9 161.2 159.5 158.3 163.5 166.9 169.2 169.9 168.2 163.5 168 172.4 175.6 178.5 180.6 181 180.1 178.4 174.8 171 166 163.6 168.5 170.3 173.8 175.8 178.4 179.7 180.9 181.1 181.2 180.5 178.6 177.6 175.8 174.5 173.8 175.5 174.9 171.4 173.8 176.5 178.6 179.1 179.2 178.1 176.7 177.1 175.6 174.6 173.2 172.4 171.5 170.7 170 169.3 168.9 169.7 169.9 169.5 169.4 169.6 170.2 170.8 170.5 170.8 170 168.7 171.2 174.2 176.6 178.1 178.2 178.7 181.4 184 188.1 189.1 191.5 194 196.9 199.1 203.1 205.3 206.6 206.4 206.5 206.3 205.6 204.5 203.8 203.3 203.6 205.3 207.4 208.9 210.8 212.5 214.7 216.8 218.4 219.9 220.2 220.5 219.2 219 217.3 215.5 212.2 210 206.4 203.6 200.5 192 197.7 202.4 204.1 203 200.3 200.9 202.7 202.6 202.4 201.7 201.4 200.9 199.5 197 193.3 186.4 184.9 189.9 190.2 188.1 185.3 182.1 179.2 177.6 175.5 171.9 169.2 164.6 158.8 158.5 165.3 174 183.1 188.5 192.3 191.6 188.8 185.6 180.6 174.8 170 164 157.8 157.5 156.7 153.2 146.7 139.7
191.6 189.1 186.2 184.1 185.5 190.1 193.9 197.1 199 197.8 196.8 194.7 191.7 187.9 182.6 178.3 174.2 173.3 171.7 170.7 170.3 169.9 170.1 171.8 172.1 169.6 166 162.5 158.6 156 153.3 151.3 150.8 152.8 158.2 163.3 166.3 166.3 165.4 164.4 163.3 162.2 162.3 166.8 169.7 170.7 170.3 169.4 168 173 176.3 179.1 181 181.5 180.4 178.8 176 172.2 166.8 164.6 172.6 176.1 179 181.5 184.1 186.2 187.6 188.9 188.2 186.5 185.9 184.2 182 180.8 180.4 180.5 178.4 174.6 178.3 181.3 182.7 183.9 183.7 182.6 181.8 181.5 180.6 178.9 175.1 174.4 173.8 174.3 173.9 174.2 173 172.8 173.1 172.4 172.4 172 172.3 172.5 172.4 172.2 171.7 169.1 172 175.9 178.9 180.3 183.7 182 180.6 182.8 185 187.3 189.7 193.2 197.9 199.6 202.1 204.9 204.9 205.2 205.3 205 203.9 203.1 201.9 202.9 202.6 205.5 208.2 210.1 212.4 214.1 215.2 216.4 217.8 218.9 219.7 220.5 221.4 221.1 220 218.3 216.4 213.6 210 205.8 202.1 192.3 191.7 197.2 194.9 199.4 196.1 194.6 197.7 197.2 196 194.9 194.5 193.8 193.3 192.3 189.1 183.8 179.9 184.1 183.8 181.5 178.6 174.8 171.8 169.6 166.4 162 159.8 158.3 162.5 171.5 180.1 184.7 188 191.1 191.9 191.1 187.1 182.7 180.6 177 173.1 170.3 169.3 168.2 165 159.3 153 145.3
199 198.2 197.4 196.7 197.4 200.5 202.2 202.2 202.9 202.1 200.9 198.5 195.9 194 190.2 189.7 186.8 184.5 182.5 179.3 176.2 175.2 174.8 174.3 174.3 172 168.7 165.6 162.9 162 160.3 158 153.4 151.8 159.2 164.2 168.3 169.5 168.3 166.9 166.8 167 165.2 167.1 169.8 171.6 171.2 172.3 172.2 173.9 176.9 179 180.8 181.8 180.8 178.6 175.6 173.2 169.9 166.7 167.4 175.3 180 182.3 185.8 188.7 190.9 192.8 193.4 192.8 192.4 191.1 190.2 189.4 188.3 186.9 183.3 176.4 182.4 185.3 187.3 188.4 188.2 186.1 186.1 185.8 184.3 182.9 178.4 178.7 180.2 180.6 180.6 180.6 179.3 177.1 176.7 175.9 175.9 175.6 175.3 174.9 175 174.2 173.4 171.3 177.4 182.6 180.8 182.2 182.9 182.8 183.8 185.8 187.5 189.6 192.4 195.3 198.1 199.9 202.5 202.5 202.3 201.8 201 200.6 200.5 199.3 198.8 199.4 201.6 204.8 207.8 209.8 211 212.1 213.1 213.7 214.9 215.7 217.6 219.1 220.1 220.2 219.3 218.1 216.2 213.2 210.2 205.8 201.8 193.6 189.9 194.6 196.2 194.7 191.6 188.9 190.4 190.3 189.3 187 187.7 188.6 188.8 187.4 185 180.4 177.9 178.6 176.9 175.1 171.3 166.5 163.3 162 160.5 163.2 170.2 171.2 174.6 180 183.8 187.5 190.4 191.5 190.6 189.7 186.8 183.2 182.5 178.2 176 173.8 172.8 169.7 164.8 161.3 156 151.1
202.3 201.2 200.9 201.2 202.1 203.2 204.6 205.4 205.3 204.5 203.5 202 200.6 199.2 198.7 198.1 196.2 195.9 195.5 194 191.6 189.4 186.9 182.9 177 174.3 171.9 170.1 168.7 167.2 166.7 164.8 159.3 152.4 164.4 170.4 174.2 174.9 173.6 171 169.4 169.6 169 167.6 169.9 172.6 173.9 176.4 177.1 179.4 182.5 183.6 184.9 185.9 184.9 182.8 180.6 176.8 173.9 172.1 167.9 175.6 180.9 184.1 188.1 192.3 194.8 196.5 197.2 197.3 196.7 196.2 195 193.9 192.2 190 186 179.1 187.4 190.2 191.7 192.7 192.1 191.4 191.4 190.7 188.3 184.7 181.9 184.2 186.9 187 185.8 185.5 181.7 181.2 181.3 182.1 181.4 180.2 179 177.5 176.9 176.6 176.4 174.9 171.6 173.6 177.9 180.4 181.6 182.3 184.2 186 188.7 191.7 194.6 197.2 200.2 201.5 203.1 202 200.5 198.8 197.4 196.4 195.8 195.7 196.4 197.8 199.1 201.4 203.9 205.1 206.8 207.5 208.4 209.7 211.4 213.2 215.8 217.5 218.9 218.2 217.4 214.8 211.8 206.3 202.4 200.2 194.8 188.8 186.6 187.4 186.9 184.8 184.9 182.8 183 182.7 182.1 180.9 182.8 184.5 182.7 181.7 179.7 176.3 172 173.3 173.5 168.1 164.6 162.5 163.9 164.7 166.9 170 173.3 175.9 179.7 173.9 183.9 185.9 186.9 187.4 186.2 184.7 183 179.7 178.3 175.2 173 171.1 168.4 165.9 162.8 158.4 153.8 147.2
203.2 202.5 201.3 201.7 202.4 203.3 204.4 205.2 205.4 205.8 205.2 204.2 202.3 201.9 202.1 202.4 202.8 202.2 201 199.6 197.7 195.4 193.3 190 185.1 181.4 177.9 175.3 172.8 172.4 172.4 169.8 162.1 153.1 159.9 171.6 176.3 178.1 177.5 175.9 174.2 172.2 171.1 170.6 170.4 172.8 175.4 179 180.6 183.1 185.2 187.2 188.7 189.4 190.1 190.7 188.5 185.9 183.4 180.8 170.5 179.8 186.6 190.4 193.9 196.5 198.3 199 199.9 200 200.1 199.3 198.5 197.3 195.3 192.2 188.3 183.7 187.6 192.2 194.5 195.7 195.5 195 195 193.6 189.6 187.8 187.1 189.1 191.6 191.7 190.3 189.2 187.1 185.9 185.6 186 186.1 185 182.9 181.3 180.7 179.1 178.3 177.4 174.7 171.8 173.3 177 178.4 180.1 182.2 184.9 187.4 190.5 193.9 196.9 199.7 200.6 201.2 200.6 199 197.1 195.5 194 193.2 194.8 196 198.7 200.7 201.5 204.4 205.9 206.4 206.4 209.5 210.6 212.2 215.4 217.8 219 220.2 219.5 218.6 215.8 214.1 209.5 204.9 196.4 194.8 199.4 193.6 191.9 187.5 187.2 186.7 185.8 183.1 180.4 178.7 176.9 174 172.2 171.3 171.9 171.3 169 166.5 163.5 167 168.6 168.9 167.6 169.6 171 173.8 180.1 181.7 184.5 185.4 186.5 186.4 183.4 171.9 181.4 182.2 178.4 178.3 175.5 173.6 171.4 169.3 166.8 164 161.1 158.2 155 150.1 142
199.4 198.4 197.5 196.6 196 198.2 199.2 199.5 200.5 200.9 202.3 201.8 201 202.3 203.5 204.3 204.9 204.3 202.8 201.7 201 199.1 197.3 195 192.2 188.2 185.2 183.4 181.6 178 174.8 170.9 162.6 154.3 157.5 170.4 176.1 178.9 179.1 177.7 176.3 174.8 173.5 172.4 172.4 174 175.2 178.7 181.2 183.8 186.8 189.1 190.5 192.2 194.7 194.4 192.3 190.2 188.5 186.9 177.7 179.7 189.6 193.4 196.5 197.8 199.2 200.3 200.9 201.5 202 201.5 201 199.6 197.1 194.1 191.4 188.1 191 193.7 196.4 198.4 199.5 198.2 197.9 196.2 193.3 191.6 191.3 192.8 196 196.5 195.7 194.1 191.5 191.2 191.1 190.7 190.1 189 187.6 185.3 183.8 181.2 180.3 179.2 176.5 171.7 171.9 173.4 175.3 177.1 179.8 183.7 187 191.2 195.3 197.5 199.2 199.4 198.9 197.3 195.7 193.7 191.9 192.1 193.6 197.4 199.5 202.6 204.8 207.3 209.2 210.2 210.9 210.6 212.5 214 215.3 218 219.3 219.4 219.5 218.2 217 215.1 212.4 209.4 204.9 195.9 202.6 203.8 200.2 196.9 195.3 194 192.1 190.5 189.2 187.2 186.6 184.4 182.7 178.5 175.7 171.7 168.8 167.8 174.3 179.1 180.7 178.3 175.8 170.7 176.9 181.4 185.3 187.2 187.6 187.7 187 186.2 184.2 182.1 178.8 176.7 174.3 168.1 169.6 167.5 164.4 165 163.8 161.7 158.8 156.3 152 146.6 144.1 147
198 194.9 193.2 191.2 190.7 190.9 192.3 192.6 192.9 194.2 195.7 195.8 196.8 199.3 201.3 202 202.9 203.8 204 203.3 202.4 200.9 199.5 196.4 194.3 190.7 188.7 186.5 182.8 179 175.9 171.6 165.5 155.6 156.4 169.2 174.5 176.9 177.8 177.5 177.1 176.6 176.9 175.7 175.2 176.3 178.1 179.3 182.3 185.3 189.1 192.7 195.2 198 198.4 198.1 196.9 195.4 192.8 187.6 179.7 175.7 183.8 190.6 193.1 194.5 197.3 199.1 200.5 201.6 202.9 203.2 203.2 202 199.2 195.9 194.3 193.7 194.5 197 199.1 201.1 202.4 201.2 200.8 200 197.1 196.1 196.2 197.3 199.9 200.7 200.4 199.2 197.2 197.1 196.1 195.9 194.6 192.5 190.6 189.2 186.5 184.8 182.7 181 179.5 177.3 176.8 175.2 173.5 175.3 178.9 182.8 186.3 190.8 194.4 196.6 197.9 198.3 196.7 194.9 191.5 190.4 191.2 193.2 197.1 200 203.2 207.4 209.5 211.3 213.5 214.6 215 215.3 216.7 218.4 218.4 219.9 220.9 220.5 217.5 213.5 210.6 209.4 207.1 203.6 200 200 200.7 200.1 197.8 195.4 192.9 190.9 188.7 186.6 184.8 183.3 182.8 181.2 179.4 176.7 173.4 170.2 168.4 173.7 178 182.1 184.3 183.2 178.6 173.5 180 184 188 189.7 188.9 188.5 187.2 184.1 180.3 178.1 175.5 173.3 171.5 168.6 164.2 160.7 159.5 158.6 160.9 161.9 157.8 152.5 149.2 147.7 148 150.4
196.7 193.4 190.6 189 187.5 188.8 189.5 190 189.8 189.4 189.6 190 191 191 193.3 195.7 197.3 198.7 200.4 201.4 202 200.7 198.3 195 191.8 189.4 186.1 184.3 180.9 177.2 173.4 168.9 163 155.5 154.9 166.3 171.2 173.7 174.7 175 175.3 175.9 176.7 176.7 177.9 178.6 179.7 181.1 184 188.6 192.2 196.3 199 200.6 200.9 200.8 200.6 199.3 197.1 193.7 188 179.2 178.4 184.8 188.5 190.7 194.7 196.7 197.6 199.9 202.2 204 204.6 203.3 201.5 199.9 198.2 198.1 198.9 200.3 202.2 204.1 205 204.9 204.6 203.4 201.8 200.7 201.5 203.4 204.2 205.2 205.3 204.5 203.1 202.9 202.8 202.3 201.9 197.8 195.4 193.2 189.6 187.7 186.3 184.3 182.6 180.5 179.3 178.2 175.7 174.3 177 180.6 184.8 189.5 192.9 194 193.8 195.5 194.2 191.7 188.8 191.3 192.8 195.1 198 202.1 205.9 209.7 212.7 215 216.9 218.7 219.4 220.2 221.8 223.2 223.6 224.2 224 222.6 220.4 217.3 213.9 210.9 208 204.8 204.4 203.6 200.8 197.7 194.4 193.4 189.7 187.6 186.2 184.8 182.7 179 178 175.7 173.7 172 170.6 169.7 173.7 176.5 179.6 183.2 186.5 186.1 181.6 176.6 182.1 185.8 190.2 191.4 191.1 190 187.1 184.9 184 182.5 180.8 178.4 174.4 169.7 166.7 166.8 165.2 162.1 160.5 158.8 158.2 158.1 157.3 156.7 158 155.1
194.3 190.4 188.7 186.8 185.3 186.7 187.5 187.4 186.1 185.9 186.2 186.4 186.4 186.2 187.2 189.2 190.7 192.7 195 198 197.7 197.1 194.7 191.7 188 184.2 182.2 178.7 175 171.9 168.7 164 157.3 158.4 157.1 160.5 165.9 169.7 170 170.6 171.7 173 175.3 176.4 178.3 179.9 181.7 183.7 186.8 190.3 193.5 196.7 198.9 200.9 202 202.4 202.1 201.4 200.2 198.4 195.5 188.2 181.3 179.9 184.1 188 190.5 192 194.3 196.8 199.1 201.7 204 205.3 205.4 204.8 204.2 202.9 203.1 205.5 207.6 208.7 209.7 209.7 209 208.7 209 209.6 211.7 211.4 211.1 212.1 214.6 217.1 217.4 218.2 217.9 217 213.8 208.3 202.7 198.3 194.4 193 190.2 188.1 185.3 183.4 181.9 180.6 178.9 178 176.2 179 183.9 187.9 190.1 191.6 191.2 192.3 190.6 186.8 187.3 191.3 194.6 195.1 197.8 201 205.7 209.6 213.9 216.8 219.2 221.3 223.4 225 226.4 227.7 228.5 228.9 227.9 227.2 225.7 223.4 219.7 216.2 212.8 210.6 208.5 206.8 203.7 201.6 198.1 195.5 192.8 189.9 187.1 185.6 182.3 178.9 175.6 173.2 172.8 174.7 174.7 173.4 180 183.9 186.3 188 190.3 190.1 186.7 182.7 186.4 190.1 194.5 194.7 194.2 192.2 190.5 188.4 187.8 186.3 183.2 179.5 176.3 172.5 170.7 173 171.5 170.5 168.8 167 167.5 167 166.5 165.2 161.1 158.8
194.1 189.8 186.2 184.4 183.1 185.1 185.7 185.2 183 183 183.5 183.7 183.9 184.1 185.6 187.1 188.6 190.8 193 194.9 195.2 194.4 190.7 186.9 182.4 178.3 175.3 172.8 169.9 167.5 164.8 159.6 163 166.9 165.3 158.7 161.6 165.1 164.6 166.5 168.3 170 172.2 174.7 177.5 180.2 182.4 184.7 187.5 190.2 192.8 195.5 197.8 198.9 200.2 201.3 202.9 203.1 202.6 201 198.8 196 192.8 186.7 182.5 182.6 186.8 189.9 192.4 195.2 198.1 201.1 203.7 205.6 207.3 209.5 208.9 208.1 207.9 208.7 210.9 213 213.5 215.6 215.9 216.1 217.5 219.7 220.7 219.3 220 225 228.3 229.3 229.1 227.8 225.5 222.9 219.3 214.9 208.1 203.4 203.1 201.8 196.5 192.9 190.4 188.8 185 182.7 181.4 180.1 177.6 176.1 180.7 183.3 185.9 187.7 187.6 186.1 185 188.3 192 194.9 197.6 199.5 200.1 200.2 204.8 208.7 213.2 216.6 219.1 221.5 224 225.9 228 229.8 230.6 230.5 230.2 229.2 227.5 224.6 221.2 217.6 214.6 211.2 208.9 206.5 204 201.4 198.6 196.3 193.5 190.1 186.7 183 180.9 178.1 175.2 175 179.6 180.4 178.1 177.2 183.6 187.2 191.1 193.4 195.2 193.3 188.4 186.7 189.9 195.3 199.6 200 199.1 197.1 194.1 193 192.4 190.1 186.8 183.5 179.7 175.9 176.6 178.3 179.8 180.3 180.5 180.7 181.7 182.5 179.5 176.7 171.6 167
191.3 186.7 183 180.4 181.6 183.4 183.4 182.3 179.9 178.8 181.4 182 182.4 183.8 185 186.4 188.4 191.2 194.4 195.6 195.4 192.7 189.6 185.3 178.8 174.5 171.8 169.4 167.3 165.4 162.7 162.3 167.9 171.5 171.3 166.9 164.1 165.3 166.1 167.4 168.7 168.3 169.8 170.8 173.9 175.3 179.2 181.9 184.6 187.8 191.1 194.4 195.7 196.6 198.3 200 202.4 204.6 204.5 203.2 200.6 197.6 194.1 191.9 190.1 188.3 188.1 186.5 189.1 193.3 197.5 200.4 202.9 205.7 208.6 211 212.4 212.9 213.5 214.1 215.5 218.9 219.5 221.6 223.2 225.5 226.1 227.2 228.1 228.7 231.3 234.5 235.6 236.1 235.6 233 229.4 225.2 221.1 217.5 213.3 209.9 211.1 210.1 206.5 202.6 200.4 197.4 192.9 187.3 184 182.4 180.4 179 177 180.4 182.8 182.6 182.5 185.8 190.7 195.7 199.1 201.3 203.4 204.1 204.6 205 206.3 209.7 213.1 215.4 218.1 220.5 222.7 225.6 228.5 231 232 231.4 230 228.1 226.1 223.1 219.5 215.4 211.2 207.7 205.3 203.3 201.5 198.8 195.5 193.7 190 184.9 182.6 181.8 179.1 178.8 178.7 180.6 183.2 183.9 182.3 180.4 185 190.2 195 198.4 199.6 196.8 192.6 192.3 193.9 198.1 202.9 206.5 206.1 202.9 201.5 200.9 198.9 195.4 191.8 187.3 181.7 180.6 181 184 187.7 189 191.3 194.9 195.7 193.6 190.1 186.8 181.1 173.2
184.4 182.3 178.4 179.1 179.9 180.2 180.1 177.5 176 176.4 178.2 179.9 181.4 183.2 185.3 188.5 191.7 193.9 195.7 195.8 194.6 192.1 189.2 185.5 180.4 175.1 171.9 168.8 169.3 169.3 162.7 164 168.4 172.7 173.3 171.9 170.2 170.1 171.5 173.6 174.6 174 175.5 177 178.7 178.5 177.6 178 179.9 182.4 187 190.3 193 194.2 195.6 198.2 202 205.2 206.7 206.1 204.8 200.5 198.5 197.4 195.2 196.6 194.2 191.6 188.4 191.9 195.7 199.1 202.1 205.3 208.4 211.2 213.5 215.7 216.8 218.2 220.6 222.7 225.1 226.7 228.9 230.3 231.9 232.8 234 236.8 239.3 240.9 240.7 240.5 239.2 236.1 232.6 229.6 227.4 225.7 224.3 222.7 219.8 217 212.6 211.1 208 204.1 199.4 194.1 188.7 185 182.7 180.9 180.5 177.3 179.2 180.2 184.7 189.3 194.4 198.3 201.3 203.7 205.8 207.2 208.7 209.6 209.9 208.8 212 214.9 217 219.2 221.3 224.1 228.4 231.2 231.4 230.1 228.7 226.3 223.9 220.2 216 211 206.5 203.4 200.8 198.6 197.3 195.8 192.8 190.9 186.7 182.6 182 181.2 182.3 183.7 184.6 185.5 186.9 187.6 186.2 184.7 188.8 192.1 196.8 201.9 203.2 201.6 198.1 197.7 199.5 204.4 210.7 212.7 212.1 210.6 209.9 207.4 204 199.3 193.9 189.2 186.4 185.9 186.8 191.9 195.8 198 199.3 200.7 201.1 199.2 195.2 190.3 183 176.5
181.7 178.7 174.4 177.1 177.3 177 176.4 173.2 175.8 177.9 179 180.3 181.6 183.2 186.8 189.6 192 194.4 195.4 194.8 193.9 192 189.3 185.8 181.6 176.5 173.2 173.2 169.3 169.3 167.3 165 168.9 175.3 179.4 181.9 184.6 184.5 185 184.9 184.1 184.6 186.7 187.9 188.9 189.7 189.1 188.5 185.3 182.5 182.2 184.6 188.4 192.3 194.1 196.4 199.9 203.5 206 208.4 210.1 209.7 209.6 211.5 211.7 211.6 206.5 198.8 195.7 194.1 194.3 197.8 200.7 203.7 206.9 210.4 213.4 216.2 218.3 220 222.4 223.8 226.3 228.7 231.5 234.4 236.1 237.5 239.5 242.6 245 246 245.8 245 242.4 239.3 236.5 235.4 233.7 232.5 230.5 228.1 225.4 221.3 219.2 217 212.7 208 201.3 194.7 191.2 188.3 186.2 184.7 183.1 180.2 178.8 181.8 186.1 190.8 194.9 198.8 201.2 203.4 206.2 209 211.1 213.2 214 213.6 212.9 212.4 214.9 218.6 220.9 223.2 226.5 228.6 229.3 228.4 226.3 223.5 220.4 217.1 213 208.5 204.5 201.3 198.2 197.1 195.5 193.4 190.2 187 184.6 184.7 185.1 185.8 187.6 188.8 191.4 192.4 192.6 191.3 189.8 188.2 191.5 196.1 201 206.4 209.2 208.6 205.8 204.6 208 211.6 215.4 218.3 217.4 216.2 215.2 212.6 207.5 201.5 197.1 194.9 193.9 192 193.3 197.8 201.6 204.5 205.4 205.8 206.2 203.7 198.2 192.5 186.6 180.9
178.9 177 174 173.9 174.7 174.2 171.8 174.7 176.5 178 179.5 180.8 182.1 184.6 186.5 189.3 192.4 193.8 194.3 194 192.9 190.6 188.1 184.4 180.7 178.5 175.7 175.1 174.4 174.4 172.2 167.6 167.4 175.8 183.7 186.9 188.3 188.8 189.6 189.9 190.3 192.6 195.5 195.3 196.1 196.2 195.6 192.3 189.7 185.4 186.9 187.4 189.5 191.2 191.3 195.5 198 200.9 204.2 208 210.9 213.6 215.7 218.6 218.6 216.7 211.8 204.4 200.4 198.9 197.2 195.4 197.3 200.3 204.9 208.5 212.3 214.8 215.7 218.6 220 224.1 227.3 230.6 233.8 237.4 240.2 243 244.9 245.9 247.6 247.5 247.2 246.6 245.1 242.4 240.5 239.3 237.2 236.2 233.9 231.1 228 224.5 221.9 218.7 214.3 209 204.3 199.8 198 194.8 190.7 188.6 187.2 183.7 182.2 181.5 186.7 190.3 193.5 196.3 199 201.8 206 210 213.6 216.5 217.6 217.4 216.5 217.3 218.2 219.6 221.6 223.7 226.5 227.7 226.7 226.2 223.1 220.2 216 213.5 211 206.6 203.3 200 196.7 193.3 190.5 188.2 186.4 186.7 189.3 189.7 190.8 192.8 195.1 196.9 197.8 197.7 197.8 195.8 194.3 192.8 191.8 197.3 203.6 210.6 215.1 215.3 212.8 211.5 214 216.3 221.5 223.1 223 221.4 219.1 215.9 211.6 206.9 205.1 204.7 202.5 202 202.6 203.8 206.4 208.8 210.5 211 210.9 208.4 203.6 197.8 191.1 187.9
177.3 175.5 173.7 171.8 171.1 170.1 174.7 176.7 177.8 179.2 180.1 181.6 182.8 184.2 186.6 189.7 191.1 192.3 194.1 193.4 192.1 191.4 188 186.1 186.4 184.4 181.6 180.9 181 179.9 176.9 174.8 169 170.5 178.6 184.7 188.6 191.1 193.7 195.8 198.5 201 201.7 201.3 200.6 199.6 198.6 196.8 192.7 190.1 191.2 191.2 192.2 193.4 194.7 196 198.3 201 203.7 205.1 208.9 213.8 219.1 223.1 223.6 219.8 213.6 209.4 206.7 203.9 202.1 202.8 203.3 202.6 204.7 207.9 209.8 212.4 215.7 219.2 222.3 225.6 229.5 232.8 236.2 239.5 241.9 244 245.8 246.7 245.6 246.6 247.2 247.1 245.5 244.2 242.4 239.6 236.6 233.7 230.3 228.9 227 224.6 222.1 218.8 214.8 211.5 206.9 203.4 200.2 198.1 195.3 192.8 191.5 189 183.9 181 185.8 190 192.6 194.9 197 200.2 204.4 208 214 217.9 220.1 220.2 217.9 220.1 220.8 222 223.6 225.8 225.8 226 224.8 222.8 220.9 217.1 213.1 209.9 207.5 204.5 201.9 198.5 193.7 192.1 193.5 193.8 193.5 193.6 194.6 195.2 196.2 198.4 201.2 202.4 203.5 203.1 202.7 201.6 198.1 196.3 197 201.4 208.2 216.3 220.2 221.5 221.6 221.4 221.8 224.3 226.2 226.5 225.8 223.7 221.3 218.3 215.2 212.7 211.8 210.8 209.3 209.4 210.3 210.9 212.6 216 217.3 218 218.9 217.6 213.4 207.6 201.5 195.1
176.1 174.4 172.6 167.7 172.3 174.3 176.6 178.2 179 181.1 182.3 183.5 184.7 185.9 188 190.7 194.4 196.4 198.1 197.4 195.5 195.2 196.8 199.9 195.6 191.1 185.7 185.6 185.2 186 184 182.1 176 172.5 172.8 182.5 187.1 189.6 193.1 196.9 200.8 204.3 205.4 204 202.5 200.7 199.4 196.8 193.6 194.7 193.7 193.9 194.6 195.8 196.7 198.2 199.6 201.9 204.2 206.5 209.5 213.1 219.3 225.3 226.4 225.6 223.3 222.1 222.4 218.8 215.5 210.7 207.4 207.2 209.7 213.5 215.9 217.1 218.9 221.6 224.7 228.3 232.4 235.6 238.6 240.8 243.2 243.2 244 243.5 242.7 243.5 244.6 244.8 243.3 240.6 239.1 236.8 233 228.5 224.7 223.4 223.9 222.2 220.4 217.3 214 209.9 207.4 203.8 201.5 198.6 197.4 195.1 193.2 190 184.8 182.5 185.9 190.5 193.3 195 197.4 199.8 202.9 206.8 210.7 217.2 222.1 223.7 225 225.7 226.4 226.6 227 227.2 226.4 223.7 221.9 220.6 219.1 216.5 211.9 208 204.6 201.7 198.3 197.6 199.5 199 199.1 197.2 198.7 199.6 199.8 200.2 201.3 203.3 205.8 207.5 208.1 208.3 207.9 207 205.6 202.7 203.4 208.2 214.4 220.3 223.8 225.5 226.3 226.5 227 227.7 228.4 228.2 225.9 224.1 221.2 218.7 216.2 213.8 213.9 213.9 214.1 214.4 216.8 217.7 219.5 221 222.5 223.1 223.1 221 217.9 214.5 210.5 204.2
174.6 173.3 169.3 167.7 172.1 175.2 177.2 178.7 180 181.3 183.2 184.8 186.6 189.3 192.1 194.4 197.1 201 203.4 204.2 202.8 208 208.6 205.6 199.5 194.6 193.5 197.7 197.3 196.3 192.1 188.1 184.3 180.7 174.3 177.8 183.2 187.4 191.6 198.5 203.1 205.1 205.7 205 203 201.2 199.7 198.8 198.7 198.9 197.4 196.9 197.3 198.3 199.8 200.5 201.9 203.7 205.9 208.2 211.2 215.9 223.8 228.4 231.4 232.3 231 231.3 230.8 227.5 222.8 218.8 208.4 208.8 214.3 217.7 220.2 222 223.4 225 228 232 234.8 237.9 240.2 241.3 241.6 241.3 241 240.6 240.7 240.6 241 241 239.7 236.5 234 231.6 228.3 223.6 220.9 219.8 219.9 219 215.7 212 209.1 206.5 203.7 201.2 199.4 198.2 196.2 195 192.6 187.6 184.3 184.1 187.2 190.3 193.1 196.9 199.4 203.1 206.7 209.9 214.2 218.7 224.2 227.3 229.8 230.3 230.1 230.1 230.1 228.9 226.8 222.8 220 217.4 215.5 213.4 209.6 204.3 202.3 201 200.8 202.6 203.1 203.5 205.7 206.9 206.1 204.6 203.9 204.5 205.6 207.6 210.2 212.7 212.8 213.5 214 214.5 213.4 210.6 210.3 213.6 218.7 223.8 226.8 228.4 229.3 229.6 228.8 229.3 228.2 226.9 224.1 221.7 218.6 215.5 214.1 213.1 212.5 213.5 214.2 214.8 216.5 217.7 219.3 220 220.8 221.2 221.1 219.6 217.7 215.2 212 208.2
169.7 170.6 166.2 169.8 172 174.4 176 177.7 179.3 181.1 183 184.9 187.4 189.3 192 194.7 197.8 203.5 206.8 209.4 211 212.1 211.7 209.8 207.2 204.7 205.3 206 205.4 202.2 196.6 192.1 187.5 182.8 175.2 180.1 184.3 188.6 193.6 202.5 206.6 207.6 206.5 204.9 203.1 202 200.4 201 201.4 201.2 200.3 200 200.7 202.2 202.1 202.9 205 207.4 210.2 212.6 215.9 223.4 229.6 234.1 235.8 236.9 237.5 237.7 235.1 231.1 228 225.1 221.2 213.4 217 221.6 223.6 225.3 227.4 228.8 231.4 234.9 236.8 239.2 240 240 239.2 238.6 238.3 237.7 237.2 237.4 237.5 238 236.9 234.4 229.7 226.9 223.1 220.7 218.4 216.4 215.4 214.1 212.3 209.1 206.3 203.3 199.3 197.2 195 192.9 190.9 188.8 187.8 187.6 185.5 187 189.8 193.6 197 201.2 206.1 210.4 213.8 217.1 221.3 224.6 228.1 230.8 232.1 232.8 233.1 232.8 231.9 229.4 225.6 222.3 219 216.3 213.4 210.8 207.4 207.1 207.4 206 205.8 207.7 211.6 214.2 215 214.4 213.3 210.3 209.1 208.5 208.1 212.9 217.6 219.2 220.7 221.3 220.2 220.1 219.4 216 217.1 219.1 222.6 226 230.8 231.3 230.8 230 228.2 227.3 226.6 224 222.3 219.3 216.4 212.9 210.1 208.7 209 209.6 210.3 210.1 212.4 213.7 215.7 217 217.9 218 217.8 217.2 216 214.2 212.3 211.7
169.4 165.2 164.4 166.8 169 170.1 174.4 176.6 178.7 180.9 183 185.7 188.2 190.1 193.3 195.5 200.1 204.9 208.1 211.3 212.6 212.9 212.7 211.7 210.7 209.6 208.4 208.7 207.8 204.1 199.5 192.5 187 182.9 177.8 183 186.1 192.9 201.8 206.1 209.3 210.5 209.3 206.6 204.4 203.5 203 203.3 203.7 204.8 205 203.1 204.4 206.2 207.7 209.8 211.3 212.2 213.9 216.4 220.4 227.6 232.5 236.4 238.7 239.6 240.9 240.6 238.5 235.6 232.7 228.3 222 221.3 218.6 223.8 227.3 230 232.5 233.7 234.1 236.2 237.9 238.4 238.3 237.4 236.7 236 235.2 234.9 235.2 235.2 236.1 236.7 235.5 231 227.3 224 220.7 218.2 216.1 213.8 211.6 209.7 207.9 205.5 200.5 198.6 197.4 197.7 196.2 195.9 193.5 192.1 190.6 188.5 184.7 188.7 192.6 196.3 199.4 204 207.7 211.9 215.7 219.2 222.3 225.9 229.4 231 232.2 233.9 234.6 235 233.7 230.7 227 222.4 219.4 218.1 214.8 211.3 212.2 211 209.4 208.6 210.4 214.1 217 219.4 220.8 219.5 217.1 215 215 214.5 213.4 219 222.7 225.7 228.2 229.1 227.9 226.2 225.8 221.8 222.9 225.8 228.7 230.5 231.1 230.9 229.9 228.1 226.1 224 222 220.6 219.9 216.8 213.1 209.3 206.9 205.5 205.6 206.1 206 207.2 208.9 210.3 212.4 214.3 215 214.9 214.5 213.5 212.9 210.9 210.2 209.6
163.3 162.2 164.6 167.1 168.5 171 174.5 176.8 178.8 181 183.6 186.1 188.8 191.2 193.4 196.8 201 205.3 209.3 211.5 212.6 212.5 212.4 211.5 211.2 211 210.4 210.1 209.2 206.9 201.9 194.8 187.8 184.1 181.6 185.8 190.2 199.9 206 210.8 213.9 214.5 211.8 210.3 206.9 205.7 205.5 206 206.7 208.8 210.1 209.6 210.2 212 213.2 214.3 215.1 215.5 216.4 218.6 222.1 227 231.4 235.4 237.6 238.8 241.4 241.5 240 237.6 234.1 228.3 225.4 226.1 225.1 225.4 229 232.2 234.4 235.7 236.2 237.1 237.3 237.2 236 235 233.2 233.4 232.9 232.8 234.7 234.3 234.8 235.1 233.4 230.6 226.2 222.2 218.8 216.5 214.3 210.7 209 207.7 205.4 204.9 205 203.8 203 202.1 200.2 198.8 197.3 195.8 192.8 189.1 185.2 190.2 196.6 201.1 204.4 207.6 211.3 214.1 216.7 219.3 222.3 224.9 226.9 229.9 231.7 233.3 234.8 236.1 235.6 233.9 230.8 226 222.6 220.4 217.5 216.2 216.8 216.4 214.8 213.7 216 216.8 220 222.7 223.5 222.6 220.9 218.6 217.6 219.6 219 222.9 226.8 228.8 231.1 230.4 231.9 231.5 231 228.6 228.9 229.1 230.1 230.1 229 228.5 227.1 224.8 222.9 220.7 219.4 217.7 214.6 211.6 208.3 205.8 203.9 202.2 202.3 201.7 202.6 204.6 205.6 206.9 209.2 211.3 211.1 210.3 209.8 208.4 207.4 205.8 205.4 207.1
160.7 165.5 167.8 170.5 172.8 174.2 174.5 175.3 178.5 181.3 183.6 185.9 188.1 190.4 192.7 196.1 200.5 205.6 209.6 211.6 212 211.7 211.3 210.8 210.5 210.2 210.5 210.4 209.7 208.1 203.8 198.4 191.2 189.4 184.5 190.1 196.3 203.9 209.2 213.5 216.6 217.2 214.6 212.8 212.2 211.7 212.2 212.7 211.6 212.6 213.2 213.6 213.9 214.8 216.2 216.6 217.4 218 218.2 220.1 222.7 226.3 229.2 231.7 234.1 236.5 238.6 239.9 239.5 238.3 235.6 230.7 230.7 230.8 228.2 227.3 229.2 232.4 235 236.6 237 236.8 236.3 235.5 234.3 233.1 231.8 231.5 231.3 231.2 231.8 232.4 233.5 234.2 233.2 231.3 227.2 222.5 219.1 216.8 215.3 213.6 212.6 210.6 209.9 209.9 208.7 207 206.6 205.3 203.2 200.8 199.3 196.6 195.5 191 187.4 190.5 197.1 201.6 205.6 208.6 211.1 213.3 214.9 216.6 218.4 220.2 222.2 226 228 231 234 235.5 235.6 233.6 231.4 228.4 224.8 221.8 219.6 219.6 219.5 220.1 220.2 219.2 219.4 220.3 222.3 225.3 225.8 224.9 222.4 221.3 221.2 222.5 224.1 226.3 228.8 230.5 232.2 233.2 233.4 232.7 232.4 231.1 229.5 228.4 228.9 226.9 225.4 223.3 220.6 219.7 218.6 217.7 216.6 214.1 211 208.6 205.8 202.1 201.2 199.5 198.4 198.6 198.9 201 202.1 203 205.2 205.5 205.3 205.1 204.7 204.5 202.5 200.9 201.4 205
164.1 166.4 169.4 171.4 173.5 175.3 177.3 178.6 179.9 181.6 182.9 184.8 187.3 189.4 191.8 195.6 201.4 206.4 210.2 211.2 211.1 210.9 210.2 209.2 208.7 208.6 209.1 209.4 209.5 208.5 205.1 201 198.8 195.9 191.2 187.3 194.3 201 208.4 213.5 216.7 218.5 218.5 217 215.8 215.4 214.8 214.1 213.9 214.5 214.8 215.3 215.6 216.4 217.2 217.7 217.8 218.3 219.4 221.5 222.8 225.1 227.3 229.7 231.9 234.9 237.3 238.3 238.9 238.5 236.5 236.4 235.5 235 233.3 230.8 231.4 234 236.5 237 237 236.3 235.4 234.3 233.1 230.3 229.5 229.8 229.2 229.5 230.3 231.7 233.5 234.3 234.7 233.7 230.7 225.3 221.8 219.6 218.4 218.2 217.3 216.4 215.8 215.3 214 212.9 210.9 208.3 206.4 203.8 201.7 199.3 195.9 191 188.5 190.2 194 197.4 200.7 203.7 206.4 209.4 211.1 212.8 215.3 216.4 218.8 223.7 228.9 231.7 234.2 235.8 235 233.3 231 228.2 226.7 225.4 223.6 222.3 222.4 223.5 223.6 223.6 224.1 224.3 225.9 227.6 227.1 226.2 224.6 225 225.7 226.1 227.5 229.1 230.8 232.8 233.9 234.5 234.3 233.3 231.9 230.5 228.8 226.8 225.3 224 222.3 220.1 217.2 216 215.5 214.6 213.8 211.5 208.9 206.7 203.7 201 199.4 195.9 195 195.8 196.1 197.5 198.9 199.7 200.9 201.3 201.3 201 201.1 200.9 198.9 195.4 198.4 201.7
162.5 166.1 169.9 172 174.5 176.4 178.5 180.1 182 183.7 185 186.6 188.1 190.3 193.9 199 203.9 207.6 209.6 210.2 210 208.8 207.9 206.9 206.5 206.8 207.6 208.2 208.7 207.9 206.6 205.2 204.1 202.1 198.5 193.3 190.8 195.4 204.1 210.6 215.9 217.5 218.2 217.7 217 216.1 215 214 213.8 214 214.1 214.4 214.9 215.3 215.5 215.6 215.9 216.7 217.9 220.1 221.2 222.9 226.1 229.8 232.8 236.3 237.6 238.7 239.1 238.8 238.8 239.7 237.4 236.9 235.4 235 234.7 235.7 237.2 237.4 236.7 236.2 234.3 233.3 231.7 229.6 228.5 227.2 227.5 228 229.7 231.1 232.6 234.2 234.7 235 233.5 231.4 229.1 226.6 225 223.8 222.5 221.1 219.7 218.7 217.1 215.1 213 210.7 208.5 205.3 202.1 199.2 194.3 192.4 192.1 189.5 191.9 195 197.8 200.4 203.4 206.1 207.9 209.2 212.7 218 224.5 229.2 233 236.1 236.9 237.3 237.1 236.4 234.7 233.5 233.2 230.3 227.8 226.6 227.7 227.9 228.3 228.4 228.2 228.8 229.6 229.5 228.5 226.6 226 226 226.9 228 229.5 231.4 232.8 234.1 234.7 233.9 232.9 230.9 229.1 227.5 225.1 223.2 222 221 219.2 216.1 212.7 212.1 212.1 212.2 211.1 209.7 207.4 205.3 202.4 200 197.8 193.7 192.9 192.6 193.4 194.2 195.3 196.3 198 197.7 197.3 197 197.3 195.8 194.1 191.1 191.8 194.7
168.5 164.8 170.6 173.1 175.5 177.5 179.7 181.4 183.7 185.3 186.3 188.7 189.7 195.1 199.6 203.2 206.3 208.8 209 208.7 207.5 206.2 205.5 204.7 204.6 205.5 206.9 207.6 208.5 208.9 208.8 208.7 209.1 208.3 206.5 201.8 199.4 194.1 202.6 208.2 212.3 214.8 216.3 216.3 215.9 215 213.7 212.5 212 212 211.7 212.8 213.2 213.5 213.7 213.5 213.5 213.8 214.6 215.8 218.9 223.2 227.1 230.4 233.4 236.4 238.2 240.5 241.3 241.7 240.5 241 240.1 239.1 238.9 238.2 238.2 238.1 237.7 237.5 235.8 234.1 232.3 230.5 228.6 227 225.6 224.8 224.6 225.8 228.1 229.7 231.2 232.6 233.9 234.1 233.9 233.1 231.9 230.9 230 228.2 226.8 224.7 223.3 221.6 219.5 216.9 215.2 212.3 209.4 206.2 201.6 195.6 195.6 195.2 195.1 195.2 194.1 193.1 194 196.8 198.4 201.6 204.5 210.6 215.6 219.3 225.1 230.3 233.4 236 237 237.2 237.5 238.6 238.7 238.2 238.3 238.6 236.1 234.1 233.4 232.3 232.2 231.9 231.6 231.2 230.9 230.1 229.5 227.7 225.8 225.4 225.7 226.8 228.9 230.8 231.7 233.1 232.8 231.3 229.7 227.7 225.5 223.7 221.1 219 216.9 214.5 211.7 210.3 209.1 208.7 208.8 209.1 209.4 207.7 206 203.9 201.7 199.9 197.6 193 191.5 190.3 190.6 191.9 192.5 193.1 193.9 194.2 193.6 192.8 193.3 192.4 190.6 187.2 182.7 187.4
171.7 170.3 169.1 173.5 176 179.3 181.7 182.9 184.4 186.9 188.3 190.3 193.5 197.9 202 205.6 207.6 208.1 208.2 206.9 205.7 204.2 203.6 202.9 203.8 204.7 206.1 207.9 208.9 210 210.9 211 211.3 210.4 208.4 206.2 204.7 199.4 200.5 206.6 210.2 212.5 214.6 215.4 215.2 214.3 212.7 210.8 209.8 209.1 209.4 209.8 210.8 210.8 210.8 211.1 211.2 211.2 211.6 215.4 219.3 223.2 226.7 230.1 233.3 236 239.7 240.5 241.8 242.8 243 242.8 241.9 241.5 240.6 241.4 239.1 239.2 238.7 238 236.7 234.7 232 229 226.7 224.2 223.2 222.3 222 223.7 225.6 228 229.6 230.8 232.5 233.2 234 234.2 234.5 234.4 234 232.7 231 228.3 225.3 221 218.7 214.7 213.1 209.7 205.4 200.5 200.1 199.7 199.2 198.8 198.6 198.8 197.7 197.7 197.7 194.8 199.2 203.8 208.3 213.2 217.9 221.8 225.7 229.9 232.5 234.2 235.4 236.3 236.8 237.8 238.6 239.5 239.6 240 239.8 239.9 239.7 238.7 235.7 235 234.3 233.2 231.7 229.1 226.3 223.7 221.6 220.2 220.1 223.4 225.8 228.5 229.7 229.9 229.4 227.8 226 224.5 222.1 220 214.8 212.5 211.1 209.5 207.9 206.3 205.2 205.3 206.5 207.3 207.6 206.2 204.6 202.4 199.9 196.2 194.6 191.6 188.7 185.6 184.8 184.6 185.4 188.7 189.5 190 189.7 190.3 191.2 189.2 185.4 181 177.2 177.4
174.6 174.5 172.7 173.7 177 179.7 181.7 183.6 186.1 187.4 189.6 192.2 196 200.3 204 206.4 207.4 207.4 206.9 205.4 204 203 201.8 201.2 202.3 203.6 205.2 207 208.9 210.1 211.4 212 211.9 210.8 209.2 207 204.4 202.9 200.4 204.5 209.4 211.9 214.3 215.4 214.9 213.4 211.8 209.2 207.7 206.1 206.2 205.7 205.6 206.1 206.1 206.2 206.5 207 210.5 214.4 218.5 222.7 226.7 230.1 232.9 235.4 237.2 239 241.3 242.5 243.3 243.1 242.9 242.6 242.1 241.7 241.6 241 240.2 239.2 237.5 235.1 232.4 229.3 225.9 223.3 221.5 220.1 220.3 222.3 223.3 224.7 226.3 227.8 229.3 230.7 232.7 233.4 234.3 235.2 235.3 234.1 232.2 228.4 224.2 220.6 216.4 213.4 210.4 205.8 205.2 207.6 206.8 205.8 206.3 205.1 203.3 202.5 202.6 202.2 200.8 200 197.6 202.1 207.1 211.3 215.3 219.7 223.4 227.1 229.9 231.3 232.3 233.2 234.4 236 237.1 238.2 239.1 239.5 240 240.6 240.8 240 238.7 236.6 234.3 233.3 231.7 228.8 224.1 221 218.7 216.3 218.6 216.8 222 223 224.7 225.5 225.9 224.2 222.3 219.6 216.8 213.5 210.3 208 206.7 205.3 203.8 201.8 200.8 201.7 202.9 204.7 205.3 204.1 202.4 199.9 195.9 193.6 188.9 187.5 186.1 183.7 180.6 180.3 179.7 182.4 185.4 186.3 185.8 187.7 189.9 190 188.5 185.3 179.7 173.5
177.7 177.9 177.1 174.6 176.7 179.4 181.5 183.6 185.5 187.1 189.2 192 195.4 199.7 203.1 205.3 206.8 206.6 205.3 203.6 202.1 201 199.9 198.7 200.6 201.8 203.6 205.7 207.8 209.2 210.9 211.9 211.7 210.5 208.9 208.4 208 207 205.7 206.3 209.4 212.3 214.4 216 215.4 213.8 212 207.6 205 203 201.9 201.2 201.3 201.7 202 202.4 202.8 206 209.8 213.3 216.8 220.8 224.9 227.8 230.4 233 235.2 236.8 238.2 239 239.5 239.8 240.3 240.5 240.4 240.9 241.7 241.8 240.8 239.7 237 234.1 230.9 226.9 223.6 220.9 219.3 217.7 218.3 219.7 221.3 222.4 224.1 225.7 227.9 229.6 231.5 233.3 235.1 236.4 237.3 236.9 235.4 232.3 227.9 223.2 220 216.3 212.2 209.2 212.6 215 215.8 217.1 217.6 216.5 214.7 212.2 211.6 209.4 207.8 204.7 202.8 199.4 205.2 209.8 213.2 217.8 221.6 225 226.7 227.8 229 229.8 231.5 233.3 235.1 236.3 237.4 238.8 240 241 241.6 241.6 239.9 237.5 232.5 231.3 227.5 224.3 221.9 218.9 215.6 213.9 213.7 216.5 217.1 217.8 218.2 219.6 220.9 220.7 219.4 217.1 212.9 210 206.3 204.1 202.6 201.4 199.7 197.5 196.3 196.5 199.2 202.6 203.1 203.4 199.1 195.8 194.6 194.1 191.4 190 188.4 186.7 184.5 181.4 177.1 179.2 182.1 180.9 185.5 188.7 192.1 193.9 193.7 191.9 189.2 186.2
178.8 179.2 179.2 179.1 179.4 180.5 181.9 184 185.9 188.7 191.3 194.9 198.7 202.3 204.3 205.6 206.1 205.4 204.1 202.3 200.6 199.2 197.9 195.9 198 200 201.8 203.7 206 208.2 210.3 211.5 211.4 211.1 211.1 211.6 211.3 210.1 209.6 209.8 211.6 213.8 216.6 217.6 217.3 215.5 212.1 208.4 203.7 199.9 197.7 197.7 198.2 198.2 198.4 199.2 202.4 205.8 208.5 211.7 215.4 218.8 222.6 225.4 227.4 229.3 231.5 232.9 234.1 234.8 235.3 236.3 237.1 237.5 238 238.4 239.5 240.1 240.1 238.6 235.8 231.9 228.4 224.4 221.6 219.5 217.5 215.3 216.9 218.5 219.8 221.3 222.9 224.4 227.1 228.1 230.4 232.4 235 237.1 238.3 238.4 237.9 235.6 231.6 226.9 223.2 217.5 214.7 215.5 218.7 221.5 223.4 224.8 225.2 224.9 223.5 221.5 219.6 217.8 214.4 210.6 206.5 204.2 204 209.3 211.9 217.5 221.1 224.1 224.7 225.1 225.2 226.9 228.8 230.7 232.5 234.4 235.9 237.7 239.2 240.4 242.1 242.4 240.5 238.2 234.6 231.6 228.4 225.3 221.5 218.8 216.2 213.8 210.1 210.6 214 214.5 215.7 217.6 218.8 219.1 217.4 214.5 210.2 205.6 201.2 199.7 197.9 196.6 195.9 194.8 193.6 194.8 199.6 202.2 203.9 203.7 202.6 199.8 200.4 198.8 197 196.2 194 190.5 187.6 183.1 181.9 174.1 177.2 181.9 186.3 190 193.1 195.4 195.9 195.3 193.9 193
179.4 180.7 181.1 181.5 181.6 182.7 184 185.8 188.3 191.3 196.1 199.5 202.8 204.7 204.6 204.2 203.8 203.2 202.3 201 199.5 197.6 195.5 194.9 197 199.1 201.5 203.5 205.7 207.9 209.8 211.3 212.1 212.4 214.2 215.9 215.6 214.4 213.3 213.5 214.2 216.6 218.9 219.8 219.9 218.4 214.4 208.2 202.1 198 194.3 194.1 193.4 196.6 198.3 200.2 201.1 203.4 208.1 211 214.5 218.5 220.9 223.2 225.2 226.3 227.6 228.9 230.2 231.3 232.9 233.7 234.3 234.9 235.5 236.2 237.2 238.4 238.7 237.1 234.1 229.3 225.1 222.1 220 218.1 216.2 211.1 215.6 217.2 218.5 220.2 221.9 224.1 226.1 228 230.4 232.9 235.1 237.2 238.8 239.6 239.2 237.2 233.7 228.8 223.9 220.3 217.4 218.4 221 222.9 227.5 229.1 229.2 228.5 227.3 226.3 224.7 222.3 218.9 214.8 209.8 207.2 202.8 208.2 212.9 216.8 219.6 221.3 220 218.9 222.3 224.2 227.3 230.1 231.9 233.8 235.2 237.6 238.7 240.2 243.8 245.3 243.1 239.7 237.1 233.9 230.4 227.1 223.4 220.1 217.6 215.1 212.7 208.3 209.2 211.9 213 215.3 216.8 217.6 216.8 214.5 212 208.3 205.4 202.5 198.4 193.7 191.5 190.5 190.1 194.2 199.8 202.6 202.4 202.5 202.3 201.2 200.1 198.1 197.3 196.3 193.2 189.8 187.5 182.9 180.3 176.2 174.9 179.3 183.2 187.7 190.9 192.8 194.2 194.6 194.8 194.6
180.7 182.5 183.7 184.6 185.2 185.9 187.5 188.7 192.2 196.6 200.6 203.5 204.4 204.5 203.2 201.9 200.8 200.1 199.8 199.1 197.7 193.4 191.6 195.3 197.6 198.1 201.5 203.4 205.4 207.4 210.2 211.7 212.6 214.9 217.3 218.8 220 220 220.1 219.2 219 220.8 223 223.7 223 220.1 215.9 209.9 201.9 195.9 191.8 192.7 197.2 199.5 201.5 203.5 205.2 205.8 205.2 211.5 215.1 218.3 220.5 222.7 224 224.9 226.1 227.3 228.6 229.7 231 232.1 232.6 232.9 233.5 233.7 234.7 236.1 236.9 235.6 233.4 228.8 224.3 221.7 219 216.8 214.6 211.6 213.2 215.9 218.5 220.4 222.7 224.8 227.3 229 231.1 233.4 235.8 237.6 239.2 240.4 240.4 238.7 235.9 232.7 228.4 224.1 221.9 221.7 222.1 227.6 230.8 232.8 234 233.5 231.5 229.4 227.2 224.6 221.1 216.3 212.3 208.9 206.4 207 209.5 212.8 213.5 214.9 219.2 223.9 226.1 227.9 228.7 230.1 232.9 234.8 236.1 238 239.7 241.7 247 247.9 245.8 242.5 238.5 234.7 230.5 226.6 222.9 219.5 217.5 215.2 212.6 210.1 204.1 207.9 211.5 213.3 215.2 215.6 215.3 214.1 211.5 209 206.8 203.4 201 197.5 195.4 192.7 187.5 192 196 197.6 197.2 198 198.8 198.2 197.1 195.7 193.9 192.7 191.1 188.7 185.6 182.1 179 174.6 171.1 176.4 180.7 185.1 188.5 190.3 190.8 191.1 191.5 192.1
183.2 185.4 186.8 188.5 190.1 192.8 196 197.1 198.5 201.1 204 205.6 205.3 204 201.9 200.3 198.8 198.3 197.8 195.9 191.6 190.4 194.7 197.5 199.2 200.8 201.3 203 205.8 207.8 210.8 212.6 214.5 216.8 219.1 221.1 223 223.8 224.3 224.1 224.3 225.4 226 225.4 224 221.1 216.5 209.5 199.8 192.2 187.9 195.3 199.4 201.7 203.8 207.7 209.8 210.6 209.9 208.7 214.4 217.1 219 220.5 222.5 223.7 225 226.5 227.8 229.4 230.2 230.6 230.7 230.8 231.3 231.4 231.7 233.4 234.9 235 233 229.1 225.2 222 220 217.4 214.7 211.4 211.8 216.6 218.6 221 223.2 225.4 227.5 229.5 231.6 233.6 235.6 237.6 239.5 240.8 241.5 240.8 239.2 236.8 232.9 227.9 225.3 226 229.5 232.6 236.3 239.1 239.7 238.2 235.9 233 229.8 226.3 223.3 218.2 213.9 212.6 210.1 211.8 213.5 215.6 220.1 225.2 228.3 229.4 230.3 231.6 232.9 232.1 233.9 236 238.7 240.7 242 244.5 248.5 250.2 248.4 244 239.7 234.9 229 224.8 221 218 215.7 213.5 211.3 209 205.4 204.4 208.3 210.9 212 212.3 212 211.1 209.5 208 206.2 203.8 201.2 199.1 196.2 193.3 186.6 190.4 192.4 193.1 193.2 193.6 193.6 193.1 192.4 191.4 189.5 188.4 188.3 187.4 186.5 184.8 181.2 177.6 173.1 172 176.2 181.6 185.4 187.1 187.2 187.4 187.4 187.1
186.8 188.9 191.8 195 198 200.6 202.8 203.9 203.7 205.8 206.9 206.9 205.5 203.4 201 198.5 196.6 195.4 194.3 190.2 187.8 193.2 198.2 199.7 201.2 202.4 203.7 205.1 206.9 208.9 211.2 213.8 215.3 217.7 220 222.1 224.3 225.8 226.8 227.3 227.2 227.2 226.6 225.7 224.3 221.1 216.1 208.4 195.5 188.8 190.5 195.9 200.4 203.2 205.8 209.5 211.7 212.7 213.9 213.8 213.3 214.9 217.7 219.3 221.7 223.5 225.5 227.2 228.2 229.5 230.1 229.7 228.8 228.8 229.1 228.7 229.9 231 232.7 234.1 233.1 230.1 226.8 223.4 220.5 217.5 214.5 210.5 212.2 215.6 218.1 220.5 222.6 224.6 226.8 228.9 230.8 232.8 234.8 237.1 239.9 240.9 241.9 241.9 240.8 238.8 236.1 232.6 228.5 229.7 234.1 239.7 242.9 245.5 244.4 241.8 240.3 236.3 232.3 228.5 223.4 219.9 218.9 216.6 213.2 218.1 222.2 225.1 229.9 234.2 238 238.2 238 237.6 236.6 236.5 236.4 238.2 241.5 245.9 249.2 252.6 253.7 253.5 251.2 246.7 241.5 235.2 228.8 223.8 219.5 215.1 213.1 210.8 209 207.6 204.9 201.5 206.4 208.8 209.3 208.9 208.5 207.8 206.9 204.5 203.6 201.5 199.2 196.6 194.5 192.2 187.8 184.6 187.8 188.6 188.1 187.2 187.6 187.2 186.9 184.8 184.1 183.6 184.8 184.2 185.7 185.2 184.1 182.1 177.9 173.5 172.4 179.7 181.9 182.4 182.7 183 183.1 183
191.7 194.3 197.1 200.6 203.2 205.1 206 206.1 206.7 207.1 206.8 206.3 204.9 203.2 200.8 197.7 194.8 191.4 189 187.4 193.6 198.2 202 203.1 203.9 204.7 205.9 207.6 210 211.6 213.5 214.5 215.8 217.7 219.9 222.2 224.6 226.8 227.9 227.8 227.2 226.8 226.2 224.9 223.1 218.5 212.4 203.3 190.5 184.9 190.9 196.1 199.7 202.9 206.6 210.6 212.9 214.7 216.4 216.8 217.2 218.2 219.9 221.2 223 225.4 227.9 229.4 230.5 230.3 229.2 228 226.3 226.3 226.3 225.4 227.2 228.5 231.1 232.7 232.6 230.7 227.7 223.6 220.5 217.2 213.8 209.1 210.3 214.7 216.8 218.8 220.5 222.4 224.5 226 228.3 230.9 233 235.7 237.9 240.1 241.5 241.8 241.3 239.9 237.4 234.7 232.4 234 236.5 241.6 247 249.7 248.8 246.1 241.9 238.9 237 230.3 226 224.4 224.6 222.8 217.1 224.8 229.8 234.7 237.7 242.5 246.5 247.1 246.5 244.8 242.2 241.2 239 241.9 244.2 249 252.6 256.4 259.3 255.6 252.6 247.5 241.5 234.9 228.9 223.3 218.9 214.9 211 208.1 205.2 203.9 202.2 197.6 203.8 205.5 205.9 205.6 204.9 204 202.6 201.3 200.3 199.1 196 193.7 192 189.7 187.4 182.3 181.7 181.7 179.4 177.7 177.9 177.8 176.7 174.3 172.8 175 178.9 180.8 181.4 183.2 182.9 181.7 179.5 174.5 169.3 176.8 177.2 177.5 177.4 176.4 176.5 176.2
196.3 200.2 203 205.3 206.3 206.5 205.7 205.7 205.7 205.2 205.3 204.5 203.5 201.7 199.4 197 193.1 187.8 183.4 191.6 197.2 201.5 204.7 206.9 207.8 208.6 209.4 211.4 212.8 213.9 215.3 216.1 216.9 218.2 219.7 221.8 224.9 227.1 227.7 226.8 225.7 224.8 223.9 222.5 219.6 213.5 207.6 199.3 186.7 184.8 190.7 195.7 200 203.7 207.4 211.1 214.2 216.3 218 218.8 219.5 220.2 221.6 223 224.7 227.3 230 231.6 231.8 230.7 229.1 226.1 223.9 223.8 223.8 221.9 225.2 227.4 229.9 231.7 232 230.4 227.9 224.1 220.8 217.3 213.5 209.3 207.3 211.3 214.6 216.4 217.5 220.9 222.9 225.2 227.1 229.3 232 234.6 237.1 239.3 240.5 241.2 240.8 239.9 237.6 236.1 235.5 236.7 239.2 243.3 248.8 252.2 250.7 249.4 244.5 241 239.5 233 230.5 231.1 229.8 227.1 223.8 227.3 232.3 238.2 241.6 245.9 250.1 251.8 251.3 249.9 247 245.5 244 245.2 247.2 251.1 255.2 261.7 262 257.8 252.3 246 239.6 233.3 226.5 221.7 218.8 215.4 212.8 206.3 205.9 204.6 203.2 199.6 197.1 200.3 201.6 200.3 200.2 199.8 198.5 197.6 196.5 194.3 191.2 189.5 186.4 183.6 181.6 180.6 185.1 185.9 185.8 183.1 182.4 180.4 179.6 177.6 175.8 172.6 168.8 168.5 173.9 177.4 178.5 178.1 176.1 172.9 164 171.9 173 173.5 173.6 172.5 171.3 170.8
202.3 204.5 206.3 206.9 206.4 204.6 203.6 203.3 203.2 203 202.7 201.6 200.3 198.7 196.3 193.8 188.5 182.6 186.5 192.6 197.5 202.2 205.8 208.4 209.9 211.2 212.5 213.5 215 216.3 217.3 217.9 218.7 220.1 221.2 223.6 226 227.2 226.5 225.1 223 221.1 220 218.6 215.2 210.3 204.2 193.1 182.9 190.1 195.3 197.3 199.7 205.2 208.9 211.8 214.8 217.9 219.6 220.8 221.6 222.2 223.3 225.1 228.3 231 232.6 233.2 232.2 230.1 228.1 224.3 221.8 220.6 220.4 222.4 225 227.4 230 231.7 232.1 230.8 228.8 225.4 220.6 216.6 213.3 209.8 204.4 208.2 210.9 215.5 218.7 221.2 223 224.9 226.8 229.2 231.7 234.3 236.8 238.7 239.8 240.4 240.3 240 239.3 238.2 238.6 240.2 242.5 245.7 250.5 253.8 254.4 253.7 250.2 245.2 240.9 237.3 236.7 236.7 234.5 230.1 229 229.9 234.7 240.3 245 249.1 253.2 255.3 255 253.3 251.1 249.6 248.4 249.1 250.1 253.2 258.9 260.3 260.9 257.5 252 245.5 239.9 234 228.1 224 219.7 216.5 209.8 210.9 210.2 208.8 207.3 203.4 200.4 197.3 193.5 194.1 193.7 194.4 193.1 189.8 188.7 188.6 184.8 184.1 185.3 186.1 188.6 191 193.8 195 192.7 190.7 190.7 189.5 189.5 188.8 186.5 182.6 178.2 176.6 169.6 165.7 169.1 170.3 168.5 169.2 163 166.1 167.7 168.6 168.9 168 166.8 165.7
205.1 206.6 207.3 206.7 204.9 201.5 200 199.7 199.5 199.2 198.9 197.8 196.6 195.3 192.9 190.3 184.8 180.9 189.1 193.4 197.9 202.2 205.7 208.5 209.7 211.4 212.6 214.2 216.8 218.1 219.1 220.1 220.8 222.5 224.3 225.8 227.3 226.9 225.5 222.8 219.2 216.9 215.2 212.8 211.3 208.6 202.6 187.2 181.8 194 198.2 201.6 203.6 206.4 209.3 211.9 214.9 218.2 220.7 222.5 223.3 224.3 225.5 227.7 231.4 233.4 234.2 233.7 232.8 229.3 225.9 223.4 221.5 218.3 218 221.5 224.2 227.4 230 231.9 232.3 231.4 229.4 226.2 222.6 219.1 215 211.4 203.4 208.4 212.9 215.9 218.4 220.7 222.6 224.8 226.5 229.1 231.6 233.8 236.1 237.9 238.8 239.1 239 238.9 238.5 238.4 240.8 242.6 245.3 249.1 252.4 254.9 255.7 255.6 252.7 249 245.2 242.6 242 241.3 239.1 236.4 233.7 233.8 236.6 241.3 246.9 251.7 255.4 257.6 257.8 256.8 256 253.9 253.1 253.5 253.9 255.3 263 262.8 262.1 258.7 254.3 247.9 241.9 236.1 231.4 226.8 222.2 216 216.6 216 214.7 212.8 210.9 208.4 206.8 203.7 201.2 199.9 195.7 197.6 198.3 197.4 194.7 194.5 192.9 193.2 193.4 193.4 194.3 196.4 200.4 202.4 201.2 199.9 198.7 196.6 196.5 194.2 191.3 187.7 184.7 181.9 177.9 173.1 167.2 163.8 162.5 161.5 160.9 160.7 160.9 162.2 163.1 162 160.4 159.7
207 207.5 206.8 205.2 202 197.9 196.6 196.5 195.7 194.9 194.3 193.7 192.8 191.6 189.3 185.5 178.9 182.9 189.3 193.7 197.5 201.1 204.3 206.4 208.1 210.5 212.9 214.8 218 219.8 220.9 222.5 222.8 225.3 227 227.7 228.2 227.1 224.2 220.6 215.7 211.3 208.5 207.2 206.6 204.7 195.2 180.7 186.8 194.3 200.1 203.8 206.3 208 210.5 212.6 215.4 219.1 222.1 224.3 225.9 227.5 229.2 232 234.4 235.9 235.6 234.8 232.6 230.4 228.1 225.3 222.6 219 215.2 221.2 224.1 227.4 230.1 231.7 232.4 231.7 229.2 225.9 221.6 217.9 212.9 210 202.7 206.2 210.4 214.2 216.3 217.6 218.8 220.7 223 225.8 228.3 231.5 234.1 235.5 237.1 237.5 237.5 237.1 237.6 237.4 240.2 242.8 245.7 249.2 252.5 254.7 255.8 256.9 255.5 252.8 250.3 248.4 247.4 245.8 243.8 241 240.5 241.8 243.3 246 248.7 253.2 257.1 259.1 260 260 259 257.4 256.7 257.2 258.1 260.5 263.3 265.5 264.3 261.1 257.2 252 247 240.6 234.5 228.1 223.7 221.6 220.3 220 218.9 217.9 216.8 215.5 213.4 210.3 205.4 200.7 202.3 205.6 206 205.8 204.8 203.2 199.7 203.4 202.2 200 201.3 204.3 207.2 208.7 208.8 208.3 205.9 203.8 201.7 198.7 195.3 192 188.6 185 180.6 176.7 172.8 169.2 162.8 166.3 168.5 164 162.9 159.7 157.2 156.5 156.2 154.9
207.2 207.1 205.6 203.3 199.3 194.9 190.7 191.5 191.3 190.4 189.3 188.5 188 186.5 183.3 179.4 177.2 183.1 187.5 191.4 195.6 199.4 201.8 202.3 206.5 210.3 213.1 215.7 218.4 221.3 223.2 225 226.4 227.8 229.3 229.5 229.4 227.8 224.3 219.1 212.4 206.2 201.8 199.8 198.5 197.7 188.7 178.4 189.3 195.9 202.3 205.4 207.6 210.1 213 216.3 219.9 222 225.3 227.7 228.8 230.7 232.9 235 236.6 237.2 236.9 235.3 232.9 230.3 228.4 224.5 221.5 218.3 213.1 218.3 222.4 226.2 228.6 229.9 230.2 229.6 226.9 222.9 218.7 213.1 209.6 207.5 203.5 203.7 206.9 209.1 211.6 213.2 213.8 214.9 216.4 218.5 222.1 225.7 229.8 231.9 233.2 233.1 232.6 233.1 233.9 235.2 237.7 240.7 243.5 246.6 250.1 252.8 254.9 255.9 256.4 256.3 256.2 255.1 252.8 251.5 249.3 247.4 247 248 249.2 250.6 252.2 255.1 257.6 259.2 260.1 260.5 260.5 260 259.6 260.5 261.4 263.3 265.7 266.9 266.7 263.7 259.5 254.8 249.6 243.3 233.7 232.2 229.3 227.3 226.8 227.8 228.2 227.7 226.3 223.7 220 215.3 209.2 207.4 208.7 209.7 210 210.3 209.8 207.6 205.4 210.3 211.2 210.1 212.2 213.7 214.9 215.8 216.6 216.2 214 211.3 207.3 203.9 200.1 196 192.1 186.9 181.7 177.4 172 164.2 167.7 172.5 174.6 173.4 170 167.7 164.5 161.9 164 163.6
206.8 205.6 203.9 201.2 196.4 190.8 185.5 185.4 184 183.1 182.6 182.5 182.4 181.6 179.3 175.2 177.3 180.6 184.1 187.6 191 193.8 199.2 204.4 208.7 211.6 214.4 217.1 221.2 223.8 225.7 227.6 229.3 230.5 231.1 231 230.3 227.6 224.8 219.8 213.7 206 203.8 199.7 194.1 187 181.7 179.7 191.3 199.8 204.1 207.5 210.8 215.4 218.7 221.3 223.6 225.8 227.7 229.3 230 232 234.1 236.4 237.7 237.6 236.9 234.4 231.5 228.3 226 221.8 217.4 214.3 211.3 215.7 219.5 223.6 226.1 227.9 228.5 227.8 225.4 219.9 216.1 213 209.4 207.1 203.5 200.1 203.8 205.6 207.3 209.4 211.3 212.5 213.8 215.9 220.1 223.4 227 229.1 230.2 229.5 229.4 229.1 229.9 231.1 232.9 235.4 238.5 241.5 246.2 249.8 251.8 252.8 253.7 255.4 256.8 256.7 256.4 255.2 254 252.9 252.3 252.5 253.2 253.9 255 256.2 257.5 258.4 259.3 259.9 260.5 261.1 261.4 262.2 263 264.8 266.9 267.6 267.3 265.4 261.2 256.9 250.7 240.9 242.8 242.3 239.6 237.8 237 236.9 238.2 237.3 234.1 229.1 224.6 219.8 213.9 213.7 213.6 214.3 214.9 216.4 216.9 215 213.2 214.9 217.4 216.5 219.7 221 222.3 223 223 222 220.8 217.7 214.1 210.2 205.4 200.3 194.4 188.2 182.4 174.8 172.1 172.7 174.5 177.2 178.1 176.2 172.7 170 166.7 166.2 169.6 170.8
204.9 203.1 201.1 197.1 191.8 186.6 180.6 177 177.6 176.5 176.5 177.7 178 176.8 175.6 172 173.9 178.8 183.5 189.4 193.2 197.6 201.7 205.9 210 213.4 217 220.3 223.5 226.3 228.3 229.9 231.4 232.5 232.9 232.3 231 227.4 223 220.5 214.9 213.4 210.8 207.3 200.9 192.2 178.4 179.1 192.5 202.3 207 211.2 215.3 219.3 221.3 223.1 225.1 226.5 227.8 228.7 229.4 231.5 233.3 234.9 235.6 235.1 233.4 230.1 227.9 226 223.8 219 214.9 211 209.2 213.2 216.7 220.6 223.4 225.7 226.5 226.2 224.7 221.9 217.5 213.6 210.4 206.8 203 199.2 202.5 203.5 204.4 206.2 208.4 209.7 211.6 214.4 217.7 221.4 224.4 225.9 227 226.4 226 226 227.5 229.1 231.1 233.3 236.4 240.2 244.5 247.2 249.3 250.7 251.9 255 256.6 257.4 256.8 255.9 255 254.7 254.2 253.5 253.9 255.5 255.2 256.8 257 257.5 257.8 258.8 259.6 260.3 261.1 262.6 264.2 266 267.5 267.9 267.2 264.6 261.2 258 250.1 250.9 251.1 250.2 247.6 247.5 246.6 245.2 244.9 243.5 239.6 234.1 229 223.2 221.1 221.2 224.1 226.2 226.6 226.8 226.3 223.1 221.6 221.9 223.7 223.5 223.9 225.7 226.7 227.2 227.1 227 225.2 222.5 219 214.3 208.5 201.4 193.6 187.1 179 182.3 185.7 180.3 183.6 185.7 183.9 179.3 176.2 173 171.4 171.1 174.3 177.1
202.6 200.3 197.7 194.9 190.3 185.7 179.8 171.2 169.1 169.2 169.5 170.9 171.5 170.3 168.7 172.6 174.9 181.5 187.3 192.6 196.6 201 205.6 209.9 214.2 217.7 221 223.5 226.1 228.8 230.9 232.1 233 233.5 233.5 232.9 230.7 226.8 222.7 219.1 217.2 214.9 212.5 209.3 203.8 196 176.7 177.3 193.5 202.9 207.2 211.3 215.6 219 221 223 224.5 225.4 226.3 227.2 228.3 230.6 232.6 233.4 233.6 232.7 231.3 228.2 225.4 224.6 222.2 217.4 213.1 208.1 206.5 209.9 213.5 217.4 220.8 223.2 224 224.2 222.9 220.9 217.5 214.5 210.8 206.7 203.3 199.6 199.5 199.4 200.1 201.4 203.6 206.1 208.5 211.2 214.5 218.6 221 222.2 223.5 223 222.1 223.6 225.7 227.7 230 232.5 235.6 239.2 242.9 244.9 246.3 248.3 250.9 254.2 257 257.8 257.3 256.5 255.5 254.7 253.8 253.4 253.3 253.8 254.5 255 255.7 255.6 256.6 257 257.6 258.7 260.4 262 263.7 264.7 266.2 266.2 265.6 262.2 259.3 256.3 253.8 256.5 256.2 255 253.7 253.3 252.5 251.2 250 247.7 244.4 239.7 234.1 230.7 230.1 230.5 233.1 235.9 235.7 235.5 234.4 231.2 230.5 230.2 231.1 231 229.8 231.3 232.3 232.3 232.2 231.9 230.1 226.8 221.8 215.9 207.2 198.8 191.9 183.2 185.5 190.7 189.8 182.4 189.7 191.6 190.5 187.8 183.9 181.3 180.9 178.2 183.8 184.9
197.7 194.9 191.5 190.3 187.7 182.9 176.4 168.1 162.5 162.4 161.7 164.7 166.4 170 172.6 177.1 181.2 184.6 191.1 196.6 200.6 204.9 209 213.1 217.4 220.7 223.3 225.5 227.5 228.7 230.3 231.2 231.7 232.1 232.3 231.6 228.3 223.7 218.5 216.9 214.9 212.9 210.6 207.9 202.6 191.6 174.4 176.7 192.9 200.7 205.3 209.7 214 217.4 219.4 221 222.2 223.1 223.2 224.4 226.4 228.8 230.8 231.7 231.2 230.3 228.8 225.2 223.4 222.7 221.2 217.1 211.4 207.1 202.9 207.6 211.1 214.2 217.7 220.6 221.6 221.8 220.7 218.8 216.5 214 211.5 207.5 204.1 200.4 196.6 200.6 203.2 204.7 206 206 207.2 207.4 208.6 212.9 216.4 217.2 217.7 219.6 218.1 222.1 224.4 227.1 229.4 231.8 234.8 238.4 241.1 242.7 242.3 245.8 250.6 255.1 257.6 258.2 257.7 256.8 255.7 254.6 253.3 252.5 252.5 252.4 253.1 253.5 253 252.9 253 253.2 253.4 254.4 255.4 256.9 259.3 262.2 264.7 266 265.6 263.4 260.7 257.4 256.9 257.6 257.6 256.6 255.4 254.7 253.9 252.8 251.7 250.5 248.7 245.6 239.7 238.4 241.4 241.7 242.1 242.5 241.8 240.9 239.4 238.4 236.8 237.3 237.5 237.8 237.1 237.5 237.7 237.8 237.6 236 232.9 228 221.7 213.4 205.2 196.5 188.3 191.2 195.3 195 193 188.7 192.1 194.3 192.6 189.9 188.1 186.3 185.4 181.9 188.6 190.9
193.8 187.8 186.6 185.9 185.2 181.6 173.5 159.3 162.6 167.5 169.3 172.6 175.5 180.1 183.9 186.1 188.8 190.9 193 198.2 202.4 206.6 211 215.4 218.5 221.4 223.6 225.4 227.1 228.5 229.1 229.6 230 230.4 230.3 228.8 222.6 219.2 215.1 212.9 210.4 208.5 207.8 203.7 193.1 178.8 170.8 177.1 191.5 199.7 204.1 208.4 211.9 214.3 216.3 217.3 219 219.6 219.2 220.5 223.3 226.3 227.8 228.7 228.6 227.9 225.7 223 221.3 220.5 219.3 215.3 209.8 205.8 202 205.5 208.6 211.7 215.2 218.2 219.8 219.3 217.4 215.4 213.9 211.6 209.1 206.7 203.3 198.6 196.6 201.8 205.5 208.5 211.4 213.3 214.8 214.1 213.5 211.9 213.7 214.7 213.5 214.5 218.1 220.9 223.4 225.3 227.8 230.1 233.3 236.1 238.7 238.8 241.7 245.9 251.5 255.7 258.1 258.5 257.8 257 255.7 254.3 252.9 251.8 251 250.6 250.4 250.3 250.3 250.3 250.1 250.6 251.3 252 253.6 256.1 258.7 261.9 264.2 265.9 265.9 265 262.3 260.4 258.8 257.4 257.1 255.7 254.4 253.4 253 252.5 251.7 251 249.6 248 243.7 246.1 247.3 247.8 247.4 246.8 246.6 246 244.7 243.5 242.2 242 241.9 241.9 241.3 241.2 241.2 241.2 240.2 238 234.2 228.6 221.4 211.1 203.3 194.4 196.9 201.1 201.8 199.2 196.6 194 195.8 197.6 195.8 193.2 192.8 191.7 191.1 188.6 191.2 193.5
