ncols 200
nrows 82
xllcorner 280000
yllcorner 842800
cellsize 50
121.7 123 122.9 124.5 126.9 129.9 132.5 135.8 139 142.3 144.2 146 147.8 150.4 153 157.5 159.9 160.7 162.7 164.3 165.8 166.9 168 169.1 170.7 172.9 175.2 176.9 179.2 180.4 180.6 180.5 180.4 180.3 180 179.8 179.7 179.3 178.4 176.5 174.6 171.7 169.5 167.9 166.7 165.1 164 162.8 161.3 163.8 169.7 169.2 169.4 167.5 164.8 156.3 163.2 164.1 164.9 164.9 164.8 165.3 165.8 165.7 165.2 164.2 163 162 162.3 162.7 164 164.7 165.3 167.3 171.2 174.1 174.8 175 174.9 174.9 175.3 175.8 177.1 178.4 179.6 181 183.1 184.8 184.9 183.7 182.7 181.5 180.7 180.6 180.4 180.1 179.7 178.1 175 172.3 175.8 178.9 181.8 184.3 182.9 184 179.5 182.4 188.4 193.7 195.2 196.3 197.3 199.5 200.4 199.3 200.1 204.6 210.3 212.7 214.5 213.1 210.9 208.1 204.6 201.1 197.6 193.3 189.3 182.6 176.1 175.1 175.2 181.5 187.6 184.9 182.7 181.5 179.3 179.3 176.9 176.5 177.4 176.7 171.4 167.9 167.8 167.9 169.5 171.7 171 166.6 163.4 162 160.7 158.5 157.3 156.6 156.1 156.4 156.6 156.9 157.1 157.3 157.5 158.5 159.6 162.3 163.6 165 164.9 165.3 166.3 165.2 166.5 166 164.6 161.8 160.3 161 159.9 156.8 158.1 160.9 161.5 161.2 161.2 161.6 161.3 161 161.7 161.8 161.9 162 162.2 162.1 161.8 162 162.6 163.1
124.4 125 125.8 128.6 131.3 137.7 136.9 139.5 141.7 144.9 147.4 149.2 151.9 154.4 157.3 159.8 160.7 162.3 164.9 167.8 170.4 171.9 173 174.2 176.4 179.2 181.1 182.3 182.7 183 183.1 182 180.3 180.2 180 179.8 179.6 179.1 177.4 174.6 171.4 168.2 165 163.1 163.4 163.4 163.4 163.7 164.5 165.8 167.2 168.2 167.9 166.8 165.1 154.3 165.2 166.1 166.9 166.9 166.8 167 167.5 166.9 165.6 165.3 164.9 164.3 165.3 165.3 166.7 166.9 169.6 171.1 175.2 176.4 176.7 176.6 176.8 177.2 177.7 179.3 181.1 182.5 183.8 184.7 185.9 187.3 185.4 184.4 183.6 182.7 181.8 181.7 181.3 181 180.7 178.2 175.5 175 179.4 183.3 187.3 189.1 189.8 188.1 195 195 196.1 197.5 200.4 203.7 206 200.5 197.1 197 197.5 199.2 205 210.9 217.3 214.7 211.5 207.8 204.7 201.4 197.8 189.2 181 177.6 175.7 174.9 175.4 177 177.5 178.1 178.1 178 177.7 179.3 178.4 175.7 176 175.6 169.7 168.3 173 177.8 181.3 187.9 185.6 179.7 173.5 168.6 166 161.2 158.7 157.3 156.7 158.3 159.2 159.4 159.6 159.6 159.4 159.6 161.7 166.4 168.5 169.1 167.7 167.9 168.7 169.7 170 168.6 168.9 171.5 164.3 162.1 157.7 159.4 162 163.5 163.1 162.8 162.7 162.7 162.8 162.9 163 163.1 163.3 163.4 163.5 163.4 163.1 162.9 162.9 163.4
126.6 128.4 130.8 133.5 134.9 138.1 139.2 143.7 145.9 148.1 150.6 153.3 156.3 158.9 161.5 161.4 161.4 163.9 167.4 171.2 173.9 176.6 178 179.4 181.3 183.9 185.3 185.2 185.4 185.1 184.2 183 181.5 180.2 180 179.6 179 177.8 174 169.5 166.5 165.5 166.6 166.5 167.7 168.2 167.5 167.8 168.1 169.4 170.8 170.2 169 167.8 167.2 156.7 167.3 168.1 168.9 168.9 168.8 168.8 168.9 167.5 166.5 166.3 166.7 167 167.4 167.8 168.1 170.5 173 175.7 177.5 178.5 178.4 178.3 178.6 180.8 182 183.6 185.3 186.5 187.5 188.1 189 188 186 185.1 184.4 183.7 182.9 182.6 182.3 181.9 181.3 179 176.6 178.8 183 187.6 191.2 192 195.6 196.8 196.3 197.7 199.1 202.5 205.9 210 207.2 199.2 197.5 196.8 196.9 198.6 201.8 207.8 211.5 208.1 208.5 209.3 204.7 198.8 188.7 181.3 179 178.7 180.8 176.9 176.7 177.1 177.3 177.9 180 183 185.6 185.9 185.2 183.6 181.1 180.6 179.2 178.4 182.2 185.6 193.2 191.5 186.2 182.9 178.6 174.3 171 164.9 159.2 158.1 158.1 159.9 161.2 161.9 161.9 161.7 161.6 162.5 163.7 168.1 170.9 170.2 169.5 170.2 173 173.9 173.4 171.4 169.5 175.7 171.8 159.7 157.8 163.2 165.5 166.1 165.6 164.9 163.9 164.4 164.6 164.3 164.4 164.5 164.6 164.8 164.9 164.7 164.4 164.2 164 163.8
130.6 132.9 136 137.3 140.2 138.7 144.2 148 150.1 152.1 154.1 157 159.9 161.8 162.3 162.3 162.4 166.6 171 175.2 179 181.9 184.3 186.4 188.3 189 187.9 187.5 187.3 186.4 184.4 182.6 181.1 179.4 178.3 177.9 177.5 174.9 169.9 165.8 168.2 170.1 170.4 170.5 171.3 171.2 171.6 171.8 172.1 173.2 174.6 172.4 171 169.8 167.8 167.2 170.5 170.9 170.8 170.4 170.2 169.9 169.5 167.7 167.1 167 166.8 167 167.9 169.2 171.5 174 177.4 179 180.1 180.2 180.1 179.8 181.9 185 186.6 188.2 189.3 189.6 189.7 189.7 189.6 187.9 186.4 185.6 184.9 184.2 183.5 183.9 183.5 183.2 181.9 180.2 178.1 181.1 187 190.7 194.7 196 197.5 198 197.3 200.3 204.1 208 207.4 208.9 205.1 199.1 197.9 197.3 196.4 196.7 199.9 202.9 203.1 201.4 199.1 198.1 193.6 187.3 183.7 183.2 186.4 191 192.7 195.2 194.3 192.3 191.5 192 191.8 193.3 194.9 195.5 194 193.7 193.7 194.2 195.8 197.8 200.4 199.9 196.6 195.1 192.1 188.9 184.7 179.9 173.8 166.4 161.7 160.1 160.7 162.3 163.2 164.3 163.6 163.7 164 164.8 166.2 167.9 170.2 171 171.3 171.8 173 175.3 177.7 172.2 169.9 175.3 170.8 158.7 162.5 166.7 169 169 167.9 167 165.6 166.1 166.4 166.5 166.2 165.9 166 166.1 166.2 166.1 165.7 165.4 165.2 164.9
135 137.9 137.6 141.9 140.6 144.5 148.2 151.2 153.7 155.8 157.8 160.6 161.8 162.5 163 163.2 164.9 169.4 174.5 179.4 183.8 187.2 189.7 191.5 192.6 192.3 189.8 190.2 188 185.6 183.6 181.7 179.9 178.2 176.5 175.3 173.4 171.1 166.5 169.1 172 173.6 173.6 174.2 178.1 176 175.5 175.6 175.9 176.9 176.4 173.9 172.1 170.4 155.4 170.6 173 173.8 172.5 172 170.7 170.4 169.5 167.5 168.2 167.8 167.3 168.2 170.3 173.3 175.4 178.4 182 182.6 182.7 183.9 182.5 182.6 186.5 189.1 190.9 191.4 191.6 189.4 189.4 189.5 189.7 188.2 186.9 186.2 185.4 184.5 183.9 184.7 185 184.6 182.6 181.4 179.9 183.8 191.2 196 196.2 196.9 197.5 197.9 198.6 198.8 201.7 202.7 201.5 201.1 200 200.1 200.2 198.3 197.1 196.6 196 196.8 195.6 194.4 192.6 189.4 186.7 184.9 187.4 190.8 195.3 203.2 206.2 206.2 207.3 206.8 206.4 205.1 203.6 202.6 203.6 202.8 201.4 202.9 209.6 210.7 208.4 208.1 205.3 204 200.1 192.9 191.4 189.2 185.9 181.2 176.2 170.2 166 165.7 167.1 169.1 170.4 169 168.9 167.2 166.6 167.4 167.9 169.2 169.1 170.5 172.5 173.6 174.7 176.5 176.4 174.5 173.1 175.4 169.3 159.4 166.9 169.7 172 171.7 170.7 169.6 168.5 167.8 168.1 168.3 168.5 168.1 167.8 167.5 167.6 167.4 167 166.7 166.3 165.7
137.6 139.4 141.9 142.4 142.9 148.5 152.5 154.1 156.5 159 161.4 162.1 162.2 163 164.1 165.6 167.6 171.9 177.9 183.5 188.5 192.9 195.5 195.7 195.9 195.4 192.5 190.8 187.6 184 181.9 179.7 178 176.2 174.5 172.3 169.2 167.1 169.2 172.1 175.6 176.6 176 179.6 180.8 181 180.5 180 179 173.3 175.4 174.3 169.2 158.5 168.8 172.4 174.9 174.8 174.3 172.9 171.4 170.8 169.2 168.8 168.7 168.3 169.7 172 174.6 177.4 180.6 184.1 185.4 186 186.7 188.6 184.7 188 191.2 192.4 193.4 193.9 193.2 189.6 189.1 189.3 189.5 188.4 187.4 186.7 186 185.1 184.4 185.1 185.9 185.2 183.3 182.7 181.7 188.5 193.6 194 195 196.4 197.6 197.8 198.3 199 199.3 203 204 202.2 206.3 206.9 207.5 210.9 205.8 197.7 195.8 194.8 194 192 190.8 191.6 189 191.4 196.5 201.6 205.5 207.9 209.3 209.4 208.9 209.5 209.5 209.3 208.5 208.1 209.1 210.3 211 211.6 212 210.9 210.2 208.4 206.5 204.8 199.2 196.6 194 188.4 185.4 182 178.3 173.5 171.1 172.6 172.4 174.6 176.3 176.6 176.6 173 171.8 171.8 171 170.3 170.6 172.3 173.9 174.8 174.9 175.5 185.1 180.2 175.5 178.9 167.6 167.1 169.5 172.4 173.8 174.3 173.7 173.4 171.3 169.1 169.6 170 170.3 170.4 170 169.7 169.6 169.2 168.6 167.9 167.6 167.3
140.6 141.7 142.9 145.5 149.9 153.2 155.8 157.6 159.5 161.1 162.3 162.2 163.1 164.9 166.7 168.3 169.4 175.1 181.3 186.7 192 197.8 200 198.7 196.6 194.5 192 187.8 185 182.6 180 177.7 175.9 174.3 171.4 169.6 167.8 170.8 175 175.4 177.7 180.8 182 184.1 184.5 184.7 184.1 182.6 181.4 178.6 172.7 172.9 166.5 164.8 171.9 175 175.6 174.9 173.8 172.4 171 170.4 170.2 170.4 170.5 171.9 174.6 177.4 180 182.4 185.5 187 189.2 190.1 185.7 185.6 190.2 195.3 197.6 198.6 198.8 198.9 197 194.5 191.4 189.2 189.4 188.6 187.8 187.2 186.5 185.9 185.7 186.8 187.5 187.5 184.3 184.3 187.6 188.7 191.2 194 194.7 195.9 197.4 197.8 198.6 201.4 205.7 209 211.6 215.7 217.1 217.8 218.1 219.9 213.4 204.6 199.5 200 200 199.2 198.2 198.3 199.2 202.7 206.6 208.9 208.3 209.1 211 212.2 211.2 211.1 210.9 210.6 210.3 210.5 212.1 214.6 215.7 216.8 217.6 216.4 214.4 211.2 209.7 206.5 202.7 197 193.7 189.4 185.8 183.8 180.4 176.1 175.6 177.4 178 178.9 180.1 180.5 180.9 179.8 177.7 178.1 178.4 180.4 174.9 174 175.8 175.1 174.9 176.3 183.4 185.3 175.6 176.9 163.6 165.7 170 173.3 174.7 175.5 175.9 176.1 174.1 172.5 172.6 172.4 172.3 172.2 172.3 173.5 173.1 171 170 169.5 169.2 168.9
142.9 144.1 147.3 149.2 153.5 155.8 158.5 161.3 160.7 162 163.5 163.8 165.2 167.2 169.2 171 173.4 176.7 182.1 187.6 193.4 197.6 198.7 196.6 194.4 192.1 188.9 184.4 182.5 180.7 179 176.5 174.5 173 172.8 169.4 177.7 179.1 180.5 180.4 184.5 186.4 187.2 188.2 188.5 187.6 186 184.7 183.5 180.9 175.3 172.8 170 165.3 163.7 176 174.4 173.3 172.3 172.2 172.1 172.2 172.1 173 174.3 176.2 179.9 182.6 185.5 188.1 193.3 194.6 196.5 195.9 197.9 200.3 199.4 204.7 206.5 207.1 205.5 202 198.8 195.9 193.7 191.8 189.8 189 188.3 188.1 188 187.8 189.3 190.7 190.4 191.3 186.9 186.1 193.2 193.1 192.6 193.7 195 196 197 200 206.3 211.6 218.8 221.9 223.1 227.5 228.1 228.7 228.7 227.8 221.8 213.3 207.2 206.8 206.6 207.1 212.1 210.7 211 210.8 211.6 213.1 213.5 214.4 214.1 213.4 212.5 210.2 211.6 211.3 211.9 213.6 216.3 218.5 220.3 220.9 221 218.7 215.5 212.7 210 207 203.1 199 194 191.5 188.4 185.6 182.8 180.2 181.2 183.3 183.1 183.1 183.8 184.3 184.2 183.7 183.1 181.5 183.5 182.6 179.2 178.2 178.1 177.4 177.5 178.7 184.2 187.7 181 177.8 161.9 162.7 168.1 172 174.9 176 176.4 176.9 176.2 175.2 174.4 174.5 174.6 174.7 174.5 173.7 173 172.2 171.3 171.1 170.7 170.4
146.7 149.2 152 153.3 156.8 159.2 160.4 161.3 162.1 165.2 165.6 165.6 167.2 169.3 171.3 173.4 175.9 179.1 182.5 188.4 193.2 195.2 194.2 192.1 189.9 187.7 184.3 182.3 180.9 179.2 177.9 177.5 176 176.8 178.9 180.2 182.6 184.4 185.6 186.5 190.1 190.9 192.1 192.3 191.2 189.6 188 186.1 184.1 182.5 181.3 179.8 169.1 164.9 165.9 176.9 174.9 174.1 174.4 174.2 174.2 174.6 175.7 176.6 178 180.9 184.6 189.2 192.3 194.6 197.1 199.7 200.7 205 209.1 211.2 210.7 210.3 212.2 209.4 205.3 201.3 197.2 195.3 194.3 192.6 191 190.6 190.5 190.3 190.6 192 193 194.1 192.5 191.7 188.3 187.2 195.3 195.1 198.4 198.7 197.1 197.6 202.4 209.4 216.7 222.4 230.7 231.9 233.1 237.1 239.7 240.8 241.8 238.8 230.6 225.1 217.6 214.3 213.4 217.8 216.8 216.5 215.8 215.2 216.3 216.6 216.8 216.5 215.7 212.5 211.4 205.5 205 206.7 211.8 217.6 220.2 221.5 218.5 213.9 208.2 204.8 203.7 204.1 204.9 205.3 203.9 198.2 195.5 193.2 191.1 188.7 186.5 185.8 187.2 188.1 188.3 187.5 187 187.1 187.4 185.9 185.3 186.1 187.8 190.1 187.5 181 181.5 179.2 179.1 180.1 186.3 186.1 182 179.1 177 166.6 163.6 166.5 172.1 173.9 176.1 177.4 177.8 177 176.1 175.6 175.7 175.8 175.3 174.2 173.5 173.5 172.6 172.6 172.3 172
150.7 153 156.6 157.4 159.9 161.4 161.2 162.9 164.9 166 167.1 167.8 169.4 171.5 173.6 175.7 177.8 180 182.6 186.3 189.2 189.7 189.7 187.7 185.5 183.6 179.9 179.4 180.8 181 181.2 181.5 181.8 182.8 185.7 187.1 187.8 190.1 192.1 193.7 194.5 193.6 193.3 192.6 190.7 189 186.9 184.2 182.7 182.7 182.7 168.6 170.3 170.9 174.6 178.4 176.8 176.5 177.5 177.4 177.5 178.7 179.2 181 182.2 186.3 190.7 194.8 198.2 200.4 203.4 207 208.8 214.3 218.3 218.9 216.3 205.5 209.8 207.7 203.8 200.8 198.1 195.3 194.1 193 190.6 191.5 192.9 194 194.8 195.3 196.1 195.4 195.4 193.9 189.5 193.6 200.3 200.8 200.6 198.9 199.1 205.4 211.3 220.9 227.2 235 240.7 244 243.5 247.7 246.9 243.3 241.7 239.3 237.6 232.7 227.9 224.5 222.7 220.4 219.1 218 218.1 219.3 219.4 218.5 218.7 216.9 214.6 211.6 203.2 202.9 203 203.4 208.9 218.6 219.9 215 207 199.1 195.3 193.9 193.5 194.8 198.7 200.6 204 200.6 197.5 196.1 194.5 192.3 190.8 191.3 192.3 193.5 192.6 188.5 185.3 184.9 184.3 183.7 183.1 182.4 187.4 190.1 188.9 184.4 180.2 179.8 179.7 179.8 184.3 187.7 183.3 179.9 178.6 177.1 171.4 165.4 165.7 169.2 174.6 178.2 179.1 178.5 177.8 176.9 176.8 176.7 176.4 174.9 173.9 174.6 174.2 174.2 173.8 173.5
153.3 155.2 160.2 160.9 162.3 161.8 163.8 165.6 166.5 170.3 170.1 170 171.7 173.7 175.8 178.1 179.7 180.8 183 185 185.9 185.1 184.9 183.4 182.3 180.6 180 180.3 183.5 184.3 184.7 186.5 189.2 192.7 194.6 194.6 195.4 196.3 196.5 197.1 196.5 195.1 194.1 192.3 190.4 188.4 186.1 183.8 183.4 173.7 172 173.1 175.3 179.8 179.7 178.5 178.9 178.8 180.6 180.2 181.5 182.6 183.2 185.2 187.6 192.6 195.8 199.9 203.3 206.7 210.1 213.6 218.8 223.1 224.5 221.6 216.3 208.3 202.7 203.2 201.8 199.2 197.2 195.5 192.3 190.2 191.6 195.9 195.5 196.2 197.2 196.2 198.2 199 198.3 191.3 190.6 199.6 199.3 199.4 199.4 199.6 205.3 212 220.9 229.5 235.8 241.1 245.3 248.9 249.8 250.8 248.7 246.7 244.7 240 234.5 233.2 229 225.2 223.3 221.8 221 220.6 220.4 222.2 223.8 223.5 223.4 223.3 218.1 204.1 202.9 202.2 202.3 202.5 205.7 213.6 210.4 205.3 197.2 195.6 194.4 193.7 193.9 194.5 194 194 201.2 203.2 200.1 199.3 199.2 196.6 194.8 192.6 193.8 192.4 189.5 186.9 184.6 183.9 183.5 183 182.5 182.1 184 191.9 189.3 188.5 182 180.1 179.5 179.5 179.6 181.9 185.8 180.8 178.2 179 175.9 173.2 167.9 166.8 170.2 178.5 180.2 180.1 179.4 178.6 177.9 177.4 176.9 177.4 176.4 175.5 175.9 175.7 175.5 175.3
156.6 158.2 159.8 162.9 164.5 168.1 171.3 171.4 171.7 172 172 172.2 173.9 176.1 178.3 180.6 181.3 182 183.8 184.5 184 183.5 182.7 182.4 182.2 181.9 182.3 184 186.2 187.5 188.6 192.4 196 199 200.3 200.7 201 200.4 199.3 198.6 196.9 195.3 193.7 192 190.2 188.1 185.7 182.9 176.4 177.8 175.6 175.9 180 177.5 179.6 180.5 181 182.8 183.2 183.2 184.6 185.6 186.4 188.4 194.6 198.8 202 205.4 209 212.7 215.4 220.7 228.4 227.9 226 221.8 215.5 208 200.8 198.9 198.3 195.7 195 193.4 191.6 194.5 196.2 197 197.5 199.5 201.3 201.8 200.9 200.7 199.4 192.3 190.1 203.2 203.9 203.4 201.2 206 211.3 218.8 228.6 235.3 241.1 245.5 249.3 252.6 254.3 253.7 252.2 248.8 243.2 240.3 236 230.7 228.6 224.9 223.4 223.3 223.8 224 224.2 225.4 226.5 224.5 224.2 221.5 214.3 203.2 202.7 201.5 201.4 201.2 203.3 208.6 201.4 200.3 201 201.5 201.2 200 196.9 193.8 194.3 194 198.1 204.8 203.1 201.9 203.4 203.1 200.2 194.2 188.5 187.3 186.2 185.1 184.1 183.8 184 183.5 182.9 182.2 182.3 189.9 189.3 191.4 185.6 183.8 181 180.2 181.5 182.4 182.7 179.7 179.4 179.4 177.3 175.2 172.6 169.8 171.2 177.5 181.3 181.1 180.3 179.6 179.1 177.4 176.7 179.3 179.7 178.5 176.6 177.6 177.1 176.7
159.8 162.3 160.2 163.6 167.4 168.1 171 170.7 171.4 172 173.8 174.9 176.4 178.6 180.9 182.1 182.8 183.5 184.6 184.6 184.1 183.4 183.1 182.8 182.9 184.7 186 187.7 189.5 191.4 195.3 199.6 202.5 203.9 205 205.6 204.8 202.7 200.6 198.4 196.1 194.2 192.4 191.1 189.9 188.9 182.2 173.7 180 178.7 178 182 184.4 182.6 181.4 183.2 184.7 185.7 184.7 186.9 187.9 188.6 189.9 192.9 201.1 205 207.8 212.7 215 219.2 224.6 228.3 230.5 227.5 222.3 219.3 213.8 207.8 200.9 197.1 194.5 194.5 195.3 197.5 200 201.6 202.5 202.2 202.2 204.1 204.8 206 207.5 208 202.6 193.2 192.2 206.9 204.6 202.2 202.3 212.6 220.8 227.8 234 239.9 245.2 249.5 253.4 256.4 256.9 255.8 253.4 250.2 245.7 241.1 236 232.5 229.3 227 226.2 225.7 226.2 226.5 226 225.6 228.6 223.1 225.3 223.7 214.5 202.2 201.8 201.4 200.8 200.5 200.8 201.6 205.3 206.6 208.2 207.9 206.6 206.3 203.1 198.5 196.3 191.5 193.2 201.5 206.6 202.7 203.4 200 193.7 189.6 187.9 186.4 185.4 185.2 186 185.1 186.3 184.9 183.5 181.7 181.8 185.9 185.8 185.9 186.8 187.4 182.3 183.6 184.2 184.7 183.2 179.5 179.5 179.6 178.7 176.2 172.6 170.8 171.6 178.4 181.7 182 181.4 180.9 180.3 180.3 178.2 177.5 178.4 179.5 179.6 179.4 178.5 178
164.5 164.8 161.9 167.1 169.6 169.6 170 170.4 172.3 176.5 178.6 179 179.7 181.2 183 183.7 184.4 185.2 185.2 184.8 184.4 183.6 183.3 183.9 185.3 187.3 190.5 192.4 194.8 198.4 203.1 207.6 206.1 206.1 205.8 205.4 203.5 201.6 198.9 196.7 194.8 193.3 191.4 189.6 181.6 181.6 175 181.4 182.7 182 183 189.2 187.6 186.1 184.8 185.6 185.9 185.8 187.1 190.3 191.4 191.9 193.8 201.6 205.3 210.7 213.9 218.2 220 225.7 232.5 235.6 231.4 226.1 221.8 217.6 212.8 208.3 205.1 201 199.1 199.7 201.9 202.8 203.1 203.6 206.9 207.6 210.5 210.8 211.3 210.9 211 210.9 204.5 194.5 194.9 208.2 203.2 203.2 211.8 220 227.4 232.8 237.2 243.3 249.4 253.7 256.5 259.3 258.5 256.8 253.4 249.7 244.4 240.3 237.3 232.9 231.8 229.8 229.3 230.1 229.3 229.2 229.6 228.9 225.2 224.3 219.5 217.2 215.1 203.9 203.1 202.8 202 202.8 205.8 209 211.5 213.9 215.3 216.7 214.2 212.5 208.9 203.5 196.9 192.6 191.3 193.1 196.1 192.7 191.7 189.7 188.3 186.6 187.9 186.2 190.3 192 194.8 194.1 193.6 190.3 190.6 186.8 184.2 183.6 183.4 185 185.3 187.9 185.2 184.9 191.2 188.4 183.3 180.8 179.9 179.5 178.5 175.8 173.3 170.8 175.3 180.8 183.2 183.6 183 182.3 181.5 181 179.4 177.5 179.5 181.1 181.3 181.4 180.5 179.5
165.6 163.6 166 169.3 171.3 173.3 174.5 176 177.5 182.9 182.7 181.8 182.6 183.8 184.7 185.5 186.1 186 185.9 185.9 185.5 186 185.4 185.9 187.9 190 193.9 198.8 202.5 207.3 211.4 209.4 208 207.2 206.4 204.4 201.9 199.8 197.3 195 193.7 192.7 190.8 183.8 180.5 177 181.9 186.9 186.6 186.1 192.7 191.5 190.3 189.1 188.5 190.4 190.8 191.6 191.6 193.5 195.8 198.1 202.8 206.9 211 215.4 220.5 223.7 226.4 229.2 231.4 229.8 225.8 222.3 218.7 214.3 210.6 206.4 204.7 201.9 200.6 206.5 207.7 209.2 209 212.7 213.3 213.2 213.3 215.6 215.3 214.9 213.8 212.6 206.8 198.6 195.9 204.2 204.1 212.4 219.7 226.1 232.2 237.3 240 246.8 253.4 257.2 259.5 260.3 259.1 256.9 253.5 249.6 243.4 239.6 236.1 233.8 233.3 232.2 232.4 233.3 234.4 232.1 232.8 232.9 229.7 227.7 226.8 214.8 210.7 204 206.5 204.3 206.2 208.1 211.5 214.7 220.8 221.3 223.5 224.5 224.9 222.1 218.3 211 202.4 198.5 194.7 192.3 190.7 190.9 190.5 191.8 191.1 198 200.4 203.5 206.9 207.9 209.1 210.2 208 205.3 204.3 200 194.2 188 183.6 181.7 179.9 182.6 184.7 184.4 187.9 183.8 182.4 180.3 179.6 178.7 176.1 174.2 172.4 176.6 180.7 184.1 185.7 185.7 185.3 185 184.3 183.5 181.4 181.2 178.7 182.9 183.3 183.4 182.5 181.6
164.2 164.5 171.5 174.6 175.8 176.4 177.3 179.3 183.7 184.6 185.6 185.1 184.3 185.2 186.2 187.1 187.2 187.1 187 186.9 187.6 187.8 186.5 189.7 191.6 193.8 200.3 207.5 213.6 214.8 213.8 210.4 208.6 207 205.3 202.9 200.5 198.1 195.6 194 193 191.9 187.3 181.8 176.3 179.2 190.6 191.3 191.8 188.8 194.3 193.3 192.5 192.1 193.3 194.1 194.1 194.8 195.7 197.9 201.7 205.1 209.7 213.6 217.5 221.4 225.6 228.1 230.1 229.8 226.1 223.7 222 219.7 212 205.3 203.1 207.3 207.8 207.3 211.2 212 214.5 216 214.7 212.3 212.8 213.2 213.3 214.4 217.9 215.5 215.5 210.2 207.2 198.8 199.7 206.2 207.8 217.8 224.3 231.1 235.8 239.2 242.7 249.6 255.6 258.9 260.5 260.1 257.8 255.9 252.3 248.5 243.6 239.6 236.6 235.3 234.9 234.7 236.1 235.9 234.9 231.6 231.6 231.6 233.5 231.2 225.8 213.7 206.5 205.8 211.4 212.7 216.4 219 222.3 225.8 230 232.8 233.3 234.1 232.4 229.9 226.6 222.6 217.2 208.8 205.8 202.4 199.9 198.7 196.5 195.8 201.9 211 217.2 221.4 221.3 220.5 220.7 221.5 221 220.4 218 213 207.1 203.2 197.4 190.4 184.1 180.7 180.8 182.8 182.1 181.4 179.8 177.2 175.5 174.9 175.9 177.6 181.6 185.5 186.8 188.6 188.1 187.7 187.4 187 186.6 185.8 184.6 183.7 182.2 184.4 185.5 185.4 184.5 183.6
164.2 171.1 177.1 178.3 178.9 179.4 180.9 183 182.9 185.1 186.1 186 186.3 186.9 187.9 188.5 188.7 188.6 188.5 189.1 189.9 191.5 190.5 192.5 195.4 201 208.7 216.1 218.5 216.5 213.5 209.2 207.4 206 203.6 201.3 199.2 197.2 195.6 194.3 192.7 190 183.1 180 178 179 193.4 193.7 193.6 193.6 195.7 195.8 195.3 193.2 195.2 195.9 196.8 198.5 200.3 202.5 206.9 212.3 216.3 219.5 222.9 226.3 230.7 231 232.4 230.9 229 226.7 221.8 212.4 209.1 212.9 214 214.7 216.6 217.8 220.2 220.9 220.1 217.5 216.4 214.6 215.2 214.8 213.2 212.6 217.2 211.9 208.2 207.8 209.7 201.4 201.3 202.1 213.4 222.9 229.6 233.3 237.7 239.4 248.7 250.6 257.3 259.5 260.3 259.3 256.9 253.7 250.8 247 243 239.9 236.7 233.3 231.6 231.8 231.4 231.6 231.6 231.6 231.6 231.6 235.5 233.5 228.7 218.9 213.6 226.4 230.9 230.5 232.4 234.8 235.9 236.5 238.4 240.6 242.1 244.4 240.2 235.3 232.9 229.8 224.7 219.2 217.1 215.7 212.3 209.6 206 210 209.8 213.7 220.4 223.6 226 224.7 223.8 223.9 224.2 223.9 222 218.1 216 214.7 210.3 204.7 197.7 189.1 180.1 177.2 177 177 174.2 174.5 174.8 174.9 178.6 183.6 188 191.2 192 192.1 191 190 189.1 188.3 187.9 187.3 187.7 188.1 185.5 186.2 187.6 187.5 186.5 185.6
169.3 177.2 180.8 181.5 182.2 184.5 185.1 184.7 185.4 186.5 187.8 188.8 189.1 188.6 189.4 189.8 190.1 190.1 190.7 191.6 192.4 192.2 195.2 196.7 201.6 207.5 212.2 215.9 215.8 214.3 211.8 208.9 205.9 204.8 202.8 201.2 199.1 197.2 195.9 194.7 190.3 182.3 180.5 180 180.5 182.8 195.7 196.2 196.3 196.6 193.1 198.6 197.5 196.8 199.6 200.3 200 200.9 203.6 208.4 214.8 218.6 221.5 224.6 228.8 232.8 235.6 236.3 236.8 232.5 228.6 221.9 218.9 217.7 219.5 221.9 222.4 220.7 221.3 222.6 221.9 221.7 224.1 225.9 225.5 226.5 224.4 221 217.8 212.3 210.4 208.8 210.3 214.9 213.8 204.5 203.3 206.7 220.2 229.9 233.6 237.2 239 240.7 248.3 252.4 258.1 259.2 259.5 258.3 256.3 252.7 248.1 243.1 238.7 232.8 231.6 231.6 231.6 231.6 231.6 231.6 231.6 231.6 231.6 233.6 238.7 231 211.8 212.9 236.1 239.6 243.1 242.9 243.1 244.5 246.2 247.2 248.6 253.4 250.9 247.8 245.9 242.7 240.2 239.2 234.8 230.9 229.6 227.5 226.4 220.6 216.8 217.4 219.5 215.7 216.6 228.7 228.6 226.2 225.6 224.5 225.5 225.1 224.1 224.1 219.6 220.1 218.5 213.9 208.1 204 196.5 189.7 184 183 186.3 188.7 181.7 179.7 180.7 188 194 196.6 195.6 194.5 193.5 192.5 191.7 191.5 191 190.8 189.3 188.9 188.8 189.3 189.8 189.5 188.5 187.6
178.8 183.5 185.3 184.3 184.7 186.2 187.5 187.5 189.4 190.6 191.4 192.4 191.9 190.4 190.8 191.2 191.5 192.6 193.2 194.1 194.9 197.7 199.9 205.2 210.8 212.1 213.2 213.8 213.1 212.1 209.6 206.8 204.4 204.1 202.8 201.5 199.6 197.6 196.6 195.2 182.3 182.3 182.1 182.2 183.5 196 197.6 199 199.4 199.3 197.5 198.5 201 200 203 202.6 203.5 205.4 210.3 214.9 219.3 225.1 227.8 230.8 233.8 238.7 239.6 237.8 235.5 231 224.2 224.3 224.2 223.4 224.7 226.2 226.1 226.8 222.9 223.8 229.5 235.1 236.6 236.2 234.8 232.6 232.2 230.1 225.3 218.4 215.7 217.8 220.2 220.5 208.8 203.6 205.8 219.5 225.3 232.8 236.5 239.5 239.9 243.2 250.7 256.7 258.4 258.7 258 255.6 248.9 243.1 236.7 231.6 231.6 231.6 231.6 231.6 231.6 231.6 231.6 231.6 231.6 231.6 231.6 233.2 236.5 213.2 233.3 235.7 246.2 248.6 246.3 246.2 247.3 248.6 249.3 251.3 251.8 251.5 248 245.2 242.1 238.6 236.2 233.7 231.6 231.3 228.7 225.1 220.4 223.7 225.1 226.2 224.1 220 217.6 226.1 231.4 230.2 229.3 227.1 228.3 228.8 226.8 223 220 223.7 220.7 216.1 212.7 211.8 209.6 209 201.7 199.4 193.6 191 192.4 188 182 190.1 198.8 199.1 197.9 196.8 195.7 194.7 195.5 194.3 194.4 194.4 192.5 191 191.8 192.4 191.9 191.5 190.6 189.5
187.4 187.3 188.2 187.8 188.6 189.9 192 193.7 194.5 195.1 195.4 195.2 191.2 192.4 192.5 192.7 193.1 195.2 197.3 198.1 198.2 203.2 209.3 212.2 213 213.5 212.9 211.9 210.9 209.9 209.4 208.5 206.1 203.6 202.7 201.5 200 198 192.9 184.5 184.2 183.8 184.7 185.7 198 198.6 200.1 201.7 200 199.5 201.9 203.4 204 202.9 203.5 204.6 205.4 209.6 216.2 221.6 226.7 230.2 232.5 239.7 241 241.5 238.6 237.6 237.3 234.2 230 229.7 229.5 229.4 228.9 228 226 228.6 230.9 233.9 234.7 237 239.2 234.6 228.4 227.5 227.4 225.2 229.1 231.1 227.8 226.5 224.6 222.9 206.9 204.4 211.5 227.6 232.5 237.1 242.7 238.7 242.3 247 255.4 257.1 257.9 253 248.6 240.8 231.9 231.6 231.6 231.6 231.6 231.6 231.6 231.6 231.8 231.6 231.6 231.6 231.6 231.8 234.6 221.2 217.2 237.6 247.6 250.4 251.5 254.1 251.2 253.3 254.6 256.7 258.9 257.1 254.2 251.3 249.8 248.2 243.2 240.2 236.7 233.2 229.8 227.3 225.9 226.1 231.9 232 230.7 230.6 229.9 224.3 217.3 223.6 232.4 230.1 226.4 221.8 221.5 222.9 222.6 217.4 215.8 221.9 218.7 210.2 205.3 201 202.1 211.5 207 201.4 194.4 192 195.3 191.9 183.3 193.1 201.7 201.4 200.3 199.1 198 196.9 197 198.1 196.9 197.6 197 193.8 193.8 193.8 194.1 193.2 191.8 190.5
192 193 192.6 192.9 194.2 194.4 196.6 197.1 196.7 196.2 193.5 193.7 194.6 194.3 194.4 194.5 195.8 199.5 201.9 202.8 204.4 211.9 213 213.6 213.5 213.2 212.5 211.5 210.5 209.1 209.5 208.6 206.3 204.1 202.6 201.3 194.4 188.5 185.9 185.8 185.9 185.1 196.5 186.8 201.4 201.9 202.7 202 203.9 204.6 204.3 205.4 204.4 204.5 205.2 206.6 211.4 214 220.9 226.6 228.3 231.4 236.7 240 241.5 239.9 241.4 241.3 237.7 234.4 231.4 232.1 231.3 231 234.4 231.1 235.3 237.6 239.5 241.9 240.6 237.1 233 232.4 231.6 232.5 233.4 233.6 232.8 231.6 228.6 227.7 226 218.8 207.8 205.8 219 232.6 237.1 241.4 240.4 239.7 245.2 252.6 253.2 255.6 249.9 244.7 233.2 231.6 231.6 231.6 231.6 231.6 232.2 234 237.8 241.5 241.4 240.1 239.6 238.6 238.8 238.9 242.2 240.9 234.2 251.1 253.7 254 256 253.5 260.5 262.2 264.1 267 266.8 266.2 262.8 260.4 257.5 255.1 251 246.1 242.1 237.6 235 228.3 227 230 231.4 234.1 232.6 234 233.4 225.3 217.7 220.2 223.6 221.6 218.1 215.8 215 215 213.8 211.5 209.9 217.2 208.7 204.2 204.6 201.3 198.2 197.6 198.9 196.2 193.8 196 198.6 194.2 186.3 197.8 204 202.8 202.1 201.4 200.3 199.4 199.5 197.8 201.3 198.1 195.8 194.2 194.2 194.4 195.3 194.1 192.8 191.6
197.4 197.5 196.3 197.4 197.4 198.2 197.4 195.5 193.2 193.2 193 194.3 195.9 197.6 198.4 198.7 200.7 205.1 207.8 208.6 212.4 213.5 213.6 213.6 213.1 212.8 212 211 209.9 207.8 208.5 208.3 206.4 204.1 200.9 195.1 189.7 187.6 186.3 187 186.3 198.9 200.2 198.5 197.2 204.2 203.8 204.8 205.9 205.6 205.3 205.5 206.1 207.1 208.1 212.2 217 219.4 222.4 228.3 230.5 235.7 238.5 239.7 240.8 241.3 240.9 239.5 237.5 233.3 232.9 233.4 235.6 236.5 238.6 242.1 247 249 249.3 249.3 248.7 243.7 239.8 238 235 234 233.2 233.5 233 231 229.2 228.3 226.7 215.5 208.3 209.5 217.5 233.6 237.3 239.3 241.1 244.8 249.7 255 255.7 249.8 244.3 234.1 231.6 231.6 231.6 234.8 237.3 241 242.9 245.1 248.1 251.5 254.1 255 254.3 251.9 249.9 249.3 250.7 252.3 251.3 253.4 255.7 258.8 263.9 257.9 268.1 270.5 274.2 276.9 275.6 273.5 271.9 269.6 266.6 262.8 256.1 251.6 249.5 246.1 244.9 245.1 236.8 232.6 229.8 229.6 234.1 232.1 229.6 224.5 221.8 219.7 219.3 219.1 219 220.1 217.1 215.8 214.4 211.6 207.8 205.6 204.8 209 210.2 208.2 204.2 199.5 197.4 195.5 195.5 200.8 202.2 199.9 190.1 199.2 204.4 202.5 201.7 201 200.5 200.3 199.7 199.7 200.5 198.7 196.3 194.2 194.7 195.3 196.2 195.2 194.6 193.2
199.3 198.4 195.2 194.6 194.8 194.3 194.2 194.4 194.7 195.4 196.3 196.9 199.8 201.1 201.9 202.7 205.9 210.3 214 214.9 214.4 214 214.1 213.6 212.9 212.3 211.6 210.4 209.2 206.6 207.4 206.9 206.1 200.9 192.9 191 189.8 189.5 188.7 189.2 190.9 201.6 203.2 202.1 191.5 200 203.1 207.2 206.8 206.5 206.2 207.4 208.4 209.8 212 217 220.4 223.8 227.1 231.4 234.9 237.3 239.3 240.3 241.4 241 239.7 238.5 234.1 235.9 235.5 238.8 243.2 248.9 250.5 250.3 256.2 252.4 249 243.9 246.2 247.1 245.2 243.2 240.2 236.6 233.6 233.4 233 232.6 229.7 229.2 229.5 212.6 211.6 212.4 227.9 237.2 236.4 242.4 246.2 250.2 255.2 256.9 249.3 245.3 234.7 231.6 231.6 238.2 240.5 244.6 247.3 248 253.2 255.7 260.6 261.5 260.9 260.4 259.5 258.2 257 254.9 256.1 256.6 256.9 255.5 260.6 265.3 268.4 267.1 276.8 280.3 283.7 286.2 286.1 285 283.4 279.3 274.3 268.5 260.9 256.5 254.5 250 247.8 246 245.6 241.7 237.6 230.3 229.4 226.3 224.4 224.1 227.7 227.9 227.2 228.7 232.7 235 230.4 225.4 220.9 217 212.6 213.7 214.9 215.6 215 214.6 211.1 208 207 202.9 203.8 201.1 200.9 200.2 191.8 198.6 205.4 202.1 201.6 201.2 200.7 201.1 202.2 203.4 201.8 203.1 197.4 195.3 195.9 197.6 198.1 197.7 196.6 195.1
202.2 196.3 195.2 195.9 196.2 196.2 197.1 197.8 198.1 198.8 199.9 201.4 203.7 204.5 205.9 209.6 212.5 215.2 215 214.8 214.6 214.4 214.4 213.6 212.9 212.1 211 209.8 208.6 205.7 206 205.6 204.4 194.3 194.3 191.5 191.2 192.1 193.3 193.7 203.1 205.5 205.6 206.7 199.2 206.5 208 207.6 207.4 207.4 208.7 210.5 211.4 212.4 215 220.8 224.5 228 230.4 233.6 237 238.9 239.7 240.7 241.4 240.9 238.9 237.1 236.2 237.9 241 247.4 255.2 260.6 263.2 264.9 265.2 252.6 262.8 259.1 256.2 254.8 251.6 248.2 243.6 237.4 233.8 233.4 233 232.6 231.5 232.6 232.1 212.7 213.5 218.7 232 237 243 248.5 251.5 255.6 256.3 249.4 246.4 237.5 231.6 231.6 239.7 244.3 249.1 252.4 253.9 258.1 262.3 265.1 266.5 265.7 265 263.9 262.1 260.8 259.8 258.2 259.6 259.2 262 259.9 264.8 270.3 277 280.3 284.6 288 290.7 292.6 293.1 291.7 289.9 286.5 281.7 275.4 267.4 263 259.2 253.8 250.4 251 248.8 243.2 239.3 235.2 230.7 228.9 231.5 232.9 235.2 237.9 236.7 237.3 236.6 237.1 234.3 230.8 227 222.5 218.5 217.6 218.7 219.6 219.4 217.7 215.4 212.8 210.8 207.9 204.6 200.8 200.1 195.9 195.1 197 204.2 203.6 202.8 202.4 202 202.8 204 204.4 204.6 201.3 198 199.1 199.1 199.5 200.1 200 198.6 197.1
200.7 195.7 196.3 197.6 198.2 198.8 199.8 200.7 201.6 203.2 205 205.9 206.2 207.3 210.3 213.7 215.8 216.2 216 214.9 214.6 214.6 214.4 213.6 212.8 212 211.1 209.7 206.2 200.4 201 201.2 198.1 194.3 193.1 192.4 193.5 195.9 203.2 205.4 207.1 207.9 208.8 208.6 202.3 209.3 209.1 209.1 210.4 210.7 211.7 213.1 214.6 218.1 221.3 224 227.4 231.3 233.1 235 237.8 240.2 240.3 240.1 240.8 239.5 237.6 239.6 239 242.2 250.6 260.1 268.8 270.7 273.3 273.9 273.6 272 270.6 265.7 263.8 259.4 255.3 250.1 243.3 238.1 234.4 233.6 233.1 232.7 232.5 233.7 235.3 218.2 213.6 225 238.8 245.3 249.4 253.8 255.1 256.9 253.1 246.8 237.3 233.4 231.6 239.3 245.3 249.3 255.2 257.9 261.1 265.4 267.6 269.7 269.5 268.7 268.7 266.4 264.8 263.5 262.8 263 262 262.3 261.3 260.2 268.2 276.6 283.4 287.8 291.8 294.7 296.8 298.1 298.7 298 295.2 291.9 287.7 282.5 275.9 269.8 265.9 261.2 253.6 249.6 246.9 241.4 238.7 238 240.2 232.8 237.5 239.8 240.4 239.8 241.4 240.4 240.6 238.8 236.1 234.3 231.1 225.4 224.8 224.1 224.4 223.8 222.7 220.7 216.3 214.7 213.4 211.8 206.8 205.4 201 199.5 203.2 202.6 205.6 206.5 204.5 203.9 203.4 203.9 204.5 203.8 201.5 202.9 201.2 201.9 202.3 202.6 202.7 201.5 200.2 198.9
198.6 196.7 198.7 200 201.8 202.9 203.3 204 205.2 206.8 208.6 209.1 210.4 212.5 214.4 215.5 216.5 217.1 217 215.9 214.9 214.4 214.1 213.5 212.7 211.8 210.9 209.9 203.1 205.3 204.8 197.6 196.5 194 193.8 196.5 196.6 205.5 207.3 209.1 210.5 210.4 210.2 210.9 199.9 210.1 210.2 211 212.3 213.8 214.8 216 219.3 222.6 224.9 227.4 230.2 233.1 234.9 236.7 238.8 241.2 240.9 240.7 240.2 239.4 240.8 241.3 243.3 251.6 260.2 272.7 277.9 277.6 280.7 282.3 281.4 279.7 276.1 271.8 266.3 261.1 253.4 247.1 242 238.1 235.3 234.3 233.5 232.8 233.1 232.5 231.4 220 215.9 221.5 246.5 250.9 253.6 255.9 257.6 254.3 248.7 237 234.3 232.7 235.2 243.7 249.5 256.4 261.1 264.8 267.6 269.9 271.5 273.6 273.5 273.5 271.2 268.6 267.3 266.2 265.4 265.7 265 264.1 263.5 265.7 274.8 282.9 289.3 293.8 297.2 300.2 302.5 303.8 303.9 303.1 301.1 296.4 291.9 286.2 281.1 275.7 271.7 267.6 263.8 259.6 251.6 247.1 244.4 240.3 237.3 239.4 246.4 249.6 250.9 251 250.9 248.1 247.1 243.9 239.2 234 231 232.5 233.4 232.3 230.4 227.9 225 222.1 217.6 214.6 217.2 215.1 210.8 204.5 202.1 206.4 208.1 211.9 212.4 211.3 209.7 208.3 206.4 206.9 207.1 203.4 203.4 205.5 203.5 203.6 203.9 204.5 204.2 202.8 201.5 200.1
198 198.9 201.3 203 204.7 205.4 206.5 207.6 208.8 210.3 212.1 213 214.8 215.2 216.1 216.9 217.2 218.1 218 216.9 215.9 214.4 213.5 213.1 212.5 211.3 207.9 209 207.3 206.7 204.4 196.9 195.5 195.7 195.2 200.6 207.3 209.4 210.6 211.2 211.4 211.3 211.8 214 200.4 211.8 213.1 214 214.7 216.1 217.4 218.6 222.9 226.6 228.8 231.1 232.2 234.8 236.8 238.3 239.8 241.7 241.4 240.7 240.5 241.7 242.4 244.4 251.4 262.8 273.7 279.5 283.9 287.5 289.7 290.3 287.6 284.3 280.1 274.5 267.6 261.8 253.4 247.9 243 239.4 236.2 235.1 234.4 234.2 231.3 230.2 229.9 226.5 218.6 221.6 248.3 252.2 255.3 258 255.9 249.6 239.2 234.6 234.3 234.5 240.2 245.6 254.1 263.6 266 267.6 270.6 273.7 276.3 277.9 278.1 275.7 273.3 271 270.5 268.9 267.6 267.4 266.1 266.9 269 271.2 280.4 288.1 294.2 299.5 302.4 305.3 307.9 309.4 309.1 308.3 305.6 301 296.1 289.7 284.1 279.3 273.4 270 266.1 262 258.8 255.9 252.4 247.4 249.7 246.1 250.5 250.7 252.2 251.2 247.4 246.5 245.3 245 242.5 240.1 238.8 238.2 237.3 236.9 232.6 229.7 227.1 224.4 223.5 220.3 218.3 216.6 210.9 205.2 209 213.1 215.9 216.6 214.9 213.4 212.4 211.1 208.9 207.7 206.9 203.4 205.9 206.4 204.7 204.9 204.9 204.7 204.4 203.8 202.6 201.2
200.8 202.4 204.6 206.4 207.8 209 210.1 211.2 212.4 213.9 215.5 216.9 217.1 217.3 217.6 218.4 218.6 218.9 219 217.9 216.6 214.8 213.1 211.1 209.7 210.2 209.5 208.7 206.3 206.5 199 197.2 196.4 201.9 207.9 211.3 212.5 212.8 212.9 216.8 217.5 217.2 213.2 206.4 204.1 214.7 213 217.1 218 218.9 220.5 223 226.4 229.9 231.5 233.6 233.4 236.2 237.3 239.2 240.7 242.2 242 241.9 243.1 244.3 247.3 253.8 263 273 280.3 288.3 293.6 296.2 297.7 295.9 291.2 286.6 280.4 273.1 265.3 257.9 253 249 247 244.9 242 237.4 236.5 232.8 232.4 229.4 229 230 221.1 220 242.3 252.2 256.8 256.8 251.4 241.9 235.8 236.4 236.5 238.5 246.4 249.7 259 267.2 269.3 271.2 274.4 278.1 281 281.5 280.7 278.1 275.5 273.4 272.3 271.2 270.1 269.3 267.7 270.1 272.7 278.8 284.9 292.5 298.9 304 307.1 310 312.6 314.2 313.7 313.1 310 305.1 299.2 292.7 286.3 280.8 275.5 271.2 267.3 263.3 260.9 258.4 254.7 253.2 248.1 251.7 252.7 250.7 249.3 247.5 247.8 246.9 244.4 244.3 242.3 241.4 243.3 242.3 239.4 236.9 234.2 231.2 229.2 226.7 226.3 226.3 222.4 217.5 212.7 213.4 216.2 216.9 217.6 217 215.9 214.9 213.6 212.7 211 210 208.6 203.7 207.6 211.8 210.3 208.8 206.4 204.8 204.6 204 203.4 202.3
204.2 206.5 208.7 210.1 211.3 212.5 213.7 214.8 216.1 217.5 219 219.2 219.4 219.6 219.9 220 220 220.2 220 218.8 217 215.2 211.1 210.1 209.9 211.5 210.8 210.1 206.1 200 198.7 197.8 197.5 211.6 215.1 216.3 216.4 216.6 218.9 220.7 217.9 213.4 212.8 214.9 216.4 212.2 217.5 218.3 221 224.2 225.5 227.3 229.7 232.5 234.7 236.1 235.4 236 237.7 240 242.2 243 243.6 244.2 245.8 249.7 254.7 262.1 272 281 289.2 297.3 301.8 304.3 303 298 292.6 285.5 277.3 270 262.2 254.7 252.5 248.9 247.4 245.4 242.4 241.3 240.8 241 242.9 244.7 244.7 240.4 223.6 225.9 230.1 245.7 256.2 252.7 242.4 238.3 237.5 238.4 241.1 247.3 250.7 254.9 265.3 269.6 272.5 275.8 279.3 282.3 284.1 284.7 283.1 280.1 277.2 274.8 273.7 271.6 270.2 270.3 270.5 272.6 278 284.2 288.8 296 303.2 308.5 311.9 314.6 316.6 317.8 317.5 316 312.5 307.2 301.5 294.3 288.4 282.5 277.4 273.6 270.5 265 261.8 259.9 257.9 255.4 254.9 254.9 255.2 255.8 255.5 253.9 253.8 253 251.7 246.2 244.2 244 243.3 241.5 239 236.9 234.5 231.6 229.7 228.4 227.1 228.4 224.6 220.2 219.8 220.3 222.4 221 220.8 219.7 217.8 216.9 215.6 213.1 212 212.2 210.2 207.3 209.2 211.2 211 210.1 208.1 206 204.7 204.2 203.6 202.9
207.9 210.4 212.2 213.6 214.7 216 217.2 218.4 219.7 221 222 222.1 221.7 221.3 220.8 220.4 220.2 220.3 220.2 219.1 216.3 213.3 209.3 212.6 213.3 212.7 212.1 211.5 202 200.2 199.1 198.6 212.5 216.6 219.8 222 221.5 218.3 218.3 217.7 214.5 214.1 215.1 216.6 217.7 218.3 222.1 224.1 226.2 228.2 230.8 232.8 234.5 236 237.9 237.6 238.3 239.3 240.9 242.7 244.1 245 245.7 248.4 250.8 254.9 260.7 269.8 281.8 290.4 300.8 308.1 310.3 307.5 302.2 296.7 289.7 282.7 275.7 268.8 258.5 255.1 251.4 248.9 247.7 245.4 245.2 244.3 245.7 247.7 249.4 250.2 250.3 244 225 224.5 230.4 238.6 247.5 245.4 239.7 238.4 239.6 240.8 249.3 256.1 260.6 264.4 268.4 271.5 274.7 279.3 283.5 286.3 286.6 286.7 284 281.1 278.2 275.3 272.9 272.5 274.1 276.5 277.5 278.2 283.3 288.1 292.9 300.1 306.2 311.3 315.2 317.7 319.6 320.6 319.7 317.9 312.7 307.9 302.7 295.7 289.7 284.2 279 274.7 270.6 267 264.5 261.5 258.8 258.3 257.3 257.6 257.4 257 256.8 257 254.4 252.7 251.4 250.1 246.5 244.8 243.4 241.2 238.4 235.6 234.5 232.1 229.5 229.4 228.8 229 229.1 227.5 224.9 225.5 225.2 224.4 224 223.2 221.7 219.4 218 214.9 213.5 213.4 212.7 209.7 209.5 210.1 210.7 209 206.8 205.6 204.6 204.1 203.7 203.5
211.3 213.7 215.5 217.1 218.2 219.3 220.6 221.9 223 223.8 223.2 222.2 221.9 221.6 221.3 220.8 220.7 220.5 220.3 219.2 215.6 211.7 213.8 215.4 214.9 213.5 212.2 204.9 202.4 199.8 201.4 215.5 220.6 222.4 219.2 219.4 220 217.1 216.6 215.5 216.4 217.3 218.8 219.4 221 223.1 220.4 229.9 231.7 232.7 234.5 235.6 237.9 239 239.3 239.3 240 241.4 243 244.6 245.8 247.5 250.4 253.6 256.5 260.4 269.1 280 290.8 301.7 309 312.4 311.3 306.2 300.6 293.6 286.6 279.6 273.4 267.9 259.9 253 251.6 249.1 247.9 246.7 247 248.1 250.9 253.1 254.6 254.5 251 251.3 236.1 225.7 229 238.6 240.5 240.8 240.3 239.5 242.3 251.7 259.2 263.3 269.6 270.7 272.3 274.8 277.8 282.7 286.5 288.6 289.4 287.3 284.6 281.9 278.1 274.1 273.6 276.8 281.1 282.2 282 282.5 287.3 291.3 297 303.1 308.9 313.9 316.9 319.6 322 323.2 321.6 318.3 314.5 309.2 303.6 297.1 290.4 285 280.4 276.6 273 269.2 265.1 262.8 260.6 260.4 260.3 259.9 260.1 260.2 260.5 258.8 256.1 254.1 252.2 250.7 247.8 246.8 245.8 243.2 240.5 237.5 234.4 232.4 232.1 234.2 233.9 231.9 230.5 229.8 227.4 228 228.7 225.9 224.5 224.1 223.4 221.1 218.7 217.3 217 215.7 214.6 210.7 210.6 210.2 210.5 209 208.3 207.2 205.8 205 204.6 204.3
214.7 217 219 220.6 221.7 222.8 223.9 225.1 225.4 225.1 224 222.9 221.8 221.3 221 220.8 220.7 220.6 220.5 217.9 214.5 212 214.7 215.7 215.3 214.1 209.5 204.7 204.6 204.7 220.6 223.5 224.5 224.7 226.3 227.9 227.1 223.8 219.8 219.9 219.1 220.3 221.3 222.9 225.1 227.2 228.3 233.9 235.7 237.6 236.9 238 240.3 240.4 241 241 241.9 243.1 244.5 246 248.1 251.4 255.1 258.4 262.9 268.1 276.4 286.9 296.1 304.4 309.1 310.5 307.7 302.7 296.3 290.4 284.2 278.7 273.2 267.6 260.9 257.3 254.6 250.4 248 249.1 249.7 251.6 254.5 255.4 256.3 256.9 254.5 256.6 239.7 226.1 229.1 240.6 242.8 242.2 242.9 249 245.9 255.2 264 271.5 273.4 273.4 275 277.2 281.6 285.7 289.2 290.1 289.3 286.6 283.9 281 278.2 274.1 278.6 281.4 283.5 285.5 284.7 285.5 289.5 294 299.7 305.2 310.9 315 317.8 320.2 322.6 323.4 321.6 318.3 315.2 309.4 303.7 297.1 291.3 286.1 282.3 278.7 274.9 271.2 267.7 264.3 262.6 262.4 262.3 262.1 262.2 262.3 262.5 260.6 257.9 255.8 253.9 251.5 249.8 248.4 247.8 244.8 244.7 243.4 240.4 235.3 234.6 235.6 235.1 234 232.7 228.3 227.6 226 229.2 229.2 225.2 222.2 221.1 220.6 219.1 217.9 217.3 216.7 214.9 211.5 212.1 211.8 211.1 210.8 210.1 209.2 207.8 206.2 205.8 205.4
217.8 220.3 222.5 223.9 225.2 226.3 226.8 227 226.9 225.8 224.7 223.7 222.6 221.5 220.7 220.4 220.3 219.9 218.7 216.3 212.5 213.1 215.9 215.8 215.6 211.8 207 205 206 218.6 225.7 229.6 230.3 230.3 230.5 229.6 225.7 222.8 222.7 223.2 222.8 223.5 225.4 227.4 231.4 232.7 235 237.1 238.6 239.8 240 241 240.7 241.7 242.4 242.9 243.7 245.1 246.5 248.3 251.6 255.2 259.8 264 269.2 275.3 285.3 293.3 301.9 305.9 307.1 307.2 304.2 299 292.5 287.6 282.7 277.4 272.1 266.8 262.3 258.4 255.6 252.8 252.6 254.2 256 257 258.4 259.7 258.9 258.6 257.8 259.3 244.1 228.1 230.9 234.2 244.7 246.5 251.4 257.3 258 259 264.7 275.4 275.2 275.4 277.7 280.1 283.7 288.4 290.3 289.8 288.2 285 282.9 281.1 278.6 276.1 280.4 283.8 285.8 287.6 288.6 288.1 291.3 297.5 302.5 306.6 312.2 314.9 318.1 320 321.6 322 320.2 317.7 313.9 309.6 303.8 298.1 292 288 284.3 280.6 276.7 272.3 269.6 266.2 264.7 264.4 264.2 263.7 264.1 264.3 264.2 262.4 259.8 257.6 255.1 252.2 249.8 248.7 246.3 244.2 243.3 247.3 244.2 239.4 235.2 235.3 235.1 234.5 233.1 229.9 228.6 227 229.5 227 225.9 222.7 222 221.9 220.1 218.7 217.9 216.5 215.4 214.1 212.8 212.8 212.1 211.9 211.8 211.2 209.8 208.2 206.9 206.5
220.5 223.2 225.7 227.5 228.4 228.6 228.7 228.7 227.6 226.6 225.5 224.4 223.3 222.3 221.2 220.1 219.1 218 216.6 213.4 214.8 217.1 216.7 214.9 210.3 209.5 207.6 206 205.4 226.1 231.1 232.7 230.8 228.7 228.1 226.8 225.6 227.7 226.4 227 227.9 228.8 230.5 234.1 236.3 236.6 237.5 236.9 240 241.3 242.4 243.1 242.5 243.6 244.7 245.2 247.3 247.8 249.1 252.3 256.6 260.5 264.9 270.6 275 284.1 292.3 299.9 304 305.2 305.1 304.1 300.7 295.3 290.2 285.3 280.5 275.7 271.4 267.1 262.7 259.4 257.3 256.6 255.7 256.3 258 259 259.9 260.9 261.3 260.3 261 261 256.8 230.3 231.4 238 246.1 249.3 258.3 262.5 267.9 271.4 269 274.3 276.2 277.8 281.1 283.6 285.8 289.5 290 289.2 287 284.7 283.4 282 280.5 276.2 281.7 285.7 288.1 289.7 291.4 291.2 294.6 299.9 304.9 309.1 312.7 315.3 317.7 319.7 320.4 319.7 318.2 315.7 311.9 307.2 302.3 297.4 293.5 290 286.5 281.9 277.6 273.4 270.7 268 266.9 266.2 265.8 265.3 265.9 265.9 265.6 263.8 261.4 258.8 255.9 252.9 250 248.8 247.7 245.4 242.4 241.5 245.7 238.4 235.2 235.2 235.2 235.2 234.7 236.7 233 232.3 230.1 226.2 226.5 224.6 225.2 226.5 226 222.6 220.1 217.8 216.6 215.7 214.8 213.3 213 212.8 212.7 212.6 212 210.7 209.9 208.6
225.2 227 228.4 229.5 230.3 230.3 229.7 228.6 227.1 226 224.9 223.9 222.8 221.7 220.6 219.5 217.6 216 214.4 216 217.8 220.3 219.3 215.5 209.8 208.8 208.2 210.7 222.2 230.4 229.7 229.1 229.4 229.9 229.3 229.4 230.5 230.8 230.5 231.1 232.5 235.2 236.6 237 237.9 239.1 240.5 237.2 242.6 244.3 244.4 244.5 244.5 245.6 246.7 248.7 248.9 249.9 252.2 257.6 261.8 266.2 272 277.6 283.4 289 295.5 300.5 303.9 303.4 303.3 300.4 297.2 293.6 289.1 284.7 280.5 276.6 271.9 267.5 264.4 261.6 260.7 260 258.9 259.3 259.4 260.4 261.5 261.4 261.3 261.8 263.2 263.2 260.1 233.7 232.7 236.7 251.7 259.7 266.8 271.9 278.4 277.7 270.2 274.5 277.4 279.3 283.2 287.1 289.2 289.8 289.5 287.6 286.2 284.9 283.7 282.5 281.1 277 281.5 287.3 289.9 291.6 293.1 293.3 296 301.1 304.6 309 311.7 314.2 316.4 317.9 317.7 316.5 314.8 313 309.5 304.9 301.4 298.3 295.3 291.4 287.1 282.1 278.3 274.5 271.8 269.1 268.7 268.7 268.2 267.2 267.4 267 266.6 265.1 262.7 260.2 256.9 253.8 250.7 248.8 247.7 247.1 246 243.2 240.1 241.9 235.2 235.2 235.2 235.2 235.4 234.8 234 235 235 227.5 225.6 224.4 226.3 228.8 226.9 224.3 222.3 220.8 218.5 216.7 215.8 215.2 215.4 215 214.8 213.6 212.7 211.8 211.1 210.4
232.3 229.8 230.4 231.4 230.8 230.5 229.6 228.5 227 225.5 224.3 223.3 222.2 221.1 220 218.7 216.7 216.4 218.1 219.4 221 222.8 223.1 215.3 210 211.7 217.5 232.5 234.4 235.7 235.8 235.2 231.8 231.6 232.4 233.3 233.4 235.4 235.5 237 237 238.8 239.3 239.9 240.9 242.9 244.3 239.2 247.2 246 246.3 246.8 247.3 247.8 249.1 250 251.1 252.4 256.5 261.4 267 272 277.4 282.8 287.8 292.5 298.3 301.5 303.6 303 301.8 300.2 297.3 293.4 289.2 285.1 281.5 277.7 273 269.5 266.7 264.5 263.2 262.6 261.9 261.8 261.3 262.1 262.3 262.2 262.7 263.4 265.6 263 258.8 234.5 233.3 252.5 264.7 266.5 276 280.3 280 278.3 272.7 277.9 278.5 281.1 284.2 287.8 291.2 291.4 290.5 288.6 286.1 284.6 283.4 282.1 280.6 278.6 281.8 288 290.9 293.2 294.6 295.4 297.8 301.2 304.4 308.7 310.8 313.3 314.7 314.6 315 313 311.4 309.6 307.2 303.6 301.4 298.2 295.7 291.8 287.9 283.4 279.5 275.7 273 270.3 270.1 270 269.6 268.9 268.6 268.1 267.2 265.1 263.3 261.3 258.3 255.1 251.8 248.4 248.1 248.8 247.9 248.1 240.8 237.6 235.4 235.2 235.2 235.2 236.5 240.9 235.2 235.3 235.9 229.1 226 225.2 229.1 230 229.5 228.8 227.5 228.4 222.6 222.1 220.9 221.7 220.7 217.5 215.3 214.5 214 213.6 213.3 212.4
232.5 232.2 232.2 231.4 230.8 230 229.3 228.5 227 225.5 224 222.6 221.6 220.5 219.3 218 219.2 221.1 222 223.2 224.5 225.9 227.4 217 211.9 213.3 225.7 234.6 237.3 237.7 236.9 236.2 233.6 234 235 236.4 236.5 238.1 239.7 240.2 241.1 242.4 242.8 243.1 244 246.3 247.6 245.1 249.6 248.4 248.9 249.3 249.6 249.8 251.1 252.4 254.7 255.4 260.3 265.8 272.6 277.6 282.3 287.8 292.1 296.4 300.2 303.4 304.6 303.8 302.4 300.1 297.8 293.8 289.8 286 282.5 278.8 275 272 269.6 267.8 266.9 266.3 265.5 263.9 263.4 264.1 263.2 263.6 265 267.2 268.9 266.8 257.1 241.1 235.8 247.1 271.9 276.5 280.1 280.5 281 279.2 276.1 280.4 281.4 283.7 286.2 288.5 291 292 290.5 287.8 286.1 284.4 282.8 281.4 280.1 280.6 282.9 288 291.5 293.7 295.5 296.6 299.2 302.2 304 307.4 308.9 312.2 312.6 311.3 310.8 310.1 309 307.2 305 303.5 300.9 297.7 295.5 292.2 288.6 284.8 280.7 276.8 274.1 271.4 271.4 270.7 270.5 270.1 269.7 268.8 267.6 264.7 261.1 261.4 259.4 255.4 251.9 248.3 246.5 246.1 247 246.1 246.1 241.6 237.1 238 235.2 235.2 237 240.8 244.8 240.3 238.1 234.6 229.2 229.2 232.7 230.9 229 228.8 228.8 228.4 225.5 224 223 224.9 224.6 219.4 219.1 217.3 216.5 216.7 216.4 214.6
236.3 237.2 235.7 231.6 229.8 229.3 228.6 227.3 226.3 225 223.7 222.4 221 220.1 221 221.7 223.1 224.9 226.1 227 228.2 229.3 229.5 214.9 211.8 214.5 226.3 237.6 238.8 238.4 237.7 237 235.9 236.8 238 239.4 240.4 241.2 241.9 243 243.8 245.4 246.1 246.5 247.7 249.9 249.2 246.4 250.1 250.9 251.1 251.4 251.6 251.9 252.1 254.2 256.2 258.3 262.3 269.8 277.8 283.1 287.8 292.2 296.3 300.2 302.6 305 306.2 305.4 303.7 301.6 299.5 295.5 291.3 287.1 283.8 280.8 277.9 275.2 273.9 272 271 270.9 268.7 267.2 266.8 266.6 266.3 267.1 269.1 271.1 272.4 272.7 272 241.1 238.4 250.1 277.6 280.2 281 281.4 281.8 278.7 280.6 283 284.4 286.5 288.9 289.9 289.9 289.4 288 287.2 286.3 284.6 282.4 281.3 281.6 282.5 285.3 288.6 292.1 293.9 295.7 298 300.5 302.7 305.2 305.7 306.3 308.6 309.7 309.4 308.3 306.7 306.6 306 302.8 298.3 295.7 291.1 290.1 290.9 288.8 285 281.2 277.5 275.2 272.7 271.9 271.8 271.4 271.1 270.2 270.2 268.7 266.7 263.5 258.5 255.9 252.8 251.3 248.2 246.6 245.3 244.2 244.5 245.3 244.5 240.3 238.8 236.4 235.2 235.3 240.7 241.9 239.9 238.3 235.3 234.2 236.5 235.8 234 231.1 228.8 229.2 229.1 228 226.2 224.9 224.6 224 223.7 222.9 219.8 219.9 219.5 218.8 218.1
237.1 236.8 235.7 233.2 230 228.6 227.3 226 224.9 223.9 222.6 221.8 223.1 224.3 225.4 226 226.3 228.2 229.5 230.8 232 232.6 232.9 226.6 212.4 219.9 226.1 235.8 239.4 239 238.4 238.2 239.7 240.7 240.6 242.1 243.9 244.8 245.4 246.1 246.7 248.1 249.2 249.7 250.3 250.1 250 251 252.5 252.5 252.7 253.1 253.5 253.9 254.3 256.9 257.7 262.5 266.2 274.8 282.2 287 291.7 295.6 299.3 303 305.1 307.1 307.9 307 306.3 304.2 301.1 297.5 293.9 290.2 286.9 283.9 280.9 280.4 278.6 276.6 275.1 273.5 271.8 270.9 270.5 270.1 269.9 271.3 273.1 274.3 275.2 276 272.2 242.4 239.8 254.1 279.2 281.2 281.9 281.7 281.7 281.8 283.4 285.1 287.3 289.3 290.5 290.3 290 289.3 288.3 287.4 286.4 284.8 282.3 282.1 282.8 286.3 288.9 291.5 294.2 296.6 297.7 299 300.2 302.1 303.9 298.9 299.4 302.9 298.3 298.3 301.6 302 300.4 298.4 297.6 293.9 289.9 286.4 283.4 282.9 284.1 285 281.3 277.7 275.9 274.3 272.5 272.7 272.8 271.8 270.3 269.9 268.9 266.8 264.4 261.9 258.6 253.8 249 247.6 246.6 242.5 239.6 239.2 241.7 243 242.5 241.2 239.1 235.2 235.2 238.6 234.1 238.5 237.7 235 234.2 235.3 235.4 234.5 235.4 232 233.4 232.1 229.1 226.7 226.5 225.8 224.5 224.1 221.9 220.4 221 220.5 219.9 219.1
238.6 233.6 233.7 231.8 229.4 227.9 226.4 225 224.8 224.3 224.3 225.5 226.6 227.7 228.7 229.8 230.6 231.4 233 234.2 235.3 235.3 226.4 216.3 216.9 223.4 227.5 232.9 239.3 239.2 239.1 240.9 242.3 243 244.1 245.2 246.8 248.2 249 249.6 250.2 251.2 251.7 252 252.4 252.6 252.9 253.2 254.1 254.3 254.4 254.6 255 255.4 257.3 260.4 263.1 263.7 272.8 279.5 285.3 290.4 294.7 298.2 302.1 305.8 307.9 309.1 310.6 310.8 309.5 308 304.6 300.9 297.1 293.4 290.1 287.8 286.7 285.1 283.2 281 278.2 276.3 274.6 273.9 273.5 273.2 273.2 274.7 276.5 277.4 278.1 278.4 274.6 243.7 240.8 247.9 272.9 282 282.5 282.7 282.9 282.9 284.2 287 289.3 290.8 291.2 290.5 289.7 289.4 288.5 287.5 286.4 284.2 283.2 284.1 286.8 289.6 292 295.1 297.6 298.9 299.4 298.9 299.2 299.5 294.9 289.6 280.7 279.7 278.2 280 291.2 294.8 295.2 290.3 290.2 286.8 284.7 279.7 276.3 277.7 277.6 277.4 280.4 278.2 276.8 275.9 274.9 274 274.2 272.7 270.6 266.5 267.1 263.6 260.9 258 251.9 247.1 240.6 234.9 233.7 233.8 234.1 236.6 236.8 238.6 243 243.6 241.8 240.2 238.2 237.8 238 237.8 230.3 233 233.4 233.7 234.6 233.8 233.5 231.6 230 231.4 229.4 227.8 227.2 226.3 225.6 225.7 223.9 221.7 220.8 222 221.4 222.2
237.2 233.5 231.9 229.8 228.5 227.4 227.8 228.2 228.6 228.4 228.6 229 229.9 231 232 233.1 234.3 235.2 236.4 237.7 238.2 238.3 218.8 218.6 230.4 226.1 230.7 236.2 241.2 242 243.1 244.8 245.5 246.7 248 248.8 250.1 251.1 252.2 252.8 253 253.8 253.8 254.1 254.9 254.7 254.9 255.6 252.2 255.6 255.8 256.2 258.4 259.7 262.2 264.8 264.1 269.3 276.2 281.9 288.3 293 297.5 301.2 305.3 308.6 310.4 312.2 313.5 314.6 314.9 311.3 307.9 304.5 300.8 297 296.1 294.1 292.5 291 288.1 284.4 281.7 279.5 277.5 276.8 276.5 276.3 276.1 277.9 279.4 279.6 279.9 280.2 280.7 248.8 243.8 250.1 280.2 282.7 283 283.2 283.4 283.6 286.1 288.9 290.1 292.3 290.9 290.1 289.4 288.1 286.2 284.9 283.9 283.7 285 289 291.3 293.6 295.5 298.3 295.9 295.1 294.2 296 295.1 296.6 290.5 282 274 273.9 274.2 272.3 273.1 284.8 279.4 276.7 275.9 273.6 268.6 269.2 267.1 267 267.1 268.9 271.6 275.2 276.8 275.9 276.1 275.1 275 273.6 271.9 266.5 260.4 256.7 255.4 247.7 241.4 233.6 233.8 233.3 233 233 233.7 234.8 234.4 234.1 242.7 244.6 243.8 241.8 239.5 237.5 239.4 230.9 228.3 228.1 231.8 232.4 233.7 232.5 231.6 231.6 231 231 229.9 229.6 229.3 228.3 227.8 227.4 223.9 222.6 222.3 221.9 222.6 222.4
235.5 232.8 230.5 230.9 230.8 230.4 230.6 231.2 231.9 232.1 232 232.5 233.3 234.3 235.3 236.4 237.6 238.8 239.9 240.9 238.4 220.9 220.5 223 240.6 229.3 229.4 240.7 243.9 245 246.7 248.3 250 250.6 251.8 252.6 253.8 254.4 254.1 254.6 254.8 256.1 256.3 256.3 257.2 257.7 257.9 257.7 255.2 258 259.6 259.9 262.7 265.1 267.9 272.1 267.4 275.1 280.7 286.4 290.9 295.1 298.9 303.2 306.7 310.6 313.6 315.4 316.5 317.4 316.8 314.4 311.1 307.8 304.5 300.8 301.4 300.1 297.6 295.2 292.1 288.1 285.1 282.9 280.6 280 279.8 279.6 279.5 280.4 281.3 281.6 281.7 281.9 277.2 249.2 243.8 249.3 277.8 283.2 283.5 283.8 284 285.3 288.1 290.2 291.4 294 290 289.4 287.4 285.7 284.4 283.8 285.6 287.5 288.6 292.2 295.5 295.6 296.3 294.2 293.2 292.1 291.2 291.3 290.3 290 289.2 285 274.9 295.1 294.1 290.4 273.9 271.1 270.5 267.8 267.4 264.9 262.1 259.3 260.2 255.8 255.1 256.1 261.3 268.8 269.1 270.5 274.1 274.5 274.6 273.1 269.7 267.8 263.1 255.8 246 238.5 234.5 233.8 233.7 232.8 232.6 232.2 233.6 232.9 232.5 232.4 233.2 243.7 244.8 242.9 240.9 237.4 229.6 229.1 227.8 228.2 228 234.8 236.6 232.2 231.5 233.2 233 230.8 231.6 231.2 229.3 228.4 228.7 227 223 222.9 222.8 222.7 222.4 222.7
233.9 234 234.9 235 233.9 233.7 233.5 233.8 234.3 235.4 235.4 236 236.9 237.7 238.6 239.7 240.9 242 242.8 243.1 225.4 223.7 238.4 242.8 244.4 224.5 230.4 241.2 247 248.5 250.2 251.8 253.1 253.4 254.1 256.4 257 257.7 257.8 257.9 259 259.5 259 258.7 259.4 259.9 259.3 259.8 260.6 261.7 262 263.4 266.4 269.4 272.2 274.5 272.6 277.5 283 288.3 292.5 296.6 300.5 304.4 308.9 313.1 316.1 317.7 318.9 318.5 317.2 315.6 313.2 310.6 306.4 304 303.4 301.4 298.6 297.1 295 292.8 289.2 286.2 283.9 283.1 283 283.3 283 282.8 283.3 283.9 283.9 283.4 282.9 258.1 245.9 248.4 274.9 283.9 284.1 284.3 284.6 287.4 290 290.9 290.2 289.5 289 288.6 285.9 284.7 286.2 288.5 289.4 291.7 293.4 295.2 297.6 294.5 293.3 292.2 291.3 290.1 289.6 287.3 286.1 285.7 286.4 287.3 279.9 300.1 300.6 299.2 293.3 283.3 283.3 279.4 274.1 274.2 282 282.1 280.1 275.5 267.3 253.7 252.4 260.1 260.4 265.6 267.2 266.6 261.2 261.3 260.5 258.3 254.5 246.8 238.7 235.2 234.4 234 235.7 239.3 237.5 232.8 233.9 232.4 231.7 231.6 231.8 234.1 241.8 241.6 240.6 240.5 229.8 228.7 228.5 227.2 227.2 232.6 233.5 231.6 232.8 231.8 231.5 231.2 233.3 231.7 229.4 231 230.9 226.3 223.4 222.6 223.2 223.8 226.6 227.1
238.9 238.4 239 238.4 237.7 236.9 236.7 236.5 236.6 237.5 238.8 239.5 240.4 241.2 242.1 243 243.9 244.6 239.3 229.2 224.9 235.7 244.3 245.7 246.2 236.8 231.7 241.9 249.9 252 253.6 255.1 255.9 257.1 257 257.9 259.9 260.7 261 261 261.4 262 261 261.7 261.8 262.6 262 257.4 263.1 263.6 270.1 269.4 269.7 272.1 274.3 275.4 274 280.8 284.6 289.4 293.8 298.2 302.3 306.8 311.4 316 318.7 319.8 320.7 322 322 319.4 317 312.8 308.1 308.9 307.1 303.8 301.8 298.3 297 294.7 292 288.6 287.5 286.6 285.8 285.6 286.6 286.3 286.1 286.1 285.4 284.5 283.3 276.1 252.4 249.6 267.5 284.4 284.9 284.9 285.9 288.6 290.6 290.4 289.3 288 287.1 285.6 286.8 288.3 291.3 293.3 293.9 293.9 298.1 299.7 296.4 293.3 291.8 290.3 289.4 288.3 286.3 284.4 283.4 283 280.3 278.3 295.8 306 307.3 306.2 302.7 299.3 297.1 288.2 290.8 292.5 292.7 290 290 286.6 278.5 261.2 250.6 248.7 249.7 251.9 254.6 251.6 247.9 247.1 245.8 244.4 241.7 237.7 237.1 239.1 244.8 248.3 242.4 240.5 240.2 239.6 234 233.1 232.2 231.8 231 229.7 231.9 237.6 239.6 231.7 228.7 229.3 230.3 230.7 230.1 227.5 228 228.1 227.7 226.9 227.2 227.7 231.1 231.4 231.5 230.9 231.2 228 225.7 224.7 225.8 223.8 222.7 222.1
243.8 242.5 241.4 240.9 240.2 239.3 238.7 238.3 238.1 238.7 242 243.6 244.5 245.3 246.1 245.9 246.4 245.9 245.2 230.4 227.6 239.2 245.8 247 247.9 242.5 239.6 251.2 254 255.5 257 258.4 259.7 260.5 260.5 262.3 262.3 262.1 261.9 262.3 262.8 263.4 264 264.6 264.8 265.3 265 259.1 270.7 269.1 270.5 271 272.9 274.9 276.8 278.6 280.4 282.9 286.8 290.6 295.1 299.8 304.8 310 314.6 319.3 321 323.6 325.4 325.2 323.8 321.5 313 316.7 319.1 317.6 317 310.7 305.8 302.8 298.6 295.6 293 291.8 290.5 289.6 288.7 287.7 288.6 289.1 288.6 286.8 286.1 285.4 284.3 267.6 253.4 251 274 285.7 285.4 286.8 288.4 287.9 287.8 287.2 286.9 286.7 286.1 287.3 290.4 293.3 295.8 297.9 298.4 295.8 296.5 297.5 295.9 293.8 291.1 289.8 289.1 288.3 288.4 286.5 285.7 283.9 281.6 292.1 307.8 312 312.3 308.1 309.2 308.9 305.6 282.9 300 301.1 296.8 297.4 296.4 293.6 287.7 281.9 277.3 271.4 253.4 245.4 243.9 243.4 241.4 240.9 239.7 238.8 238.4 239.6 246.8 252.9 258.1 264.9 252.6 241.5 241.3 240.1 239.2 237.9 236.9 236 234.5 231.1 229.1 230.7 231.4 230.6 227 231.8 237.2 242.2 242.2 230 228.8 228.2 228.5 227.5 227.2 227.6 228.7 228.9 231.5 230.7 230.6 229.7 229.3 227 222.5 222.6 222.2 220.9
247.9 246.2 244.6 243.3 242.7 241.5 240.7 240.1 240.2 241.4 245.4 247.2 248.4 249.4 249.2 248.3 247.3 247.3 231.6 229.2 241.3 247.3 248.2 249 250 246.8 247.7 255.8 257.6 259.1 260.1 260.7 262.2 262.7 263 263.1 263 263.4 264.2 264.5 264.5 265.5 267.1 270.5 273.1 275.3 271.7 267 269.2 271.1 272.5 273.5 275.5 277.5 279.4 281.4 283.9 286.4 289.4 293.9 298.2 303.4 308.9 313.3 318.3 322.1 323.8 328 328.8 327.5 325.5 320.7 326.4 328.2 327.8 325.6 321.8 316.5 311.7 305.8 301 297.6 295.3 294.5 293.6 292.2 291.2 290.1 289.9 290.3 290.1 287.7 287.6 286 273.4 259.2 252.1 261.6 286 286.9 287.5 289.4 290.8 290.2 289.4 287 288.9 287.7 289 291.1 293.7 297 299.8 301.4 302.7 300.7 297.5 296 294.7 293.8 291.6 290 289.5 291.9 291.5 291.9 293.4 293.6 299.3 307.9 315.7 314.5 302.7 301.6 300.9 305.4 307.8 288.7 304.9 302.8 300.8 300.6 298.3 296.6 290.4 284.5 281.4 278.9 272.3 260.2 251.9 250.9 246.7 246.2 243.3 243.2 244.1 251.8 261.7 269.9 272.1 273.1 265.6 251.8 244.5 242.2 240.4 239.2 238.5 236.9 234.1 231.9 230.2 228.7 229.8 229.6 229.7 243.8 253.6 249.9 248.3 246.9 235.3 233.8 233.2 229.3 228.8 229 229.5 228.5 229 231 231.4 229.9 224.6 223.9 222.6 222.8 221.3 219.9
251.3 249.6 248 246.4 245 243.9 243.6 243.6 243.3 245.4 248.5 250.2 249.9 249.8 250.4 250.3 245.9 238.4 231.6 233.5 248.6 249.2 250.5 251.5 252.7 248.8 249.9 257.5 260.8 261.5 262.1 262.7 263.3 263.6 263.8 264.2 265 265.8 266.5 267 267.6 269.3 276.6 273.5 270.1 269.3 268.6 270.6 272.3 274.3 275.1 276 278.1 280.1 282.5 285 287.4 289.9 292.5 297.7 302 307.1 313 317.8 322.2 325.8 329.1 331.2 331.8 329.7 329.8 333.6 335.6 336.4 334.2 330 325.5 319.5 313.4 307.8 303.5 299.1 297.5 295.9 295.1 295.3 294.8 293.6 292.9 291.6 290.3 290 289.3 287.3 274.2 255.5 254.7 280.2 287.3 288.1 289.3 290 291 291.8 291.7 287.4 289.2 290.8 292.6 294.7 297.1 299.8 299.6 298.6 298.5 297.4 296.2 295.4 294.9 294.6 293.1 292.5 296.4 298.1 298.4 297.6 298.5 300.9 307.5 316.5 315.6 310.7 305.9 314.8 315.2 304.5 297.3 297.2 309.2 307.7 306.6 306 303.4 301.4 295.5 289.9 285.5 283.6 281.7 274.8 267.8 268.5 267.4 264.2 264.3 264.2 261.3 270.5 276.5 275.4 274.6 274.3 272.4 272.2 262.8 250.9 245.5 241.7 239 237 236 233.8 231.3 230.3 230.7 231.2 236.4 252.2 251.5 251.2 251.6 248.5 247.4 239.1 234.4 233.4 230.3 230.5 230.3 229 227.5 224.7 226.9 224.4 225.6 223.9 222.8 223.4 223.9 223.7
253.3 251.6 249.9 248.3 247.2 246.7 247.4 248.1 248.8 248.9 250.5 250.8 249.4 249.2 250.6 246.5 236.5 233.8 234.1 250.2 250.4 251.6 252.9 254.2 255.6 251.1 258.8 261.3 262.3 263.7 265.1 266 265.7 265 265.3 265.8 267 267.9 268.8 269.6 272.5 278.3 273.1 271.6 270.8 271.5 272.4 274 275.6 276.8 277.7 278.6 281 283.4 285.8 288.2 290.7 293.2 296.4 301.5 306.3 311.3 317.2 322.1 324.9 328.2 332.4 333.5 334.9 336.3 338.2 341.4 343.3 342.1 337.1 331.6 326.3 321.4 314.9 310.3 306.8 302 299.2 297.2 296.6 296 295.3 295.1 293 292.4 291.5 289.1 287.8 282.3 258.6 254.3 275.8 287 288.3 289.1 290.1 291.7 291.1 290.3 289.1 288.7 292.1 293.3 294.4 297.5 296.9 296.2 296.1 296.2 296.2 295.7 295.3 294.9 295.1 295.3 296 299.5 303.6 304.1 304.6 304.3 304.9 307.4 311.9 313.9 305.8 308.2 317.7 318.2 319.5 312.8 315 313.5 315.2 314.7 313.6 312.3 309.5 305.9 301.7 292.8 286.6 284.9 283.2 280.8 278.4 280.3 279.3 279.1 278.2 277.1 276.4 276.6 276.2 275.4 273.7 271.2 269.9 268.7 265.3 262.4 260.1 248.4 240.5 238.5 236.3 234.5 233.2 233 239.1 250 261.9 263.7 259.1 252.1 250.5 249.9 249 248.6 246.1 241 235.7 232.7 230.4 229 227.5 226.2 225.6 225.5 225.5 227.4 232.7 232 231.8 232.9
255.3 253.6 251.8 250.5 249.4 249.9 249.6 249.9 250.5 250.6 252.5 251.3 249.5 248.6 247.4 243.5 236.4 236 251.9 252 253.4 254.6 256.2 258 259.1 252.8 261.5 263.6 264.8 265.1 265.7 267.3 267.4 266.8 266.7 267.4 268.8 269.9 271.1 276.2 280.4 275.1 273.8 273.4 273.8 274.5 276 277.2 277.6 278.3 279.1 282 284.5 286.8 289.1 291.5 294 296.8 300.3 305.1 310.1 315.8 321.7 326.8 330.6 333.3 335.5 338.2 340.5 343 346.1 347.9 347.2 341.8 336.1 333 328.1 322.8 317.1 311.7 308.8 305.3 301.6 299.4 297.7 296.5 295.6 295.1 293.4 292.9 291.3 289 288.5 272.9 260.2 258.8 286.5 288.4 289.4 290.7 294 295.4 294.2 290.7 289.5 290.1 294.3 295.7 295.9 295 295.7 295 295.2 295.7 296.8 296.4 296.3 296.7 296.9 300.1 303.2 306.9 309.7 313.9 311.5 311.8 314.6 314.8 315.5 309 310.7 318.1 320.8 321.3 323.2 322.9 321.7 319.6 319.2 319 318 314.9 311.7 307.1 301.4 297.2 290.8 287.7 283.4 283.3 283.3 282.5 282.8 281.5 280.5 278.6 279 278.6 277.7 274.9 272.8 271.4 270.4 269.5 267.9 265.1 262.9 261.3 251.6 243.6 238.4 241.3 244.6 253.2 261.9 264.9 265 264.3 263.1 261.9 258.1 252.8 250.5 250.3 249 248.6 239.9 232.7 232.3 229.6 229 228 227.4 229 233.1 237.9 239.3 239.5 240.4 240.5
257.2 255.8 254 253.5 253.2 251.7 253 254.6 255.8 255.6 253.5 252.4 250.5 245.2 242.3 239.1 237 250.9 254.3 255.3 256.6 258.1 259.2 259.3 250.4 260.7 261.1 264.2 264.3 264.8 265.9 267.4 268.9 268.6 268.2 269.1 270.7 272.6 278.7 281.5 276.8 276.8 275.7 276.5 277.2 277.9 278.2 278.8 279.9 280.7 282.7 285.3 287.7 290.1 292.4 294.8 297.3 300.7 304.2 308.6 314.4 320.5 325.4 330.8 334.1 337.2 341 344.2 346.1 348.2 350 349.9 346.3 342.4 334.4 330.8 326.3 322.1 317.5 313.9 310.6 307.2 302.3 301.3 299.5 298.4 296.9 294.8 294.3 292.9 290.8 288.7 288.4 276.9 262.3 261.1 287.1 289.4 292.3 294.9 296.5 296.5 294.8 292.7 289.6 291.4 296.3 294.9 294 293.4 293.9 294.4 295.1 297.1 297.6 298.5 298.7 299.8 302.7 306.4 308.1 312.4 316.6 319 320.5 317.7 317.4 316.9 314.8 305 317.2 321.4 322.7 325.1 328.2 326.8 324.8 322.8 324.1 322.7 319.1 316.4 310.3 302.2 299.9 297.6 295 293 291.1 287.7 284.7 283.4 282.7 284 284.5 284.3 281.4 280.4 278.2 275.4 273.7 272.3 271.3 270.4 268.2 265.8 266.5 265.9 262.5 257.9 243.5 261 265.4 266.2 266.4 265.4 265.6 266.3 264.3 263.1 260.2 259.7 260.2 249.5 248.1 246.9 236.2 235.8 247.1 244.3 233.7 231 230.8 235.1 242.8 243.1 242.8 243.5 243.5 243.3
258.7 257.8 256.3 255.9 256.2 256.3 257 258.8 258.5 254 255.1 255.2 248.9 244.1 242.9 246.7 253.4 256.5 257.7 258.7 259.9 261 261.8 255.5 256.7 263.8 263 263.4 263.9 265 266.1 267.5 269.8 270.1 270 271 272.8 276.3 276.4 276.2 276.6 277.8 278.4 278.5 280.1 280.6 281.6 282.2 283.2 283.9 286.6 288.3 289.9 292.6 295.6 298.1 301.2 304.6 307.9 313.2 319.2 324.9 329.1 334.7 338.3 342.5 346.6 349.5 351.1 351.8 350.8 349.3 343.4 339.2 333.8 328.6 324.9 320.7 316.4 313.5 309.6 306.8 303 301.1 300.6 299.2 297.4 295 293.7 292.4 290.6 288.6 288.3 268.8 264 272 288.6 291.4 294 296.7 297.7 297.3 296.9 294 289.7 292.5 292.5 292.8 292 292.4 294.1 296.1 297.9 301.2 303.1 306.6 306.3 307.9 310.6 312.3 315.4 318.9 320.1 320.1 320.6 319.5 318.8 315 310.3 312 321.4 322.9 324.1 326.7 327.4 326.4 325.9 326.5 327.4 322.7 323.9 319 312.9 307.9 305.3 300.3 295.1 294.9 295.2 293.7 291.3 289.8 289.4 289.3 287.9 285 282 280 278.1 276.5 274.8 273.3 272.2 271.1 268.5 267.3 265.3 263.3 262 256.3 251.7 262.6 263.6 265 263.1 261.1 259.6 256.9 258.9 263.8 263 262.4 252 238.8 237.9 237.7 235.1 246.9 249.4 248 247.3 243.2 242.9 244.5 255.2 254.4 250.4 247 246.5 246.4
258.9 258.5 258 258 258 258.3 258.1 256.4 256.1 260.5 259.1 254.2 246.8 243.7 251.8 258 259.3 260.1 261.3 262.2 263 264.1 266.8 257.6 256 261.6 263.2 264.1 265.5 266.3 266.9 268.3 271.8 273 273.1 274.8 277.1 276.5 276.7 277.6 277.8 278.1 278.8 280.2 282.6 283.6 285.5 285.6 286.4 287.5 289.6 291.2 292.9 294.5 297.5 300.1 303.7 307.3 311.9 317.4 323.4 328.3 334.5 339.1 344.4 348.2 351.9 353.5 353.1 352.8 351 345.7 342.4 336.9 330.9 327.4 323 318.1 314.4 312.6 308.8 303.8 304 303.7 301 299.4 297.6 295.2 293.2 291.9 290.5 288.5 281.9 264.8 271.6 288.1 291.3 294.4 296.1 297.8 299 299.4 299.7 299.6 291.9 290.1 290.7 290.8 290.7 291.8 295.7 300.3 303.3 306.7 309.4 311.5 314.3 316.2 318.3 318.9 322.9 323.8 323.4 324 323.2 320.6 315.9 311.9 310.6 319.6 323.4 324.5 326.8 328.3 330.3 329.9 327.8 326.9 324.4 317.6 318.2 321.5 317.1 311.5 306.4 301.9 296.1 294.9 294.8 296.4 295.1 293.8 292.1 291 289.4 286 282.9 282.4 280.9 278.6 276.3 275.2 274.5 272.4 269 266.9 265.2 263.2 258.2 255.3 260.9 263.7 261.2 259.7 261.7 259.7 255.4 254.2 256.9 256.9 256.9 253.4 240.5 238.6 242.9 236.9 255.7 256.4 256.8 252.8 249.1 247.8 247.2 249.9 253.6 253.5 253.2 251.1 251 250.7
258.7 258.7 258.8 259.4 259.5 261.7 263 261.9 261.2 259.7 257.5 251.7 245.6 247.2 259.6 260.9 263.1 264.5 265.2 266 266.8 266.7 266 258.4 260.1 256.7 262 265.5 267.2 269.1 270.5 271.9 274.9 276.2 276.5 277.6 277 277.4 279.6 280.3 281.2 281.1 280.7 282.6 284.5 288 289.3 289.1 289.5 291 292.6 294.2 295.9 297.5 300 302.5 306 309.6 314.2 319.6 325.9 332 340 344.7 347.8 354.1 355.3 355.5 353.2 349.4 348.4 343.5 339 333 327.1 324.4 320.7 316.8 315.1 311.1 307.3 304.1 302.2 301.8 300.6 299 297.7 295.4 292.8 291 289.9 283.6 267.2 265 282.6 291.8 294.6 297.2 298.7 300.1 301.4 301.8 302.3 298.9 294.5 291.1 290.4 290.2 291 295.6 303.3 308.3 311.8 314.4 316.1 319.1 321.3 324 325.7 327.5 327.6 326.8 326.1 325.8 325.3 322 313.3 311 319 324 325.6 327.3 328.4 331.1 331.3 330.7 333.3 333.2 326.6 328.3 323.7 314.4 316.9 314.2 308.3 301.3 296.1 293.5 293.1 296.3 295.2 293.2 293.3 292 290 287.1 285.9 283.2 281.5 278.2 277.6 277.2 276 271.9 270.3 268.7 266.6 263.2 260.5 262.7 266.3 268.6 260.5 258.7 260.3 260.2 263.6 258.3 254 250.9 243.7 242.3 242.2 241.6 262.2 261.5 261.6 259.6 259.7 260.6 259.3 259.3 259.4 259 258 257 258 255.5 255.6 255.6
260.9 259.8 260.5 263.7 263.3 262.9 264.5 264.6 263.4 260.3 249.3 248 247.6 252 262.5 264.8 267 268.9 269.5 269.7 268.3 267.5 263.1 259 263.3 256.1 258.4 266.5 269.3 270.9 274.1 275.6 277.8 279.4 279.3 278.9 281.6 281.2 282.7 283.9 285.4 285.9 285.9 286.2 287.9 292.2 291.5 291.9 292.7 294 295.6 297.2 298.8 300.5 303 306 309.2 312 316.5 321.7 328.6 338 344.4 349 352 354.4 357.9 351.8 350.7 346.8 343.9 341.2 336 330 325.1 321.7 319.6 315.3 316.1 315.7 312.3 308.4 306.6 301 300.8 299.2 297.3 295.5 292.7 290.5 281.3 271 266.5 268.3 290.7 294.5 297.6 299.5 300.9 302.2 303.6 304.5 303.5 294.1 292.4 291.5 290.5 292.3 296.8 306.3 312 315.2 319.1 322.9 324.3 327.2 329.9 332.2 332.1 330.6 328.4 325.9 327.7 327.8 327.2 325 315 313.9 323.9 326.6 328.4 329.1 330.4 332.3 333.7 338 337.7 337 333.5 332.1 328.4 325 313.7 305.7 305.6 300.3 297.1 295.5 293.1 293.4 291.4 291.4 291.1 291.6 291.3 287.9 286.7 283.1 282.5 280.8 279.1 276.9 274.7 272.6 270.8 269.8 266.8 265.3 266.4 268.9 270.5 261.3 257.1 256.1 255 246.6 246.1 246.1 244.3 243.7 244.7 244.7 247.1 247.4 246.4 254 262.9 263.7 263.5 263.4 263.5 263.4 263.1 262.8 262.8 262.1 260.5 258.9 256.3 254.5
265.9 266.6 266.7 266 268 266.8 265.3 263.7 260.3 253.6 251.1 250.3 251.3 254.5 265.4 268.5 270 271.1 270 269.3 269.1 269.2 261 268.9 267.5 258.3 259.4 265.8 270.8 273 275.3 278.4 281 282.8 281.8 280.5 283.3 284.5 286 288.4 289.9 290.5 291.4 291.5 288.9 290.1 291.3 294.8 296.1 297.2 298.7 300.2 301.8 303.4 305.9 307.9 310.7 314 319 325.2 332 341.1 347.4 350 349.5 351.3 350 346.3 345.3 344.8 340.1 337.9 334.9 330.8 325.9 322.2 318.4 313.2 311.3 312.4 314 311.6 308.1 300.6 301.7 299.8 297.6 295 291.3 275.5 271.4 270.3 266.5 273 291.2 296.9 299.9 301.5 303 304.3 306 305.4 298 293.3 292.4 292.2 296.7 302.1 312.7 318.7 320.8 321.9 327 329.6 330.4 331.1 331.5 331 329 327.7 326 322.2 322.8 326.8 328.7 324.5 316.5 318.3 328.3 329 329.8 330.6 332.9 334.6 338.7 338.6 338.9 339.1 338.2 335.7 331.4 326.7 322.2 317.2 309 304.1 300 298.6 297.4 293.8 291.9 289.8 288.6 287.8 286.9 287.3 286.1 283.7 282.2 281.7 280.4 278.5 276 273.5 273.3 270.7 269.2 271.8 268 271.8 265.3 258.1 256.6 250.1 248.8 248.1 248.8 248.2 255.7 257.2 255.7 253.9 255.4 255.4 253.5 251.3 249.7 266 266.6 263.1 262.5 262.2 262.8 264 262.6 259.3 257.1 257.5 254.5 251.5
270.4 269 269.3 269.1 269.6 268.8 264 255 250 249.7 256.9 260.2 254.2 256.9 270 270.6 271.5 271.9 271.9 271.2 271.4 272.8 264.1 269.4 269.5 259.4 259.2 268.3 271.5 275.9 278.5 281.3 288.3 285.1 283.5 286.8 286.8 288.4 290.9 293.4 294.8 294.8 294.4 294.5 291.5 290.1 290.5 293.2 296.1 300.5 302 303.5 305 306.5 308 309.9 312.2 315.6 319.3 325.4 333 340.7 348.2 346.9 344.3 344.3 343 342 340.3 340 337.8 333.3 330.1 326.5 322.3 317.6 313.5 311.9 304.6 307 307.2 306.4 305 299.7 300 298.8 297.1 289.3 285.1 274.5 277.3 277.3 280.9 294.7 294.2 296.3 299.1 301.1 304.3 306.6 303.3 296.4 295.9 295.3 295.7 301.5 306.7 316.2 322.1 327.2 327.9 329.3 330.4 331.3 330.5 331.4 331.1 331.2 330.3 329.2 326.6 326.2 321.8 321.2 322.3 321.2 315.4 323.5 329.5 330.7 331.7 333.2 335.9 338.9 341.1 341.7 341.9 341.5 340.1 337.7 333.3 328.6 323.3 318.9 314 309.9 306.4 300.7 299.4 298.2 299.2 294.4 291.2 288.2 287 286.8 285.7 284.9 283.7 282.6 281.7 279.2 276.8 276.4 276 273.4 273.5 269.6 265.1 263.7 266.5 256.8 251.6 249.8 251.8 252 254.6 257.3 260.1 262.3 261.9 260.6 259.9 259.9 258.1 257.3 256 254.7 256.2 257.8 259.4 259.6 259.6 259.3 259.7 260.9 261.3 262.6 262.1 261.9
272.7 272.3 272.2 272 270.8 267.9 256.8 251.3 259.4 265.6 272 272.5 255.8 257.1 266.6 272.5 273.4 273.6 275.1 277.4 268 266.9 268.5 275.6 273.5 273.6 262.3 268.4 272.6 279.9 282.6 286.2 290.8 285.6 290.9 287.4 289.9 294 295.9 298 298.9 299.1 298.7 298.3 298.5 298.3 297.7 296.9 296.7 300.3 304.9 306.3 307.7 309.6 310.3 312 313.8 317.3 321 325.3 330.6 336 339.7 340.2 339.1 338.5 338.4 337.5 336.1 330.9 331.8 328.4 323.7 320.2 312.9 308.8 304.9 302.2 301.2 301.9 303.1 302.4 300.1 294.4 294.3 293 291 293.1 289.5 279.5 279.9 290.8 281.7 291.8 294.7 297.1 297.8 299 300 301 298 297.5 297.9 300.6 307 312.2 318.1 323 326.8 330.3 334.5 336.5 337.3 337 336.3 336 336 335.1 334.6 333 330.6 330.3 329 324.3 320.9 319 322.4 330.9 331.4 332.8 334.3 336.1 339.2 341.6 343.9 344.7 344.5 343.8 341.5 338.1 334.5 329.6 325.7 320.7 316.6 312.1 307.7 306 304.2 300.4 300.3 298.7 297.5 293.4 289.2 287.9 286.4 285.8 284 282.7 281.9 278.9 278.7 277.8 274.4 271.7 269 266 263.1 260.5 268.4 254 251.3 255.8 255.7 256.4 260.4 261.1 262.8 263.8 264.1 262.6 262.6 262.4 261.3 260.5 259.8 259.1 258.9 260.2 261.7 261.3 260.7 260.9 262 263.1 264.4 265.5 265.5 265.6
270.5 270 269.7 272.3 270.6 259.6 252.5 258.5 271.8 278.5 278.8 270.1 269.8 264.1 262.4 275.1 278.6 274.3 272 270.7 270.1 269.8 273 272.5 273.3 276 271.5 262.2 263.5 280.5 286.4 287.6 289.3 289.7 289.7 291.2 295.1 298.3 300 301.2 301.6 302.7 302.9 302.7 302.9 303.3 304.5 303.5 302.1 300.4 307.4 308.8 311.1 312 312.6 313.9 315.1 319.1 322.9 326.1 330.2 333.1 336 336.9 335.5 331.7 330.9 329.3 327 324.8 323.1 318.7 312.6 307.9 307.3 308.9 309.8 308.8 305.1 302.1 297.6 296.6 294.6 294.7 295 294.7 294.9 294.5 284.6 278.5 280.8 291.8 288.8 294.2 296.2 298 298.5 298.8 298.7 298.7 298.8 299.4 307.2 309.4 313.6 320.3 325.6 328.9 332.5 334.5 340.8 343 342.4 341.7 341.1 340.4 338.3 337.9 338.5 337.1 334.5 333.3 331.7 332.3 329.7 329.3 325.3 330.7 332.4 335.2 336.8 339.4 342.3 344.5 346.7 347.1 346.5 345.1 342.6 340 336 331.6 326.7 321.8 317.1 313.1 310.1 308.4 306.6 303.5 301.9 298.1 297.4 294.2 289.8 288.9 287.2 286.6 284.8 282.2 281.8 279.1 278.8 276.5 274.8 271.3 267.1 264.9 262.5 255.1 255.2 254.2 258.8 258.8 260 265.2 263.5 263.5 264.6 265.2 265.8 265.1 265.2 265.1 264.7 264 263.3 262.6 261.9 262.5 263.6 263 263.3 263.5 264.2 265.4 266.6 267.7 267.8 267.9
276.6 275.3 269.1 266.2 260.3 254.1 258.7 273.6 271.8 275.1 281.2 275 275 268.5 262.9 278 275 274.2 273.2 273.1 273.2 272.8 276.3 277.4 278.5 279.5 282.1 282 267.7 276 288.5 292.1 293.2 294.4 296.5 298.2 298.6 301.8 303.6 303.8 304.6 305.5 306.6 306.5 306.6 307.2 308.8 309.6 306.3 302.1 301.9 303.5 308.4 313.7 313.5 314.7 316.3 320.2 324.7 327.6 329.2 327.7 329.6 327 322.5 315.5 312.3 313.9 314.5 312.7 313.8 310.7 309.8 310.7 314.1 315.2 315.2 314.9 311.8 309.9 303.6 300 298.3 296.8 296.1 297 296.3 282.2 281 283.6 293.2 294.2 293.5 298.4 302.4 304.4 303 303.2 300.5 304.5 306.5 305.9 311.1 316.3 323 326.8 329.9 333.7 335.8 343.6 344.6 346.4 346 345.5 345.4 344.7 342.9 342.1 340.6 338.3 336.7 335.8 334.9 335 335.4 336.1 333.9 327.3 334.9 337 339.8 342.7 345.2 347.4 349.2 349 348.6 347.5 343.3 339.7 336.6 333.2 327.8 323.9 318.1 314.6 312.7 310 307.8 306.6 304.3 301.4 298.7 293.9 290.3 288 286.5 285.6 284.8 282.4 281.3 279.3 278.3 276.3 273.5 268.5 264.9 263.2 259.9 256.2 262.7 258 262.5 265.3 265.3 267.9 266.5 266 267.1 267.4 267.7 267.1 267.2 267.8 267.4 266.9 266.5 266.1 265.4 264.9 265.3 265.6 265.9 266.2 266.4 267.6 268.7 269.7 270.2 270.2
275.8 267.9 257.2 256.8 255.8 257.3 267.6 273.7 273.5 277.3 282.2 277.8 277.4 264.8 267.2 276.8 275.6 276.5 277.1 277.9 278.6 276.6 281.7 282.4 283.4 284.2 285.3 286.8 269 274.3 291.9 295.4 297.2 298.4 300.1 301.9 303.5 305.4 306 306.6 307.7 308.5 310.3 310.7 310.9 311.3 313.7 313.6 313.1 308.6 305.8 309 310.8 312.7 314.5 315.6 316.6 318.5 320.7 321.9 321.6 322 319.8 315.1 313.8 313.7 312.8 313.6 313.8 314.9 317.4 319.3 320.8 322.8 324.3 322.6 321.4 320.1 317.2 314.2 310.9 305.4 301.9 300.7 302 302.5 297.9 283.6 282.6 294.6 294 297.2 297.9 303 304.4 306 307.8 310.1 312.6 312.2 306.2 311.2 319.4 325.5 328.9 331.2 333.3 336.2 342.7 346.5 348.1 348.1 348.7 349.8 351.2 349.6 347.8 345.3 343.9 342.4 339.9 338.9 338.8 338.9 338.8 337.7 331.3 334.1 338 340 342.9 345.8 347.9 349.8 351.5 351.4 350.8 349.6 346.7 342.7 337.2 333.9 328.6 324 319.8 316 313.4 310.8 309.2 307.6 305.9 303.6 300 293.7 289.5 287.5 286.2 284.9 283.3 281.8 280.5 278.6 277 275 269.8 264.7 263.3 261.4 259.2 258.2 260.9 262.7 265.7 269.7 269.7 268.8 269.4 269.6 271.5 270.7 269.6 269.6 270.9 270.5 270 269.6 269.2 268.7 268.2 267.6 267.7 268 268.2 268.5 268.8 269.7 270.7 271.8 272.5 272.5
266.3 257.1 263.4 268.8 264.5 270.8 275.2 279.5 283 283.9 283.6 282.8 280.6 268.1 268.6 279 280.4 281.1 281.7 282.4 283.2 281.2 284.9 286.4 287 287.6 288.2 290.3 271.4 275.3 287.8 295.6 300.4 301.7 303.2 304.1 305.9 306.6 307.6 309.1 310.8 311.6 313.4 314.8 315.9 316 316.1 316.6 316.2 315.8 316.5 317.4 315.9 316.5 316.4 317.4 318.1 318.8 319 318.6 317.7 316.2 314.8 314.7 316.4 313.6 313.9 318.5 321.7 322.2 326 326.3 328.1 330.9 328.5 327.6 329.1 327.3 323.3 320.8 315.8 311.4 308.1 306.7 305.7 301.7 288.2 282.8 285.5 296.3 298.8 303.8 305.8 307.4 311.3 312.3 314.2 316.7 315.4 310 315.2 322 326.2 330.5 333.6 335.1 337.6 341.5 349.3 350.3 352.5 352.3 351.3 353 350.8 350.5 349.3 348.1 347 346 343.2 341.9 341.6 341.1 340.6 338.3 332 337.4 341 343.1 345.9 348.7 351 352.7 353.7 354 352.8 351.5 348.8 345.6 340.7 335.5 331.1 325.8 321.1 318.1 314.6 311.9 310 308.2 306.3 304.7 301.2 294.9 289.6 287.3 286 284.8 282.9 280.1 278.3 275.8 274.2 271 267.8 266.7 265.6 263.3 261.8 270 264.7 269.2 270.5 271.6 271.5 270.9 280.8 281.4 281.6 277.7 272.2 272.5 273.6 273.1 272.5 271.8 271.2 270.5 270.1 269.7 269.6 269.9 270.1 270.4 270.7 271.7 272.8 273.9 274.8 274
258.2 265.9 278.8 284.9 278.2 278.3 282.4 284.6 285.8 286.6 286.2 283.7 270.1 269.8 283.1 284.4 285.1 285.7 286.3 286.9 286.5 284.6 289.2 290 290.5 291.1 291.6 293.6 293.2 281.4 286.2 296 298.4 299.3 304.2 306.5 307.4 308.5 309.7 311.4 313.3 314.9 316.4 318.2 318.9 319 319.4 319 318.5 318.9 319.4 320.1 321.2 320.4 320.1 320.9 321.7 321.7 319.8 318.6 316.9 316.8 319.9 322.3 322.2 326.1 326.5 328.9 329.7 331.1 332.2 334.8 336.9 335.4 329.8 326.1 329.8 329.6 325.1 320.2 316.3 313.2 309.9 307.5 301 299 289 289.7 303.6 305.8 308.4 311 310.7 311.4 313.7 314.6 315.5 314 313 317.8 324.3 327.7 331 334.8 337 339.9 344.2 348.1 352.7 355.6 355.8 355.7 354.3 352.6 351.5 351.3 350.2 349.1 347.9 346.7 344.3 343.7 343.3 342.5 342.1 335.8 335.5 341.1 344.1 347.1 349.6 351.8 353.9 355 356.3 355.9 354.6 353.3 350.5 347 342.2 336.1 332.6 327.6 322.3 318.9 316.7 313.4 311.5 309.3 307 304.7 299.7 295.1 290.2 287.1 285.7 283.9 281.5 277.9 275.8 273.1 271.5 273.8 279.4 272.5 266.8 262.2 266.7 273.8 273.3 273.3 274.2 273.8 273.2 273.6 274 280.5 281 277.4 275.1 276.1 275.5 274.8 274.1 273.5 273 272.6 272.2 271.8 271.5 271.7 272 272.3 272.6 273.7 274.8 275.9 277 276.6
273 277.7 282.4 282.3 283.3 285.8 285.9 287.9 288.4 288.2 288.2 274.1 274.7 288.2 287.7 289.1 290.6 291.2 291.7 292.2 291.8 290.8 292.4 293.3 293.8 294.3 294.9 297.2 299.5 286.4 275.1 292.5 304.7 304.1 302.6 304.6 309 310.4 312.1 314.3 316.5 318.7 320.4 321.9 322 322 322.3 322.5 322 321.6 324.5 324.2 325.5 324.8 323.4 323.7 323.9 323.2 321.3 319.7 320.6 324.2 327.3 331.2 332.9 333.8 335.2 336.9 337.5 337.9 339.6 341.5 341.1 337.9 331.7 325.1 326.3 325.6 321.8 318.1 316.4 314.1 311.6 304 295.8 294.3 296.5 298 308.4 310.2 313.4 314.1 315 313.8 315.1 315.9 319.5 321.7 324.3 328.8 331.9 334 335.7 338.4 340.1 344.5 348.4 353.4 357.9 360 359.5 358.6 357.1 353.7 352.9 352 350.8 349.7 348.6 347.4 345.5 345.4 344.9 341.4 336.7 336.8 342.7 346.2 348.5 351.1 353.9 356 357.2 358.3 358.8 358.4 357.7 355.6 351.9 348.4 342.2 337.8 333.3 328.8 324.1 319.6 317.4 315.1 312.6 311 308.7 304.8 299.4 294.8 289.7 285.8 283.9 282 280 276.2 273.6 272 279.2 280 279.9 274.1 267.3 267.8 271.2 275.6 276.4 276.7 276.4 275.6 277 277.2 276.3 275.6 276.2 277.9 279.9 277.7 277.1 276.4 275.8 275.4 275 274.7 274.3 273.9 273.6 273.6 273.9 274.2 274.6 275.7 276.8 277.9 279.1 279.6
278.7 282 284.2 285.1 286.5 287.3 290.3 291.6 290.4 290.7 289.6 275 288.4 292.2 293.5 293.8 295.3 295.9 296.4 296.8 297.8 297.4 295.6 296.5 297 297.5 298.4 300.7 301.5 299.7 290.5 291.8 306.8 308.4 308 305.7 308.5 312.6 315.3 317.5 320.1 322.7 324.4 325.1 325.4 325.1 325.3 325.9 325.5 325.3 328.6 328.7 328.3 328.7 330.7 331.7 329.9 326.9 327 324.2 329.1 332.9 332.6 333.3 335.2 338.1 340.2 341.9 343.3 343.8 341.2 338 335.6 335.2 331.1 323.8 322 321.2 316.1 314 312.2 298.7 297.7 296.2 294.5 296.5 295.4 311.6 312.9 313.7 315.5 317.4 318.1 318.4 321.1 323.4 326.4 327.5 329.6 332.5 334.9 336.9 339.2 342.1 344.7 348.2 352.9 358.4 361.6 362.3 361.4 360.1 358.3 355.4 354.2 352.6 351.4 350.3 347.5 346.8 343.4 340.6 339.8 337.8 342.3 346.8 348 350.5 353.1 355.5 358.1 359.9 360.5 360.6 360.6 360 358.3 356.1 352.9 348.2 341.4 335.9 332 328.4 324.7 321.1 318 315.8 313.3 311.3 308 303.2 298.1 292.8 287.2 284.4 282.2 280.3 278.4 275 273 274.7 274.5 274.5 272.4 269.4 270.5 271.7 275.3 276.8 277.1 277.7 278.4 278 278.2 280.2 280.7 279.5 277.9 277.4 278.2 278.1 278.7 278.3 277.9 277.5 277.1 276.8 276.4 276 275.7 275.5 275.8 276 276.6 277.7 278.8 280 281.2 281.8
283.9 287.5 296.4 289.9 290.3 292.6 295.7 295.8 294.6 294.3 283 279.7 294 295.3 296.6 298.1 299.1 299.8 300.2 300.5 300.6 299 300.6 300 300.2 300.7 301.9 303.4 303.6 308.9 298.3 283 303.7 309 309.9 310.4 310.7 314 318.6 321.1 324.1 326.7 327.8 328.4 328.9 328.5 328 328.3 329.3 332 331 332.4 335.4 339.1 336.5 335.1 332.7 331.3 329.1 327.2 332 333.8 334.9 335.9 338.2 339.8 343.5 344.8 343.8 339.6 336.4 333.5 331.8 330.8 329.7 323.2 319.6 315.3 311.5 305.5 301.4 300.6 299.6 303.1 305.4 305.1 306.7 313.5 316.2 318.5 320.6 321.5 322.6 323.4 324.9 327.5 329.6 330.8 332.6 336.3 338.6 340.3 341.9 345.1 348.4 351.4 356.2 361.6 364 364 362.7 361.1 359.4 357.3 355.2 354.3 352.2 348.3 345.9 345 345.3 347.1 347.7 348.3 349.9 350.7 351.5 354.4 357 359.6 362 362.8 363 363 362.1 360.6 358.9 356.2 352.4 347.6 341.2 335.1 331.3 328.5 325.1 321.7 318.9 316.6 314.2 310.8 306.8 300.9 295 290.1 286.5 283.8 280.8 278.6 276.7 274.4 274.9 275.7 275.1 273.7 270.9 272.9 274.2 275.6 276.9 278.4 279.6 280.8 281 281 281.2 282 283.2 284.2 280.8 280 280.3 281.2 280.8 280.4 280 279.6 279.2 278.8 278.5 278.1 277.8 277.4 277.6 277.9 278.6 279.7 280.8 282.2 283.3 283.8
295.6 296.2 300.4 294.4 295 296.1 298.7 299.1 298.9 283.9 290 284.5 296.7 298.8 299.7 301 302.5 303.5 304.1 304.2 303.3 302.3 305.5 304.8 304.7 305.3 306.3 307.2 311.6 312.1 308.6 280.8 299 308.7 311.4 311.7 314.5 318.5 322.5 325.8 328.3 330.4 331 331.6 332.3 331.9 331.2 333.7 333.2 333.4 333.5 336.1 338.6 337.5 336.7 336.4 334.8 333.3 335.2 334.8 333.9 334.3 336.9 339.4 341.8 343.9 343 343.1 338.1 334.3 330.4 325.9 326.6 326.4 325.1 324.4 320.7 315.3 308.8 310.3 308.6 307.9 302.3 302.3 307.4 310.4 310.4 318.1 320.7 323 324 324.4 325.2 326.2 328.2 330.4 332.5 334 335.4 338.7 340.5 342.5 345 347.4 351.3 354.4 359.4 362.8 364.8 365 363.9 362.1 360.3 358 355.7 352.5 348.9 348.3 349.5 352.2 352.8 352.7 352.4 352.3 353.3 354.2 355.1 357.5 360.1 362.5 364.9 365.5 365.5 365.4 364.1 362.9 360.7 357.4 351.7 345.7 340.7 336.9 331.9 329 325.9 322.7 320.6 317.4 313.8 309.1 304.7 298.6 293.2 288.7 286.4 282.8 280 277.3 275.9 276.3 276.5 277 276.6 275.5 274.4 275 276.2 277.5 279.9 281.4 282.8 283.5 283.3 283.9 284.4 284.9 285.4 287.4 283.6 283.6 283.7 283.6 283 282.5 282.1 281.7 281.3 280.9 280.6 280.2 279.8 279.5 279.5 279.8 280.6 281.8 283 284.4 285.3 285.9
299.5 300.5 298.8 298.2 301.2 301.5 301.3 301.4 299.8 286.3 300.8 286.6 303.4 305.3 304 304.7 305.8 307 307.8 307.6 306 306 310 310.8 310 310 311.7 313.1 313.6 313.8 313.6 306.4 296.7 307.9 312.4 314.8 318.9 323.5 328 330.9 332.5 332.9 334.8 335.4 335.9 336.7 338.8 341.3 337.3 339.6 338.9 339.3 339 340.6 337.8 336.1 336.8 338.4 338.5 337.3 334.6 335 337 339.6 341.4 344 340.3 330.8 328.9 330.3 330.4 330.7 326.2 319.8 319.1 317.1 312.7 313.7 315.8 319.3 317.6 315.2 307 304.6 317 316.8 308.7 320.7 323.5 325.8 327.4 327.7 328 329.5 331.1 332.8 335 337.4 338.8 341.4 344.3 346.3 348.4 351.2 354.7 357.9 361.1 363.4 365.3 365 363.5 362.1 360.4 357.9 353.5 354 354.5 353.4 355 355.2 355.6 355.3 355.2 356.1 357.2 358.1 359 360.9 363.8 366.8 367.8 368.3 369 368.7 366.2 363.2 361.1 357.4 352.3 346.5 341.7 338.5 333.6 330 327.2 323.4 320.7 317.1 313.4 308.8 302.1 296.5 291.8 289 285.9 281.2 279.4 277.5 278 278.5 278.9 278.8 277.6 276.1 276.6 277.7 278.9 281.3 282.9 284.4 286 286.7 287.2 287.6 287.7 287.7 287.7 287 286.5 286.1 286.1 286 285.3 284.6 284.2 283.8 283.4 283 282.7 282.3 281.9 281.6 281.4 281.7 282.7 283.8 285.2 286.6 287.4 287.9
301.4 300.6 299.8 304.2 303.4 303.5 303.4 302.1 290.9 295.8 301 295.9 309 309.8 308.7 308.6 309.8 310.9 310.4 310.2 309.6 308.6 310.8 312.9 314 313.5 314.9 315.7 316.3 316.1 315.4 314.7 304 309.5 314.8 317.4 323.6 328.1 331.8 334.1 334.6 335.1 336.9 338.9 340.1 340.8 341.6 341.5 344.7 346.9 344.2 343.5 345.7 344.9 341.6 342 343.9 343.6 339.9 336.9 335.9 337.1 338.3 337.2 337.1 336.4 333 331.4 334.4 337.8 337.7 338.3 332.9 328.7 326.2 323.9 321.3 319.5 319.9 321.3 323.1 316.8 314.2 319.1 318.8 317.1 317.5 323.1 326.2 328.4 330 331.1 331.9 333 335.4 336.7 338.1 340.5 342.2 344.4 346.6 349.9 352.5 355.2 358 359.2 361.3 364.3 365.5 363.9 362.5 360.1 359.9 358.2 357.7 358.4 358.1 358.1 358.2 358.2 358.2 357.9 358.4 359.6 361.2 362.3 363.3 366.1 368.8 370.9 372.1 372.7 373.2 371.3 368.4 364.2 361.4 356.5 351.3 346 340.7 338.2 333.4 330.3 326.6 323.6 320.5 316.6 312.2 306.2 299.7 294 291.1 288.5 284.5 280.2 278.7 279 280.4 281.1 281.5 280.4 279.2 278.4 278.3 280.9 282.8 284.5 285.8 287.3 288.8 289.5 290 290.4 290.6 290.5 289.9 289.4 289 288.8 288.6 288.4 287.6 286.8 286.3 285.9 285.5 285.1 284.7 284.4 284 283.7 283.4 283.6 284.7 286 287.4 288.8 289.5 290.6
307.9 308.5 307.4 305.7 304.1 303.5 303.1 304.1 292.6 299.4 304.2 295.7 311.1 313.5 313.2 312.6 313.7 312.8 312.6 312.3 312.1 311.8 314.2 316.5 317.1 316.9 317.9 318.5 319.2 319.7 319.1 318.7 318 302.7 322 323.9 326.9 331.6 334.9 335.5 336.1 337.1 340.4 341.9 344.3 345.6 346.6 348.6 348.2 348 348.3 350 350.5 347.1 348.4 347.4 343.6 343.8 341.7 340.5 342.3 344.1 343.7 336.5 334.2 333.3 332.5 337.5 342.9 344.3 343.8 343.5 339.5 334.4 331.7 330.4 326.7 325.9 323.9 324.3 318.8 314.5 325 321 321.2 312.3 320.8 325.7 329.6 331 332.6 334.1 335.9 337.7 339 339.8 341.2 343.4 345.1 347.6 350.5 352.8 355.8 358.6 359.4 359.2 359.8 361.7 361.5 361.5 361.3 361 361.4 361.6 361.5 360.9 360.6 360.3 359.8 360.8 360.8 361.2 361.9 363.1 364.8 366.3 367.7 371 372.5 374.9 376.4 376.5 375.7 373.9 370.2 366 362.3 357.9 352.1 346.8 341.3 337.4 333.7 330.2 327.3 323.6 320.5 315.6 309.4 303 296.3 292.9 289.6 285.1 281.6 280.2 280.1 281.7 283.2 284.2 283.1 282.1 281.5 280.7 281 284.1 286.1 287.9 289 290.2 291.7 292.3 292.7 293.1 293.3 293 292.4 291.9 291.3 291.1 291 290.6 289.9 289.1 288.4 288 287.6 287.2 286.8 286.5 286.1 285.8 285.5 285.6 286.9 288.2 289.6 291 291.9 293.6
314.8 315.1 313.6 309.4 307.9 307.5 306.9 306.2 294.7 308.4 311.9 298.2 313.9 315.7 316.1 316.5 315.4 315.4 315.4 315.4 314.4 316.7 318.6 319.2 319.9 320.2 320.7 321.5 322.2 323 322.9 322.7 304.5 306.7 316.5 327.2 330.6 332.2 335.6 337.3 337.3 341.7 344.9 346.4 349.8 352 353.5 354 354.5 354.4 353.6 354.9 356.8 355.1 351.2 346.7 344.8 346 344.5 345.3 346.6 347.4 342.2 346.6 346.4 346 346.9 347.4 347.3 347.3 347.5 345.9 344.2 342.8 337.7 334.2 330.7 327.1 319.4 316.8 317.2 324.9 326.1 328.5 325.3 315.3 326 330.7 332 333.5 335.1 337.2 339.2 340.8 342 343.1 344.5 346 348.9 351.8 354.2 355.8 357.2 360.1 360.9 361 361.1 362.5 366.2 365.9 365.5 364.6 364.6 365.4 364.9 364.3 363.7 363.1 361.6 362 363.8 364.5 365.3 366.5 368.3 370.1 372.5 375.2 378.3 380.6 380.9 379.8 378.3 376.2 372.5 367.9 361.9 357.7 351.8 347 342.2 338.1 332.6 330 327 323.9 319.8 313.4 307 299.7 294.6 291.3 286.6 282.7 281.5 281.4 283.8 285.4 286.9 286.1 285.6 285.2 284.8 284.6 285.4 286.8 288.7 290.6 292 293.3 294.6 295 295.4 295.8 296 295.4 294.9 294.3 293.8 293.4 293.1 292.6 291.9 291.3 290.6 290.2 289.8 289.4 289 288.6 288.2 287.9 287.6 287.7 289 290.4 291.8 293.2 295 296.7
320.1 319.8 317.1 311.9 312.1 310.6 307 305.6 297.7 316.2 317.7 302.5 317.9 319.1 319.4 319 318.7 319.2 319.1 319 316.8 320.5 321.2 322 322.7 322.9 323.4 324.2 325 325.9 326.6 326.5 318.4 307.7 315.9 329.3 332.4 334.3 336.5 338.9 342.7 346.3 348.7 352.3 355.8 357.5 359 361.3 361.8 361.1 360.6 357.9 356.1 355.1 354.2 350.3 348.1 348.4 348.4 348.5 348.9 348.9 344.5 351 352.3 352.7 353.5 353.6 351.6 348.5 347.4 345.8 343.6 340.5 337.1 333.2 329.4 324.4 320.3 327.9 329.2 330.6 328.8 328.8 325 331.7 326.2 336.8 335.6 337.3 339.1 340.7 342.3 343.6 344.8 347.2 348.7 349.5 352.4 354.9 357.7 359.4 360.3 361.4 362.3 362.7 365.2 367.9 368.9 368.5 368 368.3 369.4 368.8 368.1 367.5 366.8 366.2 364.7 364.3 366.2 366.7 367.5 369.1 371.9 374.4 376.9 380.1 383.6 385.2 385.2 383.2 380.5 377.6 373.6 368 362.4 356.7 351.8 347 342.2 338.6 333.5 329.7 326.7 323.6 318.3 312.6 304.6 297.4 292.4 287.4 283.6 281.9 282.4 283.9 288.1 289 289.1 288.7 288.3 287.8 287.3 287.9 288.4 289.1 291 293.1 294.7 296 297.6 298 298.3 298.5 298.7 298.3 297.7 297.1 296.4 295.5 295.2 294.6 293.9 293.4 293 292.5 292.1 291.7 291.3 290.9 290.5 290.2 289.9 290 291.3 292.6 294 295.4 297.2 299.5
319.6 321.6 320.2 317.3 312.8 309.4 309 309.5 304 319.2 319.3 312.1 321.2 322.2 322.3 321.7 321.9 322.5 323 322.9 321.2 322.5 323.9 324.7 325.5 325.7 327 327.7 328.4 329.1 329.7 330.6 314.2 309.2 316.7 332.1 333.5 335.5 338.4 340 344.5 348.7 353.6 356.6 361 363 366.3 366.8 368 366.8 365 363.1 361 359 356.3 353.3 350.6 350.6 350 349.4 350.4 351.3 344.3 354 356.6 357.9 357.7 357.7 354.8 351.9 348.9 345.7 343.1 339.6 336.8 332.3 329.3 323.2 333.8 337 335.3 334.1 332.1 327.2 329.8 336.1 335.8 339.5 343.2 345.1 344.5 343.8 344.8 346.2 348.2 350.1 351.9 353.1 355.2 357.5 360.2 361.7 363.3 364 366.3 368.8 370.2 371.6 371.7 371.2 371.3 371.8 372.2 372.1 371.4 370.7 370 369.3 368.5 368.4 368 368.6 370.2 371.8 374.6 377.7 380.8 384.4 387.6 389 389.4 386.7 382.7 378.9 373.7 368 362.5 355.9 351.4 347.1 342.3 338.5 334.4 330.7 326.4 322.4 316.8 310.6 302.3 296.6 287.9 284.1 282.6 283 286.6 290.2 291.6 290.3 289.7 289.2 288.7 289.5 289.9 290.5 291.1 290.9 293.4 295.5 297.2 299.5 300.6 300.7 300.9 301.1 301.2 301 300.5 299.9 299 297.9 297.2 296.5 296.3 295.9 295.5 295 294.5 294 293.6 293.2 292.9 292.5 292.2 292.4 293.5 294.8 296.2 297.6 299.4 301.2
319.9 318 316.3 313.8 311.8 313.8 319.6 308.5 307.8 322 322.7 318.7 322.8 325.1 325.2 324.9 325.1 325.7 326.1 325.3 325.7 326.9 327.5 328.4 329.5 329.8 331.4 332.8 333.3 333.8 334.1 335.6 321.9 311.1 316.1 334.4 335.8 339.4 343.3 347.6 350 354.8 358.1 360.3 366.3 369.5 370.1 371.5 371 369.4 369.2 367.7 364.8 360.4 358.2 355.7 354 352.3 352.8 353.6 352.5 348.9 355.5 359 360.7 361.6 361.6 360.2 358.3 355.6 352.9 347.7 345.9 342.6 340.3 338.9 329.6 328 340.7 339.8 338.3 336.7 332.7 330.5 334.1 339.7 344.9 338.1 346.2 349.3 348.4 347.6 347.8 349.6 352.1 353.2 355.1 356.4 358.1 360.8 362.7 364.2 366.6 368.6 370.9 372 373 374.4 374.4 374.2 374.7 375.2 375.5 375.1 374.4 373.7 372.9 371.3 369.8 370.3 370 371.2 372.5 373.9 376.8 380.3 383.8 388 391.4 392.8 392 389.2 384.3 378.7 372.2 366.5 361.8 355.6 351.1 346.7 342.3 338.3 334.9 330.6 325.6 320.1 314.3 308 299.5 293.5 284.8 284.2 283.5 288.9 291.5 292.6 291.9 290.8 290.2 290.9 291.7 292.1 292.3 293.1 293.8 293.1 295.5 298.3 301 302.9 303.2 303.3 303.5 303.6 303.8 303.7 303.2 302.1 301.5 300.4 299.2 299.1 298.9 298.4 297.9 297.4 296.9 296.4 296 295.6 295.2 294.8 294.5 294.8 295.7 297 298.6 300.2 301.8 303.6
329.4 325.7 322.2 321.1 323.6 324.2 326.9 307.7 310.8 323.6 324.2 323 319.9 326.9 328 328.2 328.3 328.8 327.7 328.3 329.5 330.2 330.3 332 333.1 333 334.4 334.7 336.7 338.1 338.5 337.6 322.2 313 327.2 337.2 340.6 343.8 348.5 352.8 356.9 361.1 365.2 367.5 370.7 373.6 374.8 375.8 374.6 373.4 371.6 369 365.7 362.9 360 357.4 357.2 357.1 356.4 355.3 351 358.8 362.4 363.4 364.1 364.9 364.5 363.4 361.6 359.3 356.9 354.2 351.1 348.6 346.5 342.7 335.9 329.8 342.2 342.2 340.2 338.4 333.1 335.5 340.5 343.5 344.6 334.7 344.9 351.3 354 351.1 351 354.1 355.4 356.8 358.2 360.1 362.8 363.3 365 368.2 370.9 373.1 374.3 375.3 376 377.1 377.2 377.7 378 378.2 378.4 378 377.3 376.5 374.5 372.4 371.1 371.7 372.2 372 373.3 374.5 378.7 382.5 386.4 390.6 395.1 395.9 393.9 389.4 382.7 376.4 370.1 363.7 359.4 354.3 350.2 346.2 341.8 337.5 332.1 328.9 323 317.1 310.7 301.9 293.7 287.2 283 284.2 289.1 292.2 292.7 292.9 292.5 292.2 293.2 294 294.4 294.5 294.6 295.6 296.4 295.8 299.6 301.8 304.3 305.4 306.2 306.2 306.2 306.2 306.4 306.4 305.3 303.8 303.2 302.2 301.8 301.8 301.3 300.8 300.3 299.8 299.3 298.8 298.3 297.9 297.5 297.1 296.9 297.2 298.3 300 301.6 303.1 304.8 306.5
332.2 331.9 331.6 333.7 334.2 331 323.4 310.7 321.2 325.8 326 326.6 316.4 329.9 329.9 331.1 331.5 331.6 331.5 331.4 332.7 334 334.2 335.4 337 338 338.3 338.1 340.2 341.5 329.5 316.6 315.9 332.5 338 339.5 343.3 347.2 351.4 357.8 360.1 366.5 370.5 373.6 376.6 377.9 379.2 378.6 376.3 374.4 372.5 368.3 365 363.3 361.8 360.4 359.5 358.9 358.6 356 358.1 363.5 366.6 368.2 368.4 367.4 366.9 365.4 363.2 360.8 358.4 355.8 354.8 352.6 351.4 347.5 337.2 331.3 345.6 344.8 343.1 339.4 334.9 339.5 344.1 347 345.5 339.3 345.7 348.7 351.5 352 353.4 357.5 358.4 359.4 361.4 364.4 365.2 365.9 368.7 371.7 373.5 375.4 377.2 378.7 379.4 380.1 380.5 380.7 381 381.2 381.3 380.9 379.7 377.7 375.6 373.6 372.4 373 373.4 373.7 375.2 376.1 379.9 383.7 387.5 392.1 397 397.5 393.9 388.3 380.9 372.4 368.5 362.8 358.6 353.2 347.8 342.4 339.8 335.4 330.6 324 319.3 312.1 304.6 296.6 288.1 283.8 285.3 287.9 291.1 293 294.3 295.4 297.3 296.9 296.6 296.7 296.8 296.9 297.2 298.1 298.6 297.9 303.4 305.4 306.9 307.9 308.8 309.2 309.2 309.2 309.1 309.1 307.3 305.5 304.7 304 303.8 303.5 303.1 302.7 302.3 301.9 301.5 301 300.6 300.2 299.8 299.5 299.4 300.6 301.7 303.3 305.2 307.1 309 310.9
336.2 334.4 332.5 330.3 329.5 317.5 318.1 327 327.3 327.4 328.3 329 324.1 330.9 331.9 331.6 332.6 334.9 335 334.9 336 337.1 338.2 339.4 340.6 341 341.1 341 344.3 344 320.6 319.6 323.2 338.4 339.7 340.9 345 350.2 356.4 360.6 366 371.4 375.9 380 381.5 381.1 380.8 378.9 376.4 374.7 372.7 370.5 368.5 366.2 364.8 363.7 362.7 361.6 360.8 358.1 364.4 368 369.5 370.6 369.9 368.9 368.2 366.6 364.2 362.1 359.7 357.7 357.1 353.9 349.9 347.1 334.1 335.3 345 347.1 345.6 342.3 337.9 340.9 346.8 355.2 348.6 345.6 347.4 350.8 353.1 354.5 355.7 359.4 361.1 362.7 364.5 365.5 367.8 369.8 372.1 373.9 375.6 377.1 378.8 380.5 381.9 382 382.5 383.2 383.8 384.2 384.1 382.8 380.9 378.8 376.8 374.8 373.8 374.2 374.3 373.9 375 375.3 379.2 384.3 389.1 394 399.1 397.7 392.6 386.5 377.1 372.2 367.5 361.3 357.5 352.5 344.8 340.4 334.9 332 326 319.4 313 305.8 298 289.4 285.4 284.6 288.4 290.8 293 295.6 296 298.8 300.2 299.5 299.3 299.6 300 299.8 299.9 301 303.2 303.5 306.2 308.2 309.3 310.7 311.4 312.2 312.2 311.8 311.3 310.2 308.6 307.6 306.7 306 305.5 305.2 304.8 304.4 304 303.6 303.2 302.7 302.4 302.4 302.3 302 302 303.1 304.3 306 307.9 309.8 311.7 314.8
340.3 338.6 337.6 336.6 323.1 327.2 332.8 333.2 332.6 331.7 332.5 332.6 325.4 333.3 335 334.9 335.2 336.8 338.6 338.5 339.4 340.6 341.2 342.3 343.4 343.9 345.1 346.2 347 345.2 331.6 335.4 324 340 343 344.4 348.3 353.3 359.4 365.5 368.6 376.3 380 383 383.8 382.8 381.5 379.4 378.8 377.4 375.5 374 371.6 369.2 366.9 365.6 364 364.8 360.8 363.3 369.3 371.3 372 371.9 371.3 370.4 369.1 366.1 364.3 362.3 360.2 357 354.1 351.4 346.5 347.2 337.8 340.5 349 348.5 348.2 344.8 340.5 344.3 346.8 354.2 356.2 351 348.7 353.6 356.2 357.2 359.1 361.7 363.1 364.8 364.5 368.1 370.9 372.7 373.6 375.4 377.5 379 380.5 382.2 383.2 383.7 384.2 384.9 385.5 386.3 386.2 383.9 382 380 378 376 375.1 374.8 374.2 374.1 374.5 374.9 375.7 383.8 388.2 393.8 397.3 396.4 391.4 383.1 374.2 370.2 365.3 358.7 354.6 349.1 341.8 336.8 330.3 324.3 319.9 312.2 304.8 297.8 291.3 288 285.6 287 291.1 295.4 297.3 297.5 299.3 301.2 301.8 301.9 302.5 303 303 302.6 302.9 304.4 306.8 308.1 305.8 310.5 311.9 313.3 314.3 314.8 314.1 313.4 312.9 311.9 311.2 309.9 308.7 308 307.1 306.9 306.5 306.1 305.7 305.3 304.9 304.7 304.7 304.6 304.6 304.5 304.5 305.8 307.1 308.8 310.7 312.8 316.1 319.4
345.7 343.8 342.3 335.1 329.7 336.5 336.3 337.5 337.2 336.7 339.3 340.6 338.6 336 338.2 337.7 338.9 340.1 341.1 342.1 342.9 343.2 344.3 346 347 349.2 350 349.5 347.7 347.9 347.3 333.8 330.2 338.8 345.5 347.6 351.7 356.8 362.7 367.2 374.1 378.8 381.9 385 385.3 384.8 383.7 382 381 379.4 377.8 375.9 373.4 370.3 368.7 365.2 364 362.6 364.1 368.9 372.1 373.2 373 372.9 372.3 370.6 366.7 363.6 361.9 361.5 358.9 354.9 353.9 353.6 352.5 351.3 340.5 341.4 352.3 351.8 351.2 347.8 344.6 347.4 349.7 351.6 353.5 350.5 353.1 354.1 356.5 358.1 361.1 362.7 364 367.4 369.9 371.9 373.8 374.5 375.4 376.4 378.7 380.3 381.8 382.7 383.4 384.3 385.8 386.6 387.2 387.6 386.8 385 383 381.1 378.9 376.5 375 374.4 373.8 373.4 374 374.3 377.4 379.3 387.2 391.1 393.7 391.7 387.2 379.3 371.2 366.4 360.7 354.8 349.9 344.2 338.1 330.7 325.4 316 310.4 304.1 298.5 293.2 290 287.1 287.9 291.5 297 299.9 300.7 301.7 302.9 303.9 304.8 305 305.2 305.7 306 305.7 306 307.7 310 310.3 306.5 311.8 313.7 315.9 316.8 317 316.2 315.5 315.2 314.8 313.5 312.1 310.8 310 309.1 308.6 308.2 307.8 307.4 307.1 307 307 306.9 306.9 306.8 306.8 307.4 308.5 309.8 311.5 314.1 317.5 320.9 324.4
347.6 346.6 336.8 330.8 341 341.1 342 339.8 340.3 341.5 342.1 344 338.1 338.3 339.3 339.9 341.2 342.6 344 345.2 346 347.4 350.2 351.2 351.8 353 352.6 351.2 351.5 351 349.1 330.2 332.4 343.3 347.9 351.6 354.9 361 367.2 373.2 378.3 382.2 384.8 387 386.9 386.7 386.1 384.8 382.4 380.9 379.4 377.2 375 372.3 368.2 364.9 367.4 369 370.7 373.2 374.1 374 373.9 373.3 372.5 369 365.2 362.4 360 358.5 359.5 358.8 359 359.4 357.4 354.7 342.4 355.1 356.1 355.9 354.2 348.8 349.1 350.6 351.9 353.2 352.8 351.9 355.5 356.6 357.9 359.8 363.5 365.9 369.3 371.3 373.6 374.2 375.6 376.2 376.8 377.5 379.1 380.7 381.5 382.1 383 384.3 386.1 387.6 388.3 387.3 386.3 385 382.8 380.5 378.1 375.7 374.2 373.6 373 372.4 373 373.9 374.8 378 385.9 388.2 388.9 386.6 379.7 372 365.8 361.5 354.2 348.9 343.3 337.6 329.7 326.3 317 309 304 300.4 296.2 292.4 289.7 290 294.8 297 299.8 301 303.3 306.2 306.9 307.7 308.7 308.7 308.8 309.8 310 308.9 309.6 310.9 312.8 313.2 312.3 314.3 316.5 318.6 319.4 319.1 318.6 318.4 318.2 317 315.7 314.4 313 312 311.1 310.3 309.9 309.5 309.4 309.3 309.3 309.3 309.3 309.3 309.3 309.6 310.6 311.7 312.7 315.6 319.1 322.5 326 329.5
350.6 347.7 337.1 345 344.5 344.5 344 342.5 342.4 342.8 342.9 341 341.4 341.7 341.7 342.5 343.5 344.9 346.3 348.9 351.4 353.8 355.5 356.4 356.2 356.1 354 354.6 353.6 351.8 351.7 334.7 332.7 348.9 351.9 356 361 366.6 371.1 378.2 382.4 386.6 388.6 389.7 390 390.2 389 387.2 384.8 382.3 380.4 377.1 373.7 372 368.6 366.5 370.6 372.6 374.1 374.8 375 374.9 374.3 373.4 372.5 368 363.7 362.8 363.2 363.1 362.7 362.3 364.9 366 362 348.7 347.3 359.3 358 357.4 355 350.9 354 354.9 354.7 354.6 354.4 354.5 355.9 358.6 359.7 365.1 368.8 370.9 372.7 373.8 375 376.6 377.3 377.9 378.4 379 379.6 380.5 381 381.6 383 384.3 385.5 386.5 387.2 386.4 385.7 383.5 381.2 379.1 377 374.9 373.4 372.8 372.2 371.6 372 370.8 371.3 376.4 381.4 384.2 383.7 378.9 371.5 365 359.1 353.2 346.3 341.6 335.3 330.9 322.8 316.8 310 304.1 301.5 298.5 294.8 292.3 291.1 294.6 301.3 303.4 302.7 304.4 307.3 309.7 310.7 311.6 312.4 312.8 312.7 313 312.8 312.2 313.3 314.5 315.7 316.6 317.5 317.2 319.9 321.1 322 321.6 321 320.5 319.9 318.7 317.6 316.4 315.2 314 313.1 312.2 311.7 311.7 311.7 311.7 311.7 311.7 311.7 311.7 311.9 312.8 313.7 315 316 318.8 322.5 326.3 330.2 334.1
354.4 349.8 339.7 349.2 348 347 345.6 345.4 344.6 344 344.4 343.5 344.2 344.4 344.3 345.3 346.8 349 351 353.5 355.6 357.5 358.5 358.9 358.6 358.4 357.6 356.6 355.6 354.7 342.4 333 339.9 353.8 356.6 360.6 366 371.8 376.7 382.6 387.3 390.2 391.5 392.6 392.1 390.7 388.9 387.2 383.4 380.4 379.3 375.8 376.4 375.2 374.2 371.7 369.9 372 374 375.4 375.6 374.4 372.4 371.4 371.2 367.6 366.9 366.8 366.5 366.4 366.3 366.7 367.5 365.5 354.2 348.9 347.8 362.3 362.3 359.7 357 358 359.1 358.9 359.1 359.5 358.4 357.2 358 362.6 365.6 369.1 371 372.7 374.2 375.6 376.7 377.1 377.3 377.6 377.9 378.5 379.1 379.6 379.9 379.7 381.2 382.7 382.2 383.1 383.9 384.1 383.1 381.9 379.6 377.4 374.9 372.4 371.6 371.4 371.3 370.8 370 369 369.2 372 376.5 378.5 376.2 369.9 363.3 357.3 350.3 343.5 336.9 332.6 327.2 320.7 316.4 310.3 306.1 302.7 299.6 296.7 294 292.9 294.1 299.5 304 305.3 305.5 307.8 310.3 312.7 313.6 314.5 315.1 315.4 315.8 315.7 315.2 315.3 316.5 317.7 318.9 319.9 320.9 318.2 322.6 323.2 323.7 323.6 323.1 322.6 321.6 320.2 319 317.8 316.6 315.4 314.1 313.7 314.1 314.2 314.2 314.2 314.2 314.2 314.2 314.3 315.1 315.9 316.9 318.2 319.5 322.5 325.5 329.4 333.3 337.3
356 352.4 340.4 352.5 350.2 349 348.1 348.1 347.4 346.7 345.9 344.8 345.3 346.5 347.3 349 351.8 353.8 355.8 358 359.2 360.5 361.1 361.5 361.1 360.7 360 358.5 357.8 356.4 336.8 335.7 350.5 359.3 362.6 367.4 372.3 377.4 383.5 389.2 392.9 393.9 395.8 394.3 392.5 391.1 389.2 385.6 384.6 382.9 382.4 378.7 377.8 376.3 375.2 373.5 373.1 373 374.7 375.9 375.2 374.8 374.1 373 369.6 372.1 371.9 373.9 371.2 371.5 371.6 370.9 369.3 364.7 350.2 358.9 351.1 367.4 365.4 364 368 366.2 367.7 364.3 363.2 361.6 361.9 360.7 361.3 366.5 368.6 370.8 371.9 373.4 375 376.5 377.8 377.3 377.5 377.8 378 378.3 378.5 378.2 378.1 378 378.2 378.5 378.6 379.3 380 380.1 379.2 378.1 376.8 374.5 372 370 369.3 369.2 369.1 369.2 368.8 368.8 367.2 357 366.2 370.7 367.4 360 353 346.3 339.2 332.9 328.1 322.5 316.6 313.6 309.6 305.8 303.7 301.2 298.4 295.7 294.8 295.1 299.2 303.6 305.3 306.4 309.1 312.1 314.1 315.5 316.4 317 317.5 317.9 318.2 318.2 317.8 318.5 319.6 320.8 322 323 322.8 320.5 324.2 325.1 325.4 325.7 325.2 324.6 323.3 321.8 320.4 319.3 318.1 316.8 315.6 315.9 316.3 316.7 316.7 316.7 316.7 316.7 316.7 317.4 318.2 319.1 320 321.4 323.2 326.5 329.8 332.8 337 341.2
