ncols 200
nrows 82
xllcorner 230000
yllcorner 850600
cellsize 50
142.2 134.8 125.1 119 115.9 114.6 114.8 121.5 126.7 130.3 128 127.6 132.4 140 141.4 138.1 143.4 147 150.1 150.6 150.9 142.9 143.2 144.5 144.8 149.1 153.4 154.1 149 134.1 129 127.1 126.9 123.4 124 125.4 127.9 132.6 128.9 127.3 121.6 126.5 137.3 142.9 145.7 147.9 150.4 160.7 164.8 169.6 173.7 170.6 171 181.4 185.9 188 172.5 156.2 150.2 141.2 134.3 127.1 120.3 115.2 114.8 113.7 111 107.6 113.5 112.3 114.1 116.5 118.5 123.3 127.6 123.7 117 113.2 115.2 117.2 125.2 130.8 135 141 148.9 158.7 168.3 178.2 180.6 185.5 195.5 201.1 209.3 215.2 221.4 227.1 231.1 232 230.8 229.3 226.2 228.6 230.5 229.5 234.8 236.6 240.7 244.2 246 240.8 238.9 234.7 229.1 238.9 249.8 255.3 258.9 266.9 263.3 274.8 279 286.7 294.2 299.3 303.4 313 313.9 321.1 325.6 334.2 342 349.7 352.4 361 368.4 370.6 371.2 364.1 359.2 366.2 375.9 381.6 383.4 372.8 364.6 350.3 337.1 325.1 311.5 304.7 294 284.5 275.8 274.1 273.4 273.4 273.4 276.7 273.9 270.9 265.7 275.3 283.6 288 289.9 294.2 290.1 292.9 297.1 300.3 299.2 293.8 313.4 323.4 324.3 320.8 310.4 296.6 288.4 275.7 264.1 253.4 231.1 223 210.5 204.2 200 190.6 190.4 193.3 195.7 188.8 184.4 181.7 173.5 162.7 162.6 160.3 161.4 161.3
140.8 130.1 120.4 118.1 118.2 118.1 123 129.3 134.2 133.8 132.6 134.9 144.7 145.6 145.8 147.8 150.9 161.2 164.2 170.5 166.5 155.9 150.7 146.8 147.1 146.9 149.5 150.9 151 138.4 133.1 134.1 134.8 134.2 137.5 141.3 150.6 152.9 153.3 138.6 136.7 140.9 152.2 159.7 160.6 149.8 148.6 156.1 165.6 173.9 179.2 176.4 181.4 189.2 187.3 177.3 166.2 158.6 159.2 157.4 148.2 137.5 133.5 132.2 126 127.2 122.7 119.5 122.9 128.4 128.8 130.5 135.6 136.2 134.6 134.8 136.5 139.8 145.4 148.5 155.1 157.6 149.9 152.3 158.9 167.2 179.2 185 191.2 197.8 205 211.1 218 222.7 226.6 230.4 233.3 232.5 230.8 231.3 228.6 230.3 231.6 235.4 243.6 248.9 250 251.5 249 250.9 251.5 242.3 233.2 242.9 250.1 255.7 265.1 269.9 273.9 274.1 285.7 294 304.8 311.5 319.2 329.9 335.3 341.8 344.5 354.6 363.4 367.1 364.5 368 378.4 383.2 381.3 378.4 373.7 373.5 368.7 372.6 373.9 374.8 369.5 355.6 343.5 328.3 316.4 311.5 303.2 287.8 273.4 273.4 273.4 273.4 273.4 276.8 269.4 271.2 277.7 282.8 289.3 295 297.5 299.3 299.7 296.4 310.8 319.3 309.4 309.4 315.9 319.6 317.5 310.4 300.5 293.1 285.5 276.4 263.6 255.4 228.1 214.1 211.2 208.5 207.2 196.7 195.4 200.6 200.3 197.7 192 180.6 175.3 170.9 172.9 177 179.4 170.9
134.4 123.4 120.4 120 121.2 122.4 130.9 136.6 138.1 137.5 134.3 141.6 149.5 151.8 154.1 159.2 163.6 173.7 181.8 184.1 178.9 166.4 162.3 159.8 155.9 149.8 148.2 148.7 149.4 141.1 141.3 143.1 143.9 146.7 150.9 160 166 165.3 160.5 151.9 154.3 160.6 166.9 171.3 178.1 163.2 155.8 157.3 165.4 175.2 180.8 180.7 179.5 180.7 177.8 170.9 164.8 169.1 175.8 173.4 163 150 147 144.5 141.3 137.1 136.3 137.5 140.7 144.3 147.9 147.5 149.9 148 142.9 143.5 149.9 163.7 175.8 186.6 176.7 170.2 162.6 170.4 175.6 180.8 190.1 198.4 201.1 207.9 215.9 221.9 227.4 229.2 230 232.8 234.1 233 231.5 232.8 239 243.6 248.4 251 252.5 258.5 261.1 260.5 256.5 248.8 245.2 242.2 245.9 252.8 259.8 263.4 267.3 276 278.9 281.7 287.7 295.9 309.4 316 326.8 340.4 345.6 353.2 357.9 369 377.1 373.5 373.5 379.4 382 390.8 399.6 401.7 404.8 405.9 402.7 384.3 371.6 369.5 368.4 361.1 348.3 338.6 330 322.3 310.7 294.7 278.2 273.4 273.7 275.9 275.2 272.4 272.8 287.3 292.9 295.8 296.4 297.8 299.8 302.5 306.3 302.8 313.8 309.2 309.9 312.8 319.7 323.9 317.6 309.5 304.5 295.9 287.1 275 264.9 256.9 236.8 220.7 216.6 208.9 208.1 201.5 204.5 206 204.2 199.9 196.2 191.2 180.3 178.8 180.2 183 181 165.8
127.7 122.2 122.1 123.7 125.3 128.9 137.1 142.5 141.7 138.3 138.9 144.4 150.6 154.5 159 166.5 174.8 178.4 186.5 190.3 178.7 170.1 164.5 161 157.8 154.6 149.3 147 147.5 143.3 146.4 153.4 162 166 162.9 160.8 173 171 159.7 154.3 165.9 177.5 178 183.7 185.9 179.3 171 162.1 162.3 168.6 176.4 178.2 179.7 178.9 177.7 177.2 175.1 184.6 190.2 189.8 180.7 168.1 160.6 155.7 153.8 158.1 154.5 148.6 153.7 154.6 157.8 153 156.2 156.7 153.7 157.8 165.1 170.6 179.9 184 174.5 174.2 185.3 187.8 194.4 199.8 207 216 221.2 223.8 228.7 232.5 235.2 237.6 239.6 239.1 237.6 241 243.4 250.6 252.5 255.2 258.4 259.6 266 269.1 267.4 265 264.2 259.1 255.2 251.2 257.1 258.8 257.5 263.1 271.5 279.1 281.8 285.1 288 297.1 303.2 312.9 327 345.1 353 357.3 360.4 371.3 376.3 375.2 377.2 380.4 384.1 392.4 400.8 403.7 404.8 413.9 413.8 409.8 393.1 380.4 366.2 359.2 355.1 352.1 345.5 335 322.1 311.3 302.5 292.4 284.6 281 285.4 284.4 288.1 303.9 312.3 317.4 320.7 320.6 320.1 317.1 309 303 302.5 306.2 313.7 318.3 316.4 315.7 313.8 306.7 300.1 287.6 278.9 268.8 265.5 256.1 241.4 224 215.7 208 209.4 215.8 216.5 213.5 208.3 201.8 206.5 199.8 187.4 186.8 188.8 186.4 184.7 184.6
124.7 123.5 124.4 127.9 130.9 136.2 143.4 150.5 148 141.5 141.6 149.5 156.8 164.4 167 172.8 179.2 184.7 188.6 190.3 187 176.8 170.4 172.4 170.9 160.7 154.9 153.1 148.3 148.8 150.7 159 167.9 173.1 168.5 166.5 176.7 171 166.2 162 173.9 187.4 185.5 188.4 185.2 182.4 178.7 169.6 164.4 166.1 169.5 171.9 176.4 179 185.7 193.8 199.1 201.3 198.7 195.6 187.9 180.5 173.8 168.3 166.8 171.4 168.5 167.8 171.7 172.6 171.1 161.7 163.5 163.9 167.7 173.5 178.6 183.6 180.1 180.4 181.2 189.5 195.6 201.9 207.5 214 220.5 227.7 232.8 236 240.5 242.7 244.7 247.5 248.8 247.5 248.8 253.6 259.2 269.7 273.8 275.8 278.3 278.8 281.5 285.7 289.3 297.1 288.6 278.6 268.9 264.9 265.2 262.8 266.2 265.8 275.1 280.3 284.5 290 293.4 293.8 304.8 310.5 320.9 338.6 350.4 358.8 363.1 369.8 375.9 377.3 378.7 380.9 387 396.6 402.5 409.4 417.4 419.9 419.5 418.4 412.3 399.6 379.5 368.3 357.8 352.2 345.8 342 332.3 321.7 309 304.4 298.6 286.1 295.3 297.4 299.4 315.2 323.5 328.1 330 331.3 331.2 329.1 322.5 307.4 302.3 309.1 311 311.9 309.8 308.7 306.7 305 299.7 289.7 281.3 277.8 265.8 257.5 243.6 220.8 224.1 227 230.5 234.4 235.7 228.4 227 225.5 224.6 216.1 210.4 208 209 206.7 204.6 203.5
124.4 124.4 128.4 133.5 137 142.1 149.6 154.3 147.4 148.1 153.9 160 159.6 170.4 172.8 177.8 182.9 185.2 185.7 194.2 192.4 186.2 179.6 176.1 173.7 169.3 162.7 160.8 167 158.6 161.2 167.4 175.6 184.2 188.3 184 175.2 173.6 170 166.3 178.8 186.1 188 187.1 183.2 180.7 177.5 173.6 166.7 167.7 171.5 174.4 178.5 183.3 192.7 199.7 207.9 208.7 199.3 194.1 189.1 186.6 181.3 177.9 181.9 182.8 184.5 183.6 180.7 177.8 175.1 168.8 172.7 176.2 179.3 184.7 186.3 184.5 183.5 190.1 194.9 200.1 203.2 210.3 217.8 223.9 232.1 239.3 244.7 246.2 249.3 251.6 252.9 256.3 261.6 264.9 265.8 268.9 279.9 285.2 290 290.5 294.6 305.6 313.7 316.2 316.8 312 304.2 300.4 295.9 279.3 271.5 277.4 278.7 280.5 276.4 280.3 283.1 288.4 291.8 294.3 305.3 311.8 319.3 335 345.2 352.6 363.4 370.7 379.3 377.7 377.7 381.4 389.3 398.1 407.1 418.7 426.3 428.4 431.7 424.3 414.6 404.7 406.2 398 379.2 368.6 358.9 346.6 342 332.2 321.3 311 300.1 304.7 305.9 310 314.4 323.2 326.8 333.5 335.3 340.4 337.2 333.1 322 310.6 308.4 309.9 313 309.2 307.7 307.2 307.6 305.7 303.2 294.4 283.2 271 260 250.2 246.4 245.9 244 246.1 247.7 248.2 247.5 247.2 248.7 241.5 237.9 230.9 234.5 233.7 231.1 227.7 223.2 217.8
128.9 133.9 135.6 140.3 142.8 148 152.7 152.6 150.6 156.6 160.7 167.7 169.9 169.9 173.1 183 184.3 184.7 185.6 187.7 192 189.5 185 186.6 178.9 176.4 171 170.9 172.6 169.6 172.3 173.5 182.1 188.7 190.8 187.3 188.4 183.8 183.7 173.5 185.1 188.4 188.1 195.3 189.7 183 177.4 171.5 168.4 170.8 174.4 177.2 181.4 187.5 195.9 199.6 200.7 201.1 199 193.9 190.7 190.2 187.5 187.4 189.3 191.8 193.9 192 189.9 186 183.1 178.9 179 185.1 187.9 192.9 194.9 194.8 193.8 199.1 204.5 207.1 212.3 219.5 227.1 234.3 242.5 250.7 253.5 254.3 255.1 256.7 262 266.4 272.1 277.8 283.7 292.6 297.2 308.9 315.7 323 323.6 330.1 330.1 335.2 336.4 327.1 314.7 305.3 306.8 293 297.1 299.4 295.6 290.8 288.8 288.4 283.6 289.9 295.6 302.2 307.1 313.2 317.1 328.5 343.3 356.3 361.7 368.7 379.1 378.9 380.4 386.8 393.9 402.6 414.2 421.7 430.7 438 442.7 439.1 428.7 420 414.1 405.7 401.3 393.1 377.7 366.7 356.2 351.3 332.4 317.3 310.4 312.4 316.4 324.8 331.3 338.3 342.5 342.8 346.4 345.7 347.1 350.2 346.8 338.8 329.2 312.1 315.9 316.9 315 312.2 307.6 302.4 291.7 286.2 276.5 275 276 270.7 268.1 261.9 259.4 264.6 267.8 271 275.5 276.5 273.4 264.7 257.1 254.6 256.6 255.2 249.3 246 240.8 233.8
138.1 140.8 143.5 147 150.6 150.6 149.7 152.7 153.3 159.4 166.3 173 170.7 170.8 175 180.4 184 184.3 187.3 185 183.8 183.2 182.3 184.9 187.8 183.4 179.2 183.6 183.7 179.9 171.6 177 184.8 191.1 195.7 199.2 206.3 202.7 183.1 179.8 180.7 185 186.9 193.8 190.7 186.9 174.5 175.8 183.8 184.7 182.7 180.9 184.7 190.6 199.7 201.5 201.2 201.1 198.4 195.7 195.1 195.9 192.8 192.6 195.1 199 201.4 201.1 198.7 195.8 192.4 191.3 194.5 198.1 194.6 200.7 201.3 203.9 204.3 209.7 210 215.2 222.1 229.8 235.5 241.5 248.8 255.4 258.3 261.2 263.2 277 286 286.9 296.6 298.9 315 319.5 327.5 335.6 341.7 347.4 357.3 363.7 357.2 350.4 351.9 339.5 335.5 324.7 315.2 317.3 318.3 312.7 309.9 307.5 300.9 299.4 295 295.2 300 304.9 308.4 313.3 322.7 328.9 338.6 356.5 362.6 367.6 373.6 377.2 382.2 388.9 394.3 404.9 414.5 425.4 438.5 445.1 445.2 449.2 445.5 436.9 426.5 422.9 415.4 401.7 395.5 386.4 371.3 361.6 345.7 317.7 324.2 326.5 329.9 330.9 336 341 344.5 345.8 345.7 347.2 350.6 353.9 347.8 334.8 323.6 318.7 316 316.3 314.5 308.6 301.6 297.1 297 292.9 293.1 291.4 284.8 284.6 284.9 288.4 287.3 289.8 293.7 298.4 302.2 300.9 296.8 289.6 284.1 277.6 281.4 280.7 272 266.7 259.5 250
145.3 147.7 154.4 160.2 162.7 162.8 158.8 157 157.7 163.1 167.9 174.4 173.4 174.9 183.9 181.9 186.5 186.9 184.3 187 183.5 182.4 182.5 183 184.4 184.4 184.5 182.2 180.7 177.9 179.1 182.7 190.4 198 204.6 209.6 211.8 209.1 198.1 183.9 184.9 185.5 185.7 185.9 186.2 185.4 173.5 180.9 190.1 191.6 184.9 185.7 189.2 196.7 203.2 205.2 205.3 204.4 200.6 199 202.7 200.8 202 202.4 202.1 205.1 207.1 206.7 204.3 201.1 200.3 204.7 205.3 204.1 205.2 205.7 206.1 209.8 214 216.1 222 226.2 233.1 239.6 243.8 248.3 254.1 260.1 266.1 271.4 278.1 294.1 297.6 300.7 314.1 328.2 335.4 347 352.7 358.2 361.5 370.1 380.2 381.9 379.3 367.2 352.4 346.9 341.8 332.7 324.8 324 320.8 321.8 314.6 313.3 308.3 301.5 297.1 304.2 303.1 305.7 309.9 319.3 327.5 336.2 342.6 356.2 366.4 372.3 379.2 383.1 385 392 401.4 407.1 415.8 426.8 438.3 444.2 448.9 445.7 450 450.8 445.1 433.3 420.8 407.6 398.1 397.6 384.6 368.6 349.9 335.4 344.4 344.5 340.9 338.8 340.2 339.9 343.8 345.6 344.7 344.9 343.9 339.1 334.6 329.2 326.6 323.7 317.4 316.3 316.9 315.4 313.8 314.2 311.7 314.3 309 305.3 302.3 296.8 306.5 309.9 308.8 315.8 324.6 326.2 322.3 319 312.9 305.9 303.9 303 304 298.6 295.4 287.1 279.5 270.6
152.5 158.9 169.8 175.7 179.8 178.1 171.3 161.3 161.7 166.8 171.1 176.6 181.2 179.9 181.2 181.7 181.6 182.9 182.5 182.3 182 182.2 184.6 187.3 190.3 191.8 184.8 183.3 185 190.8 192.7 194.3 194 196.6 199.1 204 205.1 203.8 200.5 193.2 188.3 188.2 185.2 183 182 178.7 175.8 182.1 188.7 192.4 186.9 194.2 202.4 205.3 207.3 209.2 209.3 207.3 203.3 201.3 208.8 209.1 209.3 212.6 210.6 211 209.7 209 207.7 207 212.1 212.8 209.5 209.1 209.5 209.8 211.2 215.9 219.1 223.8 225.4 233.1 239.6 242.6 250 254.6 260.6 269.1 274.6 280.4 286.7 293.7 300.5 310 319.4 328.5 334.4 344.8 355.3 377.6 388.5 391.2 388.1 383.1 373.2 358.9 342.5 336.6 337.8 331.5 330.1 334.9 332.9 323.2 318.3 311.9 311.7 306.5 306.6 314.6 309.7 310.8 316.9 324.6 329.3 339.9 346 355.9 369.9 375.8 383.1 395.6 398.3 400.5 402.8 409.9 418.2 435.3 443 446.5 449.8 451.5 456 455 455.7 446.9 433.5 417.3 405.7 393.7 387.9 375 356.3 355.9 357.2 362.2 361.2 356.6 352.1 349 351.8 357 355.6 353.2 350.3 346.5 341.2 344.6 340.6 337.8 336.9 323.2 327.2 330.1 329.2 331.7 329 328 323.7 313.5 311.5 324.8 328.1 322.2 327.7 340.5 347.8 345.6 338.9 331.2 327.7 322.4 325.8 323.5 321.4 312.9 311.3 304.2 295 286.8
160.6 177 186.9 192.9 198.1 195.3 181.3 170.8 164.8 170.7 175.7 178.5 181.6 184.3 185.1 187.1 182.1 181.9 182.4 182.1 184.3 187.8 190.2 191.4 190.7 188.4 187.1 190.4 197.1 198.3 197.2 196.9 199.1 200.7 204.7 205.7 206.6 203.1 200.7 197.8 194.9 190.4 187.7 185.7 186.6 187.6 187.5 190.3 195.4 194.7 190 197.1 205.5 209.3 210.3 212.2 211 208.5 204.1 207.3 211.7 210.4 215 218.1 216.8 213.9 210.8 209.4 209.4 213.6 217.1 216.4 215.7 215.6 216.3 215.8 219 222.7 225.5 231.4 233.4 235.1 238.3 242.3 247.2 250.7 257.1 263.4 277.1 284.3 292.4 296.4 301.1 313.5 324.5 329.5 333.9 341.2 351 380.6 384.7 378.4 375.4 368.1 361.2 345.2 339.7 341.4 339.6 340.8 346.2 343 339.4 334.1 330.5 319.6 310.7 315.3 321.2 322.9 320.1 317.2 323.1 332.7 337.1 344.1 354.1 362.8 372.4 382.2 388.9 394.5 408.5 414.4 414.6 415.5 421.2 434.9 444.5 455.5 455.1 454.5 456.8 458.4 462.5 459.4 447.7 428.7 411.3 389.3 374.3 368.2 368.2 368.3 368.8 369.6 366.6 366.5 365 362.6 362.5 366.4 369 369.6 368.3 362.8 358.6 345.1 349.3 357.4 356.7 347.3 335.7 337.3 335.8 342 340.8 339 329.4 326.8 338.2 342.6 340.9 340 350.7 357.7 357.6 354.1 349.5 348 347.5 342.3 345.2 345.5 338.9 332.9 331.5 326 312.5 299.8
179 197.1 204.6 210.2 213.5 206.9 189.6 174 171.3 178.9 182.2 183.9 187 189.5 191.4 194.4 189.5 184.2 187.9 191.7 195.6 199.8 198.3 195.4 196.8 198.9 201.6 202.5 203 203.2 201.7 201.1 202.4 204.9 206.3 207.3 207.4 206.9 206.1 206.4 204.7 195.2 195.5 193.1 195.1 194.6 195.2 195 196.2 195.4 196.2 199.1 206.5 210.2 212.5 212.7 212 208.6 208.3 211.3 218.1 219.5 219.3 223.6 220.3 218 215.1 213.9 218.1 219.1 218.6 219 221.5 222.3 224.1 225.2 225.7 228.5 232.3 235.4 238.7 242.2 247.2 250.3 255.5 260.4 266.6 274.1 276.2 281.2 286.4 293.6 299.9 309.8 320.3 324 328.9 334.7 343.5 360.7 371.5 362.5 356.9 350.3 346.4 340.6 343.6 345.3 344.4 347.9 347.9 345.4 349.4 343.7 339.2 337.1 329.2 329.6 334.2 333.7 330.1 330.4 333.7 334.9 340.4 346.8 359.8 367.4 375.9 390.1 395.3 401.2 414.1 426 424.3 425.2 429.8 442.7 454.3 460 462.8 461 462.8 464.5 458.4 450.7 444.9 426.4 401.5 385.8 376.6 373.7 375.5 374.3 373.9 375 373.1 372.3 370 370.3 372.6 370.6 371.1 377.8 377.6 386.2 378.6 361.8 366.2 365.6 364.4 357.3 342.6 354 361.4 366.3 364.2 353.5 344 348.9 354.9 353.2 350.3 358.2 365.1 369.6 369.7 369.5 372 371.3 369 365.7 368.8 365.8 358.5 358.9 352.7 339.6 326.1 314.8
198.5 211.6 217.9 224 224.6 211.8 192.9 174.4 176 189.4 189.7 189.5 191.9 192.6 193.4 194.3 194.4 193 198.2 203.8 204.8 210.5 212.3 211.8 214.6 215.7 216.6 218.3 211.9 206.3 205.4 205.9 205.4 207.7 209.3 210.3 210.6 210.6 210.4 209.4 207.2 200.7 198.5 197.9 197.7 198.6 199.8 200.2 201 198.5 199.3 204.5 210.7 214.5 217.2 218 215.8 214.5 215.8 217.8 224 222.1 221.4 227.1 224.7 220.9 219.4 222 227.3 224.6 222.9 224.5 226.5 229 230.3 231.7 233 235.9 239 243.3 248.2 252.2 257.2 257.8 261.9 268.3 276.2 282.9 284.5 281.1 285.2 287.7 295.7 302.7 309.4 316.5 324 329.9 337.3 346.7 352 349.1 347.5 345.8 344.4 347.8 352.9 355.3 352.2 351.4 353.5 360.9 364.5 361.5 356.5 350.2 360.3 349.7 344.9 343.8 347.4 348 344.2 339 345.4 353.8 367.8 376.7 383.2 398.4 402.4 413.8 424.5 436.2 435.7 433.7 438.3 455.5 465.7 469 474.5 476.2 472.5 466.1 459.8 451 437.4 413.1 395.3 382 378.6 377.5 379.2 381.2 379 377.6 377.3 377.2 377.3 376.5 380.4 378.3 375 376.9 379.3 376.6 373.5 366.1 365.7 364.9 359.9 363.8 360.1 363.6 371.6 376.8 377.8 370.8 366.6 362.7 365 366.4 364.3 368.5 373.5 374.1 374.1 373.7 380.1 381.1 379.9 383.5 381.2 382.9 379.5 371.2 363.6 351.8 339.7 331
217.3 225.8 231.3 234.8 231.3 214 194.8 186.8 191.1 196.4 197 196.3 197.9 199.4 203.5 201.7 205.5 211.7 215.4 217.6 223.5 229.5 238.7 240.2 229.4 222.5 221.7 224.5 233 220.3 213.9 209.4 208.6 210.4 211 212 213.6 214.7 215.1 218.7 216.7 210.6 201.8 203.3 203.3 204 205.4 209 210.3 208.5 208.8 216.4 219.1 218.7 221.7 222.7 222.5 223.5 228.3 227.8 228 227 226.7 229.8 229 226.6 228.1 230 232 229.5 231.1 231.1 232.5 236.7 237.8 238.5 238.7 243.3 248.9 251.2 253.3 257.6 261.5 263.5 267.7 272.7 279.1 282.2 283.9 284.5 288.5 289.6 294.4 299.7 304.9 311.1 317.6 325.7 332.2 336.6 339.7 343.5 347.4 346.4 345.9 346.7 352.2 358.3 361.2 359.9 362 370.1 373.8 376.9 378.2 366.8 372.7 371 365.9 365.3 368.6 362.2 353.3 343.8 345.8 356.1 368.4 380 390 403 413.3 424.7 442.5 445 442.5 440.1 453.3 461.3 466 472 474.5 476.2 474.4 471.7 471.2 461.3 435 411.8 392.8 384.9 383.3 382.1 382.2 381.3 378.5 376 375.9 375.9 374.9 375.4 377.1 377.5 374 372.2 371.6 371.7 374.6 373.3 374.1 378.8 378.7 376.7 379 376.4 379.1 379.3 378.8 379.5 373.7 367 365.6 363.4 365 372.4 382.2 383 384.2 386.1 386.9 387.3 396.1 399.3 394.9 389.5 384.6 377.8 372.4 364.7 357.8 351.2
233.6 240.4 243.5 245.1 236.7 218 200.2 197.2 204.7 201.2 207.9 209.1 211.1 216.4 225.1 226 224.8 227.4 234 240.4 246.4 250.8 251.6 250 244.1 231.2 228.5 228.8 229.1 226.4 221.7 217.2 215.1 214.6 213.5 214 216 218.3 218.4 221.8 219.5 217.1 207.3 211 212 210.4 214.1 220.5 221.6 223.7 224.3 221.7 223.6 225.1 226.3 227.5 233 238.6 238.6 234 231.1 231.9 232.2 233.4 232 232.4 234 235.9 236.6 236.1 238.2 238.5 240.6 243.7 247 248.3 247.8 246.2 252.5 258.5 261 263.9 267.5 270.7 275.1 277.9 281.8 285.1 286.8 286.1 291.6 294.6 294 297.9 302.1 309.7 315.7 323.1 331.1 337.9 341.9 347.7 348.4 346.4 345.9 349.3 358.3 363.4 362.9 362.8 367.5 376.4 386.8 395 394 389.3 383 380.6 378.9 383.8 383.5 374.7 361.2 355.9 352.4 363.1 372.3 380.6 394.3 403.7 416.9 436.5 451 456.9 451.7 446.9 444 454.4 466.4 472.8 476.4 479.9 477.7 480.6 475 465.6 440.5 412.1 396.8 395.6 391.1 389.7 387.1 381.6 379.3 377.4 377.3 378.2 379.4 379.7 378.4 379.1 380.4 379.2 379.5 380.4 381 383.2 391.7 393.7 390.2 385.3 384.9 382.6 380 381.5 381 379.5 372.2 365.3 364.5 363.5 372.1 378.2 381.7 381.9 382.6 389.3 399.7 404.1 404.1 408.6 406.8 401.4 397.2 395.3 391.5 383.2 374 369
249.1 253.5 253.9 248.8 234.4 221 204.8 210.3 220.3 218.4 223.6 227.5 230.5 236.2 241.2 245.7 251.8 253.5 253 260.5 270.5 277.3 274.5 267.4 258.3 247.8 241.4 236.2 231.9 229.2 228.6 223.4 221.8 221.1 221 218.6 220 221.7 222.3 223.9 222.7 221.4 218.6 215.5 217.3 219.8 229.2 229.3 230.1 235.5 238.8 232.1 231.8 233.3 233.5 236.4 240.4 247.2 245 238.3 237.3 239.5 238 236.6 235.4 237.5 239.8 241.9 244 241.3 243.1 245.6 248.6 251.7 253.7 254.8 256.9 257.1 259 263.6 267.6 270.9 274.1 278.9 282.4 286.3 293.1 296 292.7 290.5 293.9 297 295.6 297.6 297.9 307.2 315.2 323.6 332.3 340.2 345.9 348.7 349.1 351.1 351.8 359.1 369.6 374.1 373.4 375.2 379.9 389.2 392.6 397.2 401.6 402.6 396.9 398.3 402.8 402 396.6 385.5 375.4 365.7 361.5 366.2 374.9 381.6 395.1 405.7 414.5 424.6 440.2 446.7 448.6 448.7 448 461 467.9 467.1 468.6 468.3 464.8 463 465.4 462.6 434.2 420.1 417.1 416.4 409 400.3 396.7 389.2 385.5 386.6 386.7 391.3 391.5 391.7 391.2 391.4 386.7 385.3 388 387 387.9 396 402.5 401.5 396.1 392 390.3 386.7 388.3 384.1 379.8 377 370.4 366.5 366.9 363.7 374.2 380.3 381.5 385 389.5 388.8 391 396.4 402 406.9 405.8 404.6 408.4 406.7 400.7 397.1 392.6 386.5
263.5 266.2 264.4 247.7 233.7 226.6 221.2 229 235.1 237.6 242.9 249.9 254.4 260.3 265.8 272.8 280.9 281.7 286.3 290.4 292.4 299 303.5 288.5 277.4 264.9 258.6 253.8 246.5 239.4 236.4 231.2 229.4 231.4 228.5 228.3 226.6 226.4 225.9 230.5 229.4 228 227.3 225.4 224.5 231 238.1 234.8 240.8 243.3 247 245.8 241.1 241.8 243.5 250.2 254.6 258.9 254.9 249 245.2 248 245.5 241.6 239.9 241.5 246.1 249.4 251.4 248.5 246.6 250.7 255.4 259.3 261.1 263.6 263.1 262 265 272.2 276.3 279.7 282.6 287 289.1 293.6 296.3 298.9 298.9 298.4 301.2 305.2 304.4 308.8 309.9 313.2 320.5 326.7 335.2 339.6 344.8 348.6 349.7 347.6 350.1 368.2 379.6 383.6 388.3 390.8 394.1 398.5 401.1 410.5 412.2 411.5 407.7 411.9 415.5 412 414.4 402.5 390 383 374.2 373.7 378.2 383.1 390.6 409.2 419.9 429.6 440.2 452.1 457 449.8 453.1 460 472.6 470.4 467.2 464.4 455 441.3 441.5 441.8 444.3 445.1 436.5 429.1 421 415.6 410 397.9 396.2 399 408.8 411.3 408.7 407.5 402.8 401.6 398.4 397.1 395.9 398.6 400.5 405.7 406 399.6 397.5 393.5 393.1 398.9 399.9 392.2 386.8 379.7 372 364.4 361.3 361.6 363.9 376 381.1 382.4 380.7 377.8 374.7 381.6 389.6 398 397.9 400 402.1 398.8 400.1 402.6 396.1 383.7
280.9 281.2 274.6 260.8 251.3 245.4 247.8 247.2 248.9 258.6 263.5 269.5 273.2 284.4 289.7 302.8 314.6 309.8 314 317.4 327.6 339.8 339.2 335.5 308 290.4 274.1 268.7 260.1 257.5 250.2 245.6 240.2 238.3 235.8 234.2 234.7 234.4 234 232.9 236.7 238.2 237.9 240.5 240.2 240.7 247.5 250.3 251.4 252.1 252.3 251.7 258.9 258.3 263.9 269.7 268.1 267.8 262.4 255.9 253.3 253.8 249.9 247.8 246.8 249 254.1 257.9 255 254.3 255.5 260.6 262.8 264.8 269.9 272.3 270.8 270.3 277.1 282.1 286 291.4 293.6 298.4 300 303.8 305.8 306.3 309.1 312.9 315.1 314.7 316.8 317.4 318.8 320.8 321.5 326.9 330 333.3 339.5 344.7 342.8 341.2 355.7 366.4 379.1 389.9 396.1 398.2 394.7 395.8 396.3 402.4 405 405.2 407 415.4 414.7 408.7 403.7 396 390 387.9 385.9 385.6 387.5 390.6 391.9 407.2 417.1 428.5 440.8 452.4 459.2 462.5 464.7 476.9 478.4 472.8 462.9 451.9 443.4 441.3 443.9 448.1 448.7 447.2 442.8 441 433.6 426 416.2 405.5 403.7 408.8 411.7 414.5 413.7 412.9 411.3 409.4 407 402.5 398.4 401.3 407.1 406.7 398.7 395.9 396.4 397.1 397.3 399.8 400.3 394.7 388.3 386.4 381.7 371.4 362.3 361.2 362.8 366.4 366 365.1 363.9 363 361.2 367.8 371.1 379.4 382.2 389 390.1 393.8 394.1 388.7 380.2 368.2
300.3 297.6 297 288.8 277.4 265.9 261.2 272.3 270.2 278.1 284.8 287 294.3 302.2 313.2 319.8 329.7 335 341.9 349.2 355.8 363.3 362.9 360.4 344.5 327.7 310.7 298.6 281.9 269 257.2 255 251.9 246.4 240.8 239.1 241 244 241.6 242 248.2 251.5 252.7 254.4 256.2 247.4 252.5 257.3 260.4 257.5 255.9 260.6 266.3 268.2 269.9 270.8 273.1 278.3 272.2 261 263.5 263 257.3 254.8 253.8 256.4 260.7 263.8 264.2 261.9 264.5 271 274.2 276.1 277.9 277.9 278.5 285.1 289.4 293.5 299.1 301.1 306.4 308.6 308.4 309.9 312.8 318.1 321.6 323.3 327.5 331.3 329.6 326.2 324.5 324.5 321.7 325.1 326.4 329.5 333.5 332.4 336.1 342.6 357.8 368.7 376.3 385.1 393.1 391.7 390.8 391.8 392.5 395.6 400.2 402.3 404.4 410.8 408.8 404.2 397.2 393.9 395.9 391.9 389.7 392.9 395 398.9 401.6 406.7 420 433.6 445.1 453.1 464.2 479.8 479.5 480.6 481.4 481.8 454.5 442.1 441.3 443.3 450.4 456.9 462.7 459.3 454.3 445.5 436.8 426.8 414 406.2 404.4 405.7 409.3 414.3 418.9 415.4 417.4 413.6 408.4 403.1 404.7 412.2 418.5 416.6 411.7 403 400.2 398.5 399.4 401.1 403.8 404.2 398.2 398.3 393.9 378.2 369.9 364.5 359.4 357.1 359.1 357.9 356.1 356 347.7 350.4 355.1 361.7 373.2 377 378.9 382.8 379.5 373.2 363.6 347.6
314.2 310.5 313.8 308.1 302.4 287.3 284.2 295.6 297.5 294.9 299.1 302.9 307.9 318 329.7 340.3 350.2 366.3 376 382.5 380.6 392.3 401.8 395.5 374.1 358.6 336 323.3 313.7 293.9 276.9 266.5 261.1 255.7 250.2 247.1 245.7 247.4 247.7 245.9 249.4 252.8 256.9 260 264.2 257.2 256 261.5 266.6 264 269 269.7 268.5 271.5 273.6 279.4 280.4 278.3 276.5 275.6 277.1 279.7 271.2 263.3 261.8 265.1 264.8 268.1 271.4 272.9 275.7 281.1 283.5 286.5 289.6 292.3 294.7 300.8 303.1 309 311.7 313.6 316.6 319.2 318.9 323.3 327.5 332.7 335.4 340.7 344.6 346.4 344.1 338.7 331.5 323.5 322.5 323.9 324.1 324.4 324.8 329.3 334.9 342.8 354.8 364.9 372 380.1 383.5 389.1 394.4 403.8 399.1 401.5 404.1 408 408.4 408.2 406.2 405.6 406.3 408.9 406 398.3 399.6 402 408 408.1 409.3 413 421.4 434.2 444.9 456.1 468.2 484.7 488.8 489.8 488.9 472.5 446 443.9 451.7 457 456.9 464.9 466.5 466.8 468.7 460.1 453.9 445.2 432.7 419 415.2 418.5 421.4 422.6 426.2 426 431.1 428.8 422.7 420.5 423.4 425.5 424.3 415.9 411.7 409.9 407.6 406.1 408.5 407.8 407.6 404.3 399.7 396.1 389.4 372 362.8 360.2 352.4 350 350.7 347.3 346.3 343.6 335.7 347.9 351.3 347.2 356.9 357.5 363.7 359.9 352.2 346 334.9 325.7
319.9 322.6 326.2 324.9 325.3 311.7 313.4 313.3 311.2 316.9 317.7 319.8 320.5 328.4 337.8 345 358.6 374.4 388.8 404.6 416.7 418.9 426.9 423.3 413.4 382.9 365.3 357.3 340.3 318.6 295.6 281.4 270.5 266.4 261 256.2 252.5 252.7 252.9 253.5 254.1 257 260.2 261.1 265 266.1 263.4 265.6 270.5 268.3 272.2 273.4 274.9 278.6 283.6 286.3 283.9 284.7 288.4 288.5 285.8 282.8 278.7 273.8 275.8 275.1 276.6 280.1 283.6 285.3 289.7 293.4 293.3 298.6 301.6 302.7 304.3 310.9 315 320.6 320.6 324.4 327.4 325.4 327.8 331.2 335.8 339.8 346.7 350.2 346.8 345.3 343.6 336.3 325.6 324.6 326.4 324 325 324.8 325.2 326.3 327 334.3 348.4 356.4 366.1 374.5 384.7 391.4 396.9 398.9 403.5 402.4 404.3 406.2 406.7 407.2 407.4 411.5 415.5 418.6 413.3 407.4 414.7 417.3 421.6 422.7 425.6 420.7 431.3 441.5 453.5 467.1 476.6 482.9 480.4 482.1 468.5 453.8 448.8 449.4 454 460 465.6 465.7 466.9 467.1 465.1 453 445.6 443.9 448 450.4 435 430.9 432.2 431.4 436.8 440.8 442.7 442.3 441.7 436 430.6 427.7 421.6 418.6 414.9 413.4 411.7 405.6 405.5 407.8 405 403.5 400.3 389.6 369.3 361.7 354.1 349.1 343.6 340.8 342 338.8 341.1 335.4 332.8 337.4 333.8 330.5 333.9 335.8 338.1 337.1 332 326.4 319.4 309.3
337.1 330.7 330.5 330.5 329.6 324.3 317.1 319 317.9 324.4 326.7 328.3 331.3 332.6 342.1 349.8 361.5 375 392.4 411.5 426.1 436.9 440 442.1 437.2 425.3 385.6 365.1 353.5 336.5 318 300.1 284 274 270.3 266.5 262.1 259.4 259.6 261 262.9 266.6 268.4 269.9 270 273.4 271.8 267.5 271.9 275 278.8 286.7 286 284.1 288.5 292.9 293.2 293.5 290.8 291.6 290.3 287.2 285.6 286 289.3 291.3 291.5 294.4 296.1 297.7 299.8 305.4 307.2 312 311.3 317.4 321 324.6 330.2 332.3 333.2 336.1 335.4 334.6 337 339.6 339.8 344.5 346.5 345.2 343.4 347.4 342.7 329.6 324.3 325.7 327.4 327.1 326.4 325.2 327.2 328.6 332 334.9 342.5 353 364.8 371.9 382.4 389.3 395 397.6 401.7 401.6 404.7 408.2 409.3 410.7 413.5 417.6 425.8 424.5 420.3 418.8 424.1 432.3 432.9 432.9 431.6 431.3 447.3 455 459.9 474.9 483 479.5 468.4 460.3 454.8 458 459.7 462 463.4 469 474 477.6 472.4 462.8 453.5 446.1 446.5 445.4 448 447.4 445.5 445.3 447.3 445.9 446.8 453.7 449.4 444 437 438.4 434.3 426 420.7 419.9 418.3 416.7 412.6 409.7 403.5 398.5 395.5 391.4 386.2 377.8 363.8 354.9 347.6 342.6 336.4 331.9 327.8 328 324 322 322.3 321.1 321 321.6 325.1 327.6 328.9 327.7 325 317 311.8 311.6
339 334.5 328.7 325 328.3 319.3 319.4 324.3 323 329.9 330 332.2 333 339.2 352.1 369.5 377.6 388 401.6 409.6 421.1 439.7 451.9 449.1 450.9 451.8 435.1 390.5 365.8 348.6 334.1 317.3 304.9 288.1 278.7 275.8 272.2 269.6 267.5 267.4 269.8 273.9 275.6 276.3 278.2 280.4 279.8 282.4 281.9 286.6 289.1 291.8 295.2 295.9 294.4 297.6 301.1 299.9 300.2 302.2 296.6 295.8 295.9 296.2 300.3 303.4 300.9 307.1 310 313.5 315.1 319.9 320.9 323.3 320.3 323.8 327.3 332.7 338.4 340.4 341.3 344.6 344 345.4 345 344.9 347.6 348.2 346 343.2 338.6 338 332 325 326.8 328.3 329.6 328.5 327.4 327.5 331.1 336.3 339.5 346.7 353.5 358.3 365.7 374.1 383.2 390.7 395.8 399.5 402.8 403.5 407.8 412.6 414 420.2 425.8 430.9 438.1 436.8 429.9 424.5 430.4 436.4 436.3 436 434 437.4 442.2 456.1 462.3 479.1 485.7 467.8 464 467.8 470.6 472.7 478.5 487 487.8 482 484.4 482.2 477.3 465.7 458.2 459.9 458.8 452.3 451.6 448.5 446.3 445.3 445 449.2 451.9 450.7 443.4 437.4 434 433.7 426.7 425.6 420.2 421.5 424 415 407 402.1 401.3 397.9 395.8 392.5 383.7 374 359.5 349.3 340.1 334.6 329.6 325.2 325 324.8 325.2 322.8 319.3 321.4 322 322.6 325 325.8 325.4 322.7 313 310.6 307.1 303.2
339.3 340.5 328.4 323.1 322.2 318.9 322 329.3 336.7 341 343.9 337 338.2 346.1 357.9 368.7 380.8 395.4 409.1 420.4 433.6 440.6 450.7 455.8 460.9 460.9 453.8 437.2 392.8 364.1 351.8 338.3 320.4 309.6 292.6 288.3 284.4 280.9 278.3 276.5 279.3 279.6 284.7 287.2 289.4 291.3 292.8 295 295.6 297.6 301.7 300.9 301.4 307.5 310.3 305.3 308.5 308.2 308.3 310.4 308.6 308.4 308.3 308.7 314.9 315.7 313 313.8 318.1 321.8 327.2 331.8 334.1 331.1 328.9 332.1 337.4 341.5 345.5 347.7 352.3 356.6 358.3 356.3 355.2 353.7 353.5 349.8 344.9 339.6 336.2 334.1 332.2 332 336.4 340.4 337.5 333.7 329.1 329.8 332.8 337.4 346.5 350.7 356.6 362.6 369 375.4 384.4 390 395.6 399.7 407.4 410.6 415 418.1 423.3 430.3 438.3 446.6 453.9 454.1 447.1 436.7 429.2 432.4 437.7 433.6 434.1 436.7 437 443 452.2 462 467.4 470.6 476.6 480.5 482.7 483.7 490 490 494 498.4 500.7 497.1 486.6 474.1 462.3 463.9 463 462.2 465.2 454.4 448.8 444.8 444.7 447.6 447 441 433.2 435.4 437.7 431 423.5 419.7 418.4 415.9 412.5 405.6 400.8 399.7 395.6 394.6 398 392.9 383.2 368.7 354.4 339.8 327.5 327.8 329.5 332.1 332.5 330.1 328.1 322.5 317.9 316 317.9 320.2 321.7 321.9 315.2 310.3 310.6 309.4 305.1 298.5
343 343.4 339.5 329.8 329.1 325.1 324.9 333.6 342.2 348.9 346 346.9 350.6 356.6 369 376.4 385.7 396.8 409.7 426.7 443.6 452.9 457.2 468 477.8 485.3 479.2 448.3 425 389.5 364.9 347.4 331.2 319.3 310.4 304.1 298.4 293.9 290.7 283.1 288.6 288 293.2 296.8 297.9 299.9 302.9 306.1 307.8 308.1 311.9 311.9 314.9 320.2 321.9 319.2 324 326.9 327.5 326.3 329 329.2 324.3 325.9 330 330.6 325 320.6 320.5 325.5 335.2 338.5 342.3 339.2 340.3 339.6 344.7 349.1 356.6 359.8 364.1 370.2 373 370.7 368.7 367.2 364.1 358.4 353 351.3 342 338.9 342.1 341.7 345.5 342 339.5 337 334.5 330.9 334.5 346.4 351 354.1 359.9 366.8 373.8 379.5 385.6 391 395.5 400.3 406.8 413.2 420.1 425.8 432.9 441.5 452 458.6 463.4 462 460.3 452.1 440.5 431.3 429.5 430.3 430.8 433.8 444.1 450.4 456.9 465.1 475.8 486.6 492.6 496.9 504.1 503.3 502.2 503 501.7 500.3 498 498.3 497.1 489.6 474.3 468.4 470.3 465.5 460.8 455 447.5 441.2 439.9 438.9 437.7 433.6 433.2 437.2 440 433.9 423.6 418.5 419.3 416.3 411.5 404.8 396.2 393.1 390.2 385.4 390.8 386 375.8 353.3 341.8 332.1 331.6 329.4 330.2 329.1 327.2 327 321.9 311.7 314.3 316 316.3 317.6 311.2 308.5 310.2 311.7 311.7 307.3 301.1 296
338 344.4 341.4 339.1 334.4 330.3 329.9 335.7 344.3 353.7 350.2 349.2 355.9 366.8 379.8 390.9 401.2 407.2 418.7 431.3 447.6 456 463.7 474 492 509 497.7 475.2 454.1 414.1 382.9 361 345.8 333.9 327.5 319.1 310.1 305.8 300.7 293.5 299.7 298.4 298.8 305 306.8 309 311.9 315 316.4 318.9 321.6 325.4 331 333 334 335.8 340.7 341.5 342.3 350 355.8 359.2 355.1 347.4 343.2 346.3 342.5 336.6 333.4 341.1 342.1 342.4 343.9 344.4 345.7 353.4 352.7 361.1 366.7 371.8 375.3 381.8 387.3 388.6 385.2 380.8 377.8 373.3 366.8 362.9 359.5 354.1 351.3 351.4 350.2 346.3 341.6 341.6 338.5 337.3 342.5 346.8 354.5 358.2 365.3 371 376.8 382 387.3 392.1 396.5 401.5 407.3 413.7 421 427.1 435.5 447.2 457 462 464.4 469.1 468.8 463.2 451.1 440.5 435.6 434.1 433.5 444.1 453.7 462.4 469.9 484.5 502.4 514.2 518.6 525.8 527.7 520.4 510.8 510.2 507.2 503 496.4 494 493.7 487.5 481.3 477.3 476.5 472.8 468 460.8 453.9 447.8 441.3 439.1 436.8 436 433.3 432.7 432.7 423.3 416 415.4 418.1 414.1 408.5 401.6 392.1 386.1 378.3 368.9 362.7 354.5 343 339 338.1 334.7 330.2 326.8 326.7 326.9 323.8 320.7 309.9 311.8 316 316.5 310.6 309.1 307.5 308.4 311.6 312.7 310.4 306 299.9 297
335 338.1 336 334.1 332.4 330.4 330.8 335.2 342.1 350.8 356.8 361.7 369.5 375.8 385.5 395.9 405.7 421.6 434.7 442.8 456 465.8 473.7 483.7 494.1 508.8 506 498.6 465.5 441.9 411.7 379.1 361.9 350 341.8 330.1 323 317.6 310.6 308.3 309.9 309.4 304.7 315.5 317.7 319.7 322 324.4 329 327.9 334 337.4 342.6 344.5 347.2 347.8 350.6 358.3 365 369.4 376 381.2 375.5 366.5 366.4 369.4 366 355.7 354.6 355.9 350.3 349.2 350 351.8 349.6 359.2 360.1 368.5 373.9 381.2 386.7 394 400 408.4 405.1 406.4 401.6 395.7 385.9 383.5 380.5 375.4 366.6 365.6 360.2 356.1 352.4 348 341 339.5 341 344.3 350.3 357.3 365.5 369.2 377.4 383.2 387.6 393.4 397.4 403.3 407.1 412.4 419.5 426.3 434.8 446.5 457.5 464.7 471.3 473.1 468.8 461.5 451 452.5 451.9 449.3 445.3 452.8 464.5 471.7 486.7 497.2 519 525.9 526.7 530.2 535.4 536 535.3 528 524.8 522.2 515.7 498 494 497 492.6 485.7 484.9 481.6 476.8 472.1 467.3 460.7 448.9 443.8 440 434.6 427.1 425.6 421.4 414.7 407.5 408.7 406.9 402 399 389.7 379 367.7 356.8 345.4 342.2 340.3 336.4 333.6 331.2 328.8 326.5 325.3 319.5 314.7 311.6 309.9 309.9 309.9 313.9 312 313.6 310.3 307.4 307 309.7 308.5 307.7 302.5 301.6 305.9
330.4 337 336.2 335.6 338.4 335.6 334.2 338.4 346.2 354.8 362.7 367.3 372.2 380 388.9 400.6 416.3 433.2 447.7 455.8 465 471.6 484.8 494.2 501 509.7 513.4 509.5 495.6 477.9 450.6 422.8 391.5 371.3 354.4 346 337.8 327.8 314.7 319.5 319.7 319 313.9 323.6 327.4 330.4 332.9 336.1 338.8 339.3 344.5 349 353.5 355.8 361.6 360.5 365.4 370.6 375.8 385.3 396.3 402 412.1 415.3 401.6 396.9 395.5 394.1 379.7 374.8 370.9 364.6 365.5 361.9 357.7 362.1 369.4 376.9 382.9 388 397.1 403.2 410.8 423.2 423.1 419.9 418.4 408.7 399.5 401.7 404.4 399.7 386.4 381.8 369.8 358.7 350.9 345.1 345.3 347.1 344.9 349.3 352.5 355.1 363.3 365.2 371.3 378.9 385.7 393.7 398.2 400.4 403.4 409.1 416.6 424.5 433.1 442.9 455.4 462.1 464.8 463.7 460.3 460.2 457 454.6 451.8 453.3 453.4 462 476.6 482.5 491.6 504.3 518.2 529.7 540.9 539 538.2 541 537.8 530.5 525.7 525 527 531.3 526.9 526.3 516.2 501.7 494 487 484.6 475.9 471.1 465.4 459.4 447.6 441.4 435.2 430.1 421.1 408.7 399.1 394.3 395.5 391.1 391 384.6 372.9 354.9 350.4 349 345.1 343.7 340.1 335.6 332.9 330 327.6 322.9 316.4 309.9 309.9 309.9 309.9 314.1 311.8 315.9 325.7 316.4 310 307 309.2 305.3 303.3 303.3 306.6 309.7 310.1
329.6 335.6 337.2 338.2 351.4 348.5 346.9 352.5 358.5 365.1 365.8 370.7 377.8 386.1 396.5 408.5 422.5 434.6 444.8 460.2 472.2 483.9 500.6 511.4 512.8 515.9 514.2 511.6 507.1 499.6 484.7 470.4 435.4 412.2 381.8 355.2 350.8 340.1 329.4 328.3 328.7 329.6 327.4 322.7 334.6 337.9 341.4 345.4 350.6 353.9 356.5 360.4 364.5 368.8 372.3 373.7 376 379.7 389.3 398.8 405.8 413.1 422.1 434.4 432.1 416.9 418.4 408.2 395.5 386.2 385.5 380.4 379.1 373.7 375.7 373.1 372.6 381.9 387.6 393.8 398.4 406 416.4 424.9 428.5 426.5 424.2 419.4 428.8 423.6 415.6 406.3 397.2 391 379.5 363.6 351.6 353.3 356.1 354.4 351.1 354.4 357.3 360.6 364.9 364.7 369.7 378.1 384.8 389.8 395.8 399.5 402 406.5 412.9 419.9 428.4 438.4 447.4 452.1 453.8 456.1 459.5 459.7 457.3 451.2 449.7 453.5 461 468 478.5 486.4 488.8 504.2 515.5 528.6 537.9 548.6 549.4 550.4 548 543.2 535.3 530.7 532.6 537.6 542.3 542.3 535 518.9 511.4 500 494.6 483.2 473.2 463.9 453.8 445.4 438.5 428.4 423.5 412.8 396.1 388.2 384.6 379.7 377 373.9 360.9 357.4 359.1 359.8 354.9 351.5 349.6 347 342.3 336.8 332.7 325.6 321.4 315.8 309.9 309.9 309.9 314.1 314.1 313.3 323.1 325.5 313.7 307.6 309 310 304.8 304.3 307.6 311.9 313.3 313
327.3 337 348.5 351.8 361.3 364 364.1 365.9 372.1 378.3 383.4 385.2 389.9 396.5 404.9 414 424.7 438.7 452.1 469.5 480.1 491.2 510.2 527.6 532.7 531.3 527.2 520.1 511.6 502.3 489.1 470.3 460.1 442.6 404.6 376.8 362.9 350.9 345.2 341.2 340.6 341.7 339.4 332.7 344.1 348.2 350.4 354.2 359.6 364.7 369.4 375 377.6 382.3 384.6 387.2 385.6 390 397 405.7 413.4 422.9 428.1 438.1 429.9 420.4 415.1 410 399.1 397.2 394.3 390 385.9 384.5 384.4 386.9 388.6 392.3 397.2 401.4 406.8 416.3 422.5 430.2 429.2 425 422.8 423.9 428.8 427 414 403.2 394.3 386.4 378.9 367.2 360 362.3 362.3 360.2 355.1 360.6 365.4 367.5 368.6 372 374.9 382.8 388.4 395.2 395.3 396.6 400.8 407.3 411.9 415.3 418.4 426.3 436.1 443.4 450.7 455.4 457.4 456.5 452.2 448.3 448.7 449.1 458.9 467.7 479 486.2 493 503.8 518 534.7 546.7 559.5 563.5 568.3 568.5 561.2 555.6 549.1 545.8 544.3 546.1 550.4 544.7 528.8 518.7 509.9 501.8 496.6 485.1 474.4 460.4 444.6 435.9 421.1 408.1 394.1 380.1 376.3 373.5 371.6 369.9 367.6 368.3 369 366.4 363.4 358.7 357.4 357.4 360.7 354.3 344.9 338.4 326.9 316.2 316 310.6 309.9 318.1 319.7 317.9 310.1 313.3 309.8 309.2 307.8 307.9 309 307.5 310.1 313.2 314 314.3 307.4
333.3 347 357.8 374.9 392.7 396.8 405.7 412 418.2 411 411.3 406.9 410.9 419.5 419.4 423.1 431.5 445.5 460.3 475.3 491.7 501.8 518.6 536.3 551.7 560 562.2 551.6 541.5 500.6 476.8 466.1 449.6 439.7 413.2 392.5 377.5 365.6 362 359.4 357.5 354.9 353.6 345.7 356.4 363.7 364.8 368.9 372.9 378.6 383.3 386.3 386.6 393.1 395.4 397.4 397.5 400.9 405.6 409.9 418.2 425.5 425.4 421.1 415.5 410.4 408.7 406 401.5 400.3 398.7 397 399.5 401.2 403.7 407.5 409.1 414.1 417.7 419 421.2 423.5 427.5 431 430.2 429.4 427.2 423.7 417.2 410.3 397.3 392.7 388.4 382.4 374.8 366.4 365.3 366.1 369.6 369.5 366 369.6 378 379.9 390.6 396.4 396.2 394.3 403.1 407.8 406.1 405 408.5 411.2 411.5 414.4 415.9 419.5 428.9 439.4 447.4 452.1 455 456.1 453.5 446.6 446.3 450.6 459.9 468.8 477 489.6 497.9 507.1 523.1 545 564.7 577.3 579.5 584.4 584.6 574.2 567.8 558.5 551.8 552.1 545.3 539.3 537.8 537.5 530.7 517.7 508.4 497.7 487.1 478.7 461.2 434 413.3 400.1 389.2 384.6 380 378.2 376.6 375.4 375.6 372.7 372.4 371.5 370.9 366.4 358.5 356.3 358.2 358.5 350.9 340.8 335.7 332.4 319.8 313.7 313 315.9 316.6 316.5 312.3 307 307 310.8 310.2 307.8 308.1 313.6 314.9 315.4 314 314 312.5 311.5
332.4 347.9 366.1 392.4 414.2 433 444.1 457.8 465.1 467.5 442.5 427.9 422.9 423.8 429.3 437.6 444.6 448.8 462.6 479.5 495.7 515.4 531.8 547.8 559.5 571.2 574.3 569.5 545.8 525.9 493.8 459.6 449.7 440.6 417.8 404.2 388.2 378.1 376 374.3 371.6 369.5 367 362.2 362.9 376.9 381.8 385.7 388.5 395.8 399.2 401.4 403 406.4 408.2 410 408.7 411.6 413.4 418.4 421.1 425.5 421.9 418.6 415.5 413.4 412.1 411.1 409.7 412.3 412.8 413.2 415.3 418 419.1 422.9 425.1 427.4 428.6 429.2 427.1 427.6 429.2 429.3 427.5 425 423.2 420.3 415.3 406.1 396.6 390.6 385.3 380.4 372.1 373.8 372.8 373.6 376 379.5 381.8 384.7 393.9 401.4 405.2 415.9 422.4 414.7 412.6 411.5 417.8 418.8 417 414.7 411.9 413.3 413.8 419.2 425 433.6 442.2 448.1 449.6 449 448.7 442.5 445.9 452.6 463 472.2 482.2 495.4 505.6 511.5 524.7 536.5 561.6 581.7 582.7 582.2 586.5 582.5 572.4 559.6 546.8 539.1 534.2 539 533.7 531.3 525.9 511.1 505.5 493.2 480.2 464.4 442.3 424.6 404.3 390.6 390.9 385.1 385.2 384 380 380.2 381.4 375.9 370.3 366.3 363.6 361.4 354.4 352.1 352.5 351.7 342.5 334.5 327.3 326.2 317.8 312.5 314.6 316.1 318.9 314.2 307.8 307 307 307 307 307 311.9 319.1 315.6 313.8 313.9 313.3 313.4 311.9
334.2 349.7 377.5 395 421.3 439.4 462.2 474.2 495.8 491.4 461.5 445.3 436.1 438.4 445.2 453.9 465.4 475.2 478.1 487.3 503.8 523.1 544.4 555.1 564.4 569.8 571.2 574.8 558.4 526.4 489.8 463.3 447.9 436.2 420.4 409.4 397.4 389 390.5 389.5 385.9 381.3 381 378.5 381.3 389.3 395.7 401.6 410.9 418.3 422.4 425 425 424.2 421.4 419.7 418.6 420.2 422.9 426.3 426.2 430.3 429.9 428 427.6 427.9 428.9 428.7 429.5 429.1 426.2 426.2 428.8 432.2 432.8 433.2 435.3 437.2 437.3 437.2 436.9 435.4 431.4 428.4 424.8 420.3 416 412 407.3 402.5 398.1 394.1 386.2 384.4 381.8 382 383.9 388.1 390.9 392.4 394.2 400.2 407.3 412.3 420.7 426.2 433.7 430.5 425.2 421.8 424.6 420.6 420.9 415.9 412.5 415.3 416 420.6 424.3 429.7 436.1 440 442 442.2 441.8 442.2 449.1 458 468.1 476.5 486.5 497.9 508.1 513.2 517 533.4 546.8 561.2 571 566.6 565.1 569.3 561 551.2 535.9 531.4 533.8 530.6 527.9 520.2 509.9 501.3 494 480 462.5 440.3 424 413.5 406.4 401.8 397.9 384.7 382.1 380.4 377.5 374.2 369.9 365.9 363 360.6 359.1 355 350.1 348.5 347.3 343.4 338.9 332.3 325.8 319.4 313.3 313 318.3 321.8 320.8 315.5 308.4 307 307 307 307 310.6 316.2 316 314.5 314 314.9 316.6 314.1 312.5
339.7 354 382.7 402.8 423.7 441.9 455.6 477.4 489.8 499.9 486.9 468.5 463.1 458.7 470.7 483.9 496.7 500.2 507.9 518.9 517.6 532.6 542.4 553.9 564.8 565.7 560.2 562.9 556.6 524.9 500.5 474 447.7 435.9 427.5 419.4 412 405.7 401 401.3 401.8 404.2 402.9 395.7 398.4 401.1 411.3 416.9 430.6 436.7 442 447 449.5 451.6 446.2 438.4 433.7 431.9 434.8 437.1 438.2 439.7 441.3 444.9 450.7 451.6 459.7 459 457.7 457.3 446.3 442.5 441 442.7 446.5 447.7 447.4 445.8 443.8 442.2 442 442.4 437.6 434 428.6 424.3 420 413.7 408.4 403.6 398.8 395.6 392.6 393 393.1 393.1 395.2 400.1 402 405.5 409 411.9 416.2 420.2 424.6 430.9 440.6 437.6 433.7 428.8 429.3 427.1 425.7 423 422.7 420.3 419.6 422.1 424.4 426.6 427.7 428.9 432.9 439.9 443.9 447.7 455.3 461.8 470.2 481.4 490.4 502.2 506.9 511 514.9 516.1 525.3 539.3 547.8 545.5 554.5 550.5 534.4 518.1 515.6 524 523.7 516.5 506.5 503.4 501.1 494.8 483.7 459.6 438.4 428.6 422.4 415.7 409.5 403.7 394.6 385.3 380 378.2 374.1 369.1 365.3 361.2 359.4 357.1 354.4 349.4 345.9 345.3 343.9 341.9 337.8 331.3 329.7 323.3 315.2 318.7 322.6 325.1 325.3 322 314.7 307 307 311.8 315.4 317.4 316.1 315.7 318.6 319.7 321.8 322.8 315.9 319.9
342.6 354.7 372.7 391.5 418.9 438.8 455 466.5 483.5 495.5 499.1 498.1 486.9 497.4 506.3 511.1 512.9 514.4 517.4 522.8 527.5 535.2 540.8 546.4 558.3 569.3 558.4 548.7 549.9 538.4 514.7 490.2 472.7 448.5 440.3 435.5 427.5 424.1 422.4 421.4 420.2 419.4 418.6 412.6 407.9 419.6 426.4 436.3 450.9 463.6 467.1 469.5 469.8 462.9 456.7 453.7 449 445.3 446.6 448.2 449.2 449.5 455.9 463 468.6 478.3 482.1 481 480.5 478 473.8 470.3 467.4 462.3 461.1 466.3 464.7 460.5 456.7 449.4 446.5 444.3 441.2 438.1 434.8 432.1 429.2 427.3 420.9 413.8 407.5 398.8 397.3 398.7 399.8 401.7 403.9 408.6 412.4 415.3 417.2 419.7 422.3 425 426.7 429.8 434 438.5 439 434.6 429.9 426.7 424.4 424.9 424.5 425.6 425.6 425.6 428.1 431.1 430.9 436.4 439.9 443.5 449 452.7 455.1 461.2 472.9 483 493.4 501.6 508 525.1 525.1 518.8 508.9 515.9 518.8 524.5 529 527.7 511.7 498.3 490 497.8 505.8 506.3 505.9 497.4 493.4 485.3 475.5 453.1 442.1 431.9 426.3 417.6 408 403.1 395.6 385 380.8 377.7 371.9 369 366.8 361 358.2 356.9 356 351.5 347 349.8 351.3 347.9 341 335.1 328.1 326 318.8 324.6 331.9 334.2 329.1 323.5 314.9 307 312.1 314.9 316.7 317.8 320.3 324.6 326.6 329.5 330.8 326.1 324.1 323.7
340.7 355 375.8 397.2 420.9 446 460.5 482.1 486.4 488.8 496 509.3 512.6 512.9 520.5 524.8 531.1 544.1 554.7 556.5 552.6 543.5 539.3 543.5 556 558.9 558.4 541.5 538.1 544 523.4 507.8 490.2 473.5 460 457.9 447.4 440 439.2 437.3 435.3 433.4 430.6 423.7 416.2 431 440.8 449.2 467.3 480.6 488.6 495.4 497.5 487.8 477.2 468.2 463.3 460.7 456.9 456.4 457.9 459.1 465.9 473.9 481.6 488.8 492.8 492.4 491.5 492.9 499.4 500.5 490.5 488.7 485.4 487.3 488.3 484.6 476.7 464.6 458.5 450.9 445.2 440.3 437.8 436.8 435.3 432.5 425.7 418.8 410.3 408.7 409.2 410.6 410.9 413.4 413.7 417.5 422.8 424.9 425.7 426.4 428.9 429.9 431 431.9 435.1 439.6 436.6 431.4 432.6 431.7 429.8 428.8 427.9 428.9 430.4 431.1 432.9 437.3 439.2 440.9 444.6 449 454.2 457.7 462.5 469.4 479.5 491.6 501.1 506.2 509.9 526.5 525 516.6 508.6 496.8 501.6 502.4 511.5 505.3 497.2 490 484 482.7 484.9 488.2 488.3 482.1 479.5 473 460.9 456.7 453.5 438.6 425.5 415.4 410.2 400.9 392.3 387.6 384.8 379.4 372 366.7 363.6 361.2 358.6 356.2 355.4 354.4 351.6 353 353 351.1 348.4 345.1 343.8 333.6 328.1 334.8 335.2 329.9 325.3 322.4 314.9 315.8 318.8 319.1 320.3 325 328.8 330.9 332.5 335.7 334.2 326.5 332.3 332.5
343.3 359.9 380.7 397.3 421.2 444.3 458.9 475.8 491.9 498.5 500.5 507.9 514.6 524.7 528.5 541.8 551.2 558 570.8 579 582.7 564.1 545.9 545 549.5 554.5 554.8 549 538.5 530.7 524.1 514.2 504.9 495.2 481.7 469.3 461.2 457 452.8 452.1 448.8 445.5 441.8 431.1 431.8 445.9 451.5 462.2 484.1 500.7 511.3 509.1 509.1 506.1 499.7 492.7 487.8 477 471.7 469.7 467.1 467.9 474.6 483 492.3 502.7 516.8 535.2 529.7 531.6 528.1 521.3 517.3 512.4 511.7 509.6 508 499 493.8 485.8 476 471.2 462.4 456.4 449.9 449.1 451.3 442.8 436.8 427.5 419.5 420.2 420.5 422.5 423.5 423.8 425.2 429.8 433.9 436.3 437.7 439.5 442.1 442.3 440.3 442.1 445.4 443.6 442.3 440.9 439.6 441.3 439.6 437.1 434.8 437.8 438.8 436.7 439.3 440.6 444.4 447.7 450.5 455.1 459.4 463.3 468.2 476 485.4 493.2 499 504.2 507.6 520.9 522.9 513.1 506.4 494.4 480.6 481.1 481.8 486.4 490.5 485.5 481.8 479.6 480.6 479.7 481 476.1 470.9 469.2 468.8 465.6 449.7 439.3 433.3 429.6 426.4 419.6 409.9 401.7 393.5 385.7 378.2 370.9 365.9 360.7 357.3 356.8 357 355.9 355.4 354.3 351.9 351.9 350.3 349.5 347.5 337.2 333.9 337.8 332 325.8 324.6 323.4 323.7 320 324.2 327.4 331.6 332 335 336.9 337.4 337.8 336.8 331.2 335.8 336.6
343 361.3 380 394.4 416.3 439.2 455.5 471.1 492 508.6 521.6 522.4 520.6 523.1 529.6 539.7 553.4 567.9 577.1 586.5 598 592.5 570 560.2 558.5 560.7 565.3 554.8 543.2 533.8 526.8 522 520 505.7 491.2 483.5 474.3 469.8 465.7 465 462.1 458 453.5 443 443 455 459.7 474.9 496.6 511.3 523.2 525.6 526.6 524.3 521.7 516.5 509.5 500.5 487.4 483.1 481.2 479.1 484.8 492.4 503.8 518.1 535.4 547.6 551.6 551.3 549.9 544.5 536.9 537.8 534.2 533.8 531.7 523.7 513 502 491.4 490.4 481.3 473 466.6 461.6 457.8 449.8 443.1 436.6 429.2 428.1 431.3 431.9 432.8 434.3 436.8 441.7 446 447.5 451.1 453.4 454.2 457.9 457.4 456 456 453.3 451.4 450.3 452.5 451.9 448.1 444.5 440.5 443.6 446.8 448.6 450.1 449.3 449.9 452.3 456.6 462 465.4 468.8 475.1 484 492.7 499.3 502.2 503.7 507.3 508.7 503 500.8 497.9 493.4 483.4 472.3 476.3 472.5 486 486.4 479.2 480.8 488.9 494.4 488.8 480.9 475.8 474.8 471.1 459.9 447.5 444.3 443.5 442.7 430.2 421.5 417.9 413.6 410.1 399.6 391.2 379.4 370.3 367.5 363.3 359.9 358.2 357.6 356.1 355.8 355 353.8 351.2 351.1 345.1 336.2 340.6 340.3 336.3 337.8 336.6 333.7 331.2 331.9 335.1 334.9 338.3 340.3 342.4 343.8 343 341.8 337.7 339.1 337.5 336.8
345.5 361.7 380.8 395.2 411.7 435.8 454.8 469.7 484.4 502.8 519.2 531.9 533.5 530.7 537 546 546 558.9 575 593.2 603.7 605.3 610.9 604.2 576.1 573 571.5 566.4 551 543.7 549.3 551 540.9 535.4 518.4 507.4 493.6 486.4 480.2 476.9 473.6 468.9 462.4 451.9 447.6 460.5 469 485.8 505.1 519.7 532.9 544.6 548.2 549.1 544.7 536 529.9 518.3 507.9 500.4 497.6 491.5 491.5 499.5 509.1 523.9 541 553 557.4 559 559.7 561.8 570.2 570.2 567.1 569.9 562.2 553.7 543.2 529.1 513 504.1 492.4 482.1 474.2 466.4 459.4 452 445.5 441 438 440.3 441.6 443.6 444.7 445.6 449.4 450.3 454.2 458.6 461.3 462.3 462.2 462.7 467.4 466.9 469.2 470.7 465.9 466.5 466.7 465 460.9 455.5 448.1 450.7 454.1 456.8 459.9 461.8 464.1 464.1 466.1 470.3 474.9 481.5 488.5 495.3 501.6 506.7 508.2 510.1 510.9 513.1 508 504 496.2 489.3 479.8 474.9 472.4 463.7 460.9 468.2 471.3 477.4 479.1 483.4 483 482.4 483.9 483.5 476.2 471.7 468.6 458.8 450.8 445.8 441.1 444.9 433.5 424 420.4 409.5 395.5 382.6 366.7 368.3 365.9 362.2 360.4 356.5 356 354.8 357.3 354.9 355 354.7 348.9 339.4 347.5 350.3 345 345.9 346.5 344.6 347.1 349.8 350.4 349.6 346.4 347.1 348.6 348.7 346.4 344.9 341.5 342.1 342.2 336.8
345 361.7 378 391.1 408.6 430.4 449.2 465.3 477.8 493.4 508.7 522.2 536 530.8 533.7 548.1 558.3 562.3 570.8 582.3 587.9 595.5 602.4 608.5 610.6 600.8 596.8 577.4 560.6 554 553.9 559.1 555.6 550.9 547.2 543.2 535 515.6 498.9 488.3 481.6 477.8 470.5 453.4 463.3 471 477 494.4 517.4 534.9 546.2 557.2 561.5 561.4 555.9 552.3 542.3 534.5 525 516.8 508.6 502.2 503.4 506.4 513.4 526.3 542.3 557.4 568.2 573.1 579.3 581.8 585.2 588.6 592.2 595.2 592.6 583.8 569.4 553.8 535.3 522.8 510.4 498.5 491.6 481.3 472.5 463.1 453.9 449.2 448.4 451.8 456.4 460.2 462.5 465.4 467.4 469.8 470.9 468.6 472.8 473.2 472 472 478.3 480.2 481.1 481.2 484.9 484.5 482.7 478.7 474.4 466.5 460.7 461.2 464.8 469.7 472 473.1 476.3 479.2 481.4 484.4 487.6 491.1 496.7 503.2 508.2 511.8 514.6 513.9 514.2 511.7 507.5 502.2 493.8 487.4 482.2 474.9 463.3 456.6 454.8 456 465.7 475.7 480.4 482.6 480.3 481.2 495.1 495.8 492.2 478.5 465.6 453.7 445.6 443.1 440.7 437 431.3 421.7 420.9 412.9 403.6 394.2 378.2 371.6 369.8 367.2 364.4 357.8 355.6 357.8 360.5 355.6 351.1 350.5 351.2 353.8 355.7 351.2 359.1 356.8 350.5 348.1 352 351.8 351.8 349.8 348.6 351.2 352.2 352.7 350.8 348.8 346 344.7 344.5 340.2
340.8 356.3 374.4 387.5 403.3 420.3 439.8 456.9 471 481.4 495.2 509.7 521.6 526.7 527.1 538.1 551.4 558.5 565 576.4 586.6 597.6 604.4 613.6 625.6 616.9 608.2 587.6 571.3 565.2 562.5 561.6 564.6 568.1 563 553 553 549.7 529.6 505 490.1 482 472.9 467.5 472.9 476.4 487.9 506.6 527.6 547.1 562.7 577.8 588.1 588.7 582.8 569.3 556.1 546.9 537.9 527.6 517.6 512.5 512.2 511.5 517.8 529.2 542.2 557.1 569.1 577.2 581.8 586 588.3 589.6 594.8 598.9 596.1 591.9 585 572 557.3 545.7 534.9 518.4 507.2 491.6 480.8 471.5 465.6 465 465.5 467.1 470.4 477.2 481.2 484.8 488.3 492.5 493.4 493.2 490.8 487.3 489.1 484.4 486.5 488.7 493.1 497.6 501.7 499.9 497.8 495.6 490.5 484.7 476.1 475.5 476.4 477.7 481.6 486.4 489.9 493.4 496.2 500.3 503.6 508.9 515 524.1 531.7 533.7 531.3 526.6 523.4 522.8 513.4 501.7 496 488.6 483.1 476 462.8 455.6 453.1 448.3 456.1 470.9 473.9 472.2 470.8 473.4 478.6 486 488.8 484.5 465.8 450.1 445.7 440.2 432.5 426.7 421.8 416.1 412.9 406.5 400.6 392.5 380.4 374 372.3 370.5 364.6 355.3 354.9 354.7 357.2 358.9 356.6 357.8 357.9 358.9 364.7 365.4 365.7 361.9 360 357.1 360.8 357.4 355.6 352 353 353.7 354.9 355.1 352.2 349 347.4 346.7 342.4 341
336.5 350.8 366.6 380.1 394.9 409.8 427 444.5 459.6 472.8 484 494.5 508.2 518.1 519.6 529.9 544.6 551.4 560.4 572.3 583.9 596.2 609.3 620.5 630.7 650.9 642.7 612.6 590.1 574.4 561.8 561.8 562.8 570.3 568.6 563.1 554 551.6 542.6 522.4 504.5 492.3 480 476.5 478.4 486.7 496.7 512.5 533.4 554.5 573.6 590.2 602.9 602.8 598.3 582.7 572.8 559.8 547.9 539.6 526.7 519.4 515.2 518.2 522.7 531.1 541.6 556.5 568.7 574.2 580.6 584.5 589.6 591.9 596.6 599.6 599 593.9 585.4 574.7 563 548.9 539.7 527.9 514.6 497.4 488.5 481.4 480.7 481.4 481.1 480.6 484.9 489 498.3 507.9 515.7 521.7 522.6 520.8 515.1 509.5 501.7 500.6 502.8 505.9 511.5 511.3 512.9 514.2 510.6 508.5 504.7 503.1 501.4 502.7 498.8 493 492.3 496.5 502.2 506.7 511.3 517.1 521 527.6 532.2 540.7 549.6 552.5 548.2 543.4 542.8 537.6 528.4 516.8 501 487.5 481.7 477 460.6 450.5 447.2 446.1 445.3 454.9 459.1 458.4 464.9 467.1 470.2 474.1 478.1 473.6 456 452.6 452.8 449.2 435.3 426.8 422.4 413.8 406.5 399.9 396 390.1 380.1 371 367.3 365.6 361 356.6 355.8 360.9 364.9 366.2 363.9 366.2 366.1 370.4 374.1 370.9 368.7 367.7 367.9 365.8 365.1 360.6 357.6 355.1 353.5 356 357.3 354.4 350.9 347 348.8 345.3 342.8 342.9
331.6 345.8 360.4 376.8 389.1 399.7 414.8 429.4 447.2 462.8 473 483.2 492.8 504.2 512.8 521.9 533.5 548 553.7 566.6 576.5 593.7 611.5 625.8 634.9 650.9 662.8 646.3 633.1 611.9 572.5 561.8 561.8 561.8 566.7 572.2 562.8 552.4 543.2 530 514.5 500.9 485.2 484.6 487.3 496.4 506.7 518 540.5 563.1 581.9 595.8 606.1 605.3 598.5 590.5 584.9 578.6 564.9 548.9 536.7 526.1 524.4 525.9 530.7 535.4 546.7 557.9 571.1 581.4 588.9 595.2 601.4 605.8 607.3 608.8 608.9 603 592.2 576.7 562.9 549 539.4 532.4 520.1 505.6 499.6 496.9 494.2 497.4 500 499.9 504.8 512.4 523.9 536.5 544.7 550.7 549.8 545.9 545.1 535.6 523.4 518 519.9 526 528.1 528.5 527.9 526.5 524.2 521.2 518.3 517.2 518.3 520.6 519.4 516.6 511.2 509.1 513.2 519.5 526.2 536.2 544.2 551.6 556.5 563.8 569.4 566 560.3 556 548.3 542.6 535.7 522.5 505.9 489.3 479.6 470.6 454.2 446.7 440.7 441.1 442.9 445.1 448.6 456.7 458.6 459.1 463 469.6 467.2 453.8 445.7 448.1 447.8 441.3 441.8 426.5 416.7 406.1 398.8 395.3 391 382.9 374.7 370.3 370 380.1 370.1 368.4 369.6 364.7 364.6 367.8 371 374.7 373.3 373.7 378.8 377.3 374.4 370.9 369.3 371.7 370.7 368.9 362.2 357.1 357 358.6 356.1 353.8 350.5 349.1 345.9 342.1 346.9 345.6
331.7 345.9 357.9 367.2 379.2 391.3 402.3 418.7 437.3 451.2 464.2 476.6 485 499.3 509 515.7 527 539.9 552.6 559.8 576.8 594.1 610.6 627.6 638.6 654.8 664.6 657.4 639.9 622 613.9 576.5 561.8 561.8 562.3 568.1 568.8 563.1 555 538 520.1 506.2 497.1 492.5 493.9 502.4 513.6 526.2 547.1 566.9 583.9 597.6 607.9 612.3 613.8 615.1 606.1 594.7 585.8 570 552.8 535.9 535.1 535.5 540.4 547.4 554.7 565.6 576.3 587.5 596.3 604.6 611.3 616.6 623 631.1 627.2 615.4 599.9 583.4 567.4 551.9 542 532.1 525.4 519.6 515 511.9 512.3 514 516.6 519.9 523.9 530.6 543.5 554.1 564.6 571.8 572.1 568.1 561.6 556.2 547.9 541.2 533.2 530.5 541.1 541.8 541.7 539.5 535.1 530.9 531.2 529.5 527.9 526.5 528.7 528.4 525.3 523.4 526.8 537.1 545.7 554.9 563.7 569.7 576.3 579.2 583.3 579 567.8 562.2 559.2 549.2 539.3 527 508.7 492.7 479.3 465.1 453.5 443.4 435.3 432.6 438 442.1 445.6 454.3 460.5 460.3 460.9 468.8 462.7 449.9 436.1 434.4 431.1 423.3 419.6 415.8 406.5 398.4 394.8 393.7 386.7 381.8 374.5 373.6 375.9 384 380.6 379 376 368.4 370.4 377.8 379.8 380.4 380.1 380.3 383.8 381.5 378.5 372.2 373.7 374.5 376.3 374.3 367.5 361 360.4 355 349.8 347.6 346.9 349.2 343.4 342 351.1 352
327 341.6 354.4 366.1 375.3 386.5 401.5 414.5 430.7 445.2 459.5 469.3 480.5 493.1 511 522.9 528.2 540.1 553.9 565 580.7 595.3 610.4 624.4 639 653.6 665.4 660.6 639.9 629.3 629.5 616.3 594.7 575.6 570.5 571.8 573.7 570.7 562.8 547.7 529.1 515.8 508.1 503.3 497.6 507.9 518.4 532.6 549.6 568.3 584.7 601.8 605 611 621.6 630.1 627.3 615.1 601.8 587.6 570.3 553.6 549.9 546 551.6 559.1 563.5 570.2 580.3 590.3 600.5 607.9 613 620.1 631.7 641.8 637.4 627.5 612.9 597.1 578.1 565.2 550.9 539.6 529.4 525.8 524.6 524.8 526.9 529.7 530.4 534.3 539.2 546.1 555.5 565.1 573.6 583.7 588.7 584.4 574.8 572.8 570.4 559.3 550.5 544 543.3 550.9 553.5 548 546.6 543.4 539.7 538.6 545.2 543.1 544.8 540.8 534.4 537.8 545.9 554.4 564.4 575.7 578.1 581.3 588 589.6 586.7 579.6 572.8 570.1 561.3 551.4 540.5 522.6 503.3 482.1 466.3 451.3 444.4 434.2 429.7 429.3 431.7 434.6 436.3 445.6 451.6 456.7 459.9 455.8 450.6 446.4 439.9 434.2 429.9 424.2 421.1 419.8 415.8 408.6 404.1 402.5 391.3 389.2 386.5 380.3 377.9 386.7 390 379.7 379.8 387.6 384.7 383.7 385.6 388.4 389.2 391.7 390.4 388.1 386 383.5 382.5 379.9 380.6 382.7 380.8 373.8 375.5 371.6 361.7 356 356.7 352.8 343.3 349.3 352.9 352.9
319.4 339.1 351.5 366.3 377.2 387.1 400.3 413.5 425 440.4 452.9 465.8 476.7 486.7 501.9 517.5 525.1 535.2 547.7 560.3 576.6 596.3 609.2 622.2 640.5 652.9 660.9 653.9 631 626.9 630.6 635.7 631.7 607 587 583.3 586.9 579.3 571.2 552.6 542.7 528.2 518.3 508.6 507.8 510.2 523.1 534.7 549.5 565.9 581.5 592.2 598.2 607.4 620.7 631.8 633.4 633.5 610.9 599.1 585.1 576.6 566.6 562.2 565 570.8 576.8 584.7 591.2 595.8 603.8 609.7 615 623.8 633.4 639.9 642.4 635.7 621.5 605.8 588.5 571.8 559.4 551.9 542.7 534.2 528.5 527.3 528.8 533 540 546.1 551.2 557.7 564.9 572.8 579.7 588 598.2 602.5 600.1 605.9 596.8 592.3 576.5 568.5 564.2 557.7 559.7 559.4 557.3 552.9 551.7 548.6 548.3 551.6 550.5 551.2 542.9 548.2 559 572 582.7 587.6 588.2 588.7 590.8 590.6 589.3 583.8 581 577.2 565.1 553.4 541.8 520.9 494.3 471.7 458.6 449.4 439.6 430.9 428.2 427.4 430.1 429.4 432.3 436.5 439.8 448.1 448.7 447.9 445.3 443.6 438.5 430.1 427.9 423.5 422.5 417.8 413.3 414.1 409.7 401.2 402 399.1 392.7 388.1 389.4 394.4 390.7 389.5 392.2 395.8 396.2 399 397.3 393.1 391.8 393.5 394.2 390.5 387 387.8 389.8 387.5 386 385.4 384.1 381.1 380.3 372.8 365.3 361.9 361.3 354.4 346.5 352 358.2 354.7
326 327 345.9 359.1 372 383.2 396.3 409.1 421.9 434.2 448.3 461.9 473.3 482.6 496.1 510.6 521.1 536.3 548.2 561 575.4 590.1 605.8 621.3 635.9 646.2 652.4 649.8 626.7 616.5 618.6 628.2 634.6 630.3 605.2 594.4 586.4 584.1 580.9 574.3 561.5 541.2 526 518.1 519.1 520.7 524.4 537.1 549.3 564.2 577.7 587.3 594 604.4 617.3 625.8 633.6 631.7 621.4 606.1 593.8 591.9 583.3 583.5 582.9 585.9 590.3 598.6 603.1 604.4 606.1 608.1 617.3 627.3 634.8 644.3 646.4 648.5 631.6 613.5 596.7 581.7 575.4 566.6 554.8 549.7 541.7 537.2 535 535.2 539 546.7 555.2 562.1 571.1 578.9 584.7 591.2 598.1 605.2 612.3 623.9 633.5 634 619.7 600 587.9 579.6 574.5 570.3 574 571.8 565.8 563.8 560 565.4 571.8 565.4 555.5 556.3 564 577.2 584.9 590.1 594.6 590.3 591.3 595 588.5 582.7 581.3 571.4 563.4 552.4 540 523.7 501.2 482.3 471.7 461.8 447.5 433.1 427.7 425.6 424.1 425.6 430.3 428.7 428.8 432.7 435.5 437.2 436.7 440.8 431.1 428 427.8 425.7 417.6 413.3 410.7 409.5 400.5 406.8 405.3 403 398.7 391.2 396.6 399.6 412.1 415.2 413.9 407.4 406.5 412 413.4 411.3 401.8 398.6 394.4 388.2 391.6 392.6 392.4 390.8 387.8 383.5 382.2 384.5 385.8 375.9 373.1 373.5 366.6 362.2 354.9 359.2 355.1 352.7
339.7 338.7 333.8 353.5 369.5 382.7 396.2 408.7 420.4 432.1 444 456.8 468.7 478.6 489.6 502.6 518.2 536.5 548 560.8 575.9 593.3 606.9 621.2 635.5 643 647.4 645 626.3 614.2 614.2 619 627.7 636.4 628 607.9 591 585.1 585.4 583 568.2 548.7 536.6 527.9 526.2 525.8 534.7 540.3 546.7 562.6 575 584.9 592.9 601.6 612 623.3 630.1 631.4 629.2 627.8 616 607.1 602.1 598.4 600.1 603.1 606 609 610 610.9 612.8 614.4 619.3 624.2 627.9 632.6 638.7 640.9 633.9 626 620.9 598.8 591.3 582.6 571.2 559.7 551.6 545.6 544 545.1 546.2 549.6 555.5 563.7 572.6 580.1 589.2 596.7 600.9 604.7 612.3 623.1 633.3 643.6 640.2 632.2 619.5 602.2 594.7 587.8 581.4 583.8 589.1 581.3 576.3 572.7 577.2 578.5 573.2 567 568.1 575.5 582.7 587.7 589.4 587.1 582.1 580.8 575.6 576.4 579.6 575.6 569.6 563.6 554.4 536.7 515.1 499 485.7 470 450.3 434.2 424.3 422 422.3 424.7 422.8 422 424.2 422.3 424.5 425.5 422.2 423.9 422.2 425.1 425.4 421.1 414.4 407.8 400.1 399.2 403.5 406.1 405.9 404.5 400.3 404.6 413.6 420.6 424.6 425.5 424.4 410.1 410.6 415.7 418 419 410 406.6 399.5 399.8 403.4 400.3 397.6 392.3 390.9 389.2 385.6 394.9 394.5 388.8 384.2 374.5 366 360.2 359.2 359.3 353 352.7
348.5 355.1 349.3 352.4 373.3 385.7 395.3 408.1 419.8 430.5 441.8 452.4 464.5 475.6 485.5 497.6 512.3 529.9 544.4 559.6 578.5 593.5 607 622 636.9 643.7 647.5 648.9 630.7 614.2 614.2 617.4 630.3 636.1 632.1 607.2 595.8 586.9 586.1 583 576.8 566.6 549.3 540.2 537.8 539.2 540.9 545.9 556.1 566 576.1 586.6 595.9 601.3 607.5 618.4 630.1 634.5 638.2 641.3 638.9 629.2 623.3 619.5 617.9 615.5 613.4 613.8 612.6 613.4 613.5 615.2 615.9 617 619.9 623.3 635.6 643.8 638.8 638.1 637.6 627.3 615.4 596.2 580.8 569.3 560.2 554.3 552.5 553.7 553.9 556.2 561.7 566.8 572.5 577.6 586.1 596.2 600.4 603.1 605 611.4 621.9 637.5 656.8 655 641.9 631.9 614 600.8 598.7 589.1 589.7 595.8 588.9 584.9 585.5 592.6 588.4 581.8 582.3 584.5 584.2 586.3 582.6 572.7 566.7 558.5 556.3 564.1 569.2 568.2 562.7 559.3 557 553.1 536.8 517.7 499 478.4 459.1 441.3 429.9 423.6 420 420.2 416.5 416.3 420.4 420.9 419.5 421.4 420.4 422.1 418.1 422.1 422.2 417.6 406.9 397.5 401.3 404.8 406 405.2 405 408.3 419.9 424.6 427.8 429.1 430.3 428.9 426.5 411.2 414 419.1 419 423.3 421.4 411.2 411.6 411 409.6 405 401.2 397.1 398.6 396.4 396.2 402.6 401.7 397.6 388.9 376.5 371.8 362.9 364.1 356.8 356.4 356.8
357.9 365 367.4 349.6 379.4 385.7 396 408.2 418.9 429.6 439.3 449.1 460.7 470.3 480.9 492.6 507.3 522.7 537 554.9 572.3 587.1 604.2 617.5 630.6 644.9 652.7 657 643.1 617.9 614.2 618.7 630 632.5 623.8 610.7 598 594.7 588.1 596.3 585.5 576.5 567.2 559.5 549.5 547.6 548.2 552 559.4 569.5 582.8 593.4 601.6 608.6 611.2 616.6 627.4 638 647.9 652.5 650.6 646.9 640.6 631.5 624.1 619.3 614.3 611 610.3 606.9 608 609.2 611.7 609.1 611.7 609.8 624.5 641.6 634.5 629 627.8 623.7 617.6 610.3 599 585.6 577.7 569.9 563.3 560.9 559.6 561.9 568.4 574.8 577.3 576.3 578.1 587.9 595.4 597.7 599.5 601.3 611.1 626.9 646.7 662.6 662.6 649.4 642.9 621.5 603.5 599.4 590.3 593 595.2 595 597.3 599.7 601.4 597.3 592.9 593 589.1 579.5 568.5 552.9 546.9 540.9 544.6 549.2 553.4 552.1 547.9 554.7 554.1 550.4 550 530.5 512.2 490.2 476.2 459.2 431.6 425.1 418.6 414.3 413.2 414.1 416.5 415.2 414.1 417.1 419.6 412.6 419.4 418.6 419.2 408.3 397 402.4 403.9 405 404.9 401.3 402 414.5 428.3 428.7 429.2 431.5 429.9 426 421.8 416.3 419.7 419.1 418.1 416.1 417 416.1 418.3 418.4 414 408.6 403.1 402.1 402.2 401.8 398.8 402.9 402 398.8 395.4 386.1 370.7 366.7 365.9 362.3 360.6 357.8
365.4 373.2 379.2 370.4 378.6 394.3 396.5 405.9 419.4 430.2 439.6 448.3 457.4 467.9 478.6 489.4 502 517.9 531.6 547.5 564 579.8 595.4 611.7 625.1 637.2 651.2 660.1 652.2 628.6 614.2 614.2 618.5 625.3 627.1 612.2 598.2 593.1 592.6 597.1 593.3 592.4 590.6 578.7 564.5 558.1 557 558.8 564.9 578.3 589.5 600.3 608.5 615 618.1 623.7 630.9 639.9 651.2 661.9 661.6 658 652.3 635.2 623 617 607.3 603.8 598.6 599.7 599.7 597.9 601.8 599.1 596.7 597.3 610.2 625.1 624.2 625.3 628.3 627.9 623.1 619.7 611.9 606.1 597.6 586.8 574.1 566.8 566.8 568.7 574.1 581 586.6 583.4 577.3 576.8 585.1 587.9 589.9 592 597.1 611.8 632.5 649.8 660 658.6 651.2 639.1 620 600.4 592 593.1 599.3 602.8 606 608 607.8 609.2 607.8 599.4 588.7 572.7 553.6 539.3 532.3 525.3 528.7 533.6 540.8 538.3 542.8 550 551.7 545.5 543.5 531.7 518 499.4 483.4 465.2 438.9 428.4 423.2 418.6 413.8 414.3 415.3 414.5 410.2 409.5 408.2 404.6 410.9 411.1 409.4 400.8 397.9 402.1 403.1 401.4 394.6 400.6 412.2 422.3 429.1 430.8 429.7 428.1 428.7 425 425 421.7 420.8 418 414.7 416.1 418.2 418.2 418.6 417.6 414.1 411.6 406.1 409.8 405.6 400.1 398.7 403.4 402.2 399.4 391.8 380.5 369.7 371.5 367.2 363 360.4 358.7
372.3 378.2 385.2 389.6 378.3 387.8 399.6 409.4 420.4 429.2 439.2 448.6 456.1 465.9 476.5 487.4 500.2 512.8 525.2 539.8 556.9 572.3 587.7 602.7 616.3 632 646.4 654.9 653.3 636.6 614.2 614.2 614.2 622.8 623.4 612.1 596.5 597 597.6 602 602.3 601.1 605.2 600 583.4 570.3 565.7 567.5 574.1 580.9 595.3 605.2 613.8 619.7 622.7 628 635.9 643.8 650.9 657.8 667 668.8 658.4 639.9 625.3 615.3 604.6 598.1 593.7 591.8 587.4 588.1 588.4 587 582.9 584.9 595.9 610.5 617.9 624.1 627.5 628.9 627.8 628.3 624.3 623.4 617.9 606 591.9 582.7 579.3 578.8 579.7 585.5 595.5 594.6 586.5 572.3 570.9 574.4 577.9 582.6 585.2 595.3 613.7 633 645.3 646.3 636.5 632.3 619.2 606.5 596.2 597.1 599.9 607.9 610.4 610.2 611.1 617.4 617.4 599.7 582.4 568.2 552.3 536.8 527.2 516.7 512.7 518 524.1 525.7 532.8 541.9 545.7 538.3 532.2 522.9 512.2 501.3 481.7 460.1 444.2 433.4 426.4 421.9 414.3 414.1 413.9 411.6 407.9 405.8 405.6 398.5 396.6 396.3 396.2 389.2 399.8 401.8 396.1 394.6 401 413.3 421.3 423.5 432.4 436.6 433.3 430.2 427 424.1 423.1 422.6 420.4 416 414.8 416 417 416.9 416 415.6 414.6 411.9 410.2 410.3 406.7 398.3 391.2 394.9 395 393.3 387.5 372.6 374.7 369.8 367.2 365.3 362.3 361.2
380.6 384.9 390 397.7 389.8 402.1 403.1 412.7 419.5 429.3 439.9 448.8 456.2 465 474.8 486.3 497.8 510.4 522.8 535.5 551.6 566.9 581.9 596.8 607.5 620.6 636.4 646.1 651.9 644.8 618.3 614.2 614.2 620.8 617.5 606 596.5 599.2 599.4 602.2 603.2 603.9 606.7 605.9 595.5 581.2 576 575.2 580.6 589.8 601.1 610.1 617.6 623.6 629.8 632.4 635.8 640.7 647.3 653.2 662 663.5 658.2 642.9 632.3 616 599.9 593 581.8 578.3 573.7 573.4 571.3 570.3 567.5 568.3 584.4 601.1 609.9 616.5 621.8 624.2 626 626.7 623.4 619.5 614.3 607.4 601.6 597.7 592.1 590.7 591 592.9 597.6 599.1 595 582.1 566.4 563.9 565 566.8 570.2 581.3 595.2 613.5 627.9 633.8 629.5 628.1 621.7 612.4 607.2 600.7 597.4 605 608.9 610.4 603.4 615.1 613 595.6 573.2 560.8 540.3 536.6 529 513 502.9 503.2 507.7 511 518.7 521.8 522.6 524.3 513.1 503.2 500.6 496.1 484.3 470.2 452.9 436.8 431.3 421.4 416.9 411.3 410.1 406.3 405.3 405.3 401.6 397.7 396.6 388.8 388.7 388.7 390.2 392.6 400.4 403.2 408.5 417.7 423.9 430.3 435.8 436 432.9 429.7 416.9 422.6 422.4 418.2 419.3 415.2 414.1 413.5 414.4 411.9 412.3 410.8 409.6 406.9 402 401.8 397.8 393.3 385.6 383.9 381.7 380.2 381.1 380.4 376.5 374.2 370.3 367.1 364.7 362.3
388.8 394.5 396.9 403.3 404.4 407.5 414.8 415.8 426.3 431.4 439.4 447.1 457.6 465.3 474.2 484.5 495.1 507.2 519.2 530.8 545.7 562 577.2 592 603.2 613.6 625.3 632.1 637.4 634 623.5 614.2 614.2 615.2 609.5 601.4 596.9 595.2 594.9 600.9 602.6 601.9 603.2 604.1 596.1 588.7 583.4 582.7 586.1 593.8 606.6 615.2 619.9 626.4 630.4 636.5 638.1 641.2 644.1 646.4 654.7 659.3 652.8 649.3 637.3 622.6 600.7 584.5 572.1 560 552.2 548.6 545.5 546.3 552 557.3 571.3 589.2 601.7 610.3 616.3 618.5 619.9 617.9 617.6 620.3 616.2 611.9 608.2 608 607.6 604.9 603 602.4 600.3 600 594.1 583.7 567.2 555.1 557.1 556.6 558.6 566.2 578.7 595.2 613.5 623.1 624.9 623.2 625.8 620.4 615.6 611.3 605.6 604.4 604.1 602.1 601.5 604.7 603 590 570.6 554.1 541.8 533.8 526.7 508 498.5 500.1 499.1 498.1 502 505.7 505.6 505 483.7 479.3 486.9 488.7 480.1 458.8 446 438.8 432.8 423.6 415.9 409.3 406.1 404.2 401.1 401.6 397.1 396.1 390.6 388.7 388.7 388.7 388.7 398.5 405.5 408.4 413 418.2 426.9 430.6 433.2 432.5 432.7 429.2 415.7 413.8 415.7 418.7 413.5 404.3 409.1 413.5 410.9 407.3 406.9 400 398.6 398.5 398.7 400.7 403.8 396.1 393.2 392.3 393.9 391.6 389.3 385 381.5 378 374.9 370.7 366.9 364
399.6 404.2 407.4 411.2 413.8 410.6 418.9 422.2 428 432.7 439.7 447.1 456.8 464.3 472.4 482.4 493.3 503.7 515.8 527.5 540 554 571 585.5 600.1 609.4 620.8 630.2 635 636.9 625.5 616.6 614.2 620.4 620.7 615.5 601.5 595.6 594.9 598.5 600.7 603.4 604.1 606.9 601.5 592.7 586.6 586 589.8 597 608 616.9 621.9 627.1 630.2 631.6 635.6 637.7 639.8 643.4 650.5 650.6 648.3 643.3 633.8 620.3 598 577.7 562 548.6 539.5 534.5 534.5 542.1 547.3 549.7 556.5 573.5 588.2 597.8 604.6 608 608.1 609.8 611.1 612.5 614.7 613.3 613.6 623.7 626.3 623.5 617.2 613.5 608.9 597.9 593.6 581.5 567 552.9 548.7 549.2 549.7 555 566.5 580.1 597.9 609 615.9 621.5 622.7 622.9 621.4 615.1 609.3 598.2 609.6 611 602.9 605.2 590.8 581.6 565 558.6 553.6 541.3 526.3 511.1 500 499.9 498.6 499.2 497.2 489.4 488.1 480.3 466.6 466.7 473.1 482.3 473.5 463.2 453.6 435.5 426.6 417.3 415.4 408.9 404.6 405.6 403.2 396.4 397.7 390.4 388.7 388.7 388.7 388.7 395.8 397.9 407.9 415.6 416 414.4 420.8 426.6 427.7 428.5 427.4 420.2 419 417.9 410 410.9 408.3 406.1 403.2 404.5 401.9 401.3 401.9 400.2 400.1 403.1 406.8 404.3 401 396.2 398.1 398.5 397.2 393.9 391 389.8 386.2 380.9 377.8 374 371.4 366.2
409.5 413.6 417.3 419.9 423.2 419.6 421.3 431.2 430.7 437.5 443.3 449.1 456.4 465 472.9 480.8 489.4 500.4 512.1 524.4 536.2 551 564.5 577.4 590.5 604.1 615 630.6 639.3 642.7 636.4 619.6 615.8 622.5 622.1 615.7 604.4 596.6 596 596.3 603.4 607.6 611.8 613.5 612.4 603.5 593.4 587.8 592 599.8 610.2 619.5 625.2 628 627.9 627 623.5 625.6 629.3 632 641.2 646.7 648.3 640.5 632.6 614.3 595.1 576.2 561.1 546.3 538 534.5 534.5 538 543.9 547.4 550.2 558.4 569.3 580 589.2 594.4 597.6 600 604.4 608.7 612.5 611.7 617.7 630.1 631 628.7 619.9 605.9 602 592.9 586.1 573.1 559.6 549.8 541.5 541.6 542 543.6 552 563.5 581.3 595 605.9 612.3 614.5 621 621.4 616.5 611.4 600.9 597 608 599.8 592.5 576.3 565.7 553.1 548.3 547.7 543.1 532.5 515 506.4 500.9 497.1 491.8 486.8 482.9 466.7 460.8 460.1 463.9 459.1 461.4 459.2 451.8 439.3 430.6 419.3 414.5 409.6 403.9 401.4 398.3 393.5 390 388.7 388.7 388.7 388.7 388.7 388.9 403.5 409.1 406.2 411.5 409.3 410.8 419.1 421.5 423.5 421.9 419.5 421.4 422.6 416.7 409.4 405.8 406.6 410.4 403.4 403.2 404.6 404.9 405.2 405.4 408.4 410.4 409.2 405.9 403.1 401.1 401.1 401.4 399.1 396.9 396.9 392.9 388.4 383.9 379.6 374.4 372.7 370.6
419.1 421 424.3 426 428.8 429.9 426.6 430.1 438.3 443.1 443.9 449.7 455.2 463.4 472.2 479 487.2 498.2 507.7 520.4 532.2 547 558.8 570.8 584.7 598.6 610.4 624.2 634.3 635.2 634.2 626.1 622 619.6 611.5 609.7 602.9 598.3 596.3 598.7 609.1 615.1 619.1 620.1 620.3 612.7 598.8 592.5 593.7 600.8 612.3 623.4 630.9 636 635 628.8 619.1 615.3 616 619.5 624.9 631 633.6 632.8 629.2 611.7 595.8 579.9 559.4 546.3 537 534.5 534.5 535.3 538.8 541.3 544.7 549.5 558.1 569.1 576.4 582.1 584.6 586.8 590.2 595 597.9 607.6 622 631.2 628.9 626.2 608.7 593.5 590.5 585.8 571.1 561.3 549.5 536.4 533.7 534.7 534.7 535.2 538.3 552 566.8 580 592.9 600.2 607.7 618.5 623.5 619.9 609.6 602.2 584.5 590.7 582.8 573.2 565 546.5 536.6 538.3 538.4 536.2 529.2 517.9 515.1 510.1 508.6 501.7 484.9 470.3 461.4 462 461.6 459.6 454.7 454.3 450.5 437.6 431.6 422.5 412.7 408.1 406.4 403.8 401.6 399.6 392.7 388.7 388.7 388.7 388.7 388.7 388.7 388.7 402.3 406.5 408.6 407.3 410.1 412.5 417.4 418.5 420.6 418.3 416.8 417.7 416.2 415.6 412 406.6 405 405.5 405.5 407.5 408.3 408.8 408.6 409 412.1 412.8 411.7 408.8 406.8 406 405.6 405.6 404.9 403.8 399.8 395.3 390.4 385.8 380.9 378.7 377 375.4
429 428.9 429.2 429.8 431.5 434.2 435.2 432.7 441 445 446.9 451.8 456.7 461.7 467.5 476.3 483.7 493.7 503.3 515.6 527.9 542.2 553 564.2 576.9 592.5 604.8 616.9 626.8 630.6 633 631 623.3 621.3 612.3 608.1 599.5 597.9 600.6 607.3 615.1 619.8 623.6 625.4 624.4 619.7 608.9 596.1 595.8 599.1 610.2 623.2 633.7 641.3 643.5 636.7 626.1 613.4 608.9 610.5 613.7 613.5 611.8 612.4 609.2 598.7 587.2 570.9 555.1 547 534.7 534.5 534.5 534.5 539.9 544.2 545 546.2 551.8 557.4 562.8 567.6 570 573.1 576.3 578.1 589.3 602 613.2 613.8 610.7 603.2 592 583 578.8 570.9 559.1 548.9 536.5 525.4 522.5 523.3 525.6 527.8 533.5 543.2 555.8 569.9 581.8 591.4 600.7 611.5 621.6 614.5 605.1 591.6 565.1 564 566.1 557.7 547.1 531.5 522.8 525.8 525.8 525.2 518.2 517.2 516.2 512.3 506.1 499.9 477.5 464.4 464.4 465.6 467.4 477.3 470 463.8 454.6 445.6 435.3 422.6 410.5 408.1 404.7 401.3 399.3 392.7 390.7 390.8 388.7 388.7 388.7 388.7 388.7 396 397.2 398.8 401.7 405.1 408.8 413.7 417.4 414.3 419.2 417.2 412.2 409.5 410.2 407.8 404.4 405.6 405.4 405.4 407.1 408.5 409.6 410.6 411.5 413 415.1 414.8 414.4 413.4 411.9 410.1 410.1 410.1 409.4 407.3 403.6 398.3 392.1 388.1 385.9 383.1 382.3 381.4
441 441.9 442.1 439.1 436.3 437.6 439.9 442.1 441.7 449.3 452.5 453.5 456.2 460.4 466.1 472.3 480.4 489.5 499.8 511.1 523.9 536.4 547.1 558.7 571.7 586.9 599.5 610.7 621.4 628.2 632 632.5 625.7 619.4 613.3 609.8 608.1 603.1 600.4 604.4 612.4 620.7 625.5 626.5 626.7 623.3 610.4 599.2 598 597.2 605.1 621.5 633.9 643.4 652.1 645.4 636.5 623.9 612.6 607 603.9 601.7 601.2 602.4 597.9 590.5 580.3 568 554 542.2 534.5 534.5 534.5 538.4 540.9 543 542.6 544.3 546.9 552.9 557.6 557.4 556.3 556.1 556.8 561.4 570.6 580.7 585.8 588.3 586.2 578.6 571.7 564.3 560.4 553.3 547.4 536.8 521.8 516.2 513 514.3 516.8 522.8 530.6 537 547.3 563.2 574.5 588 599.6 605.9 611.8 608.5 594.1 576.7 556.5 547.2 543.3 542 530 521.9 507.7 512.5 511 508.3 501.6 507.5 509.1 505.7 501.1 490.8 475.9 474.9 473.1 475.6 484.1 475 472.9 459.9 447.6 440.1 427.1 417.8 411.6 411 405 406.6 398.3 395.7 398 398.6 389.2 388.7 388.7 388.7 390.7 395 394.6 392.8 394.3 400.2 407 406.4 408.7 412.2 413.1 411.9 410.4 407.4 401.5 400.3 402.2 404.4 405.1 406.6 406.4 408.2 408.7 411.1 412.5 414.2 416.2 416.8 417.4 416.4 415.7 414.6 414.4 414.1 412.4 410.4 405.9 401.9 397.5 395.5 390.7 388.3 386.9 387.2
458.4 458.6 457.5 454 448.7 447.3 448.4 448.5 451.4 450.2 455.1 456.5 460.2 461.7 466.4 471.7 477.5 485.9 496 505.8 518.6 531.8 542.7 554.7 568 582.7 595.9 605.2 615.6 622.4 626.9 630.6 628.3 618.2 607.9 607.9 613.3 613.8 610.8 611.6 612.4 620.3 626.2 629.3 630.8 628.6 617.1 602.6 598.5 596.3 603.3 616.1 628.5 639.1 646.3 648.2 651.3 645 629.7 613.7 605.8 600.4 598.4 599.9 600.3 594.7 582.4 570.1 561.5 557.3 550.4 541.4 530.4 534.4 535.8 534.4 534.1 535.8 541.3 545.5 549.6 550.2 548.7 549.3 550.2 555.3 558.2 560.7 562.2 561.2 558 553 547.8 546.6 540.6 533.4 529.9 520.7 515.3 511.6 509.2 509.8 513.7 521.7 527.8 532.4 542.1 552.2 565.9 582.5 595.1 603.3 609.4 602.2 591.8 571.7 553.9 546.5 521.3 519.8 512.6 502.4 496.8 492.2 491 490.2 480.6 489.5 492.1 492.8 489.1 483.4 480.7 475.6 474.2 470.4 473.7 481.6 463.7 449.6 445.8 441.2 422.6 417.2 415.4 410.1 403 398.6 399.8 403 405.7 395.6 392.3 390.9 392.3 391.4 392.9 389.6 394.4 385.3 384.1 391.4 397.5 397.1 399 397.4 402.4 404.9 406.7 401.6 397.5 397.1 400.6 402.4 404.9 406.3 407 408.2 409 411.8 413.8 415.6 417.6 418.8 420.1 419.4 419 419.5 420 419.5 416.4 413 410.2 408.3 405.4 402 396.4 394.6 392.2 390.7
479 477.6 474.8 469.9 466.8 465.6 461.8 460.1 456.3 458.6 454 462 464 465.8 468 471.8 477.3 484.1 492.4 500.9 512.8 525 537.8 550.4 563.3 577.8 589.9 600.8 610.8 617.4 621.6 624.1 619.9 611.6 607.9 621.7 622.2 621 613.4 614 612.1 621.5 627.4 630.1 633 632.1 621.4 605.9 596.9 596.6 599.7 610.4 620.8 634.2 642.7 646.1 647.5 643.8 632.5 618.5 605.8 594.6 591.5 597 600.4 597 590 583.5 579.1 564.8 547.7 532.2 523.1 522.1 523.3 522.2 521.3 525.5 531 533.5 536.5 537.3 537.6 536.4 536.7 539.3 543.3 541.6 542.7 544.7 539.9 541.1 538 533.2 529.8 524.5 520.1 517.8 515.7 510.9 505.2 507.1 509.9 516.2 524.2 531.9 540.3 548.9 560.6 573.2 585.7 591.9 595.8 592.5 576.5 561.8 543.8 525.7 502.3 498.9 495.2 480 470.6 471.5 475.7 475.5 472.8 474.6 478 476.5 480.4 473.9 470.2 468.8 467.8 460.6 460.9 460.9 454.9 451.1 449.9 440.2 429.6 419.9 414.5 407.5 407.5 409.2 408.1 405.1 402.4 393.4 390.1 389.3 391.4 394.1 390 382.6 388.9 385.9 377 379.9 386.2 388.4 387.7 383.4 385.6 389.9 388.9 392.8 393.7 396.1 398.9 400.8 402.8 405.5 407.8 409.2 410.7 413 415.7 418.1 419.4 421.7 422.4 425 427 427.7 426.9 426 425.2 422.8 418.3 415.5 410.4 407.2 402.4 396.6 392 390.3
501.9 498.4 494.6 485.2 482.7 484.7 479.2 474.7 470.4 466.7 463.5 463.7 468.2 470 472.7 474.5 478.2 483.4 490.4 499.2 509.9 522.4 534.6 548.3 562.1 576.5 587.9 597.6 606.4 614 619.1 619.6 617.3 607.9 607.9 618.3 625.1 624.4 617.8 615.4 614.9 621.3 626.5 630.2 632.2 631.2 626.2 610.5 595.1 594.9 591.4 602.5 611.4 622.8 631.5 639.6 641.8 640.2 627.3 614.6 602.8 590.6 589.5 598.9 612.7 618.4 613.7 600.2 584.7 565.3 544.9 524.7 520.9 517.2 513.5 509.1 509.5 516 520.5 524.3 523.3 525.1 527.9 526 527.7 532.9 535.1 535 534.6 532.6 528.5 528.4 526.9 523.2 519.5 514.1 509.5 508.2 510.5 505.5 499.7 503.2 506.9 508 513.4 520.9 529.2 538 551.4 564.9 572.9 577.7 576.6 573.5 563.2 549.1 532.4 517.5 498.4 479.1 471.5 463.7 455.9 457.5 454.6 455.2 461.3 459.5 458.6 460.2 462.4 464.5 466.9 465.2 467.7 463.4 458.7 460.7 457.6 451.5 444.4 438.8 434 426.7 419.8 416.9 417.8 422.3 414.1 409.5 405.5 400.2 393.3 389.4 389 388.8 384.9 382.6 376.4 376.8 381.1 375.1 371.6 373.3 377.1 377.8 379.5 385.9 385 385.1 391.4 393.7 397 398.6 402.2 405.1 408 410.2 411.6 414.3 417.1 419.4 421.6 423.7 427.6 431.4 434.8 434.5 434.2 433.1 432.8 430 426.2 422.1 417.1 411.3 406 399.7 394.4 398.7
515 514 509.8 503.7 500.4 500.5 498.7 491.6 487.9 481.3 476 470 467.9 471.5 473.7 476.7 479.3 483.5 490.1 496.8 508.9 521.6 533.6 547.3 563.2 576.2 588.2 598.4 607.2 613.5 618.4 617 611.2 607.9 607.9 615.5 624.9 627.7 623 618.8 618.9 620.2 627.4 629.1 631.7 630.4 622.4 610.5 598 592.1 586.4 597.6 603.1 613.5 620.4 622.1 626.3 624.9 616.7 605.7 599.3 591 591.8 604.5 623.4 639 642.5 630.9 604.6 572.1 546.2 530.7 520.9 515.8 507.1 501.6 499 501.8 505.4 508.5 508.9 511.8 515.1 513.3 512.6 519.7 522.5 524.8 525.9 525.5 524.3 521.6 515.6 511.3 507.3 502.9 498.6 499.4 501.6 497.6 494.4 496.2 501.5 505.2 508.4 512.8 516.2 521.9 534.2 546.7 555.9 558.7 553.5 554.1 550.5 541.2 526.6 506.8 490.3 479.7 470.8 462.7 457.4 453.8 451.6 451.4 452 451.6 454.6 456.8 457.2 453.3 450.1 446.9 445.4 447.1 446 456.3 456.6 443.4 443.1 441.4 435.8 434.3 433.3 431.3 430.9 426.6 419 417.2 413.1 413.6 401 395.2 389.4 384.5 385.4 381.3 374.9 374.8 379.7 375.2 372.8 372.8 380.8 379.2 380.7 382.5 384.4 383.7 387.8 391 395.5 399.3 402.7 405.6 408.5 410.4 412.1 414.9 417.3 419.7 422.5 427.9 433.5 436.4 438.3 440.2 439.6 438.2 436.9 434 431 426.9 422.1 412.7 407.8 404.8 410.7 410.2
527.2 528 527.1 523.3 520.7 520.7 518.4 511.6 508.4 502 493.4 483.6 475.1 471.8 471.9 477.2 480.6 485.3 490.5 498 508.4 520.3 533.8 549.4 563.9 577.4 588.7 598.1 607.9 615.1 618.5 619.6 610.7 607.9 607.9 608.9 618.6 625.4 623.3 621.2 618 620.5 626.5 630.3 631.6 629.3 622.7 609.6 596.9 587.8 578.5 587.6 594.4 600.4 613.1 614.8 612.1 610.9 607.7 599.8 593.3 591.1 594.9 604 621.3 641.4 648.6 641.7 625.9 596.4 569.7 544.6 525.4 511.9 499.3 489.8 488.7 489.6 490.9 493.9 495.2 499.5 500.3 499.7 498.5 502 505.4 508.1 508.8 508.3 507.3 507.2 504.8 501.5 495.7 491 488.9 491 493.5 491.3 488.1 491.6 497 500.8 503.6 508.1 511.6 515 518.8 524.3 531.7 533.6 527.5 525.7 519.5 511.9 503.4 492.5 486.8 479.7 475.3 472.1 469.2 464.7 457 452.8 453.6 450.4 451.8 451.6 452.1 454.1 452.2 452.2 449.1 451.6 449.2 445.8 442.1 442.5 450.5 446.9 449.5 448.5 445.4 444.2 443.9 438.2 434.6 431 424.8 420.7 409.4 398.9 391.4 382.7 379.9 378.2 375.6 371.8 374.9 376.4 370.3 372.6 379.3 379 378.9 380 380.9 383.3 386.8 390.2 396.2 400.5 403.2 405.5 408.1 410.3 412.3 414.5 416.9 418.7 421.6 429 435.7 439.2 441.3 442.6 441.5 439.4 436.5 431.8 428.6 426.1 416.8 412.8 412.4 416.5 417.2 412.9
537.6 539.6 540.9 540.9 540.4 539.1 534 525.9 520 514.4 510 497.2 489 478.9 472.8 478.1 480 484.7 491.4 497.7 508 520.2 533.4 548.6 564.1 577.6 587.7 596.4 607.2 614.6 619.9 618.4 611.8 607.9 607.9 607.9 613.3 621.2 626.6 626 623.8 625.8 631.3 632.1 634.7 635.9 628.7 613.8 602.9 587 577.7 572.9 582.1 589.4 594.5 598.6 600.6 597.8 596.1 592.9 591.9 591 593.9 601.2 611.9 624.6 642.3 638.4 625.9 607.6 577.8 549.3 530.3 510.5 492.5 484 482.9 483.5 481.5 486.2 488 486.1 487.7 488 483.6 484.9 490.1 494 497 494.5 492.8 490.6 487.5 487 482.3 478.6 478.8 474.9 479.5 483.3 481.1 485.9 492.6 493 493.9 501.1 505.5 512.9 513.5 519.7 524.6 525.4 522.4 521 518.9 509.7 499.7 490.2 486.8 477.6 471.9 466.4 464.9 466.9 459.1 457.3 460.1 460.2 456.7 453.5 451.6 447.5 448.3 452.7 453 452.7 452.2 449 450.5 459.9 466 464.4 466.7 467.1 463.2 460.1 458.6 455.5 458.5 450.3 446.9 437.6 423.7 408.9 392 383.7 381.7 381.6 377.1 377.6 371.5 375.7 369 372.9 372.3 372.7 374.9 376.7 378.5 381.2 386.2 390.8 394.2 397.2 400.8 403.5 405.6 407.1 409.2 410.8 413 416.2 422 430.6 435.4 438.9 441.2 441.5 440.5 438.1 435.4 434.7 427.7 425.6 419 412.3 412.9 413.6 413.4 412.6
547.7 550.4 552.9 553.5 553.2 552.2 546.9 543 535.8 527.3 524.5 511.6 500.6 487.8 481.4 479.1 483 484.5 491.7 499.8 508.7 519.6 532 546.8 562.4 577.7 588.4 597.1 606.5 615 618 619 614.8 607.9 607.9 607.9 612.4 618.9 623.4 626.2 625 628.6 633.5 637.3 643.2 644.4 639.6 626.5 610.9 593.2 581.3 571.2 569.4 576.3 581.6 586.9 590.8 590.7 590.4 590.6 590.3 592.8 598.3 605.9 613.1 620.9 628.5 640.4 634.1 615.2 593.7 552.7 527.8 508.4 493.5 489.5 489.3 483.8 481 479.8 480.2 481.2 475.9 473.9 472 473.9 475.5 483.6 485.5 484.9 479.5 475.1 477.5 473.5 470.1 466.8 464 467.8 466.6 474.4 471.1 479.4 481.2 481.7 479.5 486.8 491.3 497.2 499.6 503 510.4 515.8 513.1 510.6 505.7 501.7 498 492.5 481.9 477.4 474 468.7 464.2 460.1 457.5 457.2 458.5 458.9 458 457.5 456.1 455 446.9 446.3 446.9 445.9 451.1 457 464.9 473.8 477.6 479.8 480.7 483.1 481.4 480 478.3 473.7 468.6 462.3 454 447 436.9 421.6 396.8 381.1 380.8 380.7 377.3 371.3 366.9 371.8 365.7 367.8 370.1 372.3 371.3 371.1 375.4 380.2 385.8 390.6 392.3 394.9 397.4 400 401.4 402.7 404.4 406.5 409.6 414.4 422.1 429.8 434.7 438 439.4 441.5 442.9 440.3 435.5 432.1 427.9 422.9 417 411.4 410.2 409.2 408.7 410.4
553.9 558.2 560.5 562.3 561.6 562.7 560.6 557.7 556.9 549 542.7 531.9 515 499.3 488.3 479.9 484.1 489.9 494.9 501.4 511.6 520.2 531 545.5 561.8 576.8 589 598.1 606.9 614 618.5 618.9 612.4 608.1 612.5 616.5 619.5 621.6 626.7 628.2 628.5 627.8 634.7 639.3 645.6 648.6 648.8 640 618.5 601.3 582 567.7 557.9 563.6 567.6 572.5 577.9 581.3 583.6 587.9 593 596.6 604.6 606.8 611.5 614.8 614.9 620.1 620.8 610.3 594.9 562.9 538.9 514.7 503 496.4 495.3 490.3 481.4 481.2 480.7 477.6 474.1 469.5 465.8 467.2 469.8 473.4 474.5 472.4 468.8 464.7 460.6 456.7 453.4 457.5 459.4 457.5 458 462.7 464.1 462.1 469.4 469.9 469.2 465.3 470 478.3 477.9 482.8 489.6 496.1 492.5 492 491.2 489.4 487.6 481.9 475.4 471.3 468.4 462.6 459.3 457.4 452 451 453.7 455.3 453.2 449 446.2 446.3 443.9 444.3 444.9 444.7 444.6 453.4 463.8 472.6 479.3 485.2 491.9 495.4 494.2 492 486.7 479.6 474.3 465.2 455.1 446.5 434.4 418.1 398.7 384.1 377.7 374.5 372.3 370.5 366 363.5 365.1 363.4 367.7 367.7 366.6 372.5 377.4 382 385.7 388.6 390 391.4 393.7 395.5 396.9 397.8 399.4 402.2 405.8 411.9 419.8 426.1 431.2 435.6 436.6 436.9 434.6 432.9 430.1 424.9 418.6 413.1 411.1 410.1 411.1 409.6 407.3 407.8
558.2 563.8 568.3 569.7 570 571.8 574.6 572.9 568.5 568.7 565.7 551.4 537.1 521.5 503.9 490.1 485.3 488.2 493.7 503.4 516.6 522.7 531.2 544.1 559 575.6 588.2 598.8 606.2 613.5 618.9 620.4 617.2 620.5 620.9 620.9 621.5 626.8 630 629.2 628.7 628.4 634.5 639.8 647.3 651.3 652.4 649.5 629.5 605.6 587.5 570 559.6 551.8 551.5 556.2 561.2 566.7 565.5 583.5 591.7 599.2 607.9 614.2 617 612.7 609 605.3 610.4 602.7 589.8 568.8 547.6 534 523.8 513.8 510.1 504.6 497 497.3 493.1 485.3 473.8 469 468.2 463.7 463.6 470.1 472.7 473.1 466.6 463 461.5 456.4 450 440.5 444.9 447.4 451.3 449.5 447.9 447.2 456 463.7 457.1 453.9 455.9 454.7 456.2 458 464.5 466.2 468.4 468.8 472.6 473.5 469.8 468.6 462.2 462.1 458 453.7 448.7 447.1 446 447 445.7 446.1 445.3 443.6 443.6 443.6 443.8 444.2 445.8 446.3 446.7 450.4 455.3 467.4 477.8 484.3 487.5 489.8 491.6 490.4 483.8 476.9 468.1 459.4 453.1 445.4 423.9 402.9 391 385.6 370.8 369.9 369.6 370.3 368 362.3 353.6 361 362.8 360.4 363.9 368.2 373.9 377.8 380.7 381.3 383.9 385.3 387.5 389.2 390 389.9 391.5 394.8 398.9 406.3 413.2 419.3 425.4 428.6 430.2 430.5 429.3 427.5 424.2 417.3 407.8 405.7 403.9 404.2 403.3 401.4 403.8 403.2
561.4 566.5 572.6 578.4 581.8 584 585.8 584.5 579.5 578.5 576.8 567.2 552.9 536.3 515.5 500.8 491.7 491 495.6 506.3 516.9 524.8 532 545 562 578.4 593.2 603.5 610.2 615.5 621.1 625.1 622 620.5 620.1 620.1 623.5 626 629.4 625.1 623.5 625 631.5 638.8 646.4 650.8 654.5 652.8 642.4 614.1 593.1 574.2 565.9 559 550.6 545.4 542.8 548.8 554.5 567.7 581.5 591.9 604 615.4 621.5 621.9 616.3 606.8 605.3 606.1 605.6 590.3 571.6 555.7 543.5 530.2 520.1 515.6 509.8 503.3 489.4 479 468.6 465.3 463.5 460.9 458.9 459.5 463 463.1 461 457.5 456.2 449.7 443.5 438.3 434.1 436.8 444.7 438.2 438.1 435.7 445.2 443.4 458.9 456.1 455.6 455.1 440.9 441.3 440.9 442.9 447.8 452.6 454.8 458.6 456.8 453.1 449.8 450.9 450.2 448.2 447.9 448.5 447.1 447.4 444.5 443.3 445.4 445.9 445.4 444.3 446.6 447.9 449.1 450.9 448.5 455.3 456.8 465.2 471.7 480.8 483.6 488.5 490.8 488.2 482.6 470.6 458.9 454.4 443.5 429.2 412.3 391.7 386.5 379.5 376.9 373.6 371.2 364.8 361.8 359.5 348.4 354.6 356.6 358.8 361.9 365 368.6 368.5 371.9 375.3 375.1 377.7 379.1 379.9 379.6 379.3 382 386.1 391.1 399.5 406.1 411.7 416.3 419.4 422.3 423.2 422.1 418.5 412.7 405.2 396.8 395.2 396.1 396.1 397.7 398.3 398.5 397.9
561.6 570.1 577.1 582.8 589.4 592.8 595.8 595.8 593.2 588.8 585.2 578.2 562.1 543.7 526.8 515.1 506.3 496.3 498.1 507 520.9 528.7 534.3 547.7 564 582.2 596.4 608.9 617.7 623.7 629.2 631.4 627.9 623.8 618.7 619.7 622.8 625.4 626.3 621.1 617.1 615.3 626.1 636.5 643.9 649.8 654.8 654.5 645.8 626.6 600.7 583.3 564.4 555.8 548 542.7 540.2 536.5 544 551.7 563.8 579.5 595.1 611.8 631 639.1 634.1 621.9 609.7 613.1 621.4 615.6 595.8 571 556.2 550.1 527.8 522.8 517 511.7 501.5 488.4 468.6 464.8 460.3 454.8 451.6 453.4 452.9 451.7 452.8 451 447.9 440.3 436.4 438.5 431.3 429.4 434.1 430.1 428.7 429 428.6 430.5 441.4 445.2 449.5 447.9 435.5 429.7 420.1 420.3 424.2 428.5 434.3 437.2 440.2 441.1 444.5 448.1 446.4 441.8 441.8 440.1 440.4 442.7 444.5 443.8 443.9 446.3 444.5 445.9 446.4 441.9 443.2 448.5 451.4 459 466 466.6 469.6 480 484.3 490.2 489 485 476.6 463.3 455.2 438.4 430 413.4 403.3 395.1 390.5 385.2 382.9 375.8 367.5 356.7 354.5 353.6 350.5 339.2 339.7 348.6 352.7 359.7 360.6 362.7 364.9 366.4 367.2 366.8 367.2 364.2 367 369.4 372.9 376 380.6 390.4 396.5 401.2 403.8 408.8 410.5 411.5 408.4 402.8 398.6 391 383.8 387.6 391.8 391.5 391.1 391.9 390.7 392.5
562.3 571.9 581.1 587.3 593.5 600.1 605.9 607.9 605 601.3 596.2 587.9 579.2 557.3 541.9 526.7 518.8 506.4 501.3 508.2 517.4 526.4 537.4 551.1 566.9 584.6 600.2 613.4 622.7 630 636.7 639.7 637.7 630.8 620.5 614.7 618.8 621.9 621 615.2 608.6 607.2 617.5 630.6 639.5 647.5 653.2 655.6 650.1 635.6 611.5 593.6 575.4 555.4 542.8 537.1 532.1 530.6 534.3 539.7 549.6 565.8 581.6 599.8 621.7 633.2 632.2 621.5 613.1 612.9 626.6 621.3 613.5 592.4 567.8 560.2 541 532.1 528.2 519.9 506.7 491.1 474.5 460.6 459.5 449 448.6 449.3 454.5 451.5 445.7 445.5 439.5 439.7 433.6 430.4 430.2 428.7 428.5 428.8 429.2 424.2 427.4 415.4 424.1 432.8 436 437 431.8 418.8 414.4 414.4 414.4 416 423.1 427.9 432.4 429.2 430.8 435.6 433.3 433.3 431.7 440.4 446 444.2 448.4 448.8 448.9 446.2 445.3 446 441.9 440 437.7 442.2 450.6 462 466.1 467.4 467.9 466.2 466.7 467.5 468.5 460 449.6 439.4 430.4 420.7 415.4 409.7 405.7 394.6 391.5 385.7 382 375.8 367.5 354.3 352.3 353 350.5 344.2 334.5 341.5 348.8 351 354.2 359.2 360.7 359.3 358.9 357.4 355.7 356.2 358 360.7 364.6 365.9 371.3 378.5 384.6 389.2 394.3 395.9 394.8 394.9 395.1 391.9 383.5 378.9 375.8 376.9 382.6 385.2 384.6 384.3 386 384.4
563.8 571.9 581.8 589.9 595.6 603 610.7 615.3 615.1 613 609.6 603.7 597.4 579.4 555.5 538.2 522.7 510.3 506.6 519.7 520.7 528 537.6 550.1 568 584.8 600.4 614.3 625.1 631.7 638.2 640.9 637.8 630.7 619.6 613.9 610.6 613.6 610.5 604.2 595.2 597.9 608.3 621.8 633.1 641.1 650.3 657.5 655.2 646.1 628.3 605.5 587.1 564.7 544.6 532 527.2 523.8 524.5 529.8 537.4 554.1 568.7 585.1 605.7 616 620.2 615.9 612 610.9 615.3 622.5 617.6 607 585.8 567.5 560.9 553.1 540.2 526.4 515.8 499.4 478.6 456.2 455.8 455.4 449.3 449.3 454.3 451.4 446.7 435.6 434.5 439.3 437.2 424.7 428.9 426.3 420.1 423.5 429.5 425.9 419.2 411.7 408.8 425.6 426.1 432.1 437.2 429.4 414.4 414.4 414.4 414.4 414.4 414.4 420.4 421.7 420.6 425.9 425.8 422.8 427 432.5 434.7 437.8 438.3 441.5 440.6 434.9 434.6 437.9 436.7 433.2 431.4 437.6 446.8 452.6 457.4 461.3 462.3 461.7 459.4 457.7 455.7 446.1 438.1 433.8 430.7 422.5 411.7 403 398.4 393.9 388.6 385.5 378.6 373.6 363.5 350.9 347.6 347.5 347.4 344.5 338.8 335.1 341.5 345.7 347.6 350.8 352.3 353.4 350.2 348.6 349.3 348 349.7 352 355.9 357.5 359.5 366.7 374.1 378.2 382.8 385.5 385.7 382.2 382.3 380.5 372.7 370.1 364.4 367.6 370.4 375.8 376 378.1 377.8 377
565.3 570.3 578 586.8 595.3 603.6 612 618.7 622.2 621.5 618.7 613.6 605.7 592.3 570.2 547.5 531.5 519.1 514.6 524.6 529.2 529.4 540.9 550.3 567.5 586.4 601.1 614.3 625.1 631 634.9 637.5 632.4 622.9 617.4 615.1 609.7 602.7 601.7 591.8 586.9 593.3 601.9 614.1 625.2 634.9 644.4 658.5 666.3 661.9 640.3 618.2 600.7 576 550.9 534.1 522.1 517.9 517.8 520.7 526.9 540.5 558.3 571.4 584.2 594.8 600.2 600 603.7 600.7 601.4 614.7 614.2 612 593.6 577.2 567.1 560.1 547.1 538.6 526.6 507.5 487.7 475 470.6 470.4 461.7 458.2 453.9 449.8 445.4 443.6 436.3 427.6 428.8 424.3 419.4 421.7 415.5 407.7 411.4 409.3 409 409.6 407 410.4 425.7 426.7 423.6 429.5 427.3 423.3 414.4 414.4 414.4 414.4 414.4 414.4 414.4 418.8 420 419.3 421.9 423.9 426.7 429.4 429.8 429.4 431.5 428.1 424 429.1 428.7 423.8 431.2 435.3 440.6 449.3 454.5 456.3 458.3 459.8 460.3 455.8 450.4 442.9 432.9 432 427.3 418.3 412.5 404.5 401.3 393.9 387.4 382.5 376.3 368.3 359.8 349.6 345 342.6 338.6 338.7 340 321.9 332.7 337.9 339.3 342 344 343.9 340.6 340.9 341.8 341.3 343.2 345.5 346.2 347.9 349.6 354.8 360.4 366.7 372.7 373.9 373.8 369.5 372 369.5 364.9 360.3 356.2 359.3 364.6 365.2 366.9 367.4 368.2 367.3
567 568.9 572.1 580 591.8 603 613 620.2 626.3 627.5 624.1 619.5 612.8 596.8 577.9 555.4 540.2 528.6 516.9 527.4 537.1 534.5 541.2 551.2 566.8 585 600.7 612.8 620.7 626.7 630.2 631.9 623.1 616.6 615.6 615.8 612.7 600.3 592.5 580.9 576 585.3 594 605.5 617.1 627.8 638.6 650.2 661.8 667.4 653.8 628.3 610.1 586 561.1 539.8 520.1 514.7 512.7 513 518.5 528.6 544.9 560 568 577.4 584.8 586.9 586.8 587.6 588.1 595.9 600.9 603.4 594.8 581.2 570.6 557.2 540.1 533.2 523.3 504.5 487.4 489.4 486.3 483.8 473.1 471.8 469.1 466.2 464.5 451.4 431 422.6 422.6 422.3 414.3 410.6 412.8 408.6 405.8 409.9 406.8 401.6 400.6 404.5 407.9 423.4 426.8 420.3 424.5 423.7 421.6 415.4 414.4 417.1 420.4 414.4 417.9 413.6 415.4 414.7 412.4 416.5 417.2 415.4 414 416.1 417.4 418.2 416.8 420.3 419.3 420.4 423.6 429.3 439.1 449.6 453.5 453.8 453.9 455.9 455.4 451.8 444.8 435 430.3 426.5 423.7 420.9 416.5 411.7 404.5 394.8 387.9 380.7 372.5 366 354.5 344 338.8 337 333.1 333.5 331 316.7 327 326.6 329.2 330 332.1 331.8 329.7 331.2 332.4 332.6 334 335.7 336.8 336.6 338.9 343.2 344.8 351.3 361.1 364.5 362.5 354.9 351 354.1 351.5 346.8 350.4 359.4 362.4 361.6 361.2 362 361.2 358.7
572.5 571.5 571.7 578.2 590 602.7 614 622.3 627.9 632.6 629.8 621.9 615.9 599.2 581 559.9 550 541.4 532.5 531.1 543.1 536.1 545.2 550.4 569.9 586.8 602.4 614.2 618.5 621.6 622 624.7 617 613.2 613.5 614.4 608.9 595.3 581.8 571.8 568.1 575 586.1 597.4 607.6 619.9 630.4 640.7 651.2 656.5 658.6 637.6 612.6 591.9 568.8 547.4 527.5 515.6 510.4 509.2 511.9 519.1 532.1 546.6 557.4 563.8 572.2 576.6 582.4 584.9 580.4 582.3 592.4 600.4 600.9 600 589.4 565.1 540.3 527.3 523.7 506.7 488.8 481.6 485.5 482.4 474.6 469.8 460.7 452.5 448.1 441.3 433.7 430.2 419.4 422.9 414 412.5 409.3 407.2 395.6 402.5 400.9 399.9 397.3 396.9 403.5 410.5 416 416.6 420.9 424.6 421.6 420 421.1 418.9 413.5 414.5 409.2 412.4 412.8 414.3 410.2 418.1 413.8 411.3 405.9 402.6 402.5 402.4 407.7 411.3 411.2 413 416.6 424.9 430 439.1 444.7 445.6 444.3 447 447.9 444.1 435.6 434.3 432.7 430.9 429.6 425.1 419.9 413.7 407.8 397.9 388.2 380.6 371.8 361.1 352.5 341.3 325.7 326.4 322.4 319.7 319.9 314.9 316 315.7 319.1 319.3 321.3 319.5 319.6 322.7 323.1 323 320 321.3 322.5 324.2 326.5 330.6 332.4 331.4 337.7 344.1 341.1 339.6 341.3 339.5 337 340.4 341.7 344.9 348.5 350.8 355.7 353.7 350.3 349
564.9 570.3 570 576.2 588.8 602.1 613.7 623.8 631.5 638.1 638 631.6 617.4 603 582.1 567.5 563.7 557.1 547.9 551 550.9 541.6 550.2 554.9 573.8 591.8 606.7 616 622.4 624.9 622.3 620 612.1 609.6 610.4 607.9 599.7 581 572 564.4 561 568.4 577.4 588.6 599.1 610.4 621.1 632.1 642 645 639.3 632 614.6 592.8 572.7 552.3 532.6 520.9 509.9 505.5 506.6 512.1 522.2 534.7 548.8 558.5 566.4 574.2 582.2 583 578.5 572.1 578 591.1 591.8 595.3 588.5 561.7 541 520.9 521.5 503 491.4 478.7 479.3 478.2 479.9 472.3 467.7 456.9 455.3 448 445.9 440.3 420.9 421.5 411.7 408.8 402.9 398.1 396.9 393.9 397.4 399 400.2 396 400.4 400.5 405.7 405.4 405.4 408.3 409.5 408.7 407.7 409.8 410.4 406.9 404.6 402.6 403.8 402.2 404.7 406.4 405.1 405.2 402.5 402.2 403 400.4 400 401.6 405.2 405.6 409 414.9 418.1 423.4 428.1 429 430.5 433.5 434.2 429.8 429 431.6 430.2 427.6 425.1 422.1 418.8 411.9 407.5 399.3 386.4 376.7 365.3 358.9 351.5 339.4 325.3 312.9 309.4 309 308.4 309 303.6 306 308.7 305.2 307.6 311.3 307.3 311.5 312.6 313.9 310.8 309.8 312.2 309.6 309.4 315.1 316.3 316.7 316 320.6 325.4 323.1 323.7 324.1 325.9 328.6 332.1 334.8 338.9 338.2 339.7 340.1 338.8 338.8
561.7 565.4 567.3 573.1 585.2 599.8 611.4 624.9 634.7 641.5 645.9 641.3 629.6 609.1 590 575 572 568 560.7 566.5 563.7 552.9 549.9 562.4 576.3 595.3 610.8 620.9 626.3 626.4 625.4 632.5 618.1 610.1 610.3 605.8 586.3 568 561.7 556.1 552.6 559.9 567.9 579.2 588.4 600.8 610 618.7 629.9 634.1 629.5 620.7 609 591.7 572.6 552.4 535.3 522.4 511.5 507.2 501 505.4 512.7 524 536.9 548.8 554.4 566.1 573.2 574.9 571.5 565.7 560.4 576.3 582.3 579.9 575.4 551.4 530.4 513.8 509.9 494.1 483 472.1 472.9 471.4 474.5 472.2 470.7 468.5 460.3 448 440.4 429.2 418.7 415.1 411.4 412.3 407.3 402.2 402.4 397.6 392.3 398.6 397.3 389.1 395.6 396.9 402.3 402.5 401.5 400.4 400.7 401.8 402.3 403 403 404 399.4 399.4 402.4 397.3 405 405.5 402.8 401.1 404 402.8 402.3 404.6 406.5 402.8 401.8 400.3 399.7 403.5 409.6 415 418 420.4 424.2 425.2 422.5 423.9 423.8 421.1 420 419.6 418.4 417.8 415.5 412.6 407.4 399.5 389 375.8 362 358.3 349.8 335.6 324.7 312 303.6 300.2 300.2 300.6 295.4 296.3 291.8 291.9 296.2 298.6 299.7 301.3 297.4 299 297.4 297.3 298.9 300.1 297.5 299.7 299.9 301.6 302.1 301.8 304.8 303.6 305.1 312.6 315.5 317.4 322.6 322.1 323.3 324.5 326.7 326.3 325.9 329.1
557.7 558.4 566.6 568.8 584 598.5 612.4 623.1 632.6 639.8 647.3 647.3 638 618.7 605.3 587.9 579.7 574.3 571.3 574.8 573 563.8 558.3 564.1 576.8 596 610.7 623.2 629.2 627.2 625.8 629.3 614.9 610.6 611.7 605.7 579.7 558.6 549.3 544.9 544.3 551.3 559.4 569.2 579.1 587.7 597 605.1 613.6 619.8 614.5 603.1 596.8 587 568.9 550.6 534.7 523.8 511.3 507.6 502.2 499.1 506 514.9 527 539.7 548.9 555.9 561.7 564.6 561.9 557 548.4 554.3 572.2 571 561.9 551.6 532.5 514.8 500.8 491.9 483.3 468.3 465.8 465.3 467.6 466.9 462.1 460.6 458 449.8 439.5 432.5 424.9 416.2 413.6 409.3 403.4 399.4 397.4 401.4 392.3 393.4 397.5 387.4 388.8 387.9 395.2 399 400.4 401.4 401.8 400 396.5 390.5 391.5 393.8 393.9 392.4 392.3 386.9 397.7 397.5 398 397 399.3 401.9 403.2 405.7 404.9 406.1 404.7 400.5 401.1 398.6 401 402.9 408 415 416.3 415.6 413.6 412.4 410.7 408 408.6 408.1 408.4 408.2 408.2 407.2 404.6 399 393.7 383.4 374.1 360.8 338 335.9 323.5 307.7 305 300.7 294.3 288.8 279.6 286 285.7 284.4 287.4 289.1 284.6 284.4 287.8 290.7 291.4 288.2 286.1 288.4 289.4 294.3 290 288.9 291.4 287.3 283.6 285 290.4 295.2 303.6 302.7 308.8 305.7 305.4 309.7 309.3 316.5 319.4 328.2
554 557.5 562.7 567.4 583.5 596.4 606.3 616.5 626.9 633.3 647 657.3 653.9 637.6 617.2 611.8 592.9 585.3 581.6 584.2 581.5 567 561.3 570.6 577.2 592.1 607.9 618.3 621.9 625.1 633 631.5 619.2 613.6 615.9 610.5 583.3 554.1 542.7 535.4 536 540.7 548.9 559.2 568.6 577.8 586.4 591.2 599.1 604.6 602.2 592.2 583.1 576.2 560.6 545.8 533.2 517.6 506.8 501.4 502.6 494.9 498.9 507.7 518.2 532.2 541.8 553.4 556.5 554.5 552.9 546.5 538.2 542 559.6 565.1 559.9 546.7 524.8 506.1 493.8 484.3 477.2 468.4 459.8 459.5 459.2 460.3 454.8 451.4 452.5 456.7 451.8 433.9 427.3 412.5 408.6 403.8 402.6 398.9 397.1 398.1 396.6 386.1 391.9 393.8 392.3 385.5 384.6 386.6 395.2 396 392.6 390.7 389.9 389.9 388.3 385.7 382.2 378.7 376.9 379.3 386 388.4 392.4 395.3 397.2 400.4 402.3 400.8 400 397.8 393.4 394.6 397.7 395.2 396.9 398.3 400.6 406.6 407.7 406.7 406.6 406.1 405.6 403.1 403.1 403.7 404.4 402.6 401 401.4 403.8 404.5 398.1 383.7 373 361.5 347.6 333.3 316.2 310.7 297.2 298.9 293.9 283.5 270.4 273.7 275.4 276.5 278.9 279.8 277 277.3 279.2 280.8 281.2 279 272.4 277.9 281.6 285.4 284.4 282.3 278.9 271.1 273.9 274.4 273.5 275.3 281.2 285.9 292.7 290.5 293 298.8 304.8 308.6 311.6 317.6
543.7 548.9 555.2 566.2 578.3 590.5 601.1 612.4 620.8 626.8 639.5 655.8 658.5 651.7 633.5 626.7 620.5 596.9 594.6 598.9 590.3 574.4 569.6 578 582.7 589.6 607.2 614 618.1 627.6 635.2 633 620.4 612.6 613.8 608.3 581.8 553.4 536.9 527.4 529.2 532.4 541.3 550.1 557.4 566.8 576 582.3 586.3 594 596.8 583.1 574.6 565.8 557.1 541.6 532.6 513.4 505.4 504.1 497 491.6 495.1 501.9 510.5 524.7 536.9 549 556.5 554.6 553 543.1 535.1 532.3 536.1 544.8 543 531.9 517.5 502.5 492.8 487.2 480.2 468.5 458.9 456.6 456.3 453.8 448 448.4 450 450.5 445.4 433.8 421.6 413.1 406.2 406.1 400.4 399.3 399.2 396.3 393.5 386.1 383.7 386.6 394.5 388.2 383.7 384.5 389.2 391 387.8 383.7 380.1 379.3 377.5 374.6 372.7 375.4 375.3 379.6 386.3 390 390.6 390.6 390.7 390.7 392.8 392.6 390.7 389.6 387.2 386 386.1 391.7 394.1 394.2 396.1 404.1 404.4 405.6 406 405.2 404.6 399.7 398.4 398.4 398.1 394 391.4 390.3 394.1 396 392.6 384.5 383 373.4 360.1 345.8 328.3 309.7 297 291.3 286.1 280.2 280.3 269.7 263.7 272.6 269.4 270.9 269.4 269.5 273.9 271.4 274.1 273 262.1 264.3 268.8 274.5 277.9 272.8 269.5 261.4 264 267.1 258.5 256.2 263.2 272.2 281.2 277.8 282 292.4 296.6 301.3 304 307.4
536.9 539.2 544.8 556.7 568.1 580.4 590.3 603 612.7 617.8 621.8 636.2 646.3 656.1 653.1 636.2 631.6 607.8 603 614.4 606.6 587.1 574.2 578.4 583.9 587.2 606.5 614.4 615.8 623.7 632.7 632.5 623.5 605.2 604.9 599.2 574.7 550.9 531.8 523 522.4 527.4 532.9 540.8 548 555.4 563 570.5 574.5 583.9 586.3 576.1 561.7 553.1 552.3 545 530.8 514.3 505 501.8 496.7 488.9 490.8 495.2 505.6 517 528.6 539.7 549.5 555.3 549.1 540.4 532.3 529.7 525 530.1 530.1 527.4 518.5 505.8 496.2 487.6 480.7 465.6 455 452.2 456.8 452.8 448.1 448.5 450.3 453.3 448.1 442.9 430.8 417.5 407.4 404.5 399.7 394.6 396.6 393 390.4 386.2 382.4 384.5 390.3 388.1 384.1 382.5 385.9 388 383.9 377.5 366.7 367.9 369.9 370.4 368.3 371.2 372.8 376.7 381.7 383.8 388 388.7 388.4 387.6 385.6 382.5 381.1 382.5 382 380.3 377.3 381.1 385.4 388 390.3 398.3 401 404.2 405.4 403.8 401.7 398.8 394.6 394.1 393.8 390.7 388.6 388.1 391.4 394.9 392.7 389.3 388.8 379.3 369.3 356.8 337.1 323.6 305.8 288.5 280.1 282.9 270 270.2 248.2 257.3 261.9 265.6 264.7 266.4 266.4 261.7 261.3 256.8 248.2 248.2 248.2 261.9 261.7 256.4 253.1 248.2 248.2 248.2 248.2 248.2 248.2 259 268.7 272.7 272 278.3 287.9 293.4 298.9 299.4
535.5 536.3 536.6 546.1 550.8 564 577 588.4 598.5 604.5 607.9 614.9 630.8 647.7 654 645.2 633.6 616.9 610.1 611.8 619.4 597.1 581.2 577.9 588.7 588 600.5 611.7 618.9 633.2 635.5 627.3 620.2 600.8 586.2 585.3 562.5 544.2 528 522.4 519.8 525 528.6 534.2 539.8 547 551.2 556.5 560.4 570.5 575 571.6 554.1 540.9 537.7 532.9 522.9 508.3 501.6 497 491.9 486 490.2 492.9 500.4 513.4 526.1 537.6 544.7 551.2 548.4 541.1 531.5 530.1 527.1 524.5 532.8 526.7 516.3 503.1 490.4 481.7 475.4 463.8 452.5 449.5 452.7 449 449.5 453.1 456.6 459.6 458.6 458.7 458.5 437.2 417.9 398 394.4 392.5 390.7 389.6 384.6 384.3 383.1 379.8 383.1 385.6 386 385 380.5 379.9 381.4 377.8 368.2 365.9 366.4 364.7 368.6 377.2 375.6 376.5 379.3 380.7 384.5 388 386 382.6 383 378.4 373.7 368.4 374.6 374.9 376 377.6 382.3 383.4 388.2 391.7 393.6 393.7 396.9 394.2 394.2 390.4 389.5 385.8 385.1 383.7 385.3 386.6 388.1 393.4 392.3 389 386.3 374 370 367 345.7 323.5 308.4 291.7 281 278.7 270 263.7 258.8 248.2 251.9 254.5 252.9 248.2 258 248.2 248.2 248.2 248.2 248.2 248.2 248.2 248.2 248.2 248.2 248.2 248.2 248.2 248.2 248.2 248.2 248.2 248.2 261 248.2 265.6 275.8 281.4 283.5 286.2
