ncols 200
nrows 82
xllcorner 300000
yllcorner 614950
cellsize 50
325.2 327.6 341.2 350.7 361.3 373.1 379.7 385.1 389.8 388.4 386.3 384 380.6 374.1 365 358 351 345.3 342.2 341.5 340.3 338.4 340.1 347.5 362.3 377.1 392.1 402.5 413 425 435.9 446.9 457.7 465.5 472.6 480.1 487.6 493.3 497.8 501.7 504.4 505.8 508.5 509.7 511.1 512.1 512.4 511.5 509.6 507.3 503.9 500.6 490.5 487.3 485 479.9 475.4 479.1 482.4 487.3 493 500.2 507.9 517 524.5 530.8 532.2 530.5 524.7 515.2 490.2 462.1 473.6 474.6 471.9 467.3 461.6 454.7 448 441.1 433.5 424.9 416.3 412.5 415.8 418.6 418.4 416.3 412 406.1 398.1 391.4 384.5 377.3 369.9 362.7 355.5 348.3 341.7 334.6 329.8 325.3 318.2 315.6 310.9 313.3 315.8 311.2 309.9 311.2 317.7 324.6 333.6 342.3 352.4 361.8 368.7 376.3 382.6 389.7 397.2 405 410.5 413.1 415.5 419 420.6 420.6 419.7 417.9 418.5 419.6 418.4 416 413.4 407.8 400.9 392.1 383 371.2 368.7 377.9 384.8 388.1 390 391.6 393.8 397.3 403 410 416.5 418.1 412.9 404.7 391.5 372.3 359.4 353.3 350.9 348.1 349.8 354.7 367.3 383.3 399.5 411.4 420.7 428.4 431.2 429.2 424.6 419.2 410 400.1 389.2 381.9 391.5 402.1 414.3 426.4 433.1 435.2 429.7 421.2 411.2 399 385.1 374.4 362.8 362.6 356.6 342.8 327.7 312.1 312.1 312.1 312.1 312.1 312.1 312.1
326.7 331.2 348.5 364.3 379.9 393.2 403 407.7 410.5 411 407.3 406.4 400 391 380.5 370.9 362.7 356 352.6 352.6 349.2 343 338.4 342.1 350.3 364.5 379.7 394.8 406.3 416.5 429 439.3 448.2 456.2 465.4 473.9 481.7 489.2 494.7 499.2 502.5 503.9 505.3 506.7 508.1 509.3 509.4 508.6 507.3 505.1 502.8 498.1 490.6 486.6 484 480.5 479.9 480.9 483.5 488.5 495.6 502.5 510.5 517.9 526.3 532.2 534.5 532.1 524.2 514.7 492.9 469.6 455.3 456.7 453.7 451 447.7 442.4 436.5 431.3 424.8 416.5 408.5 403.4 406.2 408.8 408.5 406.5 402.4 395.9 387.9 381.5 374.4 367.1 359.7 353.1 347.3 341.2 335.6 330.4 325.7 320.7 317.6 318.7 319.7 319.2 316 312 308.1 311.6 317.7 324.9 334.6 344.2 353.9 364.5 373.5 381.4 387.5 391.5 397.9 404.5 409.1 412.7 418.1 423.9 427.6 429.1 430.3 430.4 429.9 428.1 424.3 420.7 414.4 406.2 397 387.6 379.2 370.6 372.4 382.8 389.1 393.2 396.5 398.8 400.3 404.2 407.4 410.5 414.7 416.6 411.1 403 389.7 373.8 362 355.5 352.3 349.3 350.2 354.4 361.6 374.4 389.7 403.6 413.8 421.2 427.3 429 426.5 421.7 412.9 402.8 392.7 387.1 391.7 399.9 411.6 422.5 429.6 431.1 427.3 419.5 410 398 383.6 373.8 369.1 369.3 365.5 357.3 341.6 325.3 312.1 312.1 312.1 312.1 312.1 312.1
326.8 333.2 352.5 372.8 390 405.2 415.7 422.3 424.6 426.3 425.9 423.5 416.6 406.8 396.6 387.3 378.2 370.4 367.6 364.7 360.2 350.9 342.3 339.7 345 354.8 368.8 384.1 399.2 409.7 417.7 427.9 437.9 447 457.3 467 475.9 484.3 491 496.6 499.2 499.8 500.7 502.5 503.9 505.2 505.5 505 504.1 502.5 499.1 494.5 489.1 485.8 483.6 483.4 483.5 483.6 485.6 489.7 496.4 504.1 510.9 518.9 526.5 532 534.8 531.8 523.1 514.3 499.7 476.7 455.2 436.6 434.7 431.6 429.8 427.4 423.9 419.4 414.5 408.6 401.3 394 395.9 398 397.5 394.9 390.7 384.4 377.8 371.4 364.3 356.8 349.9 344.8 340.2 336.1 330.2 325.4 321.2 320 319 320.6 320.7 319.4 315.8 313.1 311.3 311.8 317.7 323.7 332.6 344.6 354.8 366.6 376.2 383.5 388.7 391.3 394.5 397.7 402.6 411.7 421.1 427.9 432.5 437 439.2 439.6 438.8 437 432.9 425.8 416.3 405.8 397.4 388.1 378.2 370.7 375.3 382.5 391 396.8 400.3 403.3 406.4 410.9 415.2 418.4 417 415.3 411.9 405.5 392.2 375.1 363.8 357 353.7 351.4 350.2 353 359.2 368.9 383.5 398.4 411.2 419.2 424.8 427.7 425.7 420.1 412 403.8 396.3 392.6 391.6 397.8 406.7 415.7 420.5 423.8 422.5 415.8 407.6 396.5 384.7 374.4 373.4 373.2 372.2 368.6 355.7 340.6 324.8 312.1 312.1 312.1 312.1 312.1
327.1 336.9 355.6 378.3 397.9 415.1 425.5 433.1 438 440.8 440.9 438.2 430.5 423.2 415.8 408.8 397.8 385.5 381.8 379.9 373.9 363.4 351.2 342.7 342.3 348.5 360.5 371.4 384.8 400 411 418.1 427.4 437.9 449.3 460.3 471.3 480.6 487.3 491.5 493.7 494.5 496.5 497.8 499 499.7 500.3 499.7 497.9 496 490.3 491 487.7 484.7 485 485.5 486.9 488 490.3 491.9 496.9 504.5 511.6 518.9 524.8 529.3 529.1 526.4 520.7 512.3 500.3 484.5 465.3 444.6 428.7 418.9 412.4 410.2 409.7 408.3 404.8 400.1 394 386.6 386 387 386 383.5 378.7 373.4 367.7 361.6 355.1 348.7 343.1 338.8 334.7 330.3 324.4 322 324.3 324.8 324.9 324.4 322.2 320.4 316.5 313.4 312.3 311.6 317.1 322.7 332.2 343.6 355.6 368 377.3 383 386.1 386.7 385.2 391.2 403.7 414.6 424.3 431.7 438.4 442.2 444.8 446.4 446.2 443.7 438.5 430.6 419.5 409.8 401.4 390.8 377.8 375.4 383.9 386.5 390 398.3 403.5 407.1 411.3 416.1 421.6 426.4 426.1 422.1 417.5 410.6 396.7 378.5 366.4 358.7 355.3 352.8 351.4 351.5 356 364.2 377.3 394.6 408.8 419.1 427.6 430.3 427 420.6 414.4 406.6 399.5 396.4 396.2 398 401.4 407.6 412.9 416.4 417.2 413.3 406.6 397.2 387 377.4 374.9 376.7 378.3 376.4 369.4 355.1 339.7 322.8 312.1 312.1 312.1 312.1
331.1 338.9 359 382.2 403 419 432.3 442.8 449.3 453.5 451.5 448.9 443.1 437.6 432.8 424.7 415.5 404.6 397 391.4 385.8 376.5 362.4 351.6 346.4 345.7 351.7 361.6 372.6 384 396.2 407.7 418.4 429.6 443.1 455.7 467.2 477.3 484.2 487.7 489.3 490 491.1 492.3 493.5 494.5 494.8 493.6 492 489.2 487.5 487.7 485.2 483 485.2 487.4 489.3 492.2 494.8 498.1 501.1 506.3 512.1 518.3 521.6 522 521.7 519.6 515.7 509 498.7 484.6 470.2 455.3 440.1 424.7 412.7 402.8 398.4 396.9 395 391.5 386.3 379.1 377.1 377.4 376.8 374.1 369.7 365.1 360 354.6 348.6 342.6 337.8 333.7 329.3 325.6 323.5 325.8 328.6 329.7 328.6 326.1 323.2 321 316.5 314 313.2 312.4 316.8 323.1 330.4 340 353.5 365.7 375.3 378.8 380.5 378.2 381.7 395 407.4 418.8 428.4 436.3 442.2 447.1 452 454.1 451.9 447.6 442.5 433.6 423.6 414.5 404.2 392.7 376.1 382.4 390.3 394.3 394.5 399.7 405.9 410.3 415.9 422.7 430 436.1 435.5 430.5 423.9 412.8 398.6 381.4 368.4 361.8 357.5 355.1 353.9 351.9 354.1 360.4 370.9 388.3 405.6 417.8 428.1 430.9 429 424.5 418 410.3 403 400.6 400.1 399.9 400.8 403.3 407.8 411.1 413.5 411.3 405.7 397.8 389.3 380.8 376.3 379.1 380.8 381.1 377.3 368.4 354.7 338 318.7 312.1 312.1 312.1
332.3 340.4 359.2 381.5 401.7 419.8 435.5 448 454.6 458.6 458.8 456.9 452.7 448.5 444 437.3 429.2 420 409.8 403.1 396.6 388.3 375.7 362.9 354.7 348.8 345.5 354.5 365.3 376.7 388.7 402 413.3 424.2 439.7 452.4 463.4 472.1 478.6 482.5 484.2 484.5 484.9 486.6 488.2 489.5 489.9 489.5 488.6 487.4 487.2 486.2 481.4 483.5 486.7 489 492.1 496 498.9 503.1 507.2 509.7 512.7 515.3 515.1 514.2 513.7 510.8 508.7 503.4 493.4 482.1 468.7 455.2 441.9 428 416.1 404.9 394.3 386.9 385.3 382.8 379.8 374.2 369.9 369.8 368.7 365.4 361.7 357.8 353.3 348 341.4 335.6 330.7 327.8 325.4 325 327.3 329.7 331.5 331.2 329.4 326.5 323.7 321.5 316.8 314.7 313.9 313.2 317.2 324.2 329.5 337 347.5 359.9 368.7 372.7 371.1 370.7 385.4 399.2 412.5 423.8 433.5 441.3 446.8 454 458.9 459.1 455 449.2 443.6 435 426.1 416.8 406.4 392.1 378 388.8 396.7 399.4 401.2 402 407.7 413.3 420.1 426.6 435.2 442.6 442.9 437.3 428.2 415.6 401.1 385 372.4 364.8 360.4 357.3 355.5 353.7 352.8 358.4 367.5 382 399.5 413.5 424.1 427.8 428.5 426.2 420.4 413.7 407.2 403.7 403.1 403.1 402.5 403 405 408.1 410.7 410.5 407.4 400.2 392.5 384.3 378.9 380.4 384 384.7 383.5 378.4 366.5 351.8 333.4 316.4 312.1 312.1
333.4 336.9 352.5 375.3 397.5 415.9 432.8 447.3 456.3 461.5 463.1 462 460.4 456.7 452.9 447.4 439.6 429.7 422 413.6 405.5 397.7 389.6 378 365.9 355.7 349.7 352 362.5 372.2 382.7 394.7 408.7 420.6 436.2 446.4 459 466 470.2 474.2 477 476.9 478.1 480.4 482.7 484.3 484.6 484.5 484.5 484.1 483.5 480.6 478.4 484.3 488.3 491 495 499.5 502.9 506.4 510.2 512.2 511.2 509.4 507.2 505.1 502.5 501.6 500.3 496 487.6 476.5 462.7 450.5 438.3 426.6 415.2 405.2 395.7 386.7 378.8 374.1 371.6 368.5 363.6 362.8 361.3 358 354.2 350.7 346.2 340.2 331.8 329.5 328.7 329 329.4 329.6 331 332.9 333.5 332.3 330 326.7 324.4 322.8 318.4 315.8 314.3 313.5 317.5 323.3 328.9 334.9 343.2 352.2 360.3 361 364.3 376.4 388.9 403.9 418.2 429.4 438 445.5 452.4 459.8 464.2 463.1 457.3 451 444.2 436.7 427.6 418.7 407.7 393.9 380.9 393.6 401 404.3 405.8 407.4 410.1 416.3 422.1 429.8 436.7 442.7 444.6 441.8 431.8 418.3 403.3 389.3 378.4 368.7 364.3 360.9 358.6 356.3 354 356.8 364.5 375.5 392.2 407.7 419 425.2 426.9 425.7 421.7 416.1 412.8 410.7 406.2 405.5 404.5 404.5 405.1 406.5 408.9 409.9 407.8 402.4 396.1 389.6 382.4 381.9 385.7 387.4 390.7 385.9 377.1 363.5 346.8 329.6 312.2 312.1
335.5 336.3 347.5 367.6 389.2 408.1 425 440.7 451.9 459.9 465.6 465.7 464.4 462.5 460 455.7 447.5 437.9 430.4 422.6 414.3 408.3 400.1 391 377.3 366 356.3 351.6 358.8 368.3 376.6 385.9 398.4 414 427.4 440.5 450.2 456.9 461.4 465 469.1 470.6 471.5 473.8 475.8 476.9 477.5 478.8 479.3 479.4 478.1 474.3 480.9 486 489.5 492.6 497.2 502.2 506.1 510.9 511.5 510.6 507.7 501.5 495.7 491.8 489.6 490.9 491.6 486.9 477.8 467.1 455.2 443.6 433.5 423.1 412.3 403 394.7 386.5 379.2 372.4 366.6 361.4 357.8 355.9 354.9 351.9 348.3 343.1 336.8 331.6 331.4 334.7 335.8 336 335.8 335.1 335 335.6 335.4 333.8 330.6 327.1 324.8 322.7 320.3 317.6 314.4 310.8 316.9 321.7 325.4 329.8 336 341.6 350.7 360.4 369.1 379.7 393.3 407.8 421.5 432.8 442.1 451.3 459.4 465.9 468.7 466.9 459.8 452.5 444.8 438 427.5 419.7 408.9 392.9 383.7 396.4 403.9 408.7 411.1 412.3 414.8 418.7 423 430.1 437.8 443.3 445.8 444.4 433.5 420 407.1 395.7 383 373.4 367.2 363.2 360.2 358.5 356.9 355.4 362 370.1 383.3 399.5 412.8 421.2 423.9 423.3 420.4 417.2 416.3 416 412.5 408.7 406.7 406.4 406.7 407.5 409 410 408.8 405.5 401.5 396.2 388.2 383.6 388.5 394.6 397.8 398.1 389.9 374.5 358.2 340.2 322 312.1
336.5 337.5 343.4 360.4 380.4 399.6 416.6 432.4 445.6 453.1 458.7 463.6 465.5 466.5 465.3 461.3 454.4 445.3 438 430.6 423.7 417.7 408.5 400 388.7 378.1 365.4 353 356.8 369.2 376.9 385.1 397.6 408.6 421.2 430.6 439.8 447.1 452.5 455.6 459 461.7 463.7 466.1 468.1 469.2 471.3 472.7 471.7 470.9 467.1 477.9 483.1 486.9 489.1 491.4 495.9 501.6 507.2 511.4 510.6 507.6 501.3 492 476.3 476.8 472.9 477.7 479.7 475.9 467.4 456.9 447.6 437.7 428.3 418.3 408.7 400.1 392.2 385.4 378.3 371.9 365.7 358.7 353.1 349 348.3 346.7 341.6 335.5 333.9 335.8 339.1 341.9 343.1 342.9 342 340.6 339.7 339.4 338.6 336.6 332.5 328.2 325.5 322.7 320.3 318.1 314.4 313.7 317.8 322.7 327.1 333.3 339.6 344.2 353.3 362.4 370.5 382 395 408.8 422.5 435.5 447.1 458.3 466 470.1 471.1 468.7 461.7 453.3 444.7 436.4 428.6 419.9 409.7 392.8 384.4 397.2 405 411.5 415.3 417.8 419.5 422 426.1 431.3 437.7 442.9 446.8 444.8 434.5 422.1 411.8 400.9 386.8 376.7 372.4 366.7 362.3 360.3 358.4 356.7 359 365.8 374.9 389.2 402.3 412.3 417.3 418.5 417.3 416.4 417.1 418.9 419 415.5 411.4 409.1 408.9 408.7 409.6 411.2 410.9 409.1 405.1 402.8 395.4 388 388.7 396.9 402.2 405.1 398.3 385.4 371 351.6 331.7 317.2
338.7 339.1 340.7 352.6 370.5 390.9 410.2 427 438.8 446.9 453.1 458.6 463.6 468 468.6 465.1 458.8 451.5 444.5 437.8 430.9 424.3 417.2 408.2 398.9 386.5 370.6 356.5 356.2 366.3 376 383.9 393.1 405.6 415.8 425 432.2 437.8 442.5 447.2 450.8 452.7 455.5 458.4 459.6 460.7 463.5 463.1 455.6 461.8 472.2 480.2 484.2 485.9 487.6 489.8 495 499.8 504.4 506.4 506 502.8 495.4 483.7 464.8 455.4 454.9 461.8 464.4 463 456.2 448.4 440.6 431.7 422.8 413.6 404.4 396.5 389.9 383.5 377.3 370.9 364.5 357.9 350.7 344.6 341 339.8 337.3 338.6 342.6 346.3 349.3 350.2 350.5 349.6 348.1 345.9 344.5 343.1 342 339.7 334.1 329.1 325.7 323.2 320.3 316.5 314.8 314.4 315.9 321.4 327.5 336.5 345.8 352.3 356 359.3 367.6 378.5 391.5 407.3 422.9 437.7 450.6 461.7 469.1 472.6 471.8 468.9 461.9 453.7 444.6 434.7 427.3 419.3 408.6 392.4 386.2 397.2 406.5 413.2 418.8 423.5 426.6 429.5 431.5 435.1 439.6 444.5 448.4 445 435.5 425.3 415.3 403.7 390 380.7 379.4 371.8 365.4 362.5 360.1 358.8 357.4 361.8 369.3 379.1 391.8 401.9 408.8 411.6 413.9 415.2 416.9 420.4 423.5 422 418.4 412.7 410.8 410.5 410.4 413.2 412.8 410.9 407.3 403.9 399.4 393.2 388.5 394.2 401.9 402.9 395.1 386.5 375.4 360.1 341.7 325.7
346.8 341.4 341.9 346.9 362.3 380.4 398.6 415.8 429.3 437.5 444.2 451 458.7 465.3 468.7 467.5 461.2 455.5 448.5 442.2 436.4 430.5 423.1 414.5 404.4 390.7 375.2 362.8 356.4 364.3 370.2 381.2 391 399.4 408.3 417.6 423.8 430.2 432.9 440.7 443.9 444.9 447.3 449.8 450.5 447.8 446 447.2 461.9 472.6 478.1 481.4 482.6 484.6 485.8 488.1 491.6 496.1 499.9 502.4 501.8 498.1 490.6 476.6 456.8 444 440 444.3 447.4 447.7 445.2 439.7 433.1 425.8 417.2 408.6 400.2 393.6 387.5 381.8 375.9 369.7 363.3 356.1 348.6 342.3 338.1 335.9 337.9 344.4 351.2 356.3 358.7 359.2 358.8 357.1 354.4 351.5 349.1 347.4 345.4 342.2 335.4 329.7 326.1 323.7 318 316 315.9 314.5 314.8 319.1 327.1 337.5 348.8 358.2 364.8 369 374.2 380.3 387 402.3 417.9 437.4 451.8 462.6 470.1 473.6 472 468 461.6 452.9 442.3 433.6 425.8 417.4 406.2 392.3 386.2 396 406 414.5 421.6 426.5 432.2 436.9 440.4 442.1 444.2 448 449.1 444.9 436.5 427.8 417.5 405.2 393.1 386.6 385.5 378.5 370.9 365 362.3 360 359.2 359 366.5 372.5 382 391.7 399.9 405.6 410.2 413.5 415.6 420.5 424.8 427.5 424.6 419.2 415.1 413.4 412.4 413.7 413.2 411.5 408 405.7 402.7 396 389.3 390.9 393.5 388.6 382.3 380.3 373.1 359.2 345.8 330.1
358.9 351.3 344.8 344.2 351.9 367.9 383.2 397.8 412.4 424.3 433.6 441 450.7 459.8 465.9 467.4 462.2 458.1 451.7 445.8 440.2 434 426 418.1 406.7 394 380.8 367.7 358.7 360.8 368.9 375.4 387.3 396.5 402.3 409.3 415.3 420.2 425.9 430.3 433.6 437.9 440.8 437.5 432 431.4 442.2 452.7 463.9 475.3 480.8 482.6 482.6 482.5 482.1 486.1 490.1 493.8 497.2 499.8 498.6 494.4 487.5 477.8 460.6 436.8 428.7 428.2 432.3 434.4 433.8 431.1 425.8 419.4 411.7 403.3 395.8 390.1 385 380 374.6 368.4 361.3 353.5 346 340.6 336.7 336.5 342.9 349.5 356 362.4 367.3 368.9 367.8 365.6 361.8 358 354.7 351.9 348.3 344.5 337.3 331.3 327.6 324.8 319.3 316.4 315.6 313.6 315.5 318.9 326 338.9 351.1 362.3 371 377.8 383.9 390.3 397.6 410.1 424.2 441.1 453 463.1 470.6 474.6 473.1 468.2 459.6 451 440.4 431.6 422.8 413.3 402.7 390.8 386.8 393.5 403.9 412.8 420.5 427.4 434.7 441.1 446.7 449.6 452 453.1 451.6 447.2 439.2 429.1 418.1 405.4 394.5 393.9 390.9 384.1 376.2 367.9 363.5 361.9 361.3 359.9 363.1 369.7 376 383.1 391.3 398.2 404.2 409.6 414.1 419.8 424.5 430.8 429.8 425.2 421.4 418 415.4 414.4 413.3 411.4 409.5 406.7 403.1 396.3 390.2 389.6 385.8 378.5 369.7 367.9 364 352.8 343.7 330.4
369.4 362.9 354.6 347.6 347.8 356.1 367.9 380.9 394.3 407.3 419.3 428.8 440.2 452.4 460.8 462.8 460.6 457.6 453.5 448.7 443.9 436.9 427.4 418.4 409.4 398.7 386.4 374.8 364.1 359.4 365.6 373.5 378.2 386.8 394.3 399.3 409.5 415.8 420.5 424.7 428.2 430.8 427.8 416.9 426.1 432.6 439.7 446.5 451.7 459.7 464.8 467.4 471.2 475.2 483.6 486.9 491 494.9 496.9 498.9 496.3 491.2 483.3 474.6 461.2 441.8 425 417.6 417.8 423.5 424.9 422.2 417.3 412.4 405.3 397.6 391.3 386.4 381.2 376.7 372.1 366.2 357.9 350 343.3 338.8 336.1 342 349.3 355.9 362.6 368.6 372.8 375.9 375.6 373.4 368.8 363.8 359.7 356.1 351.7 345.3 339 333 328.5 325.4 322.8 317.1 315.7 315.2 316.9 318.9 326.8 338.9 352.9 366.3 376.5 384.3 390.7 397.1 405.1 417.5 430.9 443.4 455.2 464.6 471.7 476.5 476.5 470.9 461.1 449.9 438.7 429 419 408.9 397.2 390.2 389.7 391.3 395.7 405.1 414.3 423.7 432.2 439.6 445.2 450.6 455.6 458.4 455.6 450.5 442.4 431.5 419.4 407.4 402.3 399.9 394.9 388.7 381.7 373.2 366.6 365.1 363.5 361.6 361 366.9 372.6 378.1 383.8 388.4 397.1 404.2 411.2 418.1 423.7 429.4 432.8 429.8 424.7 421.4 418.9 416.5 414.3 412.3 408.3 404.4 400.3 395.5 388.2 382.2 374.7 369.7 363 357.8 354 347.5 338.5 327.8
379.6 374.9 366.2 357.4 351.2 350.1 355.4 362.7 373.5 387.2 400.2 412.6 426.3 438.2 449.1 454.9 456.3 454.2 452.6 449.6 445.6 438.5 428.9 420 411 402 391.4 380.4 370.7 361.4 363 367.2 372.3 377.1 382.8 393.8 402.4 409.4 415.3 418.7 422.4 424.2 413.3 418.5 432.8 442.9 453 461.4 467.1 470.3 474.7 478.8 481.6 483.2 486.1 489.3 493.3 496.5 499 498.4 494.8 487 477.3 467 457 445.9 433.6 422.6 412 412.3 415.3 412.5 409.2 404.8 398.4 392.5 386.9 382.1 377 372.1 367.6 361.9 354.5 347 340.9 336.7 340.4 348.4 355.6 362.4 368.9 373.7 377.3 380.6 381.1 378.1 373.4 367.6 363 359.5 353.8 347.3 340.7 333.5 328.8 326.4 322.3 317.8 315.9 317.5 317.1 319 325.8 338 354.1 369.2 381.3 389.8 395.8 401.4 411.6 425.5 437.3 448.8 459.5 468.6 475.6 481.1 480.6 473.7 461.9 449.3 437.2 426.4 415.3 402.8 395.6 392 392.8 395.2 396.5 397.9 403.5 411.5 421.9 431.3 439.8 446.4 452.7 458.7 460.9 455.2 445.2 433.8 422.4 414.5 410.4 405.6 399.3 393.3 386.3 379 371.9 367.6 365.7 363.6 364.3 363.6 368.4 374.7 380.1 384.2 391.7 400.3 408.4 415.9 421.7 429.1 433.3 433.5 428.6 425 421.6 419.9 415 411.7 407.1 402.6 396.8 389.3 382.4 375.3 366.5 361.5 357.2 350.2 345.2 339.9 328.9 321
395.9 389.5 379 368.9 361.7 357.1 353.2 355.1 358.8 368.4 381.7 394 408.2 420.8 432.5 442.3 448.3 449.2 450.1 448.9 445.5 438 429.5 421.6 412.8 404.3 395 385.3 375.8 367.5 361.8 362.3 366.1 373 380.1 387.9 395.5 401.9 407.7 413.8 417.5 415.8 406.5 423.4 435.9 446.1 454.5 462 467.4 472.4 476.8 479.3 481.8 485.1 490.1 494.8 499.3 499.6 499.6 498.9 495.9 485.4 465.5 455.2 446.5 437.3 428.8 421.3 413.1 403.3 404 404.3 399.5 396.2 391.2 386.2 381.5 376.9 372.3 367.4 362.7 356.9 350.4 343.6 338 339.7 347.6 354.8 362.1 368.8 374.2 378.6 382.5 385.6 386 383.5 378.7 373 367.5 363 357.4 351 343.5 334 329.5 327.1 320.4 319.4 317.7 315.1 318 318.9 325.7 336.4 353 368.9 382.1 391.9 399.5 406.3 417.7 432.5 444.9 455.9 465.4 473.6 480.5 485.1 482.2 473.5 461.5 448.6 436.5 425.5 413.1 401.1 397.3 394.4 395.9 400.1 401.7 403 404.3 406.1 411.3 418.2 426.4 435.6 444.5 452.6 458.3 457.1 447.9 437.6 431.2 424.5 419.5 413 405.9 398.7 392 384.5 377.7 371.6 367.8 365.4 365.5 365.3 367.2 370.8 377.7 383.1 388.6 396.2 404.9 413.2 419.8 426.4 431.4 432.8 429.4 426 422.6 419.9 415.9 411.4 406.4 402.3 392.8 383.9 374.2 367.8 360 354.7 348.8 333.8 337.3 325.4 328.7 321.1
410.1 403.4 390.9 380 373.7 369.6 365 359.3 357.4 361.3 366 374 387.9 401.3 414.3 425.9 435 441.9 445 445.1 443.4 437.6 430.6 423 414.4 405.7 398.3 390.7 382 373.3 367.1 364.2 364 368.7 374 382.4 388.9 396.6 403.5 407.9 410.2 402.1 412.9 424.8 436.4 445.7 453.8 460.2 466 470.9 474.8 477.3 479.9 486.8 494.2 500.6 505.5 505.2 503.1 500.3 496.8 487.6 466.3 443 432.9 423.5 418.5 415.7 409.2 399.2 395 395.5 392.9 388.8 384.2 380.2 375.9 371.5 367 362.6 357.8 352.8 346.2 340.1 338.9 346.5 354.3 361.2 368.1 374.1 379.6 384.5 388.3 390.5 391.1 388.6 384.5 378.4 372.4 366.4 359.6 353 346.6 336 331.4 327.9 320.9 319.8 318.5 317.6 318.2 320.3 325.4 335.5 350.7 368.5 381.9 392.8 402.1 410 422.8 438.2 451.6 462.7 472.3 480.6 485.3 488.7 484.4 473.2 460.8 447.5 435.7 423.8 409.3 405.9 401.4 398.1 401.1 406.3 408.8 411.3 414.6 416.8 418.5 422 426 430.6 437.3 446.3 453.7 456.4 452.8 448.3 443 437.3 430.8 424.3 415.5 406.5 397.6 389.6 382.9 376.7 371.8 368.2 366 367 367.6 370.1 375.4 380.7 387.3 394.9 403 411.5 419 425.9 431.1 433.1 429.7 426.1 422.4 419.5 418.3 411.9 403.9 395.8 385.8 375.9 368.4 361.2 352 340.5 344.8 345.7 338.6 337.9 334.3 325.2
421.1 415.7 402.9 392.2 387.6 383.2 377.6 372.5 367.9 363.5 362.9 364.5 368.6 381.8 395.8 408.5 421.6 431.7 438.2 440.4 440.8 437.8 431.3 424.1 415.9 407.7 401.7 394.6 386.3 378.6 372.4 367.6 365.3 365.6 370.3 376.3 384.1 391.2 397.3 401.5 401.3 403.3 415.5 425.4 435.2 444.9 452.5 459.3 464.5 468.8 470.9 473 478.6 488.8 497.9 506.6 509.7 510.9 509.9 504.6 498 488.7 468.3 444.3 422.1 411.7 408.9 406.3 401.3 394.9 387.5 385.3 383.4 381.2 377.5 374.1 370.6 366.4 362.2 358.1 353.7 348.6 342.1 338.3 344.9 353.1 360 366.7 373.5 379.9 385.5 390.4 393.1 395 395.6 392.4 388.5 382.4 376.3 369.9 362.5 356.3 347.2 338.5 332.9 328.5 321.4 319.2 318.6 318.5 319.1 323.8 326.1 334.1 348.8 365.7 381.2 392.3 402.3 411.5 425.1 439 452.2 463.1 472 479.5 482.5 483.7 480.8 470.7 458.4 446.5 433.6 423 422 415.6 408.1 402.3 408.1 415.1 419.7 421.6 426.4 428.9 430.9 432.5 434.7 438.4 444.4 450.5 456 459.7 460.2 458.9 454.6 449.5 444.3 436.4 426 415.4 404.5 395.8 389.2 382 375.8 371 367.8 368.9 368.5 370.7 374.2 380.4 387.4 395.4 403 411.5 420 428 431.7 433.3 429.1 425.6 421.9 418.2 414.4 407.8 399.8 390.9 380 369.1 358.9 344.4 346.1 351.6 350.4 347.8 340.9 337.5 334.9 325.3
433 427.5 416.6 408.3 406.6 401.4 392.8 387 382.3 376.2 370.2 368.4 368.1 368.4 377.3 390.3 406.2 419.2 428.2 434.1 436.8 435.9 430.9 425 417.6 410.1 404 397.4 390.1 383.8 380.5 373 369.6 365.6 368.2 372.1 378.3 383.4 390.8 398.1 396.9 404.8 415.5 425.9 434.5 443.3 449.7 456.3 461.5 464.5 464.9 468.1 477.9 488.8 500.2 508 512.2 514.4 511.5 506.3 498.6 489.3 470.5 446 423.6 409.2 399.5 395.9 391.3 387.6 383 378.5 376.5 374.7 371.8 369.1 365.9 362.1 358 353.9 350 345.3 340.1 343.3 351.1 358.1 365.1 372.1 379.3 386.7 392 395.1 397.1 398.1 397.9 395.7 392.2 386.5 380.3 373.7 364.9 357.4 348.4 339.9 333.6 328.8 322.7 317.5 317.9 320.3 322.7 325.9 327.3 333.7 346.6 362 375.9 388.8 399.4 410.4 423.9 435.3 445.1 453.2 460 465.5 467.7 471 471.4 464.5 455.5 445.2 432.9 433.2 430.9 424.3 417.5 408.2 415.7 425.5 432.7 435.4 439.4 442.6 444.8 447.6 449.5 450.8 453.6 458.2 463.4 467.5 470.4 471.5 468.8 464 457.6 449 437.8 425 413.8 404.2 396.9 388 380.6 374.7 369.7 369 368.8 370.4 374.2 381 387.9 396.8 404.6 413.2 421.2 427.7 433.4 433.9 428.9 423.7 418.2 413.2 409.2 401.4 393.8 384.4 374 358.6 356.8 361.5 358.9 355.3 353 349.1 342.2 338.9 335.5 327.7
442.5 438.7 431.4 425.3 422.7 418.9 412.3 404.5 399.6 393 383.1 374.3 375.3 374.6 370.9 377.6 392.2 406.7 417.9 425.5 431.2 433.1 430 424.7 419.2 412.2 406.8 401.2 395 389 385.8 378.1 373.8 371.3 367.8 371.5 374.6 380.6 386.3 390.9 389.2 403.8 414.1 423.8 431.8 438.6 444.8 450.3 453.8 454.6 457.2 466.8 477.8 489.8 500.1 508.3 513.6 515.8 512.2 505.9 498.6 488.8 469.8 446.4 425.8 409.4 399.9 393.7 389.7 386 381.9 377.7 374.2 370.3 367.7 365.2 362 358.4 354.2 350.6 347.9 344 344.1 349.4 356.1 363 370 377.6 385.3 392.9 397.5 399.3 399.7 400 399.9 397.9 395.1 390.3 383.9 377 368.2 359.9 351.8 343.3 335.6 329.4 323.5 320.3 321.2 322.3 325.7 327.8 329.2 334.4 346.1 358.1 371.7 384.4 394.5 405.1 416.2 426 434.7 441 445.5 448.5 451.2 454.4 455.7 455.2 451.3 443.1 442 444 440.8 433.3 427.2 416.8 422.7 435.8 442.4 447 451.9 456.7 460.3 464.7 466.8 468.2 471 474.5 476.9 479.6 482.8 483.1 480.9 476.2 470.5 460.9 449.1 435.4 421.8 413.2 404.4 394.8 387.1 379.8 372.8 370.3 370.9 370.6 374 380.1 388.2 397.1 405.5 415.2 425.1 431.2 435.1 433.9 429.4 422 415.2 407.8 402.8 393.6 385.3 376.1 357.6 366.5 369.4 366.2 362.5 360.1 358.5 353.7 345.7 339.9 335.7 322.7
453.6 450.3 445.3 438.1 435.3 432.5 427.1 421 411 403.2 392.2 380.9 386.5 385.7 381.3 374.8 382.1 396.3 408.5 418.5 425.7 429.1 428.5 425.1 420 414.6 411.6 406 399.6 393.6 389.9 381.8 376.8 374.4 370.3 370.5 373.5 376.2 379.1 383.2 392.4 402 410.8 419.2 426.8 432.6 437.4 441.9 442.3 450.9 460.7 471.9 484.6 493.7 501.1 509.5 512.9 515.4 514.2 507.3 498.4 486.4 464.4 441.3 423.9 411.1 405.4 401.8 396.9 392 386.2 380.8 375.8 371.2 366.3 363.1 360.4 356.6 351.9 349.7 347.8 346.4 349.7 354.3 360.3 367 374.9 383.6 391.2 397.7 401.8 403.3 403 402.5 401.9 400.3 398.3 394.7 388.6 381.7 373.1 364.5 357.2 350.2 338.7 328.4 321 321 321.4 323 327.1 329.3 331.4 335.2 343.2 354.2 365.6 377.7 388.2 398.3 407.4 415.1 421.5 426.4 430.4 433.3 436.9 441.4 446.5 449.7 449.5 449.4 452.6 454.2 450.3 444.7 437.2 426.7 426.5 442.1 450.2 456.2 463.2 470.3 476 480.7 484.7 487.4 488.6 489.3 490.3 492 494.1 493.4 491.3 485.3 479.5 469.7 457.7 444.5 432.2 421.7 410.2 402.1 393.7 385.3 376.4 372.2 372.4 371.4 374 379.7 387.9 397.7 406.4 415.8 427.6 434.6 435.3 431.7 426.7 419.8 412.2 402.2 393.8 385.5 377 362.7 375.3 376.5 374.3 370.8 366.4 365.1 364.5 359.4 353.2 343 334.9 323.3
467 462.2 456.8 451.7 448.6 444.2 438.3 432.4 422.9 411.4 393.5 392.7 400.6 398.9 395.2 388.1 378.6 389.9 401.9 411.8 420 424.6 426.2 425 420.7 418 416.5 409.8 403.3 396.9 391.1 384.4 380.2 376.9 375.5 371.8 374 377.3 379.4 382.8 389.4 396.9 405.7 414.6 420.7 424.1 426 431.7 443.4 453.9 465.2 478.3 491.4 501.1 507.8 514.6 517.1 518.5 515 508.1 498.6 478.3 453.7 436.2 424.5 420.3 415.4 409.1 401.6 394.5 387.5 380.6 375.7 371.1 366.6 363.4 360.9 358.4 354.4 351.1 349.7 350.4 353.5 357.5 363.3 369.8 378.9 388.5 395.8 401.1 405.2 406.7 406.5 406.1 405.4 404.1 402.2 399.2 393.7 387.3 379.3 370.7 363.9 354.9 340.9 326.1 321.6 321.4 322.5 323 325.1 330.3 332.7 336.3 341.7 349.7 359 367.8 377.9 388.2 396.2 402.8 407.3 411.6 416.3 423.4 431.8 440.8 447.9 453.1 456.1 459.2 463.6 465.2 463 459.2 449.9 437.5 433.3 448.2 456.5 463.6 471.9 480.4 487 492.9 499.9 502.7 502.3 503.9 503.8 505.4 505.6 504 499.5 492.2 484.3 473.6 463.1 451.5 439.2 429 418.2 407.4 397 387.1 379.6 374.4 373.6 373.1 375.1 380.4 389.4 399.2 408 417.5 427.1 432.1 431.9 427.3 421.2 414.7 407.3 397.8 387.9 375.5 371.1 380.2 382.4 381.3 379.6 377.2 373.8 369 368.7 363.5 355.8 345.7 335.8 323.9
476 472.6 467.9 463.4 460.3 453.8 446.6 439.4 427.9 411 396.9 408 412.9 414.2 410.2 401.9 386.8 384.3 395.3 403.9 412.3 419.4 423.9 424.2 421.6 419.9 418.1 412.3 405.8 399.2 392.9 387.7 383.5 379.9 379.5 375.3 376 382.7 387.7 389.3 389.3 392.5 398.4 406.1 411.8 420 430.2 438.7 448.3 460.1 474 488.7 499.4 507.8 515.2 519.9 522.2 521.2 516.9 511.1 502.3 488.3 465.9 446.5 439.7 432.9 422.8 414.2 405.2 396.6 388.4 381.4 374.8 370.4 366.7 363.6 361.2 358.8 356.2 353 352.1 353.4 356.4 360.4 365.6 372.5 381.7 391.1 398.4 403.9 407.6 409.7 410 409.7 409 408 406.1 403.6 399.1 393 385.4 376.8 369 359.6 343.3 325.9 321.9 322.4 324.1 324.2 325.1 329.7 333.8 337.2 341.1 346.4 352.1 358.1 365.6 376.1 383.9 390.6 398.1 407.2 417.3 429.8 441.8 451.4 458.1 462.7 466.7 470.1 474.4 475.6 474 469.1 461.9 450.2 442.7 453.3 461.7 469.7 479.1 488.2 495.1 502.3 510.7 513.9 516.6 518.5 518.5 518.7 516.4 513.1 508.1 499.1 487.7 476.4 465.8 455 443.3 433 422.3 410.8 399.7 389.2 381 376.8 375.2 375.3 376.8 382.4 390.2 399.2 408.4 417.1 425.5 429 427 422.2 417.3 410.5 401.9 392.3 378.3 372.9 384.5 386.6 386.7 384.7 386.5 385.6 383.9 376.4 370.7 366 358 347.2 334.2 327.2
485.9 484.6 479.5 473.1 467.7 460.6 452.7 441.8 426.6 409.5 407 419.7 423.9 427 422.7 413.3 400 391.4 388.9 397.7 405.4 414.7 421.4 422.6 421.9 420.5 419.3 414 407.7 401.8 395.8 391.3 387.5 384.9 382.9 377.3 378.2 387.6 394.5 397.5 399 398.1 405.5 412.9 422.1 431.7 441.7 451.2 460.9 472.2 483.5 496.1 505.8 513.6 520.4 523.4 525.9 523.9 519.5 513.3 504.8 493.5 475.4 460.9 452.8 440.8 427.8 417.5 407.8 397.7 389.1 381.1 374.4 370.4 366.6 363.8 361.2 358.7 356.4 353.6 352.9 354.9 358.3 362.2 367.3 374.8 383.5 392.7 400.2 405.8 409.4 411.4 412.3 413 413 412.1 410.9 408.2 404 398.7 391.4 382.5 374.3 364.2 347 329.8 322.8 323.5 325 326.3 326.2 328.5 332.7 336.1 340 345.4 352.2 360.4 369.2 378.6 388.1 398.4 408.7 419.2 429.6 440.5 451 460.3 468.5 474.3 477.7 480.4 483.2 483.3 480.9 477.3 471.5 463.2 454.7 458 466.6 474.9 484.8 495 503.5 512.3 519.1 524.1 528.5 530.7 530.4 529.4 525.2 520.8 513 502.2 490.1 478.2 467.6 456.1 445.3 434.1 422.4 411.8 400.7 390.4 382.2 379 377.7 376.9 378.7 385 392.8 399.8 406.8 414.3 420 423.1 421.8 417.7 413.5 406.4 398.2 384.4 380.3 387.9 390.2 390.7 390.5 391.7 397.7 397.2 397.1 384.8 373 365.4 357.3 347.8 333.1 330.7
495.6 494.3 488.2 481 473.7 465.2 455.9 443 425.8 412.4 422.6 430.1 434.6 436 431.5 422 410.3 400.9 392.3 393.3 401 410.4 419.3 421.6 421.3 420 418.8 414.9 409.5 404.1 398.3 394.1 389.8 387 385 378.8 382.7 393.9 402.3 406.4 407.9 405.2 407.5 417.5 428.2 439.7 450.6 461.3 470.9 482.4 493.5 503.2 512.2 520.1 522.6 528 530.2 527.2 521.6 514.9 506.6 496.7 484.2 471.8 458.1 443.8 430.4 419 407.7 397.3 388.3 380.6 374.2 370.3 366.4 363.6 361 358.6 356.4 354.5 354.2 356.3 360 363.7 368.7 376.1 384.7 392.8 399.9 405.8 408.9 411.5 413.7 415.6 416.6 416 415.3 412 407.6 402.9 395.9 386.7 377.5 365.7 347.8 330.4 323.7 323.3 326.6 328.9 327.8 329.3 333.9 336.6 340.7 347.6 356 365.2 374.6 384.8 395.5 406.4 417.8 428.9 439.3 448.5 457.4 466.8 475.7 481.6 486.1 486.8 488.3 489.4 487.6 484.2 479.5 473.9 465.9 463.4 471 478.8 489.5 499.8 509.9 520 527 532.2 537.5 539.3 538.7 537.1 531.9 525 516.4 504.2 490.7 477.3 465.9 453.8 442.2 431.2 421 409.8 399.6 390.9 383.2 380.8 379 378.3 381.2 387.6 394.1 400.5 407 412.9 415.4 417 416.8 413.7 409.2 403.1 392.5 375.2 389.1 391.9 392.7 394.8 394.7 398 404 409 404.8 392 378.1 365.2 356.7 347.2 330.6 333.7
502.8 500.7 495 486.7 478.3 468.1 457.3 441.8 425.1 421.5 432.2 439.2 441.9 442.5 437.9 429.5 418.8 409.2 400.9 394.1 398.7 407.5 416.5 421.1 420.5 419.1 417.5 414.2 409.6 404.4 400.5 396.4 392.1 389.3 385.1 379.8 387.6 398.1 407.7 412.9 416.4 415.1 410.5 420.7 433.2 446 457.3 467.8 478.4 491 502.5 510.9 518.4 523.1 527.7 530.4 531.6 528.7 523.1 516.4 506.6 495.4 483.8 471.1 457 443.3 430.3 418.1 406.5 395 387.5 380 374 370 366.2 363.5 360.8 358.5 356.2 355.5 357.1 359.2 361.6 365 370.2 376.5 384 390.7 397.3 403.2 407.4 411.1 414.2 417.2 418.6 418.6 417.1 413.3 409.2 404.4 397.2 387.9 377.8 364.3 346.8 330.7 323.9 323.2 328.7 330.4 329.8 329.1 332.6 335.9 341.4 348.5 357 367.3 378.2 389.2 400.3 410.2 420.9 431.9 442.7 452.2 461.2 470.7 479.4 486 488.8 488.6 491 493.8 493.5 490.6 486.8 481.9 475.1 470.9 476.6 483.8 494 502.9 514.2 525.3 533.9 540.2 545.4 547.1 546.6 543.1 536.6 529 518.8 504.3 489.7 474.3 460.6 448.7 437.2 427 416.8 406.8 398.1 389.6 387.8 382.8 380.6 381.8 381.7 388.9 395.3 400.9 406.9 411.5 413.6 414 412.8 410.1 406.1 398.3 388.2 387.3 392.8 394.5 397.3 399.2 401.8 405.8 407.3 410.6 407 393.9 380.6 366 356.7 347.2 327.7 337.2
508.2 505.9 500.3 491.7 481.9 471 457.6 446.7 437.1 432.4 441.2 447.9 450.2 448.6 444.1 436.4 425.6 416.9 408.3 401.4 397.3 407.6 415.1 420.1 419.9 418.3 416.6 413.9 410 407 402.6 397.9 393.9 390.2 385.3 383 391.6 402.5 411.4 417 421 423.5 422.2 424.5 437 450.2 462 473.1 484.6 497.1 508.1 516.2 523.5 528.8 532.5 534.6 533.5 529.3 522.1 512.9 502 489.9 479 466.6 453.5 440.5 427.3 415.8 404.1 392.9 385.4 379.4 374 369.6 366.1 363.3 360.5 358.2 356.5 357.8 360.5 363.2 365.3 367.3 371.7 377.1 383 389.1 395.3 400.9 405.3 409.6 413.6 416.8 418.9 418.8 416.2 412.8 408.7 402.8 395.3 385.9 375 360.7 343.3 329.8 324.4 320.9 327.9 331.8 332.7 330.7 331 334.9 341.3 348.5 357.1 368.3 379.8 391.1 403.4 412.5 422.8 432.6 443.8 453.3 462.3 471 480.2 486.4 487.2 487.6 490.3 494.2 495.5 495 493 488.9 482.7 479 483.5 488.8 497.5 507.4 518.5 530.7 538.7 544.2 550.3 552.6 551.4 546.8 539.2 530.6 519.5 506.3 490.1 470 455.9 444.5 433.9 424 414.6 405.4 398.4 395.4 391.3 386.6 383.4 383.8 382.7 388.5 396 402.1 407.6 410.9 412.8 412 410.3 407.5 402.3 394.8 386.2 393.5 395.7 398.3 403 406.8 412.8 414.9 419.8 414.6 406 390.8 378.2 365.9 356.1 344.1 330.5 340.2
513.6 509.2 505.4 496.5 486.7 473.2 467.4 458 453.6 449.3 449 458.3 460.4 458.1 452.1 443.8 433.4 424.4 417.1 408.2 400.2 407.5 414.6 419 419.7 418.4 416.5 414.4 412 409.8 404.6 398.6 394.8 390.6 386.4 387.5 396.7 406.3 415.3 421.4 426.7 431.4 430 428.6 439.5 452 463.7 475.7 490.7 502.3 511.7 519 526.7 531.9 534.4 533.6 531.1 525.4 516.7 505.7 493.2 481.3 472.5 460.9 448.2 436 423 411.3 400 390.6 383.3 377.5 373 369.3 366.2 363 359.6 357.4 358.1 361.2 364.6 368.1 369.9 372 375.2 379.5 384.6 389.2 394.9 398.9 403.2 407.4 411.3 415 416.9 416.1 413.6 410.4 405.6 398.4 390.5 381.3 369.7 355.9 340.5 330.3 325 324.1 325.7 330 333.8 334.1 332 333.8 339.5 346.8 356.5 367.8 379.3 390.9 403.3 413.8 423.3 432.9 443.1 452.8 460.9 468.1 474.1 479.7 481.9 483.2 487.2 491.7 495.9 497 496.4 493.8 488.8 485.7 490 494.1 501.6 513 524.9 533.7 541.3 545.8 548.9 549.1 548.6 543.2 537.5 530.4 520.3 509.4 493.5 474.4 458.8 445.4 432.7 423.2 414 407.5 406.4 400.3 395.1 390.6 387.7 386.6 387.6 387.2 395.7 402.7 407.5 411.2 411.7 410.5 408.4 404.5 399.1 391 391.3 395.7 399.2 405.6 411.5 415.2 420.4 423.9 425 418.1 403 388.9 376.6 365.4 354.4 342.5 333.6 342.6
520.7 514.3 510 502.4 488.2 487.6 479.4 476.7 473.8 464.8 460.6 468.5 469 466.9 461.4 450.8 440.4 431.8 424.5 414.8 407.3 409.8 416.7 420.2 420.7 418.6 416.4 414.5 412.7 409.2 404 399 395.2 393.7 390.3 392 401 409.9 418.4 425.1 430.9 437.5 436.1 433.6 441.6 452.4 464.6 478.9 494.3 505.7 513.8 522 529.1 533.3 534.3 531.7 527 520.9 511.3 497.4 481.8 468.9 460.8 451.1 440.6 429.2 417.6 406.5 396.4 387.8 381.1 375.7 372.4 369.7 366.5 363.2 359.6 359.4 361.9 365.5 369.3 372.8 375.3 377.3 379.7 383.2 387 390.9 394.7 397.9 401.2 404.7 408.1 411.7 412 411 409 404.8 399.7 393.6 385.5 375.9 363.3 350 337.4 330.7 326.2 325.2 325.9 328.6 334.7 336.1 333.3 334.3 337.1 343.6 353.5 365.2 377 388 398.7 409.2 418.6 428.3 437.9 446.6 451.3 454.6 458.3 464.3 470.9 475.9 481.7 488.5 494.3 497.5 499.1 497.2 492 489.8 493.7 499.2 508.5 516.3 526.2 535.1 539.9 542.3 542.2 542 540.8 536.3 531.7 526.2 518.4 508.6 495.2 479.1 464.4 451.2 437.7 425.5 416 413.7 411.2 406 400.6 396.1 392.1 390.4 390.9 391.2 396.1 402.2 406.5 410.2 410.9 409.2 405.9 401.9 397.3 390.3 395.6 397.9 403.4 414.9 422.9 425.8 431.7 430.1 425.4 413.9 398.8 386.2 375.4 363.8 352.9 340.6 337 345.6
525.7 522.2 515 507.9 501.8 491.4 490.2 490.2 485.1 479.6 476.9 478.6 477.8 476 468.4 457.4 447.4 439.7 432.2 425.7 416.7 409.1 419 421.7 421.2 418.9 415.9 413.3 411.1 406.7 402.6 401.2 400.2 399.2 394.9 392.9 403.2 411.6 418.7 425.5 432.1 438.6 440 438.6 444.7 454 466.4 480.9 495.6 506.9 516 525 531.4 534.2 533.6 530.7 526.3 519.1 507.6 487.4 465.9 450.7 443.5 436.7 430.5 420.1 409.4 400.4 391.9 384.8 379.3 374.1 371.4 368.8 366 363 360.6 363.4 366.9 371 375.6 379.5 381.9 382.4 384.1 387.3 390.6 394.2 397 398.6 399.8 402.4 404.8 406.3 407.1 404.3 402.2 398.2 393.5 388.2 380.1 368.9 356.7 345.3 335.1 328.6 325.7 322.3 325.6 329.6 336.5 338.2 339.3 336 336.1 338.8 345.2 357.4 369.6 378.4 387.7 396.5 405.2 413.7 421.9 429.3 433.3 436.4 440.1 446.5 453.9 461.4 471.2 482.1 490.7 497.9 502.1 498 492.6 490.8 494.5 500.2 508.2 516.7 527.5 535.9 537.3 534.5 533 531.6 529.1 525.7 524.5 521.6 514.5 506.2 496.2 481.5 467 454.8 441.7 427.3 420.3 420.9 418.1 412.8 407 402.6 397.7 394.3 394.2 395.5 396.4 401 405.1 408.6 409.1 406.8 403.4 400.1 395.3 394.7 398.3 400.6 407.1 418.3 428.1 432.7 440.9 437.1 424.7 409.4 395.4 383.5 373.7 363.2 352.4 335.6 340.9 347.1
530.3 528.1 521.4 515.9 512.5 505.6 503.2 499.4 495.2 491.9 489.9 489.1 486.6 483.2 476 465.4 453.5 446.2 439.3 433.2 423.8 413.2 419.6 422.3 420.3 419.1 417.8 414.4 411.3 409.9 409.6 408.7 406.7 403.8 399.5 399.1 400.7 407.9 414.1 424 432.3 439.1 442.6 443.2 447.5 456.1 469.3 482.7 496.4 506.8 517.6 526.8 532 535.1 534.4 530.7 525.2 517.1 505.6 490.2 467.3 445.9 429.8 421.4 416.6 408.9 401 393.6 387.4 382 377.6 373.2 370.8 368.2 365.2 362.7 363.9 369.4 373.8 378.8 383.4 387.1 388.9 388.8 389.8 392.2 395 397.7 399.8 400.2 399.4 400.2 401.6 401.9 401.3 398.9 395.2 390.9 386.7 379.4 369.2 359 348.5 341 331.2 325.5 329.3 328.6 327.4 327.4 337.4 339.9 341.6 341.9 340.6 335.2 338.9 344.8 351.9 360.7 368.9 377.2 386.2 393.8 401.3 408.7 414.3 419.3 424.5 430.4 437.3 445.1 457.3 471.9 484.3 494.6 499.4 493 488.9 488.3 491.2 496.3 503 511.5 523.4 529.1 528.7 525.9 523.1 520.7 517.7 516.2 516.4 514.4 510.3 505 496.5 483.7 468.7 456.2 443 430.9 429.3 429.3 426 420.4 414.3 409 403.6 399.6 398.6 399.6 400.5 400.1 402.4 405.7 406.6 404.4 401.5 398.3 395.5 398.1 402.5 405.1 409.7 419 428.8 435.8 442.2 435.3 421.4 405.6 392.3 381.5 372.4 362.4 349.7 334.8 343.1 349.5
535.3 533 527.9 524.4 521.1 517.9 514.1 509.6 506.5 503 499.2 497.4 495.1 491 484.1 473.1 462.2 453.3 445.1 436.7 427.7 419.7 421.8 422.9 421.4 420.7 420.6 418.6 416.6 416.3 415.6 414.1 411.9 407.8 406.2 406.3 406.9 407.8 416.2 422.7 429.6 438 442.9 445.8 450.3 458.1 470.1 483.4 495.2 505.5 517.8 525.8 530.1 533.3 533.8 530.2 523.4 514.8 503.8 490.9 473.5 452.4 431.6 416.1 405.5 399.8 393.5 387.9 383.3 378.9 375.3 372.7 370.1 367.6 364.7 364.8 369.4 375.7 381.6 387.1 392.4 396.4 397.9 397.9 397.8 399 400.3 401.9 402.3 401.3 398.8 398.3 398.7 398 396.8 393.7 388.8 382.3 374.6 364.9 354.1 347.5 341.3 332.9 328.1 333.8 334.4 331.1 328.2 325.8 334 341.6 344.5 346.7 347.4 346.3 344.3 342 342 345.2 349.7 356.9 364.7 371.4 377.3 384.8 393 399.4 405.6 411.9 417.9 428.2 442.8 458.8 473.2 482.5 484.8 481.4 480 480.9 484.2 488.6 494.5 502 508.7 512.7 513.4 511.6 509.6 508 506.9 506.9 507.4 507 506.3 502.9 496.2 485.8 472.1 459 447.3 442.2 438.5 437.1 433.2 427.7 421.5 415.5 409.5 405.4 403.5 402.9 405.2 404.4 403.5 404.2 404.1 402.2 400.6 397.3 397.3 399.5 404.2 408.2 412.8 420.2 430.4 437 436.3 428.8 416.9 402.7 390 381.1 371.8 361.3 347.2 338.6 344 350.6
538.4 536.9 534 532.2 529.9 527.4 523.6 519.1 515.4 511.8 507.9 505.6 502.4 498.2 490.1 481.9 470.3 460.1 448.8 438 431.2 424.9 424.1 424.3 423.8 424 423.4 422.7 422 420.6 418.9 418 416.6 413.4 412.9 413.3 415.2 417.4 416.1 424.5 433.7 439.7 444.8 448.5 452.7 460.6 470.3 482.3 492.6 503 515.3 524.5 527.3 531.3 532.4 528.7 521.3 511.8 500.8 489.2 474.4 455.3 433.2 415.4 403.4 395 389.2 384.1 380.3 376.8 374.1 372.1 369.7 367.3 366.2 369.4 375 381.7 388.9 395 401 405.2 406.9 407.2 406.8 406.7 406.3 406.1 404.7 403.1 400.4 398 395.2 394 392.3 387.8 379.9 370.7 361.4 352.3 345.6 338.6 330.5 328.8 335.9 337.5 336.6 334.5 330.8 328.5 331 341.3 347 351.3 354.8 356 354.9 352.2 349.2 348.4 348.1 345.9 348.2 354.2 358.9 364.3 370.2 375.6 382.4 389.7 397.8 412.8 429.5 445.4 459.4 468.7 470.9 469.6 469.7 471.2 474.6 478.7 484.5 489.7 493.2 496.6 497.5 495.9 494.5 495 496.8 498.3 499.7 502.5 504.5 502.9 497.4 488.9 479.5 466.4 457.7 452.4 448.9 446.2 442 435.9 429.4 423.2 415.7 410.7 407.7 406.5 408.1 408.3 408.1 406.2 404.2 402.3 399.9 397.5 398.9 401.7 406.8 411.6 417.1 424.8 432.7 437.3 431.8 423.4 410.9 398.8 389.1 380.8 371.2 360.1 343.4 343.3 348.3 352.2
536.3 536.7 538 538.7 538.1 535.8 531.5 527.1 523.6 521 516.4 512.6 508.5 504 495.8 486.1 475.2 463.1 451.1 439.4 432.2 427 425.3 426 427.2 428.2 428.4 428.3 426.7 424 422.2 420.6 419.3 418.4 416.6 417.2 422.5 424.9 424.4 424.9 434.7 441.8 447.3 452.2 456.6 462.6 471.8 482 491.6 501.7 512.7 522.1 526.2 529 529.8 526 517.4 507.3 497.4 486.7 472.7 454 432.4 414.9 403.3 392.8 386.5 382.3 379 376.2 373.7 371.6 369.5 368.1 369.5 373.9 380.8 388 395.8 403 409 413.2 415.2 416 415.5 414.2 412.8 410.3 408.2 405.4 402 398 393.9 389 384.5 378 368.1 359 352.1 345.5 337.3 331.4 338.6 343.1 343.6 342.5 341.4 337.5 332.2 329.4 328 340.3 349.2 357.3 362.3 365.9 366.4 364.7 362 360.9 359.7 357.8 354.9 348 351.5 352.5 354.8 358.9 353.3 372.4 384.6 400.1 416.2 431 445.5 456.9 460.7 459.7 457.6 458.4 461.7 466.3 471.6 476.5 479.9 482.4 482.6 481.4 480.1 482.4 486.4 490.1 494.7 500.3 503.5 502.7 498.9 493 485.9 477 468.9 463 458.7 455 450.3 444.4 437.8 430.9 422.8 416 411.7 409.8 410.9 410.8 408.6 406.2 404 402.5 400.2 399.6 401.1 404.5 409.3 412.8 417.5 424.7 430.6 434.3 425.7 417 405.7 396.2 388.7 379.9 369.9 358.3 338.2 347.7 351 357
533.1 535.2 538 541.2 544.3 543.3 540.7 535.3 531.2 527.7 522.8 517.8 513.6 508.3 498.9 487.8 476.1 463.5 450.8 438 429.6 428.1 428.2 429.1 432.5 434.9 433.9 433.3 432.1 428.7 426 425.3 424.5 424.8 425.1 428.4 431.8 433.3 433.7 430.4 434.9 443.3 450.2 455.8 463.3 469.7 474.6 483.8 492.4 501.9 511.4 518.8 523.4 525.6 525.1 520.1 512.9 503.6 493.5 482.6 469.2 451.5 431.2 414.8 402 391 384.3 380.6 377.6 375.5 373.5 371.2 368.9 369.7 372.2 378.3 386 394.5 403.4 409.8 414.9 419.2 422.1 423.4 422.9 420.9 418.1 415 412.4 410.2 404.1 397.8 390.4 383 374.6 366.4 358.6 352 346.1 338.6 335 342 347.5 350.6 351.5 350 346.4 340.6 334.1 330 328.8 339.6 350.9 361.4 368.8 374 377.4 377 375.4 375.5 375.2 373.3 370.6 368.7 367 365.8 364.6 362.4 358.2 362.7 375.2 388.7 403 417.1 431.1 443.9 450.9 450.5 446.5 445.3 449.3 453.9 458.8 463.7 467.9 469 469.2 469 469.6 472.6 478.3 484.9 491.9 498.8 502.1 502.1 499.9 496.2 490.8 485.6 479.9 475.7 470.6 464.4 458 451.5 444.4 436.8 428.8 421.4 416.7 413.6 413.6 412 409.9 406.9 404.8 403 400.4 401.8 402.9 404.9 409.5 412.9 416.5 422.1 428.3 429.2 421.2 412.1 402.6 395 388 379.4 369.2 354.6 345.4 350.2 354.7 361.1
526 530.3 534.7 538.5 542.4 545.4 542.1 542.3 538.1 533.4 527.9 522.8 517.9 510.7 500.2 485.9 473.9 461.9 449.5 437.1 431.2 431.7 433.4 434.5 437.1 437.3 437.8 437.6 436.7 434.3 431.7 430 430 431 433 436.7 440.8 442.1 442.5 439.8 436.2 443.8 451.7 460.9 471.3 477.9 482.4 485.7 493.1 502.1 508.9 515.6 519.5 521.4 520.5 516.3 509.7 500.8 490.5 478.6 464 446.7 429 413.6 400.8 389.6 383.8 380.3 377.7 375.4 373.4 371.4 369.7 370.7 374.7 382.5 390.7 400.3 409.2 415.4 420 424.3 426.8 428.7 428.6 425.8 421.9 417.8 414.4 411.5 403.1 395.1 386.5 376.9 366.8 359 351.4 346.7 336.5 333.7 344.4 349.8 356.1 359 360 356.8 351.1 344.5 336.2 330.7 327.5 339.2 351.3 363.7 375.4 382.1 386.4 389.1 389.2 390.3 391.4 391.8 391.6 390.2 388.3 386 382.2 377.3 369.7 361.2 365.3 376.9 389.8 404 417.3 427.6 435.1 435.9 432.7 433.7 438.8 443.5 447.6 452.5 456.5 457.5 457.8 458.4 459.8 466.8 474.7 482.4 489.7 496.4 499.9 501.2 499.7 496.8 493.4 488.7 485.6 484.3 480.1 471.6 464.5 457.4 449 441 433.8 427 421.8 418.2 416.5 413.8 410.8 407.9 405.8 403.8 402.4 404 404.9 407 412.1 415.5 418.8 423.6 424.7 422.8 416.6 408.8 401.2 394.6 387.1 378.9 367.4 352.7 349.9 354 359.6 366.1
518.9 523 527.4 532.8 537.7 541.6 545 543.9 542.7 538.4 532.4 526.9 519.8 511.9 500.5 481.9 471 458.7 446.4 438.1 434.9 437 439.5 440.3 442.9 445.5 444.7 443.5 442.2 440.4 438.1 436.4 436.7 438.3 440.6 445.6 449.6 451.2 450.9 448.1 442.9 443.8 454.9 465.7 477.5 485 490.5 493.6 498.9 503.3 508.1 513 517.4 520 519.6 515.4 509.4 498.3 485.1 468 453.2 438 423.7 409.5 398.2 389.6 384.9 381.3 378.5 376.2 374.4 372.9 372 372.6 376.8 385.7 394.7 404.2 412.7 418.8 424.5 428.7 431.4 432.5 432 427.6 423.3 419 413.7 409.4 398.5 390.4 379.9 369.9 361.8 354.3 347.9 343 338.8 346 350.9 357.2 363.7 367.5 367.6 365.3 358.1 349 339.2 332 331 338.5 351.8 365.3 379 389.5 395.5 401 404.4 406.2 407.9 409.5 410.8 410.3 408.5 405.2 400 393.7 383.9 373.5 365.6 363.4 375.7 389.2 402.3 411.5 416.3 417.1 416.6 422.2 428 431.9 435.6 440.5 444.4 446.5 446.8 447.8 452.7 461.1 469.9 478.4 486.6 493.7 497.8 498.2 497.6 496.2 495.5 493.9 490.2 487.6 484.7 478.1 471.2 460.8 452.2 444.5 437.6 432.2 426.7 422.7 419.4 414.9 411.7 409 407.4 405 405.2 406 407.3 409.4 412.1 415.7 420.1 424.3 422.9 419.2 413.8 405.9 399.3 393.4 385.5 377.2 365.8 348.9 353.7 358.2 363.9 371.5
508.8 513.7 518.8 524.9 530.4 536.1 540.8 544.1 543.7 541.6 536.1 530.3 520.7 511.7 500 478.2 470.7 456.3 447.4 440.1 439.4 442.8 445.3 447.9 450.1 450.7 450 449.2 448.3 447.3 446.1 446.5 446.7 447.4 450.4 455.3 458.7 459.8 458.7 455.7 450.7 447.6 459.5 469.9 482.8 490.6 495.1 499.4 503.2 506.8 510.1 514.4 519 521.5 521.5 518.8 513.3 504.4 484.6 462.9 444.3 429.3 416.7 405.7 397.7 391.5 386.3 382.7 379.4 377.5 376.2 375.4 374.6 375.6 378.5 387.7 398.1 407 414.9 421.2 427.2 431.8 434.9 435.4 431.9 426.8 423 418 412.9 406.1 395.5 384.4 374.1 365.5 358.1 349.8 342.9 341.9 344.9 351.6 357.4 363.5 369 372.6 373.2 371.2 364.1 354.6 343.6 332.9 330.7 336.8 350.5 364.9 379.8 392.8 402.5 411.5 417.7 421.6 425.4 427.6 428.8 429.4 429.1 425.3 420.4 414 403.4 390 377 362.5 366 375.3 387.2 396.7 400 401 404.3 411 418.1 422.1 425.8 429.1 432.8 435.9 438.1 441.9 448.9 456.7 465.3 473.9 482.3 489.7 493.1 494.1 494.4 495 495.4 496.4 494.4 490.9 488.5 481.8 473.4 462 454 448.1 442.1 436.5 431.3 426.9 421.8 416.8 412.6 410.1 408.4 406.3 407.5 408.6 409.3 410.9 413.1 414.9 419.1 422.4 420.8 416.5 411.6 403.9 397.6 391.8 384.5 375.7 363.4 349.5 356.9 361.3 366.9 377.1
496.5 501.2 508.1 515.5 522.7 528.7 534.4 539.1 541.1 540.1 537.2 531.6 521.1 510.5 498.6 477.3 471.1 458.9 447.6 442.7 445.8 448.4 452.2 454.6 455.7 457.2 458 457.8 455.9 455 456.1 457.8 459.3 459.2 460.4 463.3 466.8 468.4 466.3 463.2 461.2 455.8 464.3 474 485.3 493.9 498.6 501.9 506.2 509.3 512.4 516.8 521.7 524.6 526.5 525.8 520.7 512.2 494.3 472.8 454.4 438.3 426.6 415.9 406.5 397.2 390.3 386 382 380.3 379.8 379.5 380.3 381.2 381.7 389.9 399.5 408.5 416.1 422.8 428.3 433 435.3 434.6 431.1 427.2 423.3 419.2 413.2 401.5 389.1 377.9 368.8 361.2 354.1 346.9 341.9 345.1 350.2 356.7 362.8 368.5 373.6 377.1 377.1 375.3 370.1 360.8 349.2 337.4 332.9 334.8 346.2 361.3 378.5 394.6 407.3 417.7 425 432.2 440.1 445.4 447.8 450 449.4 444.5 438.3 431.3 420.9 406.3 390.8 377.2 367.3 367.1 374.4 381.7 385.6 388.7 394.7 403.2 409.8 414.5 418.7 421.5 424.2 427.2 432 438.6 445.9 453.3 461.1 469.3 477.3 483.9 487.9 490.7 491.8 493 494.4 495.4 494.6 492.7 488.7 484.9 476.4 464.6 457.8 452.4 447.1 441.3 435.8 430.3 424.5 419.1 414.7 412.4 409.8 407.8 409.4 410.5 411.4 413.5 414.8 416.5 417.9 420.4 419.2 415.8 410.4 403.6 397.5 391 383.4 373.7 361.7 353.3 359.5 364.2 372.2 384.6
481.7 487.7 496.2 505 514.2 521.5 528 532.7 535.7 536.6 534.4 529.1 519.6 507.9 496.5 477.9 464.6 451.8 445.6 445.7 450.8 454.5 457.4 459.1 460.7 462.8 464.6 465.2 465 463.6 465.3 467.8 470.1 470.4 470.3 472.8 475.1 475.8 473.9 472.4 471.6 466.6 466 477.7 485.6 495 499.1 503.9 507.7 510.8 514.2 520.4 526.4 529.5 532.7 532.6 527.9 521.4 508.6 485.1 466.7 451.1 439.5 429.1 418.7 406.8 397.8 390.4 385.7 384.9 384.7 386 388.3 389 387.4 391.4 401.5 409.3 416.4 422.8 427.4 431.3 432.8 432.8 431.2 428.5 425.1 419.9 408.8 395.9 383.9 374.2 366.4 358.7 351.7 344.3 342.4 347.4 354.1 361 367.5 373.3 377.9 380.4 381.3 380.2 375.1 366.2 354.3 343.3 334.5 329.7 340.5 355.6 373.7 392.1 408.4 419.2 428.7 437.9 447.3 456.7 462 463.1 462.1 457.1 449.7 440.8 432.1 419.2 402.7 389.4 380.3 371.3 370.4 369.1 372.5 375.9 383.6 392.7 400.8 406.8 412 415.4 417.4 421.3 428 434.7 442.2 449.9 457.6 465.5 472.7 478.3 483 487.1 489.9 491.6 492.7 493.3 492.5 490.4 488.4 485.6 476.7 470.3 463.1 456.7 451.3 445.9 440.4 434.5 428.1 422.4 418.5 415.4 412.4 410.2 410.5 412.2 413.8 416.2 418.3 421.4 421.7 422 420.4 415.5 409.8 404 398.1 392.1 383.6 373.5 361.8 355.9 362.5 367.5 375.1 389.9
470.2 479 482.4 490.1 506.2 514.3 521.1 525.9 529.3 531.1 529.7 524.9 517 504.9 489.6 474 458.8 447.6 443.1 441.6 449.3 457.6 461.5 464.7 465.8 468.2 470.9 473.1 473.8 472.5 474 476.8 479.6 480.7 480.7 481.2 482.6 482.9 481.1 482.2 479.5 474.3 469.2 478.9 485.9 494.1 500.4 504.3 507.4 511 516.4 523.1 530.3 534.7 539.4 538.4 534.1 527.8 519.1 499.6 481 464.7 451.2 440.1 427.8 415 405.6 394.9 391.8 394.2 396.1 397.7 399.5 399.7 396.9 394.1 402.3 409.7 416.2 421.7 425.7 428.4 430.2 431.6 431.3 428.6 423.1 413.4 402.7 392.7 382 372.4 364 356 349.9 343.7 344.7 350.3 357.9 365 371.5 377.4 382.4 385 386.2 384.4 378.7 370.7 360.5 348.8 339.4 333.5 336.4 349.2 367.8 386.4 405 419.2 429.9 440.6 451.8 461.8 466.3 467.2 466.3 462 455.9 447.6 437.9 427.2 413.5 400.6 392.6 389.6 388.2 382.7 373.5 371.6 375.2 385.1 393.7 399.5 404.6 409 412.4 417.9 424 431 438.7 446.4 454.1 461.8 468.5 473.5 478.4 483.5 488.3 490.4 490.9 490.3 490.2 487.1 485 482.8 480.2 476.1 469.5 463.2 457.1 451.2 445.5 438.9 432.4 427.3 423.8 419.4 415.5 412.4 412.3 414.7 417.6 420 425.7 425.8 425.5 425.3 422.2 415.9 410.7 405.1 399.8 393.7 385.7 375.1 360.8 358.8 365.7 371.6 381.4 395.4
457.4 469.4 480.7 486.2 497.5 507.5 515.2 519 521.2 523.1 523.7 519.8 512.5 502 486.4 467.1 452.8 440.1 436.1 439.7 449.2 461.4 467.9 470.7 470.7 473.1 476.5 477.7 477.6 478.8 480.3 483.1 486.6 489.1 489.6 490.3 489.9 486.7 485.7 485.6 485.7 483 479.3 478.3 487.2 493.4 498.9 503.2 506.6 511.2 517.1 524.9 531.1 536.2 545 541.3 538.6 533.1 522.6 509.5 494.7 477.8 461.5 447.7 434.6 422.5 411.2 401.1 403.6 408.2 411.9 414.4 413.5 411.1 407.6 403.2 403.4 410.4 416.3 421.2 424.1 426.5 428.6 430.2 428.9 424.6 417.1 407.9 397.6 388.3 378.8 370.1 361.2 353.2 347.5 343.5 346.7 352.3 361.6 369.1 375.6 381 386.2 389.1 390.1 388.3 383.3 376.3 368.5 355.6 344.9 337 334.2 343.7 361.5 380.4 398.9 415.8 427.7 438 449.3 459.6 465.4 467.7 467.5 464.2 459 453 443.5 432.8 422.6 413.7 407.7 405.6 405.6 401.5 390.4 378.7 374 380.7 387.4 392.7 398 404 410.7 416.8 421.9 429 437 444.1 451.2 458.5 465.4 471 476.4 481.2 485.8 488.5 488.3 487 485.9 483 482.2 483.5 482.8 478.8 473.4 468.5 462.6 456.9 451 443.1 436.8 432 428.8 423.8 418.8 415.6 413.9 416.6 419.9 423 426.8 429 429.2 429 424 418.1 413.2 408 402.3 394.1 387.8 377.1 362.5 359.7 368.6 375 385.3 398.2
450.9 462.6 472.2 481.9 491 500.2 506.9 511.7 514.4 516.2 516.9 514.2 507.2 494.6 478.4 459.3 445.8 436 427.1 438.7 453.4 463.1 470.9 475.5 475.5 477.2 479.4 481.1 482.5 484.9 488.4 491.7 494.6 496.8 497.8 498 496.4 490.2 489.7 488.9 488 486.8 485.6 479.6 485.6 491.8 496.5 499.9 503.2 508.5 515.8 523.6 531.9 539.5 543.7 541.6 539.4 535 524.6 512.8 498.9 483.9 467.3 452.5 439.4 427.5 416.1 413 417.4 421.5 425.7 427.9 426.6 422.6 417.6 411.8 406.3 411.5 417.4 420.6 422.4 423.9 425.8 426 422.9 417.7 410.7 401.8 391.4 382.7 373.6 364.3 357 350.9 345.2 345.6 348.6 355.2 365 372.8 379.1 383.7 389.4 392.6 393.1 391.8 388.1 382.4 375.4 363.5 352.3 343.2 334.3 339.3 355.2 374.4 392 408.2 421 431.6 443.5 455 461.5 464 464.5 463.1 459.9 455.3 447.4 438.2 430.3 426 422.3 419.8 417.3 413.3 405.5 392.7 377.4 378.2 383.4 388.1 394.5 402 409.5 416.5 422.2 428 435.4 442.5 449.6 456.9 464.2 470.2 474.8 478.1 481.9 483.3 483 482 480.2 478.7 479.8 482.2 481.8 478.6 476.1 472.2 467.2 461.4 456 448.2 441.3 435.9 432.7 427.3 422.5 419.2 416.8 417.1 420.3 425.4 430.5 432.8 433.1 430.7 425.9 421.6 417.2 411.9 405.6 400.4 392.6 381.7 370.8 357 369 376.6 386.5 400.1
452.5 461.1 470 479.2 487.4 494.5 500.4 505.1 508.9 512.4 512.1 509.7 500.5 489.5 470.7 452.1 439.7 430.4 422 433.8 451.6 464.5 474.4 479.1 478 478.2 480.4 483 485.5 489.1 493.1 497.9 501.5 504 504.2 504.1 501.7 498.6 494.3 492.2 489.9 488 486.1 480.7 483.4 488.4 492.4 495.7 499.4 504.8 512.6 520.5 528.6 533.8 536.7 537.3 536.6 532.3 524 511.9 498.8 485.1 471 456.3 443.1 430.8 426.8 428 431.6 435.4 438.4 438.8 437.3 432.8 426.5 419 412.7 413.8 417 418 418.4 418.3 418.8 418.8 415.9 410.9 403.8 394.1 384.5 376.1 367.5 359.6 354.1 349.1 346.3 348.2 350.4 357.9 367.9 375.6 380.6 386.7 392 394.6 396 396.3 393 387.7 380.6 371.3 360.6 348.8 337.9 337.1 351.1 369 385.2 399.9 413.4 425.1 436.9 448.5 455.5 458.5 459.4 459.4 457.5 453.9 448.6 440.9 436.1 433.1 431.1 428.4 426.2 422.6 415.3 405.6 392.1 379.1 380.1 387 392.9 399.7 407.1 414.6 421 427.2 433.9 441.7 449.4 456.9 463.9 469.4 472.5 475.1 477.4 478 477.7 476.5 475.8 475.4 478.4 480.5 479.5 479.1 477.6 476.9 471.7 465.2 459.8 452.8 446.2 441.3 436.6 430.7 425.8 422.7 419.4 419.8 422.1 426.3 430.9 434.8 435.8 432.8 429.1 425.7 420.9 416.3 410.8 404.7 396.6 385.3 375.4 362.6 368.9 379 388.8 400.6
453.8 461.9 469.7 476.9 484.4 489.4 494.8 498.7 500 501 502.8 500.8 494.9 482.7 465.3 446.9 433.8 424.3 415.3 430.8 450.2 464.4 473.9 475.1 476.3 477.8 480.4 484 487.7 492.5 497.7 502.9 507.7 509.7 510.8 511.7 506.5 501.7 497.4 493 491.4 488.3 484.4 480 480.2 484.7 488.2 491.9 495.6 500.7 507.1 514.2 520.5 525.8 528.7 530.5 531.8 527.9 519.2 508.8 497.1 484.1 472.3 459.2 446.5 442.6 440.5 442.6 446.2 450 451.1 450.1 447.7 442.6 434.7 426.7 420.2 418.5 417.2 415.6 414.2 412.6 411.7 410.8 408.3 403.4 395.6 386.6 377.4 369.1 361.7 356.5 352.3 347.2 348.5 350.1 352.1 359.7 369.5 376.6 382.5 388.7 394 396.8 398.9 398.9 396.2 392.5 386.9 378.1 367.5 354.2 343.3 336 348.1 364.2 379.6 393.2 405.8 417.2 429 440.3 448 451.4 453.6 455.5 454.4 451.8 447.7 443.2 439.8 438.6 437 434.7 433.2 429.7 423.5 416.3 404.9 392.5 385.8 383.8 391.2 397.9 404.9 412.7 419.3 425.5 432.9 440.9 449.4 456.8 462.4 467.4 470.9 473 473.9 474 472.5 471.6 471.8 473 476.2 477.2 478.9 480.8 480.9 480.5 474.7 468.3 463.4 456.5 450 444.4 439.8 434.2 429 425.4 423.3 425.3 427 428.7 432.5 436.9 437.7 434.7 432.8 429.3 425.3 419.7 415 408.2 400.2 389.6 379.8 367.9 367.9 378.2 390.2 399.1
456.2 463.3 470.8 477.1 483.2 485.5 488.6 492.2 494.9 496.8 496.7 493.7 487.1 475.9 459.1 443.1 429.1 417.3 416.2 432 448.5 460.8 463.5 465.6 472.9 476 480.4 484.6 489.1 494.7 500.7 506.6 511.3 514.6 514.4 513.6 511.7 503.7 498.5 493.1 489.8 486.5 482.3 478.1 476 479.8 482.4 486 490.4 494.5 498.9 504.7 510.9 517.2 520.5 523.9 526.5 522.6 514.9 505.4 495.5 484.6 473.4 461.9 455.5 454.6 454.8 458 460.8 462.2 462.5 461.2 458.1 452.6 444.4 434.4 428.2 425.5 422.1 417.5 412.2 407.4 405 402.3 398.6 393.8 387.6 378.5 370.8 364.2 359.3 355.3 351 348.5 351.6 352.7 354.6 360.1 369.8 377 383.7 389.7 394.8 397.8 400.5 400.4 398.9 397 392.8 384.7 372.8 359.9 347.2 332.7 344.7 359.2 373.5 386.1 398.2 409.7 421.4 432.6 440.6 444.9 448.3 451.1 451 449.8 447 443.1 441.4 442.1 441.7 441.4 440.3 437.5 432 425 416.9 406.2 397.5 390 387.9 394.7 402.7 410.5 417.6 424.8 432.1 440.2 448.1 454.6 459.8 464.6 469 471 470.5 469.9 467.9 467.2 467.8 469.7 472.1 475.3 479.8 482.5 483.2 480.8 476.7 471.5 465.6 458.7 452.6 446.9 442.8 437.7 432.8 428.7 427.7 429.2 431 432.6 437 441.5 440.3 439.4 438 434.8 430.7 425.2 420.1 413.3 405.1 394.6 384.9 374.1 363.5 375.5 389.5 398.8
458.5 466 472.6 478.5 480.6 480.4 480.3 481.6 483.5 484.9 487 484.8 478.9 469.3 454.9 439.6 427.2 414.8 409.5 423.7 440.2 452.3 460.8 464.1 468.9 474.2 477.9 482 487.6 494.1 501.1 507.6 511.6 515.3 516.1 514 508.1 502.9 497.3 491.6 486.9 482.6 478.7 473.8 470.3 473.4 475.7 479 482.1 485.1 489 494.4 499.5 507.3 512.5 516.7 520.1 517.7 512.1 504.5 495.6 486 477.3 468.5 466 466.7 468.8 471.3 473.2 474.8 474.2 472.5 468.3 462.5 453.5 443.2 438.2 436.5 432.7 426.4 415.4 406.8 400.6 397.5 391.2 384.9 379.2 372.7 366.7 362.1 357.9 354.3 350.7 349.8 353.8 354.5 356.8 361.5 370.2 377.4 383.9 389.9 395.1 398.5 401.3 402.2 401.6 400.5 397.8 390.1 379.1 365.2 351.1 337.4 341.4 353.7 365.5 378 390.4 402.4 414.3 425.4 433.1 438.8 442.9 445.1 445.9 445.5 443.5 441.6 441.7 443.9 445.8 446.4 446.6 444.6 440.8 435.1 427.3 418.6 408.8 399.2 389.8 392.4 401.1 409.4 417 423.6 430.3 437.5 444.7 450.8 455.7 460.5 465.6 467.3 465.8 464.3 463.1 463.2 464.2 466.7 470.4 475.6 480.9 483.7 484.6 483.3 479.7 473 466.3 459.7 453.7 448.7 444.3 441 436.5 431.6 431.5 432.2 434.5 437.9 442.6 446 446.4 447.6 447.6 442.5 437.6 431.7 425.7 419.2 411.1 401.1 390.4 378.3 363 374.9 388.2 398.4
461.6 468.9 474.8 477.9 476.5 474.3 472.2 470.8 472.2 474 476.3 475.7 471.9 463.2 450.1 437.3 425.9 414.2 404.4 418.8 436.9 445.9 450.5 457.3 464.6 469.4 472.5 476.3 482.2 488.8 496.5 502.6 506.3 508.9 509.9 508.8 503.8 498.8 494.2 488.6 482.9 477.8 473 468 464.2 465.7 467.5 469.9 473.3 476 479.5 484.1 489.4 497 504 510 514.1 514.9 511.3 505.4 497.5 489.2 482.5 475.2 475.6 476.7 478.8 481.8 484.5 485.9 486.1 483.9 478.1 471.9 462.7 453.3 450.8 450.2 444 434.7 423 410.8 400.4 394.7 388 379.1 373.2 368.2 364 360.5 357 354.1 351.2 350.9 354 355.9 358.1 363.2 371 377.9 384.5 390.4 395.5 400.1 402.7 404.1 404.4 404.2 400.3 392.8 382.6 368.1 353.1 339.3 335.5 346.8 357.8 369.5 382 393.6 404.8 414.5 423.2 430 433.4 435.6 439.1 439.6 438.3 438.9 441.5 444.7 447.6 450.5 451.4 450.4 448.7 445 438.4 429.2 417.9 406.6 396.3 391.9 400.4 408.1 415.5 421.8 428.4 434.9 441.4 447.2 452.4 456.8 461.3 462.1 460.3 459 459.3 459.5 460.5 465.7 470 475.9 481.4 484.3 484.9 484 480.3 472.8 466 459.4 454.2 450.2 446.6 443.4 439.4 436.2 436.5 437 440.4 443.7 448.2 450.9 454.4 461.6 461.5 452.8 444.9 438.4 433.1 425.4 416.9 408 397.1 385.3 369.6 375.8 386.7 397.5
464.3 469.1 473.3 474 468.1 464.3 462.3 460.7 461.8 465.1 467.1 467.4 463.3 453.9 442.4 433.3 425.9 416 402.4 413 431.1 441.7 445.9 451.1 455.9 460.4 462.9 466.6 472.9 479.6 485.8 491 495.6 498 499.2 498.7 496.6 494 490.5 484.8 478.8 472.7 466.5 461.9 456.8 456.9 459.9 461.9 465.1 468.1 471 475.5 481.6 489.6 496.7 504.5 509.6 511 509.3 504.7 500.5 494.1 488.7 482.8 485.2 486 488.2 491.1 494.6 496.8 496.4 494.4 488.9 481.6 473.1 466.2 463.4 459.4 451.7 439.9 427 413.6 401.1 390.6 383.2 376 370.1 365.5 361.7 358.4 355.5 353 351.5 351.4 354 356.7 358.6 364.8 371.5 379 385.4 391.2 396.2 401.4 404.4 406.2 407.9 406.6 401.9 392.8 383 368.6 352.8 341.3 337.7 337 349.3 359.6 370.1 381.4 392.2 401.8 409.8 415.8 419.5 423.3 428.1 431.6 433.9 436.2 439.2 443.8 448.3 452.4 454.9 454.4 453.9 452.7 448.7 439.5 426.4 414 402.3 393.7 396.9 406.5 413.7 420.5 426.7 432.9 439.1 444.3 449.1 453.2 456.1 455.9 454.9 455.2 455.6 456.3 459.5 464.8 469.6 475.4 480.6 483.9 484.1 482 475.3 469.1 464.1 459 454.8 452.4 449.4 443.9 441.6 440.6 440.3 443.5 448.9 453.4 455.6 460.8 464 469.4 471.4 460.5 453 447.1 440.1 431.9 424.3 416 404.3 390.6 375.9 372.1 383.7 397
464.9 472 472.1 468.5 461.8 456.8 451 448.1 449.9 454.6 456.4 453.7 448.8 441.4 434.3 428.7 424.2 415.6 402 406 422.5 433.5 441.6 446.3 447.1 449.4 451.6 454.5 459.3 465.5 470.9 475.7 480 483.3 485.8 486.7 488.1 487.3 484.9 480 473.7 467.1 462.5 457 452.6 450.4 453.7 455.5 458.3 460.8 464.2 468.3 473.6 482 491.8 497.1 502.7 505.8 504.1 502.1 499.7 495.7 491.5 486 490.4 492 495 500.2 502.8 503.3 503.4 501.9 498 491.1 483.6 478.8 473.7 466.4 456 442 429.1 414.9 400.6 388.9 380.2 374.4 368.9 364.3 360.6 357.1 354 352.7 353.3 353.1 353.6 356.5 360.2 366 373.7 380.9 386.6 392.2 397.6 402.7 406.1 408.4 409.9 406.3 400.2 390.7 380 366 351.9 342.1 339.4 339.2 342.8 349 357.3 367.8 378.3 387.8 395.4 401.1 406.5 411.3 416.4 421.4 426.2 431.9 436.4 441.1 446.2 451.5 455.7 457.6 457.2 456.4 453.1 445.5 433.2 421 409.1 399 394.9 402.9 411.8 418.6 425 431.2 436.9 442 446.3 449.8 450.9 450.9 451.5 452.4 452.6 454.3 459 463.9 469.3 474.4 478.4 479.8 480.7 475.2 469.2 465.3 461.2 458.1 455.5 454 449.4 445.4 444.3 444 444.5 449.6 455.2 460.6 464.5 472.8 479 481.3 478.5 471.7 463.9 458.1 448.5 439.5 430 422.6 412.4 396.5 381.4 371.4 383.3 395.6
463.9 468.8 464.7 461.3 457.3 447.8 440.2 434.8 438.8 443.4 443.3 440 435.6 431 426.6 422.7 418.8 412.3 398.7 405.5 416.3 427.2 434.7 438.3 439.9 437.7 439.5 441.5 445.2 450.1 455.5 460.8 465.8 470 473.2 475.9 477.8 476.8 474.6 470.7 466.1 462.6 457 451.1 448.1 447.2 449.7 451.7 454.4 456.5 459.1 462.9 467.5 474.7 485 493.7 495.6 498.1 495.9 495.6 494.2 489.7 485.7 483.3 488.4 491.9 496.6 501.5 505.7 507.9 507.7 506.3 503.8 498.7 492.9 488.4 480.7 469.8 456 441 426.6 412 398.4 388.2 380.2 374.3 368.5 363.6 360.2 356.1 355.9 356.6 356.1 355 354.1 357.7 361.6 367.5 374.6 381.8 387.7 393.1 398.5 403.5 407 408.3 408.8 404.7 396.3 386 375.6 362.2 348.8 342.1 342.2 341 340.1 338.8 344.1 354.1 363.9 373.4 381.7 389 395.2 401.1 406.4 411.6 416.9 423.7 431.3 437.7 443.9 449.6 454.8 458.5 458.6 456.8 452.9 447.2 439.1 428.1 416.2 405.7 399.3 398 408.7 415.6 421.5 428 434.4 439.8 444.1 446.4 447.8 448.4 448.5 449.5 449.8 453.1 457.4 462.5 468.7 473 474.9 475.5 473.6 468.6 464.8 462.1 458.9 456.4 455.2 453.8 450.8 448.4 447.6 447.9 451.4 454.9 460 465.4 471.9 481.8 486 490.9 486.9 483.1 475.2 467.5 456.7 447.2 435.8 426.9 419.7 402.6 385.1 372.3 382.5 393.6
461.4 461.8 458.2 452.7 446.8 439.6 432.6 425.7 427.6 430.8 430.6 428.9 426.3 423.4 419.5 415.9 412 407.1 393.6 402.5 411.3 419.5 424.9 428 429.2 429.8 430 432 433.7 437.9 444.1 449.6 453.8 457.8 459.8 463.3 465.3 465.1 464.3 464 460.4 457 450.9 446.6 444.2 443.6 445.3 447.7 450.2 451.8 454.2 457.6 460.8 466.5 474.6 482.7 486.8 488.2 488.4 485.1 484.4 483.6 481.8 477.3 482.2 487.4 492.1 497.2 500.9 507 508.8 510 508.6 503.3 498.2 493.5 482 468.2 452.4 437 422.8 407.5 395.2 386.9 379.9 373.4 367.5 362.9 358.7 357.1 359.4 359.6 359.1 357.6 355 358.6 362.9 369.1 375.8 382.1 387.9 393.1 398.3 403.2 405.5 405.8 404.3 399 390.1 380.1 367.1 353.2 345.7 347.7 348.1 346.4 343.8 342.1 342.7 344.7 350.8 359.4 368.4 377 384.4 391.3 396.7 402.1 408.2 415.4 424.2 433 440.6 447.1 453.4 457.3 458.4 455.7 451.8 447.3 441.8 433.8 423.2 413.3 405.7 399.7 403.7 412.1 417.6 423.7 431.4 437.9 442.2 444.4 445.7 446.2 446.4 446.1 449 451.9 455.9 461.3 466.7 469.5 470.8 469.7 467.2 463.5 460.8 458.4 457.1 455.8 454.6 453.2 451.5 451.3 451.2 453.4 457 461.4 465.7 471 482.5 487.1 494.3 497.4 495.5 492.2 485.5 475.3 462.7 454.4 440.6 431.2 421.9 406.5 388.1 374.8 382.6 391.4
450.7 450.3 447.3 442.6 436.9 430.9 424.7 417.1 417.2 420 421.7 420.9 419.3 417.1 412.6 407.7 403.5 400.3 389 397 404.8 411.7 416 418.4 419.3 420.5 420.9 421.2 423 426.4 431.5 436.4 439.5 443.4 447.5 450.6 452.4 453.4 453.8 452.4 450.8 448.5 445.1 442.1 440.6 439.5 441.1 443.8 446.1 448.1 451.1 454.3 456.9 459.4 462.9 468.4 473.6 475.6 475.1 475.2 475.5 474.1 470.3 467 470.7 477 487.4 496.8 498.8 500.4 502.3 509.3 509.1 503.3 497.9 491.8 480 464.1 447.1 433 419.1 404 393.2 385.7 379 372.5 366.8 362.4 358.7 360.2 362.4 362.6 362 359.9 357 359.9 364.2 370.6 376.6 382 387.2 391.9 396.4 400.4 401.9 400.9 397 390.2 380.8 369.1 354.8 348 352.9 356.1 356.8 354.4 351.2 345.6 343.7 344 345.8 349.2 355.8 363.8 373.1 382.3 387.6 393.3 400.5 408.5 417.9 427.5 435.7 442.7 450.5 455 455.5 453.8 450.6 446.6 441.8 435.8 428.1 419.8 412.4 405.8 401.3 406.9 412 418.3 427.9 435 440.5 442.9 443.8 444 443.5 443.9 447.6 450.9 454.2 459.5 462.7 465.3 466.1 463.8 462.1 459.2 456.5 456.1 455.5 454.4 452.6 453 454 454.2 455.1 457.6 461.3 464.9 470.8 479.7 489 494.5 502.9 505.4 505.3 503.8 495.8 480.9 468.7 460.3 446.6 433.7 421.7 406.4 390.1 374.9 383.5 390.1
438.5 438 435.8 431.9 428 422.7 416.4 409 407.2 409.7 410.9 411.8 410.6 407.5 402.6 398 393.3 391.4 384.2 390.9 397.5 404.5 408.5 412.6 412.9 414 414 413.5 414.1 415.7 419.1 423.1 426.2 430.3 434 436.9 439.3 441.1 442.5 442.9 443.2 441.1 438.6 436.9 437 436.6 439 441.2 443.3 445.7 449.8 453.2 455 455.1 456.4 457.9 459.7 461.8 463.9 463.4 463.2 461.2 456.1 453.6 457.8 463.8 470.7 479.2 486.7 493.2 499 503.2 505.2 500.4 493.5 487.7 474.3 458.5 441.4 426.9 413.8 401.5 392.4 384.8 378.3 371.9 366.1 362.3 358.7 361.5 364.6 365 364.2 362.2 359.1 360.6 365.6 371.6 376.7 380.8 385 389.3 393 395.5 396.3 393.9 388.2 379.7 366.8 352.3 352.2 358.9 363.6 366.2 367.6 366.2 361.5 353.9 346 344 344.6 346.2 349.3 353.3 361 371.9 379.8 385.8 393 401.2 411 421.2 430.3 437 445.3 450 450.4 449.5 448 445.3 440.8 436.2 430.6 424.6 418.3 411.5 405.6 404.4 406.1 409.8 419.7 431.2 438.2 440.6 441.2 441.4 439.4 443.8 446.7 449.7 452.4 455.7 458.7 460.8 459.3 458.5 456.6 454.2 454.2 454 453.3 452.5 452.3 454.6 455.9 456.6 458.8 461 466.5 470.7 478.5 487.5 497 503.1 511.3 514.4 515.6 513.4 505.2 490.4 474.6 462.1 448.4 434.7 422.4 406.7 391.3 377.5 384.7 389.6
426.6 426.8 425 423 420.4 415 408.7 401.1 397.5 398.8 399.6 398.9 397.9 394.4 388.4 387.2 386 383.1 380.6 388.5 392.4 398.6 402.4 406.3 407 407.4 407.4 407 407.4 408.4 409.9 412.7 418.2 420.8 422.1 424.3 428.6 430.9 431.5 432.9 434 432.2 431.6 432.9 433.6 439.1 443.1 446 445.3 445.5 448.5 451.3 451.6 450.4 449 449.6 449.7 449.7 451.2 451.3 450.6 448.1 444.5 443.6 445.7 451.5 459.2 468.3 477.1 485.2 491.5 495.8 499.4 493.9 486.5 480.1 466.8 450.5 433.2 420.1 408.3 399.6 390.9 383.9 377.6 371.6 366.1 362.4 360.2 362.5 364.8 365.9 365.6 364.3 360.7 361.7 367 372.3 376.3 380 383.6 386.6 389.3 390.7 390.3 386.2 377.7 363 353.7 359.9 365.4 370.8 375.3 378.2 378.6 377 373.1 367.1 357.4 345.2 345.3 345 346.3 348.1 351.2 360.8 371.1 378.3 385.2 391.8 400.8 410.9 419.9 427.5 435.4 441.3 442.4 444 442.9 441.6 439.9 436.3 431.6 426.9 422.3 417.1 412.8 413 414.3 415 413.1 426.6 434.7 437.5 438.1 435 440.2 443.5 446 448.3 450.1 452.3 455.3 456.1 454.8 454.3 452.7 452.1 452 451.6 450.4 450.2 453 455.5 457 460.4 461.6 464.8 469.6 476.5 486 495 504.3 512.4 518.6 523 524.8 520.9 511.3 497.4 478 464.5 448.6 434.2 420.5 407.1 393.9 381.9 384.9 389.4
415.3 415.6 415.7 415.3 412.9 408.1 401.5 394.1 388.2 389 388.7 386.7 385.3 382.6 380.7 379.7 376.9 376.9 384.1 388.5 390.3 392 394.8 397.8 399.4 400.7 401.6 401.4 402.3 403.4 404.5 405.9 407.9 410.5 413.8 417.5 419.8 420.9 423.3 424.3 425.5 427.1 427.5 429.6 437 442.3 447 449.5 447.4 447 446.9 447.8 447.7 445.7 443.8 442.3 441.6 441.6 440.5 439.2 438.5 436.7 433.6 436.5 439.9 444.4 451.9 461.6 470.1 477.6 483.8 488 488.2 484.6 479.1 470.8 457.6 440.5 425.2 413.8 403.8 395.5 388.1 381.7 376.1 370.4 365.5 362.5 362.8 363.3 364.7 365.9 366.3 365 362.3 362.8 368.3 372.8 375.9 378.9 382.1 384.7 386 386.3 385.4 379.7 366.3 355.1 364.3 371.1 377.1 381.8 386.3 389.8 389.7 388.1 384.8 380.3 372 359.9 349.9 346.4 346.3 346.1 347.6 353.7 362.9 370.3 375.5 380.9 387.3 397.1 406.2 414.8 423.2 430.7 434.3 437.1 436.6 436 435.6 434.2 432.2 428.6 425 421.8 419.6 420 422.3 422.3 418.6 420.8 430.6 433.7 431 436.7 440.6 443.2 445.6 446.7 447.5 449.3 451.5 452.5 451.9 451.5 450.7 449.9 448.1 447.2 448.1 450.3 452.8 456.5 461.1 463.7 464.2 466 472.2 485.3 489.9 499.9 509.9 518.3 524.6 530.5 531.8 527 517.4 503.8 482.7 467.1 450.3 434.4 421.4 408.7 397.8 383.4 385.8 389.8
404.6 406.3 407.4 407.2 404.9 400.6 394.3 386.3 380 379.2 378.8 377.5 376.8 374.4 373 372.1 371.6 377.3 383.7 389.2 390.6 389.2 390.5 392.8 394.5 396.1 396.8 396.7 397.2 398.2 399.3 400.4 401.2 403.1 405.4 408.1 410.9 412.8 415.9 418.2 418.8 421.8 427.1 433.5 439.3 445.9 448 450.1 451.2 447.5 444.7 443.5 442.7 440.9 439.7 438.5 436 433.1 430.5 425.7 425.6 426.6 428.4 431.3 435.5 441.4 448.4 457.4 466.6 474.7 481.2 484.9 484.4 482.3 474.4 461.6 448 432.3 419.8 409.6 399.6 391.9 384.9 378.8 374 368.9 365.1 363 364.7 365 365.9 366.5 366.7 365.7 363.3 363.9 368.9 373.2 375.8 378.2 380.3 382.2 382.8 382.4 380.9 374.5 357.4 362.2 370 377.9 384.9 390.6 395.8 399.7 400.9 399.8 396.9 392.5 385 372.4 359.5 349.4 347.1 347.1 347.9 350.7 356.4 362.6 367.4 371.6 376 384.5 393.2 401.8 409.9 418 424.5 427.8 429.5 429.6 430.3 432.2 432.3 429.6 426.1 422.6 421.8 423.8 425.9 427.5 425.7 416.5 422.7 425.8 431.8 436.9 440.4 442.8 445 445.7 446.4 447.2 449 450.1 450 449.3 448.9 445.2 446.7 449.6 450.7 451.9 454.3 457.9 462.4 465.7 466.3 466.7 475.5 487.1 491.7 500.7 512.4 519.7 528.9 536.6 537 531.7 522.9 510.2 491.5 471.4 453.9 437.7 423.5 410.9 399.5 387.4 385.4 390.7
393.9 395.8 396.5 396.5 395 392 385.7 377.4 372.4 370.6 370.3 368.9 367.4 367.3 364.8 364.1 370.3 376.7 381.7 384.4 386.8 387.5 387.3 388.6 389.3 390.6 391.6 391.7 392 393.1 394.3 395.6 396.4 397.7 400.3 403.1 404.5 406.7 409.1 414 420 424 428.7 433.2 439.7 446.7 447.5 449.5 449.9 447.8 444.2 441.4 437.7 435.3 433.7 431.6 430.5 426.7 423.9 421 418.5 420.2 423.1 425.7 432.3 438.4 446.2 454.5 462.7 471 477.7 480.4 480.1 477 468.4 455.6 441.4 427.1 415.6 405.5 397.5 389.9 383 377.2 372.2 368.9 366 364.7 366 366.9 368 368.1 367.9 366.9 364.2 365 369.8 374.1 376.1 377.7 379.8 380.4 380.2 379.5 377.6 371.5 357.1 365.5 374.6 383.5 391.6 398.8 404.4 408.7 411.5 411.1 408.8 404.4 396 384.5 370.5 358.4 349.8 345.6 347.9 349.6 352.3 356.4 361.1 364.6 368.1 374.3 381.4 387.9 395.1 402.5 411 416.8 420 421 423.6 427.7 430.1 427.8 423.7 421 423.6 425.7 427.5 429.2 430.3 425.6 418.8 426.6 432.5 436 439.5 442.6 443.9 444.6 445.2 445.6 446.9 447.8 448 447.2 443.9 444.8 449.7 451.5 453 454.3 455.9 459 463.2 466.7 468.8 470 477.6 486.4 493.3 502.7 513.9 519.5 531.5 538.6 538.8 533.9 529.1 518 500.4 480.4 460.6 440.8 425.1 411.1 401.2 393.5 386.7 392.1
382.8 383.9 384.7 383.9 381.9 379.1 375 370.5 364.2 361.8 362 361 360.5 359.9 358.4 363.1 369.5 373.6 377.5 380 381.6 382.8 383.7 384.5 384.9 385.4 385.6 385.9 387.2 388.8 390.3 391.7 393.1 395.2 395.5 397.1 402.9 407.9 411.8 417.6 421.6 425.1 429.8 429.1 434 443.1 445.2 447.4 447.5 445.6 443 439.4 434.8 430.1 427.9 422.7 422.7 420.8 418.1 415.7 414.2 413.7 415.8 421.6 429.2 435.4 443.2 452.2 457.6 456 469.3 471.9 471.4 468.1 461.9 449.8 436.5 423.5 412.3 403.5 396.2 389.3 382.5 377.1 372.2 368.6 367 367.9 369 369 370.3 369.8 369.5 367.9 365.8 365.7 370.6 375.2 377.1 378.4 379.2 379.4 378.7 377.6 375.8 369 360.6 368 377 387.2 397.1 405.7 412.2 415.9 419 420.8 418.9 415.3 405.3 393.2 379.3 366.1 354.9 349.7 348.8 346.9 350.2 352 354.4 357.1 358.5 361 368.2 373.5 380 389.5 396.5 403.5 409.2 411.9 416.7 422.5 424.6 422.4 418.7 422.6 428 428.1 429.1 431.5 433.4 429.1 426.2 424.4 430.9 435.1 439 441.9 442.9 443.5 443.8 444.2 444.6 444.4 444.6 442.3 444.1 449 451.4 453.3 455.1 456.8 458 460.3 463.7 466.6 469.6 473.1 478.5 485.3 494.9 505.1 514 522.2 532.6 538.7 539.2 539.5 533.7 521.8 505.1 486.7 465.3 444 425.4 412.4 403.5 396.2 389.4 393
369.7 370.7 371.7 370.8 368.9 366.9 364 360.2 357.3 355.2 354.9 355 356 355.5 355.8 361 365.4 369.1 371.9 374.4 376.3 377.7 378.8 380 379.6 380 380.4 381.5 383.7 385.6 386.9 387.7 388 389.4 395.9 400.4 404.2 407.9 412.4 418.8 423.6 427.4 431.5 432 437.9 440.3 442 444.3 444.1 442.1 440.1 436.6 432.2 427.1 422.6 417.9 415.9 413.2 413.2 410.8 408.5 409 410 417.9 425.1 431.2 437.7 446.6 451.9 454 463.1 462.6 461.4 460.7 455.2 442.8 430.7 420.4 409.2 400.9 394.3 388.1 382.3 376.7 372 370.7 372.4 373.2 373.6 373.4 372.4 371.5 370.9 369.6 367.7 366.8 371 375.9 378 378.7 379.3 378.9 378.3 376.7 374 366.9 362.2 370 379.4 389.5 399.3 408.6 415.4 420.4 424.1 426.3 424.8 421.5 411.3 397.4 383.5 369.9 357.8 351.3 351.1 352.4 352.7 349.3 351 352.4 353.2 354.1 355.8 360.7 366 375.1 383.6 388.9 397.9 403.5 408.9 415.4 418.8 415.6 417.5 425.6 426.8 427.9 431.3 433.3 433.3 431.1 429.7 426.3 426.9 433.6 438.3 440.5 441.2 441.2 441.1 439.5 438.9 437.9 438.9 443.4 448.1 450.8 453.3 455.2 457.1 458.4 459.7 461.4 463.7 466.4 469.2 473.3 477.1 483.4 492.3 503.8 512.4 521.4 531.6 537.2 541.3 540.3 535.6 523.9 507.4 487 466.6 444.5 427.4 414.6 405.3 398 390.3 394.5
357.1 357.9 358.6 357.8 356.6 355.2 353.4 352 351 350 349.9 350.4 351.4 352.1 353.6 357.1 360.8 363.9 365.7 367.3 369.1 370.5 372.1 373.7 374.4 374.3 375.8 378 380.4 382.3 382.3 384.4 389.4 393.2 397.1 400.7 404.4 409.4 415.9 421.1 426.8 429.6 433.2 435 434.1 437.2 438.2 439.3 439.7 439 437 433.3 428.8 423.4 418.4 415.1 412.4 410.4 408.1 406.3 404.7 402.6 406.5 413.7 420.5 427.1 434 441.8 446.5 450.9 453.8 454 453.2 454 446.4 435.8 426.3 416.4 406.4 399 392.5 386.3 380.7 375.6 377.1 377.9 378.6 380.6 380.9 379.6 376.5 374.4 372.9 371.3 369.4 367.9 371.5 375.8 378.4 378.9 379.2 378.6 377.5 375.8 372.9 364.3 363.9 372.2 381.5 391.5 401.5 410.3 417.3 423.3 427.3 429.5 427.4 423.6 413.7 400.4 386.7 373.3 360.5 355 357.3 361.3 362.6 361.5 359.5 360.3 359.7 358.1 356.7 354.5 356.5 362.8 372.6 378.7 386.6 395.7 402 407 412.4 410 417.6 425.5 423.8 427.5 432.1 432.2 431.3 432.7 432.5 431.7 428.7 429.1 433.8 435.1 436 435.1 434.2 435.6 437.7 440.2 441.4 443.7 448.9 452.4 455 457.1 458.7 459.8 460.7 463.1 465.3 467.6 470 472.7 476.6 479.9 489.2 500.8 509.6 517.2 528.4 534.4 537.7 539.2 537.3 524.7 509 487.6 465.7 445.8 429.5 416.8 408.5 401.1 394.4 399.5
346.3 347.3 347.7 347.1 346.3 346.2 346.4 345.7 345.9 345.8 346.4 347.6 348.6 349.5 350.9 353.2 355.8 357.7 358.8 360 362.1 364.4 365.4 367.1 369.3 370.2 372.5 375.3 377 377.9 381.5 386.7 391.1 396.8 403.1 408.4 414 420.5 424 425.5 429.9 432.7 432.6 432.7 433.9 433.5 434.3 435.5 435.7 434.9 432.5 428.7 424.8 419.6 414 410.2 407.2 404.9 403.3 401.8 400.3 397.6 403.1 409.3 415 421.3 429 435.8 439.4 444.4 445.3 444.6 444.6 444.5 438.6 430.1 421.9 412.2 404.1 397.4 390.8 385.1 381.3 383.2 385.6 386.2 386.3 388.1 387.9 385.1 381.4 377.6 375.3 372.8 370.3 369.3 371.9 375.5 378.5 379.1 378.9 378.2 376.7 374.5 371.5 360.8 365.8 374.6 383.7 393.6 403.5 412.5 419.1 425.7 431.1 432.2 429.3 424.9 415.5 403.3 389.7 376 363.6 361.8 365.8 371.1 375.1 374.8 374 374.3 372.7 369 365.4 358.2 356.2 358.1 365.7 372.4 378.4 388.4 395 400.2 403.9 408.1 417.3 422.4 421.3 426.3 430.5 428.9 429.6 431.9 433.2 434 434.6 433.2 430.7 433.7 435.3 437.4 440.1 441.3 443.4 446 447.2 447.1 447.5 451.5 454.8 457.2 457.8 458.9 460.8 462.7 465.7 468.2 470.7 472.7 476.3 479.9 487.6 495.9 504 512.8 522.9 528.8 533.1 538.4 532.6 523.3 510.7 489.1 465.4 446.9 432.2 420.1 410.2 402.6 398.3 402.9
336.1 336.8 337.3 337.6 338.2 339 340.3 341.9 343.5 345.2 346.4 347.2 347.9 348.7 349.3 351 353 354.8 356 357.3 359.1 360.9 361.7 363.3 365.8 367.3 369.5 371.7 373.6 378.9 385 391 397 404.6 409.7 417.8 421.7 428.2 430 429.8 429.7 430.9 430.2 429 428.5 429.1 430.2 431.4 431.1 428.9 426.8 423.7 419.9 415.7 410.4 405.8 403 400.2 398.4 397 396.6 393.2 399.8 404.7 410.1 415.7 421.6 427 430.9 433.3 434.9 435.8 436.4 436.3 431.8 424.7 416.1 407.9 402.6 396.2 389.7 388.5 390 391.4 393.2 393.8 394.1 394.8 393.6 389.8 385 380.8 377 374.1 371.3 370.8 373 375.7 378.4 379 378.2 377.5 375.6 373.3 369.5 359.2 368.4 377.3 386.1 395.8 405.3 414.3 421.5 428.2 433.9 435 431.3 426.1 417.2 406.2 392.9 379.2 367.6 369.7 374.6 380.2 386.3 388 388.3 389.3 386.8 381.7 375.7 366.8 354.3 357.1 360.9 366.9 372.1 380.7 387.1 393.5 397.3 406.8 415.5 418.6 419.5 425.1 427.4 425.7 428.5 430.7 433.6 436.6 438.6 437.3 437.4 438.2 439.4 440.8 442.7 444.9 447.5 449.3 450.6 451.1 451 454.6 457.9 460.3 462.3 464.3 465.6 468.3 467.9 467.2 470.6 472.6 476.5 479.4 484.9 492.7 498.9 508.7 516.9 522.5 528.7 532.3 531.8 524.7 511.4 492 469.2 450.3 435.9 422.9 413.6 405.7 398.9 406.5
330.2 331 331.6 331.9 333.5 336 339.1 342.6 347.1 351.9 354.2 354.4 354.3 354.1 353.3 352.4 353.2 354.4 355.9 357 358.4 359.8 361.4 363.5 365.3 367 368.9 371 375.7 380.7 386.6 394.2 401.1 409.5 416.9 421.4 423 430 430.1 428.9 428.1 426.9 426.3 424.9 424 424 424.3 425.1 424.4 422.5 420.9 418.5 415 410.9 406.1 402.1 399.3 396.1 394.1 392.2 392.4 390.7 396.6 400.4 404.8 409.2 413.2 417.9 421.9 424.8 426.6 428.4 429 428.6 424.8 418.6 411 404.9 399.9 394.8 392.6 394.1 396.9 399.2 400.5 400.4 399.6 398.6 396.8 393 387.9 382.8 378.7 375.5 373.3 372.3 373.7 376.3 378.2 378.8 377.8 376.6 374.3 371.5 368.2 362 370.9 379.9 388.5 397.7 406.7 415.5 423.3 430.6 436.6 437.3 433.1 428.1 419.5 408.9 396.6 383.3 371.4 375.4 383 388.7 395.2 398.5 401.2 403.7 402.7 397.4 387.6 373.4 362.4 357.3 359.3 367.2 371.4 376.2 381.5 388 395.5 402.9 412.3 414.4 417.3 422.8 423.2 423.6 426.9 432.8 437.3 440.6 441.3 441 439.4 440.1 441.2 442.7 445.7 448.4 450.9 451.8 453.6 455.4 457.7 459.4 461 464 466.3 468.4 470.4 472.9 474 472.9 475.4 477.6 477.6 478.3 484.1 488.3 493.2 503.1 510.6 517.6 527.9 534.2 536.1 527.6 515.3 496.8 473.4 454.3 440 426.2 417.5 408.4 402.9 409.8
337.7 338.1 337.4 336.6 337.8 341.2 345.5 350 356.4 362.2 365.1 366 365.7 364.4 362.3 358.8 356.8 357.1 358.1 358.5 358.3 359.7 361.3 363.2 365 367.1 368.6 370.8 374.7 380.7 387.3 395.3 405.2 412.2 419.5 421.3 425 425.7 426.7 424.5 424.1 423.5 421.9 420.2 418.9 418.9 418.8 418.4 417.3 416.5 415 412.7 409.7 406.6 402.6 398.4 395.4 392 390.2 388.5 387.9 388.1 393.2 395.8 399.2 403.5 407.6 411 414.7 417.6 420.7 423.6 423.4 421.5 418.2 412.3 406.6 401.6 396.9 395.2 397.5 400 402.8 405.7 407.1 407.1 405.8 402.8 399.1 395.1 390.6 385 380.6 377.4 375.3 374.1 375 376.3 378 378 377.2 375.6 373.1 369.7 365.8 365.6 373.4 382.1 390.7 399.9 408 416 423.6 431.1 437.2 438 435 431 422.8 411.4 399.6 386.9 375.7 378.6 388.3 396.1 402.8 408.1 413.1 417.3 417.9 414.1 400.4 382.6 371.3 360.2 357.4 366.5 373 373.7 377.2 384.5 391.7 400.3 407.4 411 414.6 419.1 418.8 423.4 428.1 433.6 438.3 440.5 441.1 440.7 440.5 441.6 442.7 445.4 448.9 451.9 453.8 456.2 458.5 459.8 461.7 464 466.6 468.4 470.7 473.6 476.6 479.2 479.8 478.2 478.2 479.4 480.5 479.1 482.6 485 489.4 497.7 505.7 516.4 524.3 530.4 532.8 530.5 519.6 500.6 478.4 460.5 446.6 433.4 422.6 413.3 405.6 413.9
348.4 347.5 346.4 345.5 346.5 349.5 353.8 358.7 365.5 372.1 376.3 377.5 377.5 376 373.2 368.9 364.5 362.5 362.5 363.1 362 361.5 361.8 362.9 365 367.4 368.5 370.2 373.9 380.6 387.7 395.5 404.4 411.8 415.3 416.7 420.6 420.8 419.6 418.5 417.7 417.1 415.6 414.2 413.3 413.2 412.8 411.4 410.2 409.1 407.9 406.2 404.2 402 398.2 394 390.8 388.4 386.4 384.8 384.1 385.4 389 391.8 395.1 399.4 403.5 405.5 407.6 411.2 415.4 417.7 418 416.6 413.5 408.2 403.3 398.9 396.5 398.9 402.6 406.2 409.7 413.2 414.2 414.6 413.1 408.8 402.5 396.7 392.6 386.9 382.4 379.3 376.6 375.4 376.2 376.6 377.7 378.2 377.3 374.8 371.6 368.7 366 367.2 373.8 382.7 392.6 401.1 408.7 416.2 423.7 430.4 436.9 438.4 436.7 434 426.2 413.8 402 390.1 379.9 380.2 390.1 400.9 409.7 417.9 425.4 431.3 435.3 432.2 414.8 393 378.3 367.9 359.9 364.1 371.4 371.3 374 380.8 389.3 397 402.9 407.7 412.1 415.3 417.8 422.6 428.2 433.9 438 439 439.7 439.2 440.4 442.5 444.9 448.6 453.3 455.9 458.4 461.3 463.4 465.1 467.1 470.2 472.5 473.7 476 479.7 482.7 485.9 488.7 486.2 483.7 482.5 482.4 481.1 481.9 485.4 488.4 493.9 502.2 511.1 518.3 525.8 533.6 532 522.4 505.6 485.3 467.9 452.7 439 426.7 414.4 407.6 417.1
355.6 354.7 354.3 354.2 355.2 358.2 362.4 367.3 374.2 381.8 387.5 388.9 389.4 387.9 384.1 379.4 375.2 371.5 369.8 368.7 367.6 364 363.2 363.4 364.3 366.3 368.3 369.9 373.6 380.2 387.6 395.8 403.1 408.3 410.5 411.3 412.4 412.9 412.5 411.5 410 408.9 408.6 408.4 407.7 407.3 406.8 405.2 404 402.8 401.8 400.5 398.7 396.4 392.9 389.7 386.5 385.3 383.1 381.4 379.5 383.8 386.1 388.2 390.7 394.2 397.6 399.5 401.9 405.9 409.2 410.8 411.5 410.2 405.8 403.5 400.5 397 398.9 405.1 410.1 414.2 418 421.1 422.3 422.1 419.1 412.9 405.4 398.5 394 389.1 384.1 380.2 377.6 376.6 377.2 377.6 378.4 378.6 377.6 375.3 371.3 369 366.8 367.8 375.4 382.8 392.3 401 408.7 416.2 423.7 430.3 436.8 439.2 438.5 437.3 429.4 416.3 404.2 393.4 383.1 382.1 391.5 403.4 414.7 423.8 432.9 441.6 450.3 447.9 425.6 403.5 384.3 373.4 362 360.8 367 369.7 371.9 378.3 387.3 392.5 398.3 404.3 409.3 412.4 416.8 421.1 428.3 433.5 436.5 437.9 438.6 438 441.4 444.3 448.1 453.2 457 459.8 463.4 466.4 467.9 470.1 472.3 475.1 477.5 479.4 480.3 484.4 488.4 494.2 496.9 494 491.4 489.1 488.4 485.7 483.4 486 489.3 493.6 499.3 506.3 518 529.2 535.8 536.1 526.9 510.3 493.7 474.3 459.7 444.4 429.6 418 411.5 421.1
361.9 362.1 362.4 363 364.1 366.9 371.2 375.6 382.1 390.6 396.9 397.9 396.6 394.6 391.4 388.8 385 381.7 378.9 376.7 373.5 369.5 365.1 364.6 364.7 365.6 367.6 369.7 373.4 381 388.7 396.1 402.6 404.7 405.3 405.7 405.5 405.7 405.8 404.5 403.3 402.2 401.9 401.6 401.4 401.2 400.9 399.5 398.5 397.2 396.1 395.2 393 390.6 387.1 384.7 383.5 382.4 379.4 376.8 375.5 380.5 382.9 384 385.6 388.2 390.5 393.3 395.8 398.8 402.9 404.3 405 401 398.8 398.3 396.4 400.9 406.6 412.6 418.1 422.2 426.2 429.6 429.9 427.7 423.5 416.4 408.4 400.8 395 390.3 385.3 381 378.1 378 378.4 379 379.3 379.2 377.7 374.6 371.5 369.5 366.7 369.7 376 383 391.8 400.7 408.8 416.4 423.9 430.4 436.6 439.2 440.2 440.1 432.8 418.8 406.5 395.3 385.6 386.6 395 406.8 418.2 427.9 437.3 446.9 457.3 455.8 429.4 409.3 388.9 376.6 365 361.5 366.5 369.4 372.1 377.7 383.5 388.1 394 400.3 405.9 410.2 416 420.5 427.1 432.1 434.4 436.1 436.7 438 441.7 445.7 451.2 456.5 459.9 462.9 467.6 471.5 472.8 474.5 476.6 478.9 482.6 483.9 485 489.8 496.5 504 503.9 504.1 501.9 498.8 497.3 495.5 490.2 487 489.4 494.1 498.9 507.6 518.2 531 539.2 538.5 528.3 511.9 494.3 479.3 464.3 447.7 431.7 420.6 413.5 424.7
368 368.8 369.6 371.1 372.7 375.6 379.7 384 389.6 397.4 403 402.2 399.9 397.8 397 395.1 392.6 389.6 387.1 384.3 379.9 374.7 369.4 366.9 366.2 366.1 367.6 369.9 373.8 380.8 388.6 394.6 398.8 399.7 400.3 400.7 400.3 399.9 399 398.3 397.3 396.4 395.7 395.3 394.8 394.5 394.1 394.1 393 392.5 391.9 390.7 388.5 385.9 382.9 381.5 379.8 379 375.9 371.9 371.9 375.5 376.7 378.9 381.3 382.5 383.6 382.5 380.7 380 391.2 392.2 391.4 391.3 394.7 397.7 405 410.1 415.3 421.5 426.5 431.2 435.3 438.5 436.5 431.9 426.7 419.4 411.2 403.3 396.5 389.9 385 381 380.4 381.4 382.4 382.5 383.6 380.9 378.1 374.1 372.2 370.1 367.3 370.3 376.2 383.1 391.4 399.9 408.5 416.6 424 430.5 436.6 439.8 441.9 442.4 436.2 421.2 408.2 396.8 387.9 389.4 399.8 411 421.8 431.6 441 451.3 461.1 453.5 431.4 410.9 392.3 378.6 367.9 361.2 365.1 366.5 370.4 373.1 379.3 385.2 391.3 396.6 403.4 409.1 414.3 419.4 425.4 429.3 431.6 432.7 432 437.1 442.1 447.2 453.4 458.8 462.6 467.3 472 475.3 476.9 478.5 480.7 483.3 486.3 488.6 490.1 495 501.7 507.7 512.3 513.1 512 511 508.6 505.3 498 493.6 490.5 494 501.1 509.7 519.8 533.4 539.7 536.1 524.4 511.2 496.7 482 466.9 448.2 433.8 420.4 414.3 427.1
372.5 374.7 376.8 378.7 380.7 383.8 388.1 392.5 397.7 402.8 406.4 405.4 403.1 403 402.8 401.8 399.6 396.7 393.6 389.5 385.2 379.8 374.5 370.1 369.4 368.4 368.1 371 373.8 380.5 387.2 392 393.7 394.9 395.3 395.8 395.7 395.1 393.8 392.8 391.8 390.8 390 389.2 389.1 389 389.1 389.3 389.1 388.5 387.9 386.2 383.7 381.1 379.6 378.1 376.1 372.3 368.9 367.7 368.3 370.3 370.2 371.4 373.7 373.8 373.5 372.9 380.5 379.3 385.4 392.9 396.4 400.6 405.6 409.5 413.5 418.9 425.1 431.2 436 440.3 444.3 446.1 442.3 435.4 429.3 422 413.5 405.3 397 390.2 385 382.7 383.8 385.6 386.7 386.8 385.8 383.2 379.4 374.4 372.3 369.9 368.2 370.1 375.9 382.8 390.9 399.3 407.9 416.5 424.5 430.8 436.8 440.9 443.9 445.3 437.7 422.9 409.5 398.1 389.6 392.9 404.1 415.5 425.7 435.2 444.5 455.3 462.3 447.7 430.3 411.7 393.9 381.8 371.1 360 365.3 369.2 375.5 378.9 379.8 383.6 389.4 393.5 398.5 401.6 407.5 417 423.2 424.9 425 427.8 434.6 438.9 443.7 449.6 454.7 459.8 464.3 468.4 474.7 476.6 478.4 482.6 485.8 487.9 490.3 492.9 496.2 499.3 504.7 510.8 519.7 522.3 520.4 521.5 521.8 516.1 506.8 503 498.2 496.3 502.8 508.7 519.3 530.3 530 527.7 524.1 510.1 494.5 480.6 463.7 446.1 432.7 420.8 416.4 428.2
376 379.6 382.7 385.5 388.6 391.7 395.8 400 403.8 407 409.2 408.3 406.9 407.8 408.6 407.9 405.5 401.3 396.8 392.2 388.8 385 378.7 373.7 372.3 371.8 370 372.4 375 377 382 386.5 389.4 390.1 390.9 391.1 390.6 389.8 388.4 387.3 386.1 385.3 384.5 384.2 384 383.9 383.9 384.6 384.2 383.2 382.6 380.6 378.1 376.1 374.7 373.2 369.2 365.7 365.1 367.8 373.6 375.2 373.7 372.9 372.9 372.9 372.7 379.1 387.1 391.8 398.7 403.6 406.6 409.8 413.3 417.9 423.1 429 435.2 440.2 444.7 448.9 452 452 446.5 438 431.3 423.3 414.9 406.7 398.7 391.2 386.2 386 388.6 390.3 390.9 390.4 388.6 385.1 379.7 375 372.3 370.4 368.8 370.5 375.5 382.7 390.4 398.8 408 417.2 425.4 431.5 437.4 441.8 446 446.6 437.9 425 412.1 400.3 391.4 396 408.8 419.6 429.4 438.7 448.2 461.1 459 443.4 426.2 410.2 395.4 384.4 374.2 363.6 364.3 369.4 374.8 379.5 381.7 385.5 392.8 398.3 407.7 414.3 414.9 417.1 419.2 424.1 429.8 434.6 438.4 442.8 446.2 451.6 456.4 461.2 465.3 469.7 475.1 477.2 480.9 485.9 489.5 491.5 495.2 498.8 501.7 503.7 508.1 516.1 521.3 523.6 527.6 530.1 530.1 526.3 519.1 513.5 504.6 499.4 503.1 507.7 518 521.9 523.3 524.2 521.2 506.5 492 476.5 460 445.2 433.1 421.1 423 429.4
376.4 381.8 386.8 391.2 395.2 399.1 402.9 406.4 408.9 411 412 411.4 411.4 412.2 412.7 411.6 408.1 403.4 398.5 394.4 390.5 387.7 383.1 377.2 374.8 375 373 371 375.3 374.6 377.4 380.8 384.9 385.4 385.9 385.8 385.2 384.5 382.8 381.7 380.9 380.2 379.6 379.2 379.5 379.4 379.6 380.1 379.4 378.3 377.2 374.9 371.8 370 367.9 364.4 363.5 365.5 369.8 374.5 377.1 378.6 378.6 376.7 374.7 375.1 378.7 384.3 387 393.3 403.3 409.1 414.5 417.4 420.6 426.2 431.9 437.6 443.1 447.4 451.8 455.6 458.3 456.5 449.6 439.4 431.9 423.9 415.9 409.2 401.5 393.9 389 390.7 394.2 395.4 395.7 394.4 391.1 387.2 380.1 376.2 372.6 371.1 369.6 370.6 375.2 382.2 389.8 398.9 408.6 417.7 426 432.9 438.7 443.3 447.4 445.6 436.7 426.5 414.2 402.2 393.5 400 413.4 423.6 432.6 442 452 465.3 456.1 440.2 422.4 408.2 396.1 387 377 361 364 369.8 376.2 382.7 385.7 389.3 396.2 400.8 411.1 416.4 418.5 422.6 427.4 432.7 437.2 441 444.1 446.7 450.3 454.1 458.4 462.5 465.3 469.3 474.7 478.1 484.4 487.7 493 496.8 500.4 504 505.7 509.8 513 517.4 521.2 526.5 538.7 538.6 536.7 536.6 530.6 523.1 513.1 506.9 505.1 510.2 515.1 518 518.7 518.8 513.4 502.3 488.6 472.4 456.9 444.2 433.2 421 430 434.1
375.8 382.4 388.3 393.9 399.5 404.4 408.3 411.8 413.5 414.3 414.4 414.2 414.4 414.8 414.7 413.5 410.2 404.7 399.7 395.8 391.7 388.6 385.1 380.1 376.9 376.3 374.8 370.7 372 372.1 374.7 376.6 378.9 380.3 380.9 380.9 380.3 379.4 378.4 377.3 376.1 375.7 375.3 374.8 375.1 375.1 375.6 375.8 374.8 373.3 371.9 367 360.3 364.1 368.1 372.7 376.5 379 379.8 380.3 380.6 380.7 381.4 381.3 381.1 379.9 379.8 383.5 386 392 405.8 411.4 417.6 422.3 427.2 432.6 437.1 441.9 446.2 451 455.8 459.8 461.2 458.7 451.7 440.3 431.1 423.5 416.3 410.5 403.7 396.6 392.5 395.8 399.5 400.8 401 399 394 387.7 381 376.4 373.1 371.2 369.8 371.5 375.8 381.6 389.2 398.8 409.2 418.5 426.6 433.9 440.5 444.9 447.9 443.7 434.8 425.4 413.8 402.4 396.4 405.4 418 427.4 436.2 445.2 454 460.9 451.7 435.6 422 406.4 393.7 385.7 377.4 361.8 364.7 369.5 375.7 383.5 386.7 390.4 396.7 404 413 418 423 427.7 433.9 439.8 444.2 447.4 450.6 452.6 454.8 457.9 461.7 464.6 467.8 471.6 475.6 481.1 485.5 489.7 495 499.8 504.5 508.3 509.2 518.1 517 520.1 523 534.4 542.2 541.8 542.8 544.2 536 530.7 523.1 517 509.2 511.2 514.2 516.4 516.6 514.9 508.1 497.3 485.3 471.1 456.8 444.5 434.5 421.9 433.6 437.9
374 382.2 388.7 395.4 401.7 406.8 411.5 414.6 415.9 416.1 415.9 416 416.1 416.1 415.8 414.7 411.4 405.1 400 396.4 392.7 388.5 384.9 381.2 378.1 376.3 374.5 371.2 364.8 368.9 372.2 373.8 375.1 375.9 376.4 376.1 375.4 375.3 374.7 373.7 372.8 372.2 371.7 371.1 370.6 371 371.6 371.6 371.3 368.3 362.3 359.2 370.4 379.4 385.2 387.9 389.8 390.9 390.2 389 387.3 385.9 384.8 384.7 384.9 385.1 382.6 384.4 387.4 392.1 404.4 412.4 418.5 424.2 430.1 435.3 439.3 443.3 447.5 452.2 457.4 460.8 461.7 459.1 451.9 440.4 431.1 423.6 417.2 411.4 405.7 398.6 396.3 400.3 403.9 405.4 405.5 402.1 395.9 388.5 382.1 376.1 372.8 371.2 370.3 372.3 376.7 381.7 390.3 400.1 410.2 420.1 429.2 436.5 442.7 446.6 447.4 441.2 432.6 423.9 413.5 403.1 400.6 411.5 422.5 431.1 439.8 447.9 454.1 456 446.8 432.8 422.8 406 392.9 385.2 377.6 367.1 363 369.1 375.4 382.1 386.2 389.6 396.3 405 415 420.2 426.3 434 441.9 447.2 452.4 455.7 457.2 459.2 462.2 463.2 465.5 468.5 472.6 477.8 481.7 485.3 488.4 492 497.1 503 507.7 509.8 512.1 516.6 517.9 521.9 526.3 537 541.4 541.2 544.2 544.2 538.8 534.7 532 524.8 514.7 513.4 515.5 515.4 515.3 511.1 504.5 497 487.7 476.1 464 450.9 438.8 427.6 435.5 441
369.7 379.6 388.2 395.7 402.3 408.5 413.2 416.3 417.1 415.8 415.8 416.3 416.5 416.4 415.2 412.5 408.6 403.3 398.6 394.9 391.6 387.3 383.1 379.8 377.1 375.5 373.3 370.7 362.9 363.6 369.2 370.3 371.3 371.9 371.9 372 371.9 371.9 371.1 370 369.4 368.9 368.2 367.5 366.4 366.8 366.7 366.7 365.5 358.6 357.5 370.5 383.2 392.3 396.8 397.4 398.8 399.7 399.2 397.6 395.5 393.2 390.9 388.9 388.4 388.9 388 385.1 387.4 391.7 401.6 412.5 419.3 425 430.9 436.3 440.2 443.7 447.2 451.3 455.9 458.1 458.4 455.3 448.4 439.5 431.7 424.4 418 412.4 406.7 400.9 400.8 405 407.8 408.7 407.9 403.2 396.5 389.2 381.6 375.5 372.3 370.8 371.3 373 378.1 385.6 395.2 405.2 415.2 424.1 432.6 439.5 444.9 447.9 447 439.8 431.6 423.4 414.1 405.8 406.6 417.7 426.9 434.7 442.3 450.1 452.5 451.4 444 432.6 422.6 407.2 394.6 385.6 377.5 364.7 366.4 368.1 373.8 379.9 385.2 389.6 395.4 404.4 413 419.5 429.8 441.5 447.1 452.9 459.7 465 466.1 465.8 467.2 468.1 470.4 474.4 479.4 486.7 489.7 491.6 493.9 497 501.8 507.6 508.7 511 514 517.4 517.5 520.8 527.7 534.6 537.1 543.4 546.3 544.4 539 536.6 533.7 528.5 522.1 517 517.2 516.6 515.2 513 508.3 501.1 491.7 480.5 468.9 456.3 442.5 431.5 437.3 443
363 374.4 385.4 393.5 401.1 407.7 413.5 417.6 417.3 415.4 415.4 415.6 415 413.2 410.2 406.8 403.2 398.9 395.2 391.6 388.5 384.7 381 377.7 376 374.3 371.9 369.8 366.6 358.2 364.8 366.9 367.7 368.6 368.7 368.7 368.6 368.4 367.4 366.4 365.9 365 364 362.9 361.1 361.2 361.3 361.4 357.7 357.7 369.5 380.3 390.7 399.6 403.9 404.1 405.2 406.3 406.1 404.5 402.8 399.8 396.1 395 394.4 394.6 394.8 390.8 387.4 390.9 397.9 408.9 419.1 425.3 431.1 436.6 440.2 443.5 446.6 450 452.8 453.8 453.7 450.4 444.9 438.5 432.8 425.8 419.6 413.9 408.3 403.6 405 409.1 410.9 411.4 410 404.3 397.3 389.9 381.5 375.5 371.5 371.8 372.8 375 381.5 391 401.5 411.7 421.1 429.6 437.3 442.5 446.7 447.9 446.8 440.7 433.4 425.4 416.6 409.7 413.3 423.3 430.8 437.9 445.3 451.7 452.1 449.5 441.5 435.4 425.5 410.9 397.7 386.7 376.2 368 367.2 367.3 371.6 378.1 384.3 389.5 395 403.2 411.5 420.9 432.1 443.3 448.8 457.7 469.4 474.9 473.5 471.2 472 472.8 475.4 479.8 487.4 496.1 498.5 499.3 501.3 503.9 507.5 508.5 510.2 515 517 518.2 516.9 519.8 525.8 532.5 542.6 547.5 547.4 540.5 538.1 533.4 532.5 532.1 524.4 520.3 519.6 519.1 518.2 516.8 513.7 506.6 495.5 483.3 471.8 458.1 444.4 438.9 433 444.6
355.1 366.6 378.4 388.3 396.5 404.6 411.5 416.5 416 413.1 411.8 411 409.7 407.1 403.5 400 396.5 392.9 390.1 386.8 384.3 381.5 378.7 375.6 374.1 372.7 370.6 368.4 366.4 359.2 357.5 362.9 364.2 365.1 365.2 365.2 365.3 364.8 363.7 362.8 361.6 360.4 358.9 357.5 356.6 356 354.8 353 357.8 365.3 373.9 383.4 392.7 400.4 407 408.7 409.2 410.5 410.6 409.3 407.4 405 401.8 400.4 400 402 403 396.3 389.6 392.3 398.4 408.2 418.1 425.7 431.6 437 440.1 442.8 444.9 447.1 449 450.1 449.1 446.5 442.8 439 434.2 428.4 422.1 416.4 411.6 408 409.2 411.9 413.8 414.1 412.3 406 398.7 390.7 382.2 375.8 372.5 372 373.2 376.2 382.7 393.7 405.1 416.2 425.2 433.7 441.1 445.4 448.1 449.2 447.4 441.7 435.4 427.6 419.8 414.6 419.6 428.2 434.5 440.9 447.5 452.9 451.9 448 439.5 434.4 425.2 412.2 399.4 388.6 375.8 367.9 366.4 367.9 370.8 376.7 381.9 388 393.2 402.9 413.3 421.8 433.2 443.3 449.6 462.2 475.6 481 478.8 475.4 474.2 474.6 478.7 484.8 496.1 504.7 508.1 507.5 508.4 509.8 509.9 509.6 512.7 516.8 517.1 515.5 515.2 516.9 521.9 530.1 540.7 542.6 540.5 535.3 531.6 532 532.6 531.4 531 528.2 526 524.4 525.3 524.9 518.5 508.6 496.1 483.5 472.6 457.3 446.6 444.1 436 445
346.1 358.2 369.9 380.5 390.2 398.9 406.4 410.7 411.4 408.9 406.4 403.5 401.7 400.4 396.9 392.4 388.7 385.8 383 381.1 379.8 378.2 375.7 373.3 371.6 369.9 367.8 365.8 364.3 359.9 352.4 358.1 359.8 361 361.2 361.4 361.7 361.4 360.2 358.8 357.1 355.8 353.9 352.2 351.2 351.4 352.4 359.4 364.4 368.6 375.4 384.5 393 400.1 406.4 410.2 412.2 413.4 413.8 413.1 411.7 409.7 407.4 406.5 406.1 407.5 407.4 400.1 392.2 397.1 402.3 410.4 418.2 425.6 432.2 437.4 440.8 442.2 443.8 445.3 446.4 447.4 446.7 445.7 444.4 442.1 438.6 432.9 426.9 421.8 417.1 414.1 414.5 415.6 416.8 417.3 415 408.4 400.9 393.6 385.3 376.2 373.6 372.6 373.5 377.4 383.6 395.8 407.7 419 428.2 437.2 445 449.9 451 450 446.4 441.4 435.8 430.1 423.9 420.7 426.3 432.7 438.2 443.7 449.2 453 450.8 447.7 439.3 431.5 421.9 409.5 397 387.8 375.9 368.8 368.5 368.8 371.4 375.7 381.4 387.4 392.6 403.2 412.9 421.7 431.7 440.4 452.3 464.5 476.3 481.6 479 474.1 472.1 474.7 479.5 491.6 504.8 512.1 515 515 515.3 514.4 512.9 512.3 512.2 514.7 514.7 514.2 514.3 513.9 520.5 526.4 529.5 533.1 528.1 526.2 529 535.9 538.1 539.9 541.2 537.7 533 530 532.2 528.2 518.7 507.9 494.8 482.6 469.3 454.9 450.3 445.9 438.5 446.1
337.8 349.5 361.7 372.6 382.3 391 398.4 403.7 405.5 404.1 399.9 396.1 394.1 392.7 389 384.1 380.5 378.4 376.4 375.7 375 373.7 371.6 368.9 367 365.4 363.7 362.3 360.5 357.9 352.3 352.3 355.3 356.9 357.5 357.8 358 357.9 357 355.5 353.9 352.2 349.4 348.2 351.1 355 355.8 360.1 365.6 370.6 377.4 385.6 392.9 399 405.9 411.4 414.7 416.9 417.9 418.2 416.5 414.6 414.4 414.4 412.9 413.1 411.2 402.9 401 407.4 410.5 416.2 420.9 427.2 433.2 438.7 440.8 442.2 442.9 444.1 445 446 445.9 447 447.4 446.2 443.6 438.8 433.7 429.5 425.2 422.9 422.8 422.7 422.2 421.9 419.1 413.3 405.7 398 390 380.1 375.1 373.4 373.9 378.3 385.1 397.8 410.2 421.5 430.6 438.1 447.1 457.5 458.2 451.7 446.5 440.9 436.3 433.5 429.7 429 433.5 438.5 443.2 447.8 451.4 451.9 449.8 445.5 437.7 428.3 420.2 413.2 401.8 388.7 375.9 367.9 369.3 370.3 371.8 375.3 380.1 386.3 393.3 404.6 413.2 420.6 427.3 438.7 452.2 463.5 475.2 477.7 474.5 468.8 468 471.7 483 499.5 510.8 517 521 522.4 521.9 519.7 516.5 515.6 511.3 510.5 510.6 510.6 508.6 512.1 520.7 520.8 522.2 520.2 517.4 522.1 529 537.1 538.1 539.9 541.3 541.8 536.4 533.2 532.4 527 518.8 509.9 497 482.4 467.8 455.8 452.1 448.8 439.7 448.4
330.6 340.5 352.8 364.4 374.1 383.6 391.5 397.6 401.2 401.7 399 395.1 391.9 388.3 384.4 380.5 377.1 374.4 372.5 371.1 369.6 367.6 365.5 363.7 362 360.4 358.8 357.9 356.7 355 351 348.2 350.6 353 353.9 354.1 354.3 354.2 353.8 352.3 350.6 348.9 347.2 350.7 355.3 359.2 360.9 361.6 367.2 372.7 381.1 388.8 395 401.4 408.9 415.9 419.1 421.4 423.6 424 422.7 421.6 421 420.6 418.6 416.8 414.2 408.2 408.1 414.9 417 422.5 425.2 430.4 435.4 439.8 441.1 441.6 442 442.7 443.7 444.8 445.4 447.3 448.9 449 447.5 444.1 440.3 437.1 433.7 431.7 431.2 430.7 430.4 428.7 426 420.8 413.3 404.8 396.2 384.6 378 374.7 374.8 378.7 384.5 395.8 408 419.5 430.4 437.1 446.4 457.1 462.2 456.2 448.2 443.3 440.9 439.4 438.2 438.6 442.4 446.4 450.3 454 454.7 452.7 448.9 443.2 436.3 429.4 426 420.9 408.7 391 377.7 368.2 370.2 371.5 372.4 375.1 379.3 385.9 394.5 405.6 411.8 418.2 425.6 436.6 450 461.6 468.5 469 465.4 462 462.4 469.3 487.6 501.7 513 520.8 528 529.3 527.5 524.4 523.8 515.8 511 506.9 506.5 501.6 504.9 510.7 512.5 516.1 514 508.4 509 521 525.2 530.3 537.2 540.4 541.3 541.4 539.4 535.7 534.7 529.5 522.1 513.4 497.8 484.2 465.5 456.5 452.9 449.3 444.7 447.6
326.3 334.3 345 356.6 367.7 377.7 386.4 393.6 398.4 400.8 400 396.2 392.2 387.5 382.2 378 373.5 369 367.2 365.5 363 360.8 359.2 357 355.9 355.3 354 353.5 352.1 350.7 349 346.5 346.8 349.1 349.7 350 350.2 349.5 350 349.1 345.8 344.9 349.3 355.4 360.3 363.7 366 365.6 368.3 375.1 384.9 392.5 398.6 405.9 413.3 419.2 423.3 426.4 429 429.7 429.5 428.8 427.3 425 422.9 419 415.6 411.9 411.3 416.6 420.5 425.5 427.8 432.3 437.1 440.3 441.2 440.9 440.6 441.3 442.4 443.5 444.6 446.3 447.8 448.8 449.4 448 445.3 442.6 440.2 438.8 438.3 438.5 438.6 437.3 435.3 431.4 422.9 412.3 401.7 387.7 379.3 375.9 374.8 378.4 382.9 391.4 403.9 415.6 427.8 435.9 444.8 454.5 460 457.7 451.9 448.7 446.5 445.5 445.9 447.3 450.3 454 457.6 460.5 460.4 454.4 448.6 442.5 436.8 433.6 432 426.1 412.8 393.8 380.1 370.1 371.6 372.8 373.2 375.6 379.9 387 396.6 405.7 411.1 417.1 423.5 434.5 447.4 456.5 459.9 458.4 456.4 453.7 456.6 469.8 486.4 501.1 514.8 526.4 533.5 534.3 528.9 529.7 525 511.1 503.9 497.9 494.2 497.3 505.5 507 503.7 505.5 501.6 498.5 508.2 516.7 522 531.6 540.6 541.7 544.2 543 541.2 538.1 538.2 533.3 526.3 515.9 497.8 481.3 462.9 456.7 453 449.6 450.9 451.8
323.4 330.8 339.6 352.9 366.8 378 385.8 392.8 396.8 399 397.6 393.2 388.1 382.5 376.9 372.1 367.1 362.1 359.7 357.6 356.1 353.8 352.2 351.3 349.5 349.5 349.1 348 347.2 346.2 345.5 344.1 342.9 344.3 344.8 345.2 345.9 345.4 344.7 344.5 347.5 350.8 355.7 361.3 365.8 369.4 372.3 372.5 371.3 377.1 386.7 394.7 401.6 409.1 416.7 423 427.5 431.3 434.5 434.9 434.8 434 431.9 428 423.8 419.5 416.2 412.9 411.5 416.5 421.6 425.8 429.2 432.9 437.6 441.1 441 440.2 439.7 439.4 440.8 441.9 443.4 445 446.5 448.2 449.2 450.3 449 447.8 446.2 445.1 444.8 445.6 446.9 446.5 444.9 440.1 430.3 418 405.7 391.1 380.5 377.1 375.5 378 381.4 388.4 398.8 410.6 423.4 433.2 442 450.6 456 456.6 454 452.3 450.5 451 452.3 454.4 457.8 461.4 464.9 466.8 467.2 459.5 451.7 445.9 442.7 441.1 438.2 428.4 412.6 397.2 382.1 369 372.5 373.8 374.5 377.1 380.8 388.4 398.8 406.6 410.8 415.4 424.3 431.7 441.9 449.5 450.9 448.1 446.5 446.2 452.2 468.1 483.6 499.2 515.9 530.8 537.1 532.4 527.8 523.7 509.8 499.5 488.9 486.2 485.7 490.6 496.4 494.5 493.2 493.5 490.7 495.5 503.9 509.9 519 527.2 534 541.9 543.8 543.3 542.7 539.1 537.6 535.3 528.2 513.9 495.1 476.8 465 459.1 455.5 453.4 455.2 456.7
321.8 327.6 335.9 348.3 362.9 376.5 385.8 391.5 394.1 395.1 393.5 389.2 383.9 377.8 371.7 365.7 358.7 354.5 352.2 349.9 348.7 346.8 345 344.6 344 343 342.5 342.6 342.7 342.4 342.3 340.9 339.5 339.4 340.6 340.9 341.8 342.3 343.3 345.4 352.8 357.7 362.4 367.5 371.7 375.3 377.9 378.8 375.9 380.6 389.8 396.2 404 413 421.1 428.1 433.1 436.6 440.1 440.4 439.7 437.2 434.3 430.4 424.8 419.6 416.7 415.5 413.2 417 422.5 427.9 431.1 433.1 436.6 441 440.9 439.7 438.1 437.4 438.3 439.7 441.8 443.6 445.6 447.7 449.4 451 451.7 452 451.4 450.7 450.1 451.4 452.7 451.4 448 441.1 431.6 419.3 407 391.3 381.2 377.7 376.1 377.7 380.9 386.1 395.1 405.8 418.2 428.3 437.3 446.7 452.3 454.8 454.5 454.4 454.2 456.3 458.6 461.2 465.1 468.7 472 473.3 471.5 464.7 456.1 452.3 448.2 446.6 442.5 432 413.9 397.1 381.8 371 373.7 374.8 375.9 378.2 382.7 391.1 401 407.9 412.1 416.4 423.5 429.2 436.8 441.9 441.6 438.6 438 439.6 449.3 463.8 479.5 499.1 517.2 533.4 531.9 519.9 516.7 506.1 494.7 484.6 476.6 476.8 476.5 480.6 482.3 479.8 482.9 483.8 488.1 493.1 498.4 508.6 514.2 519.5 526.9 534.7 539.5 541.2 541.3 539.8 540 534.7 527 515.8 499.2 481.3 470.4 463.7 460.3 458.5 461.3 463.5
