ncols 200
nrows 92
xllcorner 280000
yllcorner 561800
cellsize 50
34.8 34.8 34.8 33.8 33.6 34.8 32.9 31.6 32.7 35.6 30.6 28.1 23.4 30.4 30.7 32.4 32.9 35.3 38 42.6 46 38.3 38.9 40.7 42.3 46.8 51.7 60.1 70.5 77.6 79.5 77.9 77.5 78.4 81.9 82 76.7 71.3 70.5 72 74.1 75.3 75.2 74.8 74.8 74.7 74 73 72.2 71.3 68 65.3 63 60.7 59.1 58.6 57.5 56 55 60.2 66.7 63 55 52.4 53.1 53.5 52.9 55.1 62.1 64.5 61.1 57.6 58.9 59.5 59.4 57.2 53.9 52.8 52.9 52.8 52.4 52.5 55.3 58.5 62.4 66.4 70 76.8 77.8 79.1 80.9 82.5 83.4 90 97.3 102 103.8 107.3 111 115.7 120.3 124.9 128.9 134 131.7 134.2 135.3 129.3 127.1 126.3 118.4 106 92.8 80.4 69 62.9 62.9 63.4 63.7 64 66.7 68.4 67.6 65.1 65 63.2 61.7 60.1 58.2 54.7 53.5 54.4 54.4 53.3 55.3 53.9 55.2 64.6 73.5 76.9 77.4 78.2 72.9 67 66.3 66.8 72.7 74.8 77.2 80.6 81.4 82 82.4 82.5 83.1 82.7 77.8 76.6 80 84.6 88.4 91.3 92.4 95.2 99.7 101 102 102.7 102 103.6 108.1 112.9 118.2 122.3 125.9 130.7 135.7 143 148.9 154.7 161.4 167.8 173.7 178.9 185.9 190.1 192.2 195.8 199.9 203.7 209.3 216.3 221.4 226.4 227.5 225.9 222.6 218.6 213.6 208.9
33.6 34.3 33.8 33 33.7 35.7 35.7 35.5 35.7 35.3 32.3 28.7 25.9 25 28 28.9 30 32.7 35.2 37.6 39.1 37.9 36.4 38 40.1 45.2 52 63.1 70.3 72.6 72.2 70.7 70.8 72.6 74.4 76.7 78.4 76 70.3 69.8 71.2 72.7 72.7 74.2 74.1 74.4 74 73.2 72.7 72.7 69.5 66 64.1 62.4 61.5 61.4 60.2 55.8 55 57.5 63.7 67.8 62.7 54.7 52.7 51.9 52.6 54.9 60.7 66.7 66.5 61.2 58.8 59.4 58.7 55.4 53.8 54.1 53.6 52.4 51.8 52.5 55 57.2 62.1 65.5 70.1 73.8 76.1 78.8 79.3 79.4 80.9 84.3 92.1 96.5 99.6 103.9 107.5 112.7 118.1 121.4 125.2 131.8 132.8 130 131.1 128.2 130.9 126 117.3 107 92.9 80.1 69.9 61.5 61.5 62.4 62.5 64.5 66 66.9 67.4 66.4 67.2 62.8 58.6 57.9 56 53.6 53 53.4 53.6 52.8 53.3 53.3 53.1 57.1 68.5 74.1 74.2 75.4 65.6 66.8 66.8 69.3 75.4 78.7 81.3 83.4 83.4 83.5 84.4 84.8 83.4 82.9 75.9 77.3 80.8 86.4 90.7 94.1 96.4 97.7 99.7 101.4 102.5 103.9 104.4 103.1 107.6 112.7 117.2 121 123.9 128.8 133.9 139.8 143.7 149.2 155 160.7 165.4 172 178.4 184.4 189.5 193.4 198.7 201.7 206.9 214.3 222.6 227.8 230.7 230 226.6 223.5 219.2 214.3
31.3 32.7 32 32 33.2 34.9 35.6 35.7 35.8 35.4 33.2 28.7 24.7 22.2 24.8 27 28.4 30.5 32.7 33.3 33.6 36 35.7 37.5 39.8 46.6 56 65 68.3 67.1 65.4 63.8 65.2 66.5 68.1 69.2 71.3 73.6 71.4 68.3 68.9 70.7 72 72.6 73.5 74.2 73.8 73.3 73.1 72.8 70.2 66.7 65.9 65.7 63.8 63.3 62 59.1 57.3 55.4 59.1 64.8 68.3 63.8 57.5 53.7 51.3 52.9 58.4 62.8 68.1 66.2 58.3 58.5 57 52.9 53 54.3 53.1 52 51.4 52.1 54.3 58.6 66.5 72.2 74.6 73.8 75.4 78.1 77.8 76.9 79.4 80.8 85.5 91.3 97.1 101 104.3 109.9 115.3 118.6 123.2 129.5 133 128.4 126.4 125 133.2 129.5 119.9 109 95.4 78.9 73.9 66.5 62.9 62.2 62.7 64.8 66.1 69.3 68.1 68 64.8 63.2 58.5 55.7 54 52.8 52.8 52.9 53.1 52.7 53 52.7 53.7 53.7 60.2 70.6 71.8 69.8 66 67.8 71.4 73.8 79.3 82.1 84.4 86.1 84.9 85.6 86.7 86.4 86.4 83.3 80.2 78.3 82.3 87.8 92.5 96.1 99.6 101.3 101.4 101.8 103.1 104.5 105.7 106.1 108 111.7 116.7 120.5 123.7 127.3 132.4 137.1 140.9 144.7 150 154.9 160.6 166.2 171.3 178.8 184.3 190.5 195.5 199.6 204.3 211.9 220.1 227.6 231.5 231.9 231 229 226.7 223.6
26.6 30.3 30.2 31.8 33.7 33.4 35 35.7 36.4 34.2 32.7 26.6 24.1 23.3 23.6 26 27.3 27.9 29.2 30.3 31.2 33.4 35.1 36.6 39.3 45.1 56 65.2 66.4 62.9 60.3 57.3 59 60.6 62.1 63.7 65.3 67.8 67.4 67.4 69.5 69.7 72.1 74 76.6 76.2 74.5 74.1 74.3 72.3 69.8 67.9 67 66.1 64.5 62.4 62.8 61.7 60 58.4 55.1 59.5 65.1 66.9 60.4 53.5 52.8 52.8 55.3 59.2 63.2 67.6 61.7 55.8 53 54 53.6 52.4 51.4 51.2 51.3 51.9 54.9 62.1 68.9 74.9 81 79.3 79.6 81.5 77.8 73.5 77 78.1 79.3 88.3 94.9 97.9 101.7 108 112.2 117.3 122 127.5 132 129.2 123.3 121.3 127.1 126.5 120.3 108.7 93.4 78.3 71.8 68 63.8 62.4 65.5 69.7 65.6 70.3 72.5 69.6 64.1 59.5 57.1 55.9 53.7 52.4 52.8 52.7 53.3 52.7 52.6 51.5 54 54.1 55.3 64.5 64.5 63 64.4 71 79 82.9 84.1 85.7 87.1 87.8 87.3 87 87.4 86.9 85.5 82.8 82.2 79.2 83.4 88.2 92.9 97.6 101 103.1 103.9 104.5 104.2 105.6 107.8 109.1 108.9 111.1 115 120.3 123.7 127.5 131.6 135.8 139 141.9 146.8 151.8 157.3 162.8 167.6 173.6 180.1 186.6 193.5 197.4 200.6 208.8 217.8 226.2 230.6 234.8 236.3 236 233.4 231.7
24.2 23.6 28.7 32.7 35.2 32.5 32 34 35.6 30.9 25.3 22.9 22.8 22.7 23.1 25.9 25.8 25.7 26.5 28 29.4 30.9 32.6 36.1 38.3 41.8 50.3 60.4 63.6 59.7 55.6 51.6 52.5 54.3 55.3 58.1 59.6 61.5 63.6 64.3 66.9 70.3 75.8 81.3 82.3 82.2 80.2 77.3 77.9 79 74.4 69.3 67.1 66 65.1 62.6 62.8 61.8 60.5 59.5 56.7 52.5 58.7 62.3 59 53.2 52.4 52.7 52.6 54 58 62.6 61.5 54.2 51.7 53.4 52.8 51.6 51.5 51.4 51.3 51.9 56.5 63.5 68.6 74.2 78.8 84.3 82.1 81.5 80.6 76.1 73.2 75.7 75.8 83.1 90.7 94.3 99.8 104.8 109.3 115 119.1 125.4 129.3 130.1 120.5 118.4 121.2 120.4 114.5 104.8 92.5 76.8 71.5 68.1 63.2 61.5 66.3 70.9 68 68.6 70.7 64.8 60.3 60.3 59.1 57.9 54.5 54.1 54.2 52.6 54.8 55.2 52.5 53 54 54.5 55.6 58.5 61.2 64.9 68 74.5 82.2 86.9 89.5 90.7 91 89.9 88.8 88.4 87.6 87.2 85.2 84.4 85.5 80.2 85.8 89.8 94.1 98.6 102.2 104.3 106.1 107.3 106.7 106.8 108.6 110.8 111.8 111.1 114.5 116.7 122.2 126.6 130.9 135.3 138.3 140.1 144.3 148.7 153.3 158.5 163.5 169 176 183.4 189.8 194.3 198.4 205 214 223.3 230.1 236.4 240.1 240.5 238.1 236.9
23.5 21.9 25.4 31.4 36.4 33.6 30.6 29.4 27.5 23.3 22.2 21.8 21.5 21.3 22.3 23.4 23.8 24.4 25.1 25.9 28.5 29.4 33 35.8 36.6 39.7 45.3 55.4 60.5 56.8 51.2 46.7 45.7 48.5 49.1 53.1 55.1 58.4 59.6 61.5 65 72.2 78.5 82.4 86.5 87.2 87 84.8 83.1 83.8 80.1 72 66.5 65.5 63.5 62.5 61.8 60.9 61.1 59.2 57.2 52.3 52.7 53.5 52.9 52.1 52.3 52.4 52.2 52.2 52.5 53.6 56.8 53.9 52.2 52.2 51.7 51.8 51.8 51.8 51.5 51.3 53.9 63 67.7 72 76.2 80.8 82.5 76.9 76.6 76.7 72.8 73.8 73.9 79.7 87 91.5 96.4 101.8 107.3 112 116.7 122.1 125 128 119 114.2 115.1 114.2 109.9 101.3 88.5 74.8 71.6 65.8 60.5 59.7 64.1 69.5 67 65.3 68.7 59.7 59.1 61.8 61.6 58.2 53.6 53.3 53.3 53.3 52.6 52.8 53.8 55.1 55.6 57.3 61.8 64.2 66.9 70.8 74.3 76.5 83.2 87.7 91 92.5 92.9 90.8 89.6 88.8 88.8 87.8 86.4 85.5 84.8 80.6 87 91.3 96.6 99.3 102.4 105.1 107.6 109.1 109.3 108.1 109.7 112 114.3 116.4 118.8 122.1 119.3 124.4 131.1 135.3 137.8 139.6 141.5 145.4 149.6 155.4 160.4 165.8 172.8 180.6 186.5 190.2 193.9 200.8 210.4 218.8 227.9 236.1 240.5 242.8 242.6 241.2
23.7 23.6 23.2 21.5 21.4 27.3 28.2 26.5 22.8 22.2 21.6 21.2 20.8 21.2 21.6 20.9 22.1 23 24.9 25.6 27.6 30.3 32.7 35.2 36 38.6 42.3 49.7 56.1 53.3 47.2 43 41.3 42.4 46.3 49.2 51.7 55.7 56 57.3 64.6 71.6 77.6 81.5 86.6 92.4 91.3 88.2 86.3 82.8 80.2 75.4 67.9 64.9 63.3 63.1 61.7 60 59.9 58.7 56.2 53 52.1 51.8 51.6 51.7 52 52.1 52 52.2 52.6 51.7 52.6 52.3 51.4 52.3 52.3 52.4 52.3 52 51.6 49.9 54.1 61.7 65.8 69.4 73.7 79 81.8 74.3 71.2 72 70.3 69.4 69.9 75.4 81.5 87.3 92.8 100.1 105.8 109.2 114.4 119.8 122.8 123.4 116 113.2 108.3 106.4 103.2 95.1 84.2 73.4 68.9 63.4 56 55.1 57.5 66 64.8 62.8 62.9 61.6 58.2 57.8 57.7 56.4 54.5 52.6 55.4 52.5 51.9 52 50.7 52.7 56.5 61.7 66 67.9 71.7 76.9 78.5 80.2 84.7 89.4 92.5 93.9 93.6 92.3 92.1 91.2 89.5 88.3 87.1 86.6 84 80.3 87.9 93.9 99.2 100.3 102.7 106.1 108.5 110.4 111.5 110.4 111.1 113.3 116.2 118.1 120.6 123.4 125.3 127.5 128.9 135.3 138.2 139.2 141.1 144.8 147.8 152.6 157.3 162.7 168.8 176.5 183.2 186.8 190.5 196.8 205.7 214 222.2 232.4 240.7 245 247.2 247.2
24 24.6 27.4 26.4 24.3 23 20 22.7 21.9 21.1 21.1 20.8 20.7 21 21 20.3 20.3 26.4 25.7 25.7 27.5 29.3 31 34 34.7 36.9 39.8 43.6 47.2 47.7 43 40.1 39.3 39.8 43 45.7 49.1 52.5 53.5 56.3 63.7 70.3 75.3 79.4 83.8 88.6 87.6 83.7 82.1 79 76 73.5 70.1 66.2 65.7 65.8 64.6 61.6 60.2 58.7 55 52.9 52 51.5 50.4 51.3 51.6 51.7 51.9 51.8 51.6 49.9 51.3 51.5 52.3 53.2 52.7 52.8 52.4 51.9 51.5 51.2 51.9 58.7 62.8 66.1 70.5 76.9 79 72.6 66.7 66.3 66.6 67.7 67.1 73 76.8 83.6 90.8 98.1 101.7 105.1 112.4 121.1 128.4 120.8 114.9 113.1 108 105.1 101.1 93.6 84.9 76.5 70.3 67.1 57.1 53.3 53.8 58.2 58.4 58.1 60.6 62.3 59.5 57.4 53.9 53.1 52.5 53.4 54.8 52 51.9 51.9 52.5 54.6 59.8 63.6 67.3 69.7 76.9 80 82.5 84.3 86.6 90.8 94.3 96.1 95.5 94.8 92.6 92.7 91 89 87.7 86.9 83.4 81.4 89.5 95 100.2 101.8 102.9 106.9 109.1 111.1 112.7 112.5 112.8 115.4 117.9 120 122.7 125.5 128 130.3 132.2 133.6 137 138 140.7 143.7 146.8 150 154 159.2 165.6 172.3 178.5 183.3 188.5 194.4 202.4 210.1 218 230 239.2 245.5 249.6 251.6
40.9 36.7 34.8 36.9 36.9 31.5 25.6 23.8 19.5 19.5 19.1 18.9 20.4 20.6 20.3 20.2 20.1 34.2 35.9 31.6 28.3 27.6 29.3 32.2 33.5 35.1 36.8 38.1 41.5 42.3 41.2 38.8 38.6 38.4 40.6 43.9 48.4 54.6 55.9 54.8 61.4 67.6 72.8 76.4 80.6 84.4 84.4 79.5 76.1 74.9 73.9 71.5 69.3 67.5 68.8 69.5 67.3 63.6 59 55.9 53.4 53.4 53.2 51.8 51.5 51.3 51 51.2 51.1 51 51.1 51.3 51.5 51.8 53.3 53 52.5 52.6 52.2 51.8 51.5 51.2 51.4 52.4 58.8 62.3 66.5 72.3 75 71.2 65.9 62.3 62.9 63 67.1 73 76 83.1 89.8 95.7 99.3 100.7 110.2 121.7 125.8 118.2 111.4 112.2 108.4 102.7 96.2 89.7 82.3 75.1 70.4 66.7 59.7 53.7 51.7 54.1 53.6 54.4 56.6 57.6 58.7 56.7 52.9 51.4 51.9 52.4 53.8 52.6 51.5 50.1 52.4 56.6 61.7 66.8 67.9 72.8 79.2 82.9 84.6 86.2 88.6 92.1 94.7 96.8 96.5 96.2 92.9 92.1 91.9 89.1 87.9 86.3 82.1 86 92 94.6 100 102.1 103.3 107 110 112.4 113.8 114.8 114.9 117 119.6 122.1 124.5 126.8 129.3 131.2 133.2 134.9 136.7 138.5 140.4 143.3 145.9 148.6 151.8 156 161.7 168.5 174.9 180.9 186.9 192.4 199.2 207.5 216.3 227.6 237.1 245.1 251 254.1
45.7 46.7 45.3 45.7 48.4 44.5 37.3 30 28.1 28 26.5 24.3 21.1 20.6 20 18.1 20 36 40.9 42.3 35.9 27.5 26.2 29.6 33.3 34.1 35 37.2 39.3 39.6 39.5 39 38.2 37.9 38.3 40.8 45.5 52.7 59.2 55.9 57.1 65.6 70.3 73.5 77.7 81.5 81.8 76.7 72.5 72.5 73.1 71.4 69.2 68.3 69.2 69.3 67.9 64.9 62.1 56.2 55.2 52.9 52.6 51.8 51.5 51.3 51.1 50.6 50.7 50.7 49.6 51.4 51.6 52.1 53.2 53.9 53.5 52.2 51.9 51.9 53.1 53.1 51.4 51.9 52.9 56.1 59.6 65.4 69.3 67.8 64.2 60.5 60.6 62.3 66.7 70.5 74.3 81.8 88 93.4 98.2 98.2 102 109.3 112.7 113.1 107.6 105.1 103.7 98.1 91.8 85 79.2 74.8 70.8 65.9 59.8 56.2 50.1 49.6 50.4 49 50 51.4 55.4 52.2 54.9 54.5 52.1 51.8 51.4 50.5 51.3 51.7 52.5 56.7 62.1 67.3 70 75.3 79.5 83.2 87.8 89.9 92.3 93.7 96.7 97.7 97.5 96.6 93.2 91.6 91.5 89.7 88.4 85.8 82.5 87 90.8 93.4 99 101 103.8 107.1 110.4 113 115 116.2 116.6 118.5 121 123.4 125.7 128.1 130.3 132.3 134.2 136.1 137.9 139.7 141.5 143.5 145.8 147.8 150.5 154.1 158.4 165.9 171.6 177.6 184.2 190.7 196.6 204.1 213.2 223.2 235.3 244.1 250.6 254.6
53 55 53.1 50.9 51.1 48.4 41.6 35 31.4 31.4 28 23.1 21.1 20.6 20.2 19.7 18.5 35.2 42.9 43.8 41.1 34 28.2 28.9 31.6 32.7 34.7 36.1 37 36.4 37.9 40.3 40.3 37.8 37.4 38.3 43.7 49.4 56.4 62 59.3 62.4 66.7 69.5 73.5 77.4 78.9 74.5 71.2 71.7 72.4 72.2 70.2 68.6 68 68.9 67.6 65.1 61.1 58.1 55.8 53.3 52.3 51.9 51.6 51.2 51.1 51 50.3 50.5 50.9 51.1 51.7 53.1 54 53.7 52.8 52.3 51.7 52.4 57 58 53.2 51.5 53.1 53.1 53.9 58.7 62.1 62.1 60.4 59.3 60 63.7 64.5 68.8 74.1 80.4 86 89.9 95.5 96.3 96.8 99.4 102.4 104.4 103.9 98 96.1 95.2 91.7 83.1 76.8 71.8 68.1 63.2 56.8 51.7 48.8 47.8 47.8 47.9 48 48.9 49.5 51.5 55.3 59.4 56.6 54.1 51.3 51 50 52.6 55.6 58.3 60.8 66.4 72.7 77.1 80.3 83.5 89.9 92 93.6 96 98.1 98.6 97.9 97 95.3 92.3 91.9 89.9 88.3 86 83.7 85.6 89.4 92.8 97.8 100.9 103.5 107.1 110.5 113 115.4 117.2 118.1 119.8 122.2 124.6 127 129.4 131.3 133.3 135.2 137.2 139.1 140.9 142.8 144.6 146.8 148.9 151.4 153.9 156.9 164.2 169.1 174.4 180.7 187.8 193.6 201.9 210.6 219 230.7 241.7 249.6 255.4
58.8 58.8 56.6 52.2 48.5 46.9 43 39.1 34.4 31.6 28.4 25.5 21 20.5 20 19.6 17.6 31.7 41 43.3 41.6 39 35.1 31.9 31.4 32.3 34.3 34.4 32.7 34.5 37.8 39.9 39.8 40.8 39.1 37.8 42.6 46.5 51.6 58 61.4 58.6 60.7 63.9 68.7 72.9 74.4 73.1 69.9 70.2 71.1 71.1 69.7 67.8 66.5 66.4 65.6 62.9 60.5 59 56.7 54 52.4 52.1 51.7 51.2 51.1 51 50.9 50.5 50.8 50.8 52 53.7 53.9 53.3 52.3 51.8 51.6 53.9 61.8 63.5 57.5 52.3 52.3 52.6 53 54.8 56.8 57.4 57.4 57.8 58.4 61 62.3 68 73.7 78.5 83.1 88.7 92.8 94.3 93.3 92.2 94.1 95.3 96.5 94.3 88.5 88.5 85.7 81 73.4 69 65.1 58.7 53 50.9 48.6 46.5 47.6 48.5 50.2 51.1 54.8 52.4 53.2 57.4 60.4 60.8 52.3 51 52 55.4 58.5 60.8 64.2 69.6 74.8 78.4 80.5 84.9 90.8 93.5 96.2 98 99.5 100.1 98.9 97 95.7 92.1 91.6 89.1 87.6 85.2 84.1 82.9 89.9 93.7 98.1 99.9 103.2 106.6 109 111.2 114.3 117.4 119.1 121 123.4 125.8 128.2 130.4 132.4 134.4 136.4 138.5 140.5 142.3 144.1 145.9 147.7 150.2 152.7 155.2 157.8 161.4 166.5 172.1 178.4 186.4 193.8 201.5 209.9 219.1 227.4 240 249.5 257.3
62.5 62.7 57.3 52 47 47.5 45.4 44 39 34.6 30.1 25.5 22.3 20.2 19.6 19.2 17.7 27.4 38.9 41.6 39.3 38.6 37.2 32.2 30.7 31.8 31.9 31.6 31.4 33.6 37 38.6 38.8 40.7 39.2 38.3 40.3 44.6 48.1 52.3 58.2 57.8 57.7 58.9 63.7 69 72.3 71 69.2 70.3 70.9 70.1 68.8 67.4 65 65.3 65.3 64 62.2 60.3 57.9 54.3 52.3 51.9 51.4 51.3 51.2 51 51 51 49.4 50.5 51.6 52.9 53 52.8 51.9 51.8 51.8 57.9 65.5 68.2 62.4 53.5 51.3 52.1 54.3 56.9 55.8 56.6 56.7 56.8 57.3 59.1 60.1 66.9 73.6 77.6 81.5 87 90.5 91.8 89.4 86.9 88.4 88.1 88 88.6 87.5 83.1 80.5 77.1 70.9 66.7 63.1 58.6 54.8 51.7 48.4 47.8 46.9 47.8 53.5 58.6 60.3 54.9 52.6 56.1 60.9 60.5 57.7 51.6 51.5 56.5 59.5 61.6 66.1 71 76.5 80.8 82.8 86.1 91.1 95.8 97.4 99.3 100.9 101.7 100.2 97.2 96.3 92.1 89.6 87.9 87.5 86.7 84.3 85.8 88.7 93.6 98.1 100.2 101 105 107.7 109.9 113.8 117.7 120.7 122.6 124.7 127 129.3 131.7 133.8 135.8 137.9 139.9 142 143.8 145.6 147.3 149.2 151.7 154.1 156.6 159.1 163.3 167.7 172.1 178.7 186.7 194.8 202.3 210.4 219 226 240.2 251.2 259.6
65.6 66.3 59.7 52.1 49.2 50.2 47.6 45.4 39.9 36 31.7 26 24.6 22.1 19.4 18.9 17.6 21 32.2 36.1 35.9 36 34.1 31.1 29.5 28.8 29.4 29.1 31.2 31.8 34.6 39.1 39.8 38.7 39.3 38.4 39.3 43.7 44.6 45.5 52.3 54.9 57.3 58.7 58.8 65.3 71.5 69.9 69.6 70.3 70.2 69.7 68.6 67 65.5 65.8 66.1 65 63.8 62.5 57.1 55.8 52.3 51.6 51.5 51.4 51.3 51.2 51.1 51.2 51 50.6 50.6 51.1 51.6 51.8 52 52 51.7 59.2 67.3 69.9 65.3 57.1 51.7 52.4 55.1 57.4 56.4 55.8 55.9 56.1 56.3 57.5 59.3 66.8 72 76.2 80.4 84.4 86.6 88.8 88 82.6 83.1 83 82.3 81.6 84.2 81.8 77.5 73.6 69.4 64.7 60.2 57.7 54.7 50.8 47.9 47 47 48.4 58.8 65.7 66.9 63.9 55.9 58.7 61.5 60.7 60.2 58.5 51.5 52.2 59.4 62.6 68.9 73.8 78.2 82.7 84.2 87.8 91.1 96 98.1 99.4 101.9 102.9 101.7 98.5 95.9 92.2 89.3 88.8 88.5 84.5 84.7 84.7 89.9 94.4 98.4 99.9 100.5 103.3 106.8 109.9 113.5 117.3 121.8 123.7 125.5 127.7 130.2 132.6 135.1 137.3 139.4 141.4 143.4 145.3 147 148.9 150.7 153 155.6 158.1 160.8 165.3 169.6 174.1 180.8 188.8 195.8 203 210.8 219 227.9 240.9 252.1 260.7
67.4 66 62.3 54.7 51.9 52.4 45.8 39.6 38.9 37.1 34.1 28.9 26.2 25.7 18.8 18.8 18.7 18.6 26.6 31.5 31.3 30.4 28.3 26.7 25.3 23.9 25.1 28.1 29.7 30.4 33.7 38.1 37.2 39.1 40.3 40.5 38.5 41.1 42.6 43.7 48.4 51.9 55.9 57.1 57.8 62.7 70.8 71.4 70.3 69.4 68.7 68.8 69.4 68.5 67.1 66.7 67.3 66.6 65.3 61.9 57.1 56.8 53.7 51.6 51.7 51.6 51.5 51.4 51.4 52.1 53 51.9 48.6 50.6 51.2 51.6 52 51.9 51.3 56.7 65.8 66.8 63.8 57.9 52.5 51.4 53.5 54.5 55 54.6 54.9 55.2 55.6 56.5 58.4 64.8 69.5 74.1 79.5 81.1 81.9 84.1 82.6 80.1 78.2 78 77.2 76.6 78.4 79.1 74.8 69.6 65.1 59.5 56.6 55.3 53.6 49.6 47 47.2 47.3 53.1 61.8 68.7 71.1 67.9 64.1 60 61.2 59.9 60 60.1 54.7 51.1 55.4 64.5 68.6 74.6 78.2 82.3 86.8 89.2 91 95.7 98.3 99.5 101.2 103.1 101.9 99.2 95.8 92.8 91.1 90.1 91.3 86.6 85.6 86 89.2 93.1 96.8 99.6 101.1 102.1 105.3 109.8 113.1 117.9 122.3 124.4 126.2 128.6 131.1 133.5 136 138.4 140.8 142.8 144.8 146.7 148.5 150.4 152.2 154.3 157.1 159.5 162.5 167 171.5 176.3 183.1 190.9 197.6 204 211 219 228 241 252 261.9
64.5 64.1 64.4 58.9 54.4 50.2 46 43.1 42 40.9 38.5 35.8 31.1 26.8 25 17.6 18.3 18.2 23.5 26.3 26.3 23.5 24.1 21.7 23.6 20 22.8 27.1 28.6 29.2 30.8 35.4 38 39.6 42.1 43.4 39.6 38.8 41.9 44.6 48.6 51.2 54 55.9 58.9 63.3 68.4 71.7 71.5 70.6 70.3 71 70.5 69.8 67.5 65 65.1 64.1 63.6 60.6 58 55.3 52.9 51.4 51.8 51.8 51.7 51.7 51.6 52.9 53.6 52.9 50.9 50.7 51 51.4 51.8 51.5 51 52.1 59.8 62.3 58.4 53.9 53.4 50.8 51.7 52.2 53.3 54 54.5 54.1 54.1 55 56.6 61.5 66.9 72.5 77 77.6 78.7 77.5 77.5 77.5 75 70.9 71.6 71.9 73.9 75.5 73 67.5 61.8 58 58 53.6 52.1 48.9 47.2 46.8 47.6 53.6 63.5 69.5 73.9 70.1 67.1 62.6 59.7 58.9 57.9 59.3 59.2 50.7 59.8 67.9 72.5 74.6 80 85.2 88.8 89.8 90.8 95 98.5 99.2 100.2 102.7 102 99.6 96.3 93.7 92.2 90.8 91.7 90 85.9 86.7 89.7 93.4 97.1 100.3 102 103.1 105.4 109.2 113.6 119.5 122.8 124.3 126.5 129.5 132 134.4 137 139.8 142.2 144.2 146.3 148.2 150.1 151.9 153.7 155.6 158.3 161 164.2 168.8 173.5 178.5 185.3 191.4 198.1 204.9 211 219.3 228 241.4 252 262.6
60.5 61.9 61.8 58.8 53.7 50.9 51.3 50.3 48.5 46.8 43.1 39.3 35.4 29.3 26.6 18.8 17.9 18 17.9 23.3 22.7 21.4 17.5 17.3 17.6 17.9 20.9 24.1 25.8 27.8 31.3 35.4 38.3 39.7 44.4 44 41.6 41.3 42.4 46.2 48.3 51.1 53.8 56.8 59.6 63.8 67.6 70.7 71.7 72.7 73.4 73.6 72.3 71 69.4 65.4 63.7 63.8 61.2 58.2 55.5 52.9 51.5 51.3 51.5 51.6 51.7 51.7 51.6 52.4 53.3 52.7 51.1 50.7 50.7 51.1 51.6 51.2 50.8 50.8 52.8 55.9 54.3 53.2 53.9 52.1 50.9 51.4 52.9 53.8 54.2 53.8 53.3 53.6 54.8 57.7 63.5 67.6 69.6 72.7 72.1 69.7 71.5 72.5 71 68 67 67.6 69.1 70.5 71.1 68.8 63.7 61.4 59.5 52.2 50.6 49.7 47.3 46.8 47.3 52.1 61.5 66.9 73.4 70.8 65.9 63.8 58.7 57.8 56.8 57.8 53.4 50.9 62.9 70.5 74.6 77.9 80.8 85.6 88.9 90.3 90.7 94 97.5 98.7 99 101.3 101.8 99.7 96.1 94 93.9 92.9 91.8 90.6 87.5 87.2 90.4 94.5 97.9 100.6 102.5 104.8 106.8 110.6 114.9 118.1 119.4 122.7 126.4 129.8 132.9 135.7 138.5 141.3 143.6 145.6 147.6 149.4 151.3 153.3 155.2 157.1 159.5 162.4 165.8 170.4 174.9 179.6 185.3 191.6 198.4 205.3 212.2 219.5 227.4 240.3 252.1 263.6
60.1 59.2 58.3 55.3 51.5 50.2 50 50.1 50.4 48.4 43.8 39.8 35.8 31.3 28.1 23.9 17.5 17.9 17.8 18.2 18.6 18.4 17.3 17.2 17.4 17.9 19.5 22.1 24 27.1 29.9 33.8 36.5 38 40.5 41.9 43.2 44.4 45.1 45.3 46.8 50.6 55.4 60.9 62.5 64.7 67.9 70.3 71.8 73.8 74.1 74.4 73.8 72.2 71.2 69.3 66 64 62.3 59.3 56.3 53.3 51.2 51.2 51.2 51.2 51.3 51.4 51.5 51.7 52.4 52.4 51 50.8 50 51 51.8 51 50.5 50.4 51.4 52.6 52.8 52.7 53.1 53.5 53 50.8 50.9 51.7 51.8 52.3 52.9 52.8 53.3 54.8 59.1 63.3 66 67.9 61.9 61.4 63.3 65.4 66.8 64.8 61.9 62.6 64.1 65.9 68.2 66.9 64.7 65.5 58.9 57.9 51.7 47.8 47.4 46.9 47.4 51.8 58.1 64.4 71.1 69.6 64.8 60.9 58.1 54.9 55.6 53 51 54.3 67.3 72 77.2 81.1 83.9 85.7 87.2 89.7 91.3 93.5 96.1 98.3 98.7 100.1 101.6 100.8 97 95.9 94.8 93.4 92.1 91.1 90.3 87.7 89.9 93.7 97.2 100.6 103.4 106 109.1 113.1 114.9 114.9 117.7 122 126.5 130.5 134.2 137.2 140 142.9 145 146.9 148.7 150.5 152.3 154.3 156.3 158.2 160.6 163.6 167 170.4 174.5 179 185 191.8 198.7 205.4 212.1 218.7 226.9 238.1 251.7 264.9
57.6 54.8 51.7 49.7 49.1 48.2 48.1 48 47.9 45.7 42.9 40.7 37.2 33 29.7 23.8 23.4 17.7 17.4 17.8 17.6 17.7 17 17.1 17.3 17.8 19.2 22.2 23.3 25.5 27.8 30.4 32.8 35.1 39.4 41.8 44.3 45.8 45.1 45.9 47.6 51.3 56.8 64.8 68.9 68.2 69.4 71.1 72.6 74.8 76.6 76.8 75.4 73.8 72.4 69.8 67.8 67.2 63.7 60.8 58.9 56.8 53.2 51.8 51.1 51.1 51.1 51.1 51.2 51.4 51.9 51.7 50.9 50.8 50.6 51.4 50.8 50.4 50.4 50.6 51.6 52.3 52.2 51.5 51 51.9 52.7 51.3 50.5 50.1 49.5 50.4 51.2 52.5 52.6 52.8 56.3 57.7 60 59.1 55.2 57.6 58.9 61.1 61.8 61.4 59.4 58.4 58.1 61.2 63.7 64.6 63.2 61.9 60.1 54.8 49.1 47.3 47.3 47.2 47.5 49.3 56.2 61.9 67.1 66.3 61.8 56.8 53.3 50.9 51.2 50.7 49.6 62.9 69 73 79.5 83.3 86.8 89.1 90.5 91.3 92 93.2 94.8 97.5 98.2 99 100.6 100.7 98.3 95.2 96 95.2 92.9 91.9 90.3 88.7 88.8 92.7 95.9 99 102.4 105.1 107.5 109.7 111.1 112.9 116 120.2 126.6 131.5 135.2 138.4 141.4 144.4 146.2 148 149.8 151.6 153.4 155.3 157.3 159 161.6 164.2 167.4 170.9 174.5 178.7 185.3 192.1 198.9 204.9 211.7 217.9 226.6 236.4 250.5 264.9
55 54.1 53.9 50 47.4 47 46.8 46.2 45.1 44.2 43.1 41.2 38.1 33.5 30 28.5 27.1 23.7 18.5 15.9 17.1 17 17 17 17.2 17.6 18 19.8 22 23.3 25.3 27.9 32.1 37.9 40.3 43 45.3 47.7 46.4 44.9 48.4 52 57.5 65 69.1 70.4 72.2 73.7 74.2 75 76.8 77.8 77.7 75.6 74 71.7 70.1 72 70.1 65.3 62.3 60.7 55.4 52.1 51.2 51.1 51.1 51.2 51.2 51.3 51.5 51.1 50.9 50.7 50.6 50.9 51.4 51.2 52 52.4 52 48.6 49 51.2 51.1 51.7 51.8 51.6 51.4 51.8 50.2 48.2 49.4 50.7 51.1 51.3 52.2 55.3 54 52.4 51.6 54.6 56.6 55.8 56.8 57.4 58.8 60 57.5 57.7 60 61.3 60.2 58.9 57.3 52.5 49.5 47.7 47.2 47.3 47.3 47.6 52.2 58.2 63 62.2 56.1 50.8 49.8 50.2 50.3 50.8 57.9 66.1 69.9 75.5 81.2 85.1 88.1 90.7 92.4 91.7 92.3 92.8 94.4 95.8 97.4 98.4 100 100.4 98.1 95.3 96 96.2 94.1 92.3 90.3 87.5 88.6 90.6 94 97.4 101.5 103.1 104.4 107.8 110.2 111.8 114.9 118.5 126.1 131.5 135.7 139.2 142 145.1 147.3 149.1 150.9 152.7 154.5 156.4 158.3 159.9 162.2 164.2 167.3 170.7 174.5 179 185.3 192.5 198.4 204.4 211.2 217.4 225.3 235.5 248.2 262.4
57.7 55.9 55.7 51.1 46.6 46.5 47.9 45.8 44.8 43.2 41.4 39 35.7 34.2 31.9 30.4 28.7 24.9 21.6 17.7 16.1 16.8 16.9 16.9 17 17.3 17.5 17.6 20.1 21.7 23.6 27.4 32.5 38.2 41.4 44.1 47.8 49.4 49.9 45.6 48.1 52.7 55.8 61.7 67.3 71.2 73.8 75.6 76.2 75.9 77.4 78.9 78.5 78.5 75.5 71.6 70.3 72.1 75.5 70.8 64.2 59.1 54.4 52.4 51.2 51.2 51.2 51.2 51.1 50.7 53 55.5 52.1 50.9 50.8 51 53.1 52.5 53.8 58 56.8 53.3 52.5 53 53.3 53.3 52.8 52.8 53.4 53.4 53.3 52.1 50.5 48.4 48.4 47.9 49 49.2 50.6 50.9 50.9 52.9 55.4 55.5 55.4 56.1 59.7 60.2 59.2 55.2 56.1 56.9 56.9 54.3 51.9 50.9 49.6 47.7 47.4 47.4 47.4 47.4 48.4 54.9 58.8 57.5 49.4 49.4 49.7 49.9 50.2 59.4 64.4 67.6 72.3 77.6 82.8 86.5 89.5 92.3 94.3 92.8 92.4 92.6 93.9 94.8 96.4 98.1 99.5 100.9 98.4 95.7 95.8 95.4 94.7 93.2 91.3 89.1 88.4 90.3 93.4 96.6 100.8 102.8 103.9 106.5 109.3 111.3 114.2 119 126.4 131.1 135.5 139.4 142.7 145.7 148.5 150.3 152.1 153.9 155.7 157.5 159.1 160.7 162.4 164.2 167.3 170.6 174.4 179 184 192 197.3 202.7 209.9 217.2 224 234.2 245.9 259.5
59.7 56.8 53.4 52.1 49.1 48 45.2 44.2 44.3 42.6 41.1 39.5 40.1 37.9 34 31.6 30.3 27.3 24.4 21 16.9 16.7 16.7 16.9 16.9 16.9 16.9 16.9 18.3 19.9 23.8 27.9 33.5 37 41.6 45 49.1 50.3 52 52.5 46.7 52.7 55.7 61.3 67.7 71.8 74.3 76.8 77.7 77.5 79 80.6 80.2 79.3 76.7 75.6 73.5 71.8 76 74.5 65.4 59 58.2 56.9 52.7 51.6 51.5 51.4 51.5 51.3 53.4 61.5 59.6 53.3 51.8 52.3 53.4 51.8 53.8 59.2 63.8 57.7 53.8 53.7 53.8 53.4 54.1 54.8 55.2 55 55.1 56.3 54.7 50.8 47.7 47.2 47.3 47.1 48.1 49.4 50.6 52 54.4 55.6 56 58 63.1 64.2 58.9 55 52.8 53.6 53.1 50.7 48.4 47.7 47.9 48 47.8 47.8 47.8 47.8 47.6 51.5 54.9 53 49.3 49.4 49.8 51.4 54.3 59.1 65 70 74.3 79.1 85.5 88.3 91 93.3 95.3 94.3 92.7 92.6 93.4 94.3 95.4 97.1 99 100.8 99.1 96.9 96.1 95.7 95.3 94.4 92.3 90.2 88.9 90.8 93.5 95.1 100.2 102.8 103.8 104.7 107.3 110.1 113.4 118.6 125.9 130.6 135.1 139.2 142.7 145.8 148.6 150.9 152.5 153.8 155.5 157.1 158.6 160.2 161.8 163.5 165.8 169.8 174.1 179.1 184 190.6 195.6 200.7 209.1 216.4 223.8 232.9 243.1 257.5
59.9 56.3 52.8 51.8 49.3 49 44.8 42.9 42.8 41.8 41.9 42.1 41.1 39.1 35.6 33.1 32 30 27.6 25.4 25.4 15.7 16.8 16.9 16.8 16.8 16.8 16.8 16.6 18.2 22.3 29 33 37.7 43.3 46.1 50.6 53.5 56.4 59.2 55.1 51.9 57.4 62.8 69.9 74.3 75.2 77 78.2 79.3 80.8 82.3 81.8 79.7 80.4 78.9 78 75.4 73 70.8 66.3 61.2 61.8 64.1 57.6 52.1 51.7 51.6 51.8 52 53.5 60.6 66.5 61.2 55.5 54.5 51.8 51.8 53.1 56.6 64.3 64.8 58.5 54 54 54.5 55.9 57 57.6 58.6 58.1 56.8 55.6 52.4 50.9 48.3 46.2 46.1 46.8 48 49.2 51.5 55.1 58.6 59.4 65 65 66.7 60.8 55.7 51.7 50 49.5 48 48.1 48 49.3 48.4 47.9 48.2 48.3 48 48.2 50 50.2 49 49.1 49.3 49.7 52.1 55.3 61.9 66.5 71.2 74.9 82.8 87.5 90.6 92.2 93.6 95.4 95.6 93.5 93 94.1 95.2 95.6 96.1 97.9 99.3 98.7 97.7 96.9 96.2 95.9 94.8 92.9 90.9 89.7 90.2 93.2 95.9 100 101.5 101.8 103.4 105.8 108.7 113.2 119.9 125.3 130.6 134.8 138.4 142.1 145.3 148.2 150.8 152.2 153.5 154.9 156.6 158.1 159.6 161.3 162.9 164.4 168.2 173 177.5 182.2 186.1 190.7 199.4 208.2 215.8 223.7 231.9 241.8 254
58.6 55.5 53.9 52.4 49.3 48 45.5 44.1 42.3 41.2 44.1 42.9 41.2 42.7 38.1 35 32.9 31.9 29.7 28.1 25.6 20.3 15.7 16.8 16.7 16.7 16.6 16.4 16.1 16.7 21 26.6 33.1 41 48.4 51.2 52.5 55.3 58.9 58.8 57.8 54.1 58.3 61.4 68.6 75.4 77.2 77.8 79.7 81.4 83.2 85.9 86 87.5 85.7 82.6 83.4 80.2 76.8 71.9 68.4 64.4 62.8 67.5 65.1 55.8 51.8 51.9 52.1 52.5 52.9 57.2 66.5 70 63.6 56.4 53.5 52.6 54.1 55 59.8 65.8 62.9 55.1 55.1 56.9 57.8 59.5 61.2 61.3 60 59 56.3 52.4 51 49.7 47.5 46.3 45.6 46.8 48.3 51.6 57.9 65.4 66.1 67.2 67.2 63.2 62.4 57.2 52.7 48.8 47.8 47.6 47.7 45.8 45.9 46.8 47.9 48.4 48.5 48.2 48.6 50.9 48.8 49.1 49.2 49.4 50.2 52.8 56.8 62.9 67.2 71.2 77 84.5 88.6 92.2 93.4 93.9 96.3 96.7 94.6 93.3 94.4 95.5 95.5 95.8 96.5 99.4 99.5 98.4 97.6 96.8 96.4 95.3 93.3 91.1 90.1 90.7 93.7 97.5 97.8 99.9 102.4 103.4 104.3 108.7 113.6 119.5 126.4 130.4 134.1 137.8 141.5 144.6 147.6 150.2 151.7 153.2 154.5 156.1 157.5 159.1 160.7 161.8 163.9 166.8 171.1 174.7 178.7 181.3 187.8 199.7 207.3 214.8 222.6 231.7 240.8 251.9
56.8 56.3 53.5 52.8 50.3 48 47.3 44.7 43.1 42.5 43.2 43.8 50.2 51.3 48.9 41.5 35.3 35.5 33.2 31 27.7 22 17.3 15.6 16.6 16.4 16.3 16.1 15.7 15.7 19.4 25.7 33.2 42.4 51.6 54.1 53 54.8 56.1 58.2 59.4 58.4 57.2 60.5 65.9 72.1 76.3 77.7 80.5 82.7 86.1 91.3 91.4 88.9 87.7 86.8 87 84.2 82.7 75.3 71 66.5 64.3 65 67.8 59.6 52.3 52.4 52.5 52.4 52.8 54.9 64.5 70.3 67.7 60.3 53.7 54.3 55.3 56.2 57.1 59.4 63.3 56.8 57.7 59.6 60.9 61.1 62.6 63.2 62.3 57.8 56.6 54.3 51.4 50.1 48.1 46.1 45.3 46.3 48.4 53.5 61.4 67.8 69.4 66.4 65.4 61.7 60 58 50.8 47.5 47.1 47.5 47.1 47.6 47.9 47.9 48.1 48.4 48.2 46.7 48.9 50.5 48.9 49.1 49.1 49.6 51.6 57.1 57.9 63 67.5 72.3 78.6 82.9 88.4 92.1 95.7 95.4 96.9 97.1 95.7 94.1 94.3 95.7 97.1 96.8 97.5 99.8 100.2 98.7 98.1 97.4 96.6 95.2 93.7 91.1 90.6 91.6 92.9 94.2 95.9 98.1 100.4 102.6 104.2 109.2 115.7 121.1 126.9 130.1 133.6 137.3 140.9 143.9 146.6 148.8 150.7 152.6 154.1 155.5 157 158.5 159.6 160.6 162.9 165.9 169.7 173.2 175.9 181.6 190.4 198.7 206.4 214.2 222 230 238.7 248.1
57.3 56.3 54.5 51.3 49.4 48.3 48 46.1 44.6 43.5 43 44.5 57.7 62.4 57.7 51.5 43.8 43.1 40.6 34.9 30.9 26.2 20.3 16.9 16.7 16.6 16.3 15.8 15.3 14.6 18.7 25.2 34 43.2 49.9 53.5 53.5 55.1 55 57.6 59.8 59.8 57.1 60.3 64 68.3 72.1 75.4 80.3 85.4 91.9 95.4 94.6 92.5 90.7 87.7 83.5 82 82.6 79.4 72.3 68.9 66.7 62.4 62.7 60.2 54.7 53 52.7 52.3 52 53.5 60.5 65.9 69.7 62.8 53.6 53.8 56.5 59.5 60.5 58.9 57.9 57.3 59 63.7 66.1 65.4 64.9 64.9 63.7 60.9 58 57.2 54 49.6 47.3 45 44.8 45.8 48.3 52.6 61.5 65.3 68 66 62.3 60.2 56.1 55.8 49.8 46.8 46.6 45.3 47.5 47.8 47.9 47.9 47.9 48.5 50.5 51.1 46.7 47.3 49 48.9 49.5 50.3 53.3 56.1 57.5 64 68.6 73 78.8 84.6 87.6 91.3 96.1 97.2 97.2 97.4 97.2 95 95 96.2 98.5 98.9 99 100.3 100.9 98.9 98.2 97.6 97.6 95.7 94.1 91.9 91.3 92.2 93.2 93.9 96.3 98.3 100.7 102.7 105 108.5 113.2 119.1 126 129.8 133.1 136.8 140.2 142.8 145.1 147.3 149.2 151.1 153 154.8 156.4 157.4 158.3 159.5 161.4 164.9 168.8 173.7 179.4 186 190.3 197.9 205.7 213.3 220.6 228.6 235.7 246.4
57.6 56.4 54.9 53.7 53.6 48.3 46.7 48.1 47.5 46.4 45.4 48.3 58.2 66.5 67.4 59.7 51.2 47.6 41.8 37.9 32.5 31 28.3 18 15.9 16.6 16 15.4 15.2 15.2 16.6 23.1 34.6 43.4 47.9 49.6 48.7 51.4 53.9 57.4 59 58.8 59.2 58.2 60.9 64.8 69 76.7 83.3 88.8 94.1 97.6 95.4 95.7 93.4 89.2 85.7 84.2 81.1 79.9 76.8 75 71.7 66 61.7 57.7 55.1 54.4 53.5 51.4 52.3 53.5 56.4 61.3 65.8 64.5 54.4 55.6 61.4 66.1 65.6 63 60.2 59 58.4 65.8 71 70.8 71.3 66.7 64.6 63.5 60.5 58.5 56 50 46 44.6 44.3 45.5 47.7 51.9 58.1 61.5 62.8 63.3 60.2 56.7 53.4 50.3 47.9 46.6 46.2 47.2 47.7 47.9 47.9 47.8 47.7 47.6 50.2 52.3 52.1 48.8 48.5 49 49.7 51.7 55.3 56.8 59.7 64.7 69.3 73.4 79.3 85.1 86.6 89.3 94.4 97 97.4 98.2 97.2 96.6 95.5 96.5 98.4 98.8 101.4 102.8 102 99.7 98.5 98.9 98.5 96.7 94.7 93.5 91.8 92.7 93.4 94 97 99.9 101.5 103 104.2 108.6 113.4 119.3 124.7 129 132.7 136.3 139 141.2 143.5 145.8 147.7 149.6 151.7 154 156 156 156.9 158.7 161.1 164 168.3 174.4 179.8 184.7 189.8 196.5 204.1 210.6 218.1 225.6 235.2 245.4
59.1 56.2 54.7 53.6 53.9 52.3 47.1 48.6 49.1 48.6 47.6 48.8 56.7 64.1 67.3 61.3 55.5 51.3 47 42.7 34.8 34.4 31.8 22.9 16.6 14.3 15.6 15.5 15.5 15.5 14.1 20.6 35.2 44.3 47.2 41.6 39.7 44.9 48.4 53.6 55.3 55.9 56.8 58.1 59.9 63 71.5 80.3 86.3 89.6 93.1 95.1 95.1 93.2 92.7 90.9 88.2 87.1 83.1 81.4 80.2 80.2 79.3 73.1 66.6 59.7 54.9 53.6 54.6 53.4 54.7 54.6 56.1 57.2 60.5 61.4 55.9 58 63.3 68.8 70.9 71 69.9 65 62.3 65.3 72.8 76.2 72.8 69.1 66.2 64 62.3 60.2 55 49.8 44.7 44.2 44.1 45.2 48.6 53.9 55.4 57.6 58.6 58.8 57.3 53.2 48.9 46.5 45.8 45.8 46.3 44.7 47 47.6 47.6 47.6 47.5 47.4 47.9 48.8 50.2 50.9 49.6 49.2 50.1 56 55.9 57.1 61.8 66.6 70.7 75.3 79.9 83.6 86.5 87.7 92.2 95.2 96.7 98.5 99 98.4 97.7 96.8 98.8 100.2 103.7 104.6 103.4 101 99.2 100.1 99.3 97.1 95.6 94.8 93.3 92.6 93.2 93.8 97.3 100.3 101.5 102.8 104.5 108.2 113.4 117.7 122.9 126.9 131.1 134.6 137.2 139.6 141.9 144.2 146.4 148.4 150.5 153.2 155.6 155 155.9 157.8 160.7 163.8 168.2 173.5 178 183 188.5 194.9 201.2 207.8 214.4 221 228.8 239.7
57.1 54.2 53.4 53.1 53 50.4 47.9 48.9 51 50.5 51.3 50.9 53.4 58.7 62.1 59.8 56.3 52.3 52.9 52.7 43.5 37.2 30.8 23.4 16.7 16.4 16 14.1 15.7 15.6 15.4 15.7 29.6 41.2 42 32.8 35.1 43.2 45.6 47.7 50.7 53.5 56.2 58.3 61.2 62.8 69.1 79.1 85.2 89 92.9 93.9 93 92 91 89.9 87.7 86.7 84.5 82.8 81.6 80.6 81 76.9 70.7 63.2 57.6 53.2 53.5 55 58.6 58 56.3 57.4 57.5 58.6 58.4 61.4 66.5 71.4 73.4 74.8 75.5 74.2 73.3 67.7 74 77.5 75.6 72.7 68.6 64.6 62.7 59.9 54.9 47 43.9 43.6 44 46.4 51 51.8 54.1 53.7 54.8 54.6 53.2 49.2 46.5 45.6 45.6 45.7 46.2 47 46.8 47.3 47.3 47.3 47.4 47.3 47.2 48.5 49.6 50.1 50.5 51.1 51.2 54.9 57 58.2 63.1 68.1 72 75.8 79.7 82.5 86 87.5 90.7 93.7 94.8 97.4 99.1 98.2 97.6 99.6 102.2 102.2 104.6 106.2 105.6 103.1 100.5 100.2 100.1 98 97.3 96.7 95.6 94.1 92.9 93.6 95.1 98.3 101.2 102.8 105 108.5 113 116.2 120.8 124.7 128.7 131.8 134.5 137.2 139.5 141.8 144.3 146.5 148.6 151.3 153.6 152.5 153.1 156.2 159.6 163.5 167.6 172.4 176.4 181 186.3 189.2 195.7 206.2 214.7 220.9 232.7 243.4
54.4 54.8 54.8 52.8 53.9 51.9 48.9 50.9 51.5 51.6 52.5 52.6 52.2 53.2 57.4 56.6 54.2 49.6 49.1 53.4 50.4 40.1 30.2 24 19.3 16.3 16 15.9 15.7 15.8 13.6 15.3 20.4 32.6 33.1 28.6 31.2 38.2 43.2 47.9 50.6 53.4 56.1 58.9 61.6 62.2 65.4 74.3 82.3 87.3 90.8 94.1 93.5 91.8 90.7 88.9 86.4 86.1 85.1 83.7 83.5 82.3 79.6 74.2 69.8 63 58.8 54.8 53.4 56.4 62.9 67.3 59.9 58.2 59.2 62 64.3 68.2 71.3 74.8 77.4 78.7 79.5 81.3 82.4 78.6 77.1 79.9 80.9 75.1 70.1 66 62.7 57.8 51.4 45.9 43.7 43.2 44.4 48.8 52.4 51.4 50.1 51.2 51.6 50.3 49.7 48.3 45.9 45.3 45.3 45.7 46.2 46.9 46.8 46.8 47.7 47.6 47 47.2 47.4 47.7 49.8 51.3 51.6 52.7 52.7 55.3 58 60.2 64.3 68.2 72.4 76.3 79 80.5 84.6 88.2 90.5 92.3 93.4 94 97.2 99.2 100.9 103.6 104.8 105.6 106.3 107.5 107.6 105.6 102.5 100.8 101.2 100.2 99.1 98.4 97.4 96 94.4 93.2 94.3 96.7 100.6 102.6 104.4 107.7 112.9 117.6 120.2 121.8 124 128.3 131.4 134.2 137 139.3 141.9 144 146.2 148.9 151.1 150.5 150.4 153.7 157.9 162.2 166.6 170.3 174.4 178 180.3 193.1 199.7 205.9 213.7 219.5 230.5 242
56.7 55.5 55.7 54.6 56.2 55.9 49.2 51.3 52.2 52.7 54.1 55.8 55 53.6 56.3 55.9 50.1 45.1 43.3 45.6 48.6 41.9 30.5 24.8 21 16.5 15.9 15.6 15.4 15.8 15.3 15.8 13.5 19.8 25.2 25.7 30.4 38.3 41.7 46.6 49.8 53.3 56.4 59.4 61.3 62.3 64.4 69.3 77.3 83 90.2 95.6 94.8 93.8 90.4 87.8 85.7 85.8 85.7 85.1 85.6 84.2 78.9 73.5 67 62.1 59.4 56.5 53.6 54.5 65.7 71.4 68.2 61.7 62.8 66.7 72.1 76.2 78.7 81.2 82.7 84 84.1 84.8 86.2 87.5 88 86.9 84.9 84.6 77.7 71.6 64.4 60.1 51.5 44.3 43.4 43.6 47.1 51.7 51.2 49.7 48.4 48.6 49.1 50.8 49 47.3 46.2 45.6 45.2 45.7 46.2 46.5 46.5 46.5 50.3 47.3 46.9 47 47.2 47.6 48 51.3 53.5 54.5 55 56.9 59.6 63.1 67.1 70 73.2 75.6 77.8 80.6 84.7 87.7 89.7 92.1 93.9 94.6 99.2 103.1 105.2 106.2 107 107.7 108.5 109.2 109.5 107.9 105.3 102.1 101.6 101 100.1 98.9 97.7 97.3 96.2 94.9 93.5 95.6 99.1 102 103.7 106.7 112 114.8 117 118.7 120.4 123.2 128.1 131.2 134.3 136.8 138.8 140.8 142.8 145.9 148.8 148.5 147.8 150.6 156 160.8 164.6 166.5 169 175.4 183.8 193.2 199.9 205.1 211.8 220.1 226.3 239.6
57 56 56.5 55.9 55.8 55.7 53.9 51 52.2 53.6 58.8 62.3 59.9 55 56 55.5 47.2 41.5 40.3 38.9 41.1 38.2 31.1 25.4 22.2 16.4 15.8 15.3 15 14.7 14.7 15.1 15 13.1 22.2 22.9 28 32.4 35.3 41.2 46.9 51.8 56.4 59.6 61.5 62.3 64.2 67 72.2 79.3 85.8 93.2 94.9 95.4 90 87.1 84.5 84.4 83.2 82.9 85.7 84.4 79.4 73 67.2 63.5 60.3 57.4 54.2 54.6 62.7 69.3 73.4 68.1 67 73.6 79.3 82.5 83.7 86.1 87.7 88.7 89.5 90.9 91.6 92.4 94.1 96.5 92.6 89.3 86.3 79.3 71.3 61.2 51.5 43.1 42.9 44.6 50.3 51.6 49.7 48.6 48.7 47.5 46.9 48.1 47.7 47 46.1 45.6 45.2 45.6 46.3 46.4 46.5 46.5 46.7 46.6 46.9 46.9 47.1 47.5 47.9 51.2 54.8 56.2 56.9 61.5 61.9 64.2 67.1 70.3 72.6 75 76.9 79.5 83.8 86.3 90.3 93.8 97.6 98.9 102 105.6 107.7 108.6 109.4 110.2 111 111.3 111.6 110.9 108.2 104.4 103 102.3 101.2 99.2 98.3 97.9 97.3 96.4 95.8 95.3 98 101.7 103.5 106.2 109.8 112.4 114.8 116.9 117.9 118.8 122.4 126.4 130.1 133.2 135.6 137.6 139.4 142.8 146 146.4 146 148.3 151.2 156.5 162.1 168.7 173 176.7 184.1 192.6 199.8 204.6 210.6 219.7 228.6 239.3
57.8 56.7 57 56.8 58.8 61.1 56.6 53.7 52.8 54.3 62 69.2 68 60.6 54.6 54.1 42.9 39.5 39.7 38.6 35.5 33.3 29.7 26.4 23.2 17.4 16 14.9 14.6 23 17.2 14.7 14.7 13.5 20.2 21.4 23.8 29.5 33.8 37.6 43.4 48.8 54.1 58.8 61.4 62.8 63.5 66.8 71 77.9 82.2 86.6 90.7 93.3 91.3 88.2 83.4 82 80.8 79.8 81.2 84.2 80.9 73.9 69 64.9 61.7 58.2 55.6 55.2 61.1 66.8 73.8 74 70.4 76.9 83.4 86.5 87.9 90 92.6 94.2 95.8 97 98.1 98.5 100.1 101.8 102.7 98.9 91.8 82.3 70.1 57.7 44.5 42.6 43.1 44.4 47.8 48.7 49 49.3 48.8 48.7 48.5 48 47.6 46.8 46.1 45.6 45.3 45.6 46.2 46.4 46.3 46.4 45.2 46.2 46.8 46.8 47 47.5 47.9 49.2 54.9 57.5 62.1 64.3 62.9 65 67.5 69.9 73.3 75.2 77 79.1 83.3 86.9 91.8 96.2 99.7 102.5 104.2 107.4 109.7 111.1 112 112.8 113.6 113.4 113.7 113.8 111.1 106.9 105.1 104.2 102.2 99.9 99 98.5 97.9 97.3 96.6 96 98.4 102.3 105.4 107 107.8 110.1 112.6 114 115 116.3 118.3 121.1 124.9 129.2 131.4 133.2 136 138.8 141.9 142.4 144.7 146.5 151.4 157.5 163.1 168.9 173.2 177.3 183.1 190.4 198.4 205 211.3 219.5 225.6 236.7
58.3 56.9 56.6 56.7 61 66.6 63.4 58 55.6 55.6 62.3 68.9 73.9 66.4 55.8 49.3 42.3 39.2 37.5 38.2 36.6 34.1 30.1 26.9 23.8 19 14.9 14.8 15.3 28.5 28.1 14.3 14.6 14.6 18.6 23.4 23.8 28.4 32 35.5 41.3 47.3 51.8 57.1 60.3 62.8 62.7 66.5 73.5 79.6 81.1 82.6 86.1 89.6 89.9 88.9 85.3 80.5 79.2 77.7 76.5 77.2 77.7 73.7 69.9 64.8 62.6 59 56.8 55.1 58.8 63.7 70.1 74.9 72 77.2 83.8 89.1 93.2 96 99 99.5 100.5 101.5 104.3 104.7 105.2 106.9 109.6 109.7 99.8 83.4 64.9 47.8 42.9 42.3 42.8 43.8 45.3 45.7 49 50.3 50.1 48.7 48.2 47.5 47.1 46.7 46.2 45.9 45.4 45.6 44.1 46.4 46.2 46.3 46.4 46.3 46.6 46.8 46.9 47.2 50.6 54.4 55.2 57.9 60.3 65.3 62.8 65.8 67.3 69.4 73.3 74.5 76 78.9 83.1 87 92.2 96.7 100.7 104.3 106.3 109 111.7 113.2 114.5 115.4 116 115.6 115.8 116.2 114.1 111.2 108.3 106.4 103.6 101.2 100.2 99.7 99.1 98.3 97.5 97.4 97 103.3 105.4 106 106.5 108.1 110 111.6 113 114.7 116.3 118.6 121.5 125 127.1 129.7 132.6 134.8 137.5 139.6 142.6 144.7 148.8 156.4 161.9 168.2 173.4 177.4 181.4 188.8 196.6 203.7 206.9 213.6 224.3 233.9
58.8 58.5 56.9 56.7 59.9 67.1 68.4 64.2 59.3 56.7 61 66.4 71.9 73.3 58.9 48.4 43.7 39.9 39.4 42.7 43.2 36.8 31 28 23.2 18.6 14.8 14.8 15.6 22 35.7 29.3 14.2 14.8 15.2 21.4 23.2 26.5 33.2 36.3 39.7 47.6 51.3 54.7 58.9 60.3 62.1 69.4 75.5 81.6 83.6 81.3 82.1 84.3 87 86.5 86 82.3 78.9 77.1 72.3 71.1 71.5 71.4 68.4 64 62 61.5 57.5 55.3 56.7 58.1 65.2 70.2 72.2 78.4 84.2 91 97.4 100.8 104.1 105.8 104.4 106.6 110.2 111.2 111.2 112 115 117.3 106.6 83.3 58.9 48.4 43.5 42.1 42.3 43.8 43.3 43.7 46.2 46.2 49 48.6 48.1 47.4 47.1 46.8 46.5 46.1 45.6 45.7 46.2 46.2 46.2 46.2 46.2 46.3 46.4 46.6 46.8 47.2 49.9 54.8 57.5 59.5 62.2 61 62.4 65.4 67.5 69.9 72.4 74 75.8 79.4 83.6 87.8 93.2 97.3 101 104.9 108.7 111.3 113.8 115.3 116.5 118.2 118.9 118.3 118.4 118.6 117.3 114.5 111.4 108.5 105.4 102.7 101.8 101 100.1 99.3 99.2 99.6 99.5 100.7 103 104.6 105.5 106.8 108.3 109.8 111.3 113.4 115.3 117.2 119.3 121.4 122.8 129.7 137.8 138.6 141.1 141.1 141 142.9 146.9 155.2 160.5 166.8 173.8 176.9 180.7 187.9 194.3 197 205.6 216.3 225.3 234.6
59.4 59.9 59 57.6 58.4 64.1 68.8 67.2 61.7 58.2 58.9 63.5 67.4 71.8 64.9 54 47.2 44.4 41.9 42.5 45.6 38.9 30.9 26.6 23.5 19.1 14.7 14.7 15.2 18.6 24 27.1 23.4 14.8 14.4 17.5 23.5 30.7 36.3 40.8 42 45.8 48.9 52.8 56.4 59.5 61.7 69.7 74.4 80.1 85.9 84.8 80.6 81.3 83.2 84.3 84.9 82.5 79.4 80 76 71.5 67.5 67.2 67.1 64.2 62.1 61.5 58.3 55.8 53.6 53.8 56.3 61.5 69.9 77.3 84.6 92.2 99.2 102.5 105.4 110.2 109.2 111.4 115.3 116.5 116.3 116.5 119.2 119.5 103.9 79.8 58.9 50.4 45.7 43.2 41 41.1 41.7 43.3 43.9 45.4 48.4 48.3 48.2 47.6 47.3 47.1 46.5 46.2 45.7 43.7 46 45.9 46 46.2 46.2 46.4 46.6 46.4 46.7 47.4 51.6 55.5 57.1 59 58.9 59.7 62 65.1 67 69.3 71.1 73.9 75.8 79.6 84 89.2 94.5 98.3 101.2 105.9 110.1 113.2 114.8 117.2 120.4 121.1 122.5 122 122.3 122.5 120.8 117.9 114.5 111 107.6 104.6 102.6 101.8 101 100.8 101.3 101.6 102.1 101.9 102.4 102.4 104.4 105.7 107.2 108.5 110.5 113.5 115.9 115.9 117.1 117.9 119.4 129 133.6 138.7 143.5 143.4 141.6 141.5 144.4 153.4 159.2 165.1 171.7 173.9 175.7 179.1 183.9 195.1 207.1 216.3 225.3 233.8
59.8 60.5 61.4 60 58.7 59.6 64.1 66.9 63 59.9 57.7 59.6 62.2 66.8 65.7 56.7 50.3 46.5 44.8 42.5 41.8 37.1 31.8 25.8 22.6 20.7 15.5 14.6 14.7 14.7 15.8 20.8 18 14.6 13.7 17 22.7 31.3 38.9 46.7 48.8 47.8 49.3 51.6 54.3 57.6 62.4 68 72.7 77.6 82.6 88.6 83.4 81.1 82.4 83.1 82.6 80.7 77.7 80 79.9 74.1 67 64.5 65.2 63.8 62 60.1 58.3 56 54 52.1 53.6 57.6 65.1 73.1 80.9 90.5 98.2 103.5 106 110.7 112.9 114.1 118.1 122.4 124.7 123.6 121.3 116 95.2 76.4 61.7 51.3 44.7 42.7 42.5 42.2 42.6 43.4 44.1 45.2 45.8 45.7 46.6 47.3 47.4 46.8 46.3 46 45.7 45.6 45.6 45.7 45.7 46.1 46.4 46.7 46.9 46.8 46.8 47.8 52.5 53.7 55.2 55.7 57.4 58.6 61.8 64.8 66.5 68.8 71.3 73.6 75.4 79.3 84.8 89.7 94.8 98.7 102.7 107.2 111.5 113.4 115.9 119.4 121.6 125.1 126.2 125.7 126.4 126.5 124.9 121.7 117.4 113.9 109.9 106.9 103.8 102.5 101.7 101.8 102.4 102.8 103.5 103.9 103.9 103.6 103.7 104.8 106.5 108.7 110.2 112.5 114.3 114.2 114.2 114.9 121.6 127 130.8 133.9 136.8 141 139.6 140.6 142.7 152.4 156.2 160.2 166.5 172.1 175.7 180.8 188.9 197.6 206.9 215.5 224.8 233.6
61.1 62.5 63.1 62.4 60.7 58.6 60.3 61.8 61.2 59.3 57.6 55.9 55.5 59.8 63.2 58.5 50 46.6 46.4 45.5 40.4 33.9 29 23.5 21.5 21.6 17.1 14.5 14.3 14.2 13.8 14.9 15.1 14.9 12.7 14.5 19.8 28.2 39.2 48.5 55.8 55.4 51.5 50.9 53.4 56.1 59 65.4 70 74.8 81 89.8 87.7 84 85.5 85.2 85 79.8 75.8 77.3 81.3 77.2 67.5 62.8 62.9 62.7 60.6 58.3 57.3 55.5 54.2 52 52.3 55.7 60.2 66.3 75.4 85.1 94.8 100.8 105.7 109.3 113.7 117.1 120.2 124.7 129.3 130 121.8 107.2 90.8 73.3 61.4 49.6 43.4 42.4 41.8 41.8 43.7 48.9 44.1 43.9 47.1 47.6 46.8 46.2 46.8 46.7 46.3 45.8 43.2 45.8 45.4 45.7 45.5 46 46.3 46.6 46.9 46.9 47.4 50.5 50.8 52.3 53.2 55.5 58 59.7 64.5 65 66.1 68.8 72.3 73.9 75.4 80 85.6 90.9 95.4 99.4 105.1 109.6 111.6 114.1 117.4 122.2 126.4 129.3 130 129.6 130 130.1 128.9 125.6 121.6 116 112.5 109.3 105.8 103.6 102.5 102.8 103.5 103.8 104.1 104.5 104.4 104.2 104 104.7 106.1 108 110.6 113.3 113.5 112.6 112.1 115.1 120 124.3 128.3 132.4 134.8 135.3 137.3 138.8 142 147.1 154.2 161.7 167.5 172.5 176.3 182.5 190.5 197.9 206.4 214.4 223 233.4
61.4 63.1 64 63.9 62.4 58.9 58.3 59.8 58.4 58.1 56.9 54.4 50.3 51.7 57.4 56.9 50.7 45 45.3 47.3 42.6 36.6 31.3 25.8 20.9 19.9 17.8 14.4 14.3 14.3 14 14.9 14.7 14.4 14.1 14.1 14.7 24.2 36.1 47 54.1 61.5 56.5 51.5 52.4 54.3 55.2 61.4 66.6 71.4 77.5 85.6 86.8 84.7 86.3 88.4 89.6 85.6 79.4 74.5 76.8 79 70.5 62.1 60.9 60.9 58.2 55.8 55.6 54.8 53.2 50.5 49.3 52.9 56 60.7 69.5 77.5 88 96.7 102.5 107.6 114.3 119.4 123.5 127.5 128.7 126 115.8 100.8 85.8 70.2 59.2 48.4 42.5 42.1 41.7 41.8 42.3 49.8 49.8 44.9 42.7 46.7 47.4 48.2 48.2 46.4 46.2 45.8 45.9 45.8 45.8 46 45.8 46 46.3 46.6 47 47 47.6 50.4 50.4 51.3 55.5 58.3 59.6 64.4 68.5 68.5 67.4 70.1 74.4 76.9 77.7 81.9 87.8 93.5 97.3 107.1 105.2 109.5 111.4 115.2 119.4 123.8 127.2 129.8 131.7 131.7 132.6 133.7 132.8 129.1 125.2 119.9 115.7 111.9 108.1 105.1 103.9 104 104.6 104.8 104.8 105.1 105.1 105.6 105.9 106.2 106.4 107.5 108.6 109.3 109.9 111.2 112.4 114.4 117.5 120.8 125.9 130.4 130.1 134.2 136.7 139.6 142.8 148.1 155.3 162.2 167.9 172.8 177.1 183.6 191.1 198.5 205.3 212.2 220.3 232.1
62.1 63.1 63.7 63.4 62.6 60.5 57.1 58.3 57.1 56.8 55.1 51.1 48 46.5 50.3 52.3 49.7 44.7 41.3 42.8 43.9 38 32 26.8 21.3 18.7 15.7 14.8 14.6 14.4 14 14.5 14.2 14 13.9 14.2 14.1 19.5 28.7 40.2 52.2 61.2 63.6 57.2 51.7 52.5 53.6 56.1 60.5 66.8 72.6 76.3 79.2 79.5 80.7 83.6 86.2 89.8 84.9 77.9 72.6 74 72.4 64.5 59.3 58.8 58.1 54.9 53.8 53.5 52.1 49.2 47.6 49.4 53.2 57.3 64.1 71.8 81 89.9 96.9 105.2 112.9 120.4 125.8 124.8 117.9 114.8 108.8 96.4 81.6 68.5 57.1 47.2 42.3 40.4 41.7 41.8 41.9 47.7 51.9 47.8 45 45.4 46.2 46.4 46.4 45.8 43.2 45.5 45.7 45.8 45.8 45.9 46.2 45.9 46.7 46.8 47.3 47.9 50.4 50.4 50.4 51.6 56.3 60.9 65.7 69.7 75.1 72.9 69.7 72.4 77.4 79 79.5 83 89.4 95.3 97.9 103.6 103.9 110 113.1 119.7 122.8 124.9 128.9 133.8 135.7 135.1 135.6 135.5 135 132 127.7 122.4 118.1 114.5 110 107 105.6 105 105.8 105.8 105.9 106 106.5 107.4 107.8 108 107.9 107.7 108.2 109.6 111.2 112.5 114.3 115.9 117.6 120.2 123.7 125.2 130.4 134.2 136.7 139.6 143.2 148.7 155.6 161.8 167.2 172.3 176.5 183.9 190.8 197.8 204.7 211.3 218.9 230.3
61.8 62.2 62.4 61.7 60.7 60.5 58.6 56.4 55.6 54.6 52 49.2 46.8 43 44.9 48.4 46.6 42.6 39.7 37.5 41 41 32.1 25.9 18.9 16.9 15.5 15.2 14.8 14 14 14.1 13.9 13.8 13.8 13.9 12.6 14.4 20.4 34.2 49.5 57.8 64.3 62.4 53.1 51.4 52.2 54.1 56.5 61.1 66.7 69.9 71.7 73.8 75 78 81.1 85.9 87.8 81.2 74.1 69.8 68.9 66.8 60.4 57.7 56.3 53.9 52.7 51.6 50.4 46.5 48 48.5 51.2 55.4 61 67.2 75.4 82.9 90.5 100.3 111 119.1 121.9 117.8 110.1 106.4 101.3 91.1 76.1 66.4 57.2 47.9 42 40.4 41.7 42.3 42.4 45.6 52.5 52 44.7 44.9 45.9 45.2 45.6 45.5 45.6 45.5 45.7 45.8 45.8 46 46.2 46.4 48.3 47.3 47.8 49.7 50.8 51.9 51.4 53.7 56.1 60.9 66.9 70.2 73.9 73.4 72.7 76 77.1 78.8 80.3 83.8 90.5 95.6 97.7 100.2 105.2 110.3 116.4 121.7 125.7 129.8 131.3 133.6 136.9 138.2 137.6 137.4 137 134.1 130.5 124.9 120.1 116.4 112.7 110.3 108.1 106 106.9 107 107.1 107.4 108.2 109.3 109.5 109.4 109.3 109 108.6 109.4 112.3 114.1 115.4 116.8 118.8 121.2 123.9 127 131.3 134.2 136.6 139.6 143.3 148.5 154.6 160.8 166.1 170.9 175.7 183.1 190 197.3 204.3 210.8 218.7 228.7
60.9 60.9 61.1 59.9 59.2 60.3 60.4 57.9 54.1 53.1 49.6 46.4 43.8 43.1 41.9 45 43.6 40.4 36.8 34.4 35.5 38.4 32.1 25.2 22.3 16.2 15.8 15.5 17.3 16.6 13.6 13.8 13.7 13.7 13.8 13.6 13.5 12.1 18.6 30.1 44.5 53.4 57.9 60.2 56.4 51.6 51.5 52.9 55.1 56.8 60.8 63.9 65.5 67.7 69.5 73.8 77.7 81.6 85.6 79.9 71.8 67.5 65.1 64.5 61.8 57 54.4 53 51.8 50.3 47 45.9 47.6 48.6 49.8 53.7 59.3 64.2 69.1 77 83.7 92.9 107.3 113.8 110.5 110.5 105.4 101.1 92.4 83.2 72 62.7 58.5 50.9 41.7 42 41.8 44.3 43.1 44.1 51.2 55.6 51.5 48.8 46 45.3 45.5 45.2 45.4 45.6 45.7 45.8 45.8 46 46.2 46.5 47 47.3 48.5 51 53.1 56 57.4 59.3 59.9 62.6 68.3 71.7 72.6 73.3 74.9 78 78.1 79 81.1 85.5 91.2 96.7 100 104.3 107.4 111.7 118.1 122.8 126.3 131.5 135 135.5 138.1 140.4 140.4 140 139.4 136.5 131.8 126.1 122.4 118.7 115.2 112.6 110.5 108.1 108.9 108.8 108.7 108.9 109.9 111.1 110.9 110.7 110.6 110.4 109.5 108.9 112.1 114.4 116.3 117.7 119.9 122.1 124.9 128.7 132.3 134.6 137 140 143.6 148.2 153.5 159.6 165.4 170.2 174.7 182 189.4 196.7 203.8 210.4 218.5 227.4
63.5 61.7 59.9 58.6 58.8 61.1 60.6 56.4 52.8 50.5 52.1 45.8 44.7 45.4 41.6 39.1 40.5 38.4 35.5 32.3 31.5 34.8 33.4 25.2 24.1 19 15.8 18.7 20.2 19.8 18.2 12.8 13.6 13.6 13.5 13.4 13.4 13.3 12.1 20.5 37.2 47 50.5 52.1 52.3 52.1 52.3 52.7 54.1 55.7 56.5 57.7 58.7 61.2 65.3 69.6 73.6 78.1 81.8 79.3 70.9 65.9 64.8 61.4 58.8 56.1 53.1 51.9 51.2 48.7 45.6 45.5 47.7 48.2 49.8 52.8 57.7 62.5 67 74.5 79.3 85.8 93.8 99.8 101.9 104.3 100.7 96.3 90.9 79.3 69.8 59.4 54 48 43.1 41.9 41.5 43.3 43.3 44.6 50 53.1 53 50.7 49.3 48.6 48.5 46.5 45.8 45.6 45.7 45.8 45.9 46 46.3 46.6 47.3 46.6 50.6 51.8 54.9 58.1 62 65.8 64.6 66.3 71.4 75 73.8 74.1 75.5 77.9 78.5 80.4 83 88.7 92.8 97.7 101.6 104.9 107.4 112.8 118.4 123.4 128.1 133.5 137.1 139.8 142.4 144.4 143.6 143 141.8 138.2 133.8 128.4 124.6 121.2 117.7 114.8 113 111.4 110.9 110.8 110.6 110.5 111.7 112.8 112.5 112.2 112 111.3 110.3 109.5 111.4 114.2 116.3 118.4 120.7 123 125.8 128.9 132 135.7 138.6 140.8 143.8 147.5 152.7 158.2 164.5 168.9 173.7 181.3 188.5 195.8 203 210.1 218.2 227
70.7 69.4 64.4 59 58.6 61.6 65.4 59.9 54 49.1 48.3 46.1 44.7 44.7 43.3 37.1 36.4 37.7 37.1 32.9 28.9 31.7 32.6 25.3 15.3 16.8 18.8 20.6 20.4 20.1 19.7 16.8 13.1 13.3 13.2 13.2 13.2 13.3 13.4 11.7 26.6 38.5 43.1 45.9 51.7 55 53.9 54.7 55.3 54.8 55.7 56 56.2 57.7 60.9 64.6 67.2 71.7 75.9 73.7 68.8 65.8 66.7 63.5 58.4 55.2 52.2 50.7 50.9 49.7 45.2 44.7 46.5 47.9 50.6 53 57.2 60.4 63.9 72.9 78.3 81.2 86.6 92.9 98.1 96.4 95.4 92 89.6 77.7 71.6 60.8 51 45.7 43.6 41.7 42.4 42.4 42.8 44.7 49.4 51.7 52.7 51.5 50.8 51.1 50.9 49.1 46.8 45.5 45.5 45.7 45.8 46.1 46.4 46.6 47.3 48.2 49.7 52 55.4 58.9 62.3 63.7 68.6 67.7 73.6 77.7 76.2 75.3 76.6 78.7 80.8 82.4 86.5 90 94.7 98.5 103.4 105.1 107.5 113.7 118.3 124.7 131.2 135.4 138.6 141.4 143.6 145.5 145.8 145.2 143.3 139.2 134.8 130.5 126.9 123.9 120.8 117.8 115.7 114 113.4 112.8 112.5 112.6 113.4 114.5 114.3 114.1 113.7 112.2 111.3 110.6 110.6 113.2 116.1 118.2 120.3 122.8 125.4 128.2 132 136.3 139.6 145.2 143.5 146.3 149.2 155.1 161.5 167.5 173.3 180.4 187.6 194.8 201.7 208.5 216.4 225.1
72.7 75.9 69.9 63.8 58.7 62.5 68.6 63.9 57.1 50.7 47.6 43.4 43.3 44 43.4 37.7 33.3 33 32.9 31.7 28.7 26.1 18.8 21.6 22 22.1 22.5 22.2 21.9 20.7 19.8 17.9 13.3 13 13 13.1 13.1 13.3 13.4 13.3 18.7 29.4 36.4 44.1 52.3 54 54.5 55 57.5 55.7 55.8 56 56.1 56 58.9 61.1 64.3 68.8 70.1 67.9 65.5 63.8 64.6 67.3 60.7 55.2 51.6 49.6 51.1 54.2 46.2 43.8 44.6 46.8 48.6 52.4 56.3 59.2 60.7 67.1 74.3 78.2 85.5 89.8 92.3 89.2 86.6 88 84.6 74.8 67.1 60.2 50.3 43.9 41.9 41.6 42 44.3 44.8 44.7 48.9 51.7 52.2 52.9 53.2 53.5 53.3 52.6 49.8 47.6 45.8 45.7 45.8 46.2 46.4 46.8 47.9 49.9 50.8 52.8 55.1 58.2 61.3 64 64.5 69.7 75.1 75.1 75.6 75.8 77.5 80.2 83.1 84.9 88.4 93.7 97.3 102.6 103.1 106.1 109.6 111.4 118.7 127.5 132.8 136.8 139.8 142.1 145.4 147 147.8 146.7 144.1 140.2 135.9 131.8 128.7 126.1 124.5 121.6 118.6 116.6 116.2 115.9 114.6 114.7 115.3 115.9 116.3 115.9 115.4 114.4 113.4 112.5 110.8 113.3 115.5 117.8 119.8 122.6 124.6 128 131.5 136 140.1 140.4 141.8 145.1 149 154.7 160.5 167.2 173.5 179.9 186.4 193.6 200.2 206.6 213.6 222.3
70.5 77.1 76.4 70.2 64 61.2 66.9 70.2 63.9 55.5 49.9 46.2 42.1 39.4 41.4 36.7 29.8 25.9 24.4 23 22.9 24.9 26.9 29.3 28.3 27.2 26.7 26.8 27.4 22.8 19.8 17.7 13.5 12.8 12.9 12.9 13 13.2 13.3 13.1 13.4 26 34.6 42.5 49.3 51.2 52.5 53.3 58.1 57.2 56.1 56.4 57.5 56.1 56 59.8 61.1 65.6 68.1 64.4 63.1 61.5 60.6 63.9 60.9 55.1 51.1 49.2 48.9 55.5 51.8 43.2 43.1 44.6 47.7 51.1 54.1 57.2 57.9 59.6 66 74.9 82.5 86.4 87.9 84.2 81.9 84.1 79.7 70.9 62.4 56.1 49.6 41.8 41.7 41.6 41.9 47.1 48.5 49.8 48.4 49.9 51.6 53.3 54.3 54.3 53.6 52.7 51.1 48.8 47.3 45.7 45.6 46.2 46.4 47.1 48.8 50.8 52.5 54.3 55.7 57.4 59.5 61.3 63.5 68.6 74.9 74.7 74.7 76.2 79.2 81.1 83.1 86.6 88.2 94.7 100.9 102.3 105.4 111.4 113.5 115.6 121.8 128.6 134.2 137.8 141.1 144.8 147 148.7 149.4 147.5 144.5 141.2 137.1 133.4 130.2 127.8 126.5 124.1 121.8 120 119.8 119.2 117.5 117.3 117.6 118.3 118.6 118.3 117.8 116.9 116.2 114.9 113.5 114 115.2 117.6 119.3 121.9 123.9 127.2 129.4 131.9 135.2 138.6 140.9 144.8 149.4 154 159.4 167 173.2 179.7 186.1 192.6 198.6 204.4 210.3 219
67 74.1 79.3 72.4 67.4 60.2 60.6 64.6 64.6 59 54.3 48.7 45.1 40.5 33.4 29.1 26.8 32.9 35.3 31.6 30.3 32.5 34.8 37.6 38.3 33.8 33.2 28 31 30.3 20.8 17.3 13.2 12.7 12.8 12.8 12.9 12.9 13.1 13.1 11.2 21.8 32 39.6 44.9 48 49.3 50.6 54.5 56.9 54.6 55.7 57.6 56.8 55.8 58 59.3 61.1 64.5 63.9 62.4 61.4 59.9 58.7 56.8 54.5 51 48.5 47.6 51.7 53 44.2 42.2 44.4 46.1 47.9 50 52.8 52.9 55 62 69.9 75.7 79.2 80.1 80.6 77.6 75.5 77.3 68.4 59.7 52.2 46.3 41 41.4 41.3 41.5 44.7 49.5 52.7 50.8 51.4 53.6 53.6 54.6 55 53.9 53.3 52.1 50.7 49.7 48.7 45.6 46 46.5 47.2 50.5 53.2 54.5 55.9 57.1 58.1 59.5 61.3 64.6 66.4 70.3 72.5 74.9 77.4 81.7 84.2 84.5 86.2 91 99.2 101.3 103.9 111.5 115.1 116.3 117.4 123 130.7 135.4 139.8 143.7 146 147.8 149.7 149.7 148.4 145 141.8 138.3 135.1 132 130.1 128.6 126.5 124.5 123.4 123.4 122.6 121.4 120.8 120.4 120.8 121.1 120.9 120.5 119.5 118.8 118 116.1 116.2 117.5 117.6 119.6 121.4 123.3 125.1 126.8 130.9 134.8 138.5 141.7 145.2 148.8 155.8 162.4 167.4 172.9 179.4 185.7 191.8 197.5 201.8 207.4 216.9
61.8 69.2 73.8 69.8 63.9 59 54 56.5 60.1 58.5 54.6 50.1 44.9 39.5 34 27 32.9 41 41.8 36.9 36.3 37.1 39.6 41.3 42.7 38.7 33.3 30.7 30.2 33 29.6 21.7 14.1 12.3 12.7 12.7 12.7 12.7 12.7 12.6 12.6 18.8 27.3 36.4 42.3 45 47.3 48.8 50.9 52.7 54.4 54.3 56.2 59 56 54.3 56.2 58.6 61.5 62.8 61.9 60.4 59.2 58.3 55.5 52.7 51.1 47.9 47.1 48.8 52.5 48 41.4 42.1 44 45.5 47.1 48.5 49.7 53.8 58.4 63.4 67.6 71.3 73.2 76.8 75.2 72.4 70.2 65.2 58.4 51 45.3 41.5 41.1 41.3 41.4 42.8 45.8 50 52.1 52.2 53.8 56 56.3 55.3 54.5 55.5 55.3 52.9 52.5 50.7 46.9 46.5 47.1 47.9 51.2 54.3 55.4 57 59.4 60.3 60.5 61.5 64.2 67.1 69.6 72.8 76.1 79.2 83.6 88 88.9 88.8 91 95.9 99.9 109.6 114.3 116.9 117.4 119.9 124.7 130.6 135.5 140.4 144.4 146.4 148.4 150.4 149.7 148.5 145.5 142.2 139.8 137.5 135.1 133.3 131.5 129.2 127.5 126.9 126.7 127.3 126.6 125.2 124.3 124.7 124.7 123.8 123.2 122.2 121.1 119.6 118.5 119.2 120.7 120.7 120.4 121.9 124 126.6 128.2 130.6 135.4 138.9 142.3 146.4 148.8 151.8 160.9 166.9 172.1 178.9 185.1 191.1 196.4 201.7 208.1 216.7
56.5 62.6 65 61.9 59.1 54.6 49.3 48.4 50.6 51.7 52.6 48.9 44.8 38.8 28.2 36.2 41.2 38.5 42.9 42.2 40.6 40.8 42.4 42.8 43.6 39.1 36.6 34.3 33.2 31.6 31.1 28.9 24.5 15.9 12.3 12.3 12.3 12.5 12.6 12.7 12.8 12.3 26.2 34.9 42.3 44.5 45 45.1 47 49.7 52.7 51.7 52.3 54.1 55 53.1 49.7 54.6 60 62.7 62.8 61 59.8 58.3 55.6 53.6 50.3 48.4 47.1 47.1 50.6 49 41.5 40.7 41.6 44 45.4 45.2 49.2 52.1 56.3 62.1 64 64 68.1 73.4 72.4 68.8 61.6 60.6 55.7 48.2 42.9 41.6 40.8 39.3 41.5 42.5 45.6 45.1 48.9 53.2 55.3 56.1 57.2 58.2 56.4 57.4 56.5 55.7 54 51.3 48.2 47.5 47.6 48.1 50.9 53.5 55.9 58.5 61 62.8 64.7 64.3 65.4 67.3 69.1 72.5 78.8 81 84.6 88.6 90.9 90.4 93.3 98.8 106.4 112.9 115.7 117.7 121.5 124.6 127.8 131.9 135.3 140.9 144.8 147.1 148.6 150.5 149.7 148.3 145.8 143 141 140 138.2 136.9 135 133 131.2 130.6 131 131.9 132.3 130.2 128.4 128.8 128.6 127.7 126.3 125.2 124.1 123.1 122.8 122.6 123.2 123 122.9 122.3 124.2 126.9 128.4 131 136 139.4 143.5 147.6 151.2 155.3 158 161.2 169.9 177.8 183.8 190.2 195.7 201.4 207.5 216.5
63.1 53 58.1 56.3 54.5 50.4 45.8 41.4 42.3 42.2 42.9 44.3 41.4 33.8 29.5 40.3 49.7 52.4 49.4 47.2 43.7 43.8 44.5 43.5 44 45 42.1 41.2 39.7 43.4 41.9 37.6 29.7 20.2 13.6 12.1 12.2 12.7 12.8 12.7 12.6 11.9 24.4 34.5 43.4 44.8 42 41.6 41.6 48.1 53.1 57.6 60.4 57.2 52.9 50.5 50 49.4 57.7 65.2 64.5 61.7 60.1 58.4 56.9 56.2 52.4 49.4 47.6 46.3 46.4 43.8 41.5 40.7 40.7 42.5 44.7 43.5 46.6 47.8 55.1 61 64.4 66.3 67.4 67.2 67.4 63.5 58 55.3 52.5 47 41.9 40.8 40.4 41.3 41.6 42.2 43.8 49.9 49.8 52.4 54.7 58.8 60.6 60.1 59.6 58.3 60.7 57.5 55.7 50.7 48.1 47.6 48 48.3 51.2 55.1 58.9 61.9 64.4 65.5 66.9 66.5 67 67.8 69.5 74 79.8 84.9 86.1 87 90.8 91.4 94.5 101.3 109.6 114.8 120 123.4 124.6 127.1 130.3 132.5 135.9 141 145 147.6 149.2 150.5 149.7 148.2 146.5 144 143.3 143 141.5 140.2 138.9 137.4 136 135.2 136.2 136.6 137 136.3 134.5 133.4 133.4 132.6 130.2 129.3 128.6 127.7 127 126.6 126.4 126.6 125.4 124.7 124.6 126.9 128.6 131.3 135.9 140.9 144.5 148.4 152.8 157.7 163.4 168.7 167.6 176.1 183.3 189 196.4 202 208.2 214.3
60.7 54.4 49.9 50.2 49.8 47.2 42.3 37.4 34 31 32.2 32.4 29 32.3 39.3 47 55.8 56 52.6 50 46.1 45.2 47 47.5 48.2 49.1 50.1 52.9 54.1 52.4 49.2 42.5 34.7 28.6 20.1 13.7 12.2 12.7 12.7 12.3 12.4 10.9 23.1 32.9 43 48.2 41.6 41.6 43.3 50.4 57.2 65.7 67.8 65.5 61 57.6 54.1 50.6 54.2 61.5 65.6 63.6 58.6 55.3 54.9 56.5 54 52.1 48.3 45.3 44.2 43.3 41.7 41.3 40.7 41.3 42.7 42.3 46.2 48.8 53.4 61 68.3 70.7 70.4 68.7 66.2 64.3 56.7 51.1 49.1 46.7 43.9 40.8 40.6 40.4 41.4 41.8 45.5 46.9 48.5 54 56.4 57.4 55.9 60 60.1 60.8 59.9 59.5 57.7 54.2 47.7 47.2 47.9 48.5 52 56.5 61.7 64.4 67.6 68.9 68.8 70.2 69.1 69.4 71.2 77.7 82.9 84.8 86.6 89.3 90 91.7 97.2 103 109.7 117.5 123.7 126.4 128.1 127.9 130.8 133.3 136.6 141.6 144.8 146.9 149.5 150.6 150 148.4 146.8 145.7 144.9 145.3 144.9 143.5 142.3 141.9 141.3 140.2 141.8 142.1 142.3 142.3 140.5 138 138 138.1 136.4 134.6 133.3 132.4 131.7 131.1 130.7 130.8 128.5 126.8 125.9 127.1 129.3 132.4 134.9 139.2 144.4 149 153.7 158.7 164.4 169.5 169.8 171.5 180.8 188.6 195.8 204.5 208.4 216.5
59.7 53.5 46.4 43.6 44.6 43.7 40.3 34.1 32.9 36.5 37.3 37.9 40.2 42.3 48.9 55.6 56.4 54.9 52.6 48.5 48.8 50.8 56 57.9 54.8 55.5 56.3 59.9 60 60.1 55.6 50 39.7 35 30.6 21.2 12.6 12.5 12.6 12.5 12.7 14.6 22.2 31.6 38.2 42.2 42.7 47.8 51.7 56.4 61 71.4 73.7 71.8 68.2 61.5 55.9 51.8 50.2 54.5 60.8 61.8 56 54 55.2 58.1 57 54.6 50.2 44.6 42.5 41.8 41.1 43.1 49.6 44.5 41.4 42.4 48.6 51.3 58.5 65 71.7 76.8 75.4 70.6 67 65.5 61 53.9 50.3 46.7 44.3 40.8 40.7 40.6 41.2 41.7 43.8 49.3 51.2 49.2 56.4 57.9 60 63.7 61.5 60.5 59.9 60.2 57.9 54 48.6 47.5 47.7 48.5 54.5 59.9 65.4 69 72.6 72.7 74.9 74.2 72 71.2 72.8 78.5 82.6 85.5 86.6 88.5 89.1 92.2 99.4 104.3 110.9 119 124.8 129 131 131.1 132.1 134.3 137.1 141.6 145.2 146.6 149.9 150.8 151.4 149.3 147.4 146.1 145.7 147.2 147.4 146.9 146 145.8 145.6 146 147.2 148.4 148.1 147.5 146.1 143.7 142.8 143.1 142.8 140.9 138.8 137.2 136.6 135.6 134.7 133.6 131.3 129.4 127.6 127.7 129.9 131.9 135.4 138.7 143.8 149.8 155 160 165.2 170 172.9 176.1 181.5 187.8 194.8 203.1 208.5 215.8
55.7 49.7 42.7 39.4 40.8 40.3 37 33.7 40.9 44 42.7 49.8 52.5 53 54.4 60.7 62.8 60.2 54 54.9 56.1 56 59.7 63.4 62.2 60.1 62 65.8 66.8 66.3 66.2 61.4 49.1 44 39.7 27.5 19.1 11.4 12.2 12.3 10.3 22.1 28.4 31.6 41.2 48.3 52.1 60.9 65.3 65.3 67.5 72.9 77.3 77.5 74.1 67.8 58.8 54.6 51 50.7 53.4 57.3 53.3 57.2 61.8 63.4 61.2 57.2 51.1 46.6 41.7 40.9 40.6 41.5 53.1 54.6 45.3 44.4 49.7 52.3 60.2 67.3 73.5 79.4 81.5 75.5 69.2 67.4 62.5 55.4 51.4 48.7 45 40.9 40.9 40.8 41.2 41.6 42 44.4 54.3 51.1 52.8 57.1 59 59.5 60.6 62 59.8 59.5 58.3 54.4 49.6 47.4 47.7 49.2 55.8 62.9 68.3 72.5 76.1 77.5 79.8 79.6 76.2 74.5 76.6 79.7 83 84.8 86.6 88.7 89.3 92.9 100.7 106.3 113.9 120.6 125.8 129.6 132.4 134.1 134.4 135.5 138.5 141.2 145 146.9 149.1 150 150.7 149.5 148.2 146.2 146.5 148.4 149 149.2 149.7 149.8 150.6 151.5 152.2 153.5 153.7 153.2 152.6 151.7 150.1 147.7 147.7 146.7 144.8 142.5 141.6 140.2 138.1 136.1 134 132 130.2 129.3 130.3 132.2 134.4 137.8 143.3 150.9 156.5 161.3 166.4 170.9 173.6 177.2 181.7 187.9 193.8 202.1 208.3 214.2
47.5 41.7 37.8 37.2 35.9 35.4 33.9 38 44.4 48.8 54.2 58 57.6 55 54.2 58.1 60.9 62.3 55.3 56.1 58.8 59 60 63.9 66.4 64.6 67.3 69.5 70.6 71.2 73.7 73.1 65 50.2 44.5 32.9 20.9 14.6 12.2 12.4 14 22.8 31.7 30.7 39 50.3 59 65.2 71.3 77.1 80.5 81.4 82.2 83.4 80.8 75 64.2 57.7 53.6 51.2 50.1 52.5 54.3 57.4 61.8 65 66.9 64.2 56.7 49.7 43.1 40.8 40 39.2 46.2 54.7 51.5 46.1 48.8 57.1 63.6 69.4 75.1 79.1 81.2 79.6 72.5 68 62.2 54.3 52.6 52.8 47.3 41.2 40.5 38.8 41 41.4 41.8 46.2 50.7 55.9 51.4 52.2 57.1 59.4 62.4 62.7 58.2 54 53.8 54.5 49.7 47.5 47.7 48.5 52.1 61.6 69.3 75.6 81.6 82.4 82.3 81.6 80.2 77.6 79.2 81.8 83.1 84.6 89.2 90.4 91.5 98 100.2 108.4 116.4 122.3 126.6 129.9 134 137.3 137.9 136.8 139.8 142.9 144.9 146 146.8 147.9 148.5 149.2 148.5 146.4 146.7 149 150.1 150.9 151.9 152.7 153.4 155.2 156.5 157.7 158.7 158.7 158.3 157.7 156.2 153 152.1 151.6 150 148 146.1 144.2 142 139.7 137.3 134.5 132.7 131.3 131.3 132.5 134.8 138.4 143.5 152 158.2 162.3 167.2 171.1 174.3 178.3 182.2 188.1 194.1 200.9 207.6 213.9
37.8 35.2 35.9 35.8 34.5 41 39 46.2 49.2 50.1 55 57.6 58.1 55.1 56.6 56.7 57.3 59.5 57.4 56.8 58.7 59.1 61.8 65.2 68.7 67.8 68.5 70.5 73.1 74.5 77.7 78.2 71.3 57.1 44.8 32.5 21.8 15.8 12 11.9 12.6 14.9 26.7 30.8 38.1 48.7 61.6 69.7 77 84.6 90.8 95.7 96.9 90.7 86.2 80.1 71.5 62.1 55.6 52.4 51.6 52.1 53.1 55.7 60.3 66.6 72.4 74.3 66.5 55.4 47.3 41 39.9 39 38.4 47.6 53 47.4 47.3 56.4 62.8 68.7 73 75.3 76.7 77.9 73.4 66.1 60.9 54.4 50 52.5 48.6 41.5 40.5 38.7 40.9 41.3 41.6 44.1 51.1 56.4 55.9 50.9 52.2 54.3 60.5 66.9 60.3 57.9 52.8 50.8 48.4 47.5 47.9 49.1 52.3 59.7 69 79.1 83.4 84.1 83.9 83.1 81.8 80.6 82 83.5 83.6 84.9 89.2 90.5 93.3 97.3 102.6 108.5 117.8 123 127.9 130.4 135.1 138.5 139.6 140.1 139.6 143.1 144.3 145.8 145.5 145.7 147.7 148 147.9 146.6 147 153.4 152.9 153 153.5 154.7 156.3 158.4 160 161 162.4 163.2 162.8 162.6 162.7 159.9 158.1 156.9 154.9 153 151 149 147 144.5 141.5 138.7 135.9 133.3 132.5 132.7 135.9 139.4 142.9 151.4 157.2 163.2 167.6 171.2 175.3 179.5 183.4 188.2 194.2 200.5 207 213.9
36.6 38.9 42.6 42 41.2 42.6 44.4 53.2 53.4 51.9 55.1 55.8 56.5 55.7 58.3 60.3 60.5 60.6 60.6 58.6 59.8 63.8 66.1 68.5 70.8 71.2 70.1 70.3 73 76.4 82.6 87.9 75.8 57.2 39.1 32.9 22.4 13.4 11.4 13 12 12.4 19.4 28.1 39.3 52.2 63.9 73.8 83.8 90.1 94.9 104.5 106.8 102.3 97.5 95.8 81.2 71.2 63.6 59.1 53.3 49.8 50 52.6 56.8 62.4 72.5 81 80.4 61.2 50.8 43 39.7 38.8 38.7 38.4 45.1 46.2 45.1 51.6 58.1 65.6 68.8 69.4 70.1 70.7 68.7 63.5 58 52.6 48.4 48.2 47.4 40.6 40.6 40.3 40.4 40.8 41.3 41.6 52 52.9 56.5 52.6 49.4 51.8 55.1 61.1 64.1 60.3 54 50.7 49 47.1 48.6 50.3 52.4 57.6 67.1 77.7 84.9 85.4 85.1 83.9 82.4 81.4 82.5 84.4 85.6 86.6 89.1 90.8 93.5 97.8 103.8 109.6 117.2 122.2 126.7 131.4 135.4 138.4 140.4 141.2 141.1 140.7 142.6 144.5 144.7 144.8 145.5 146.5 147.2 146.2 147.7 152.9 153.4 153.3 154.3 157.1 158.5 160.8 162.8 164.4 166.1 167.1 167.2 166.7 166.3 165.7 164 161.8 159.7 157.6 155.5 153.5 151.5 148.8 145.8 142.9 140 137.2 133.7 133.6 137.3 140.7 144.4 148.6 155.9 161.5 167.3 171.9 175.9 179.9 184.2 188.2 193.7 199.7 206.1 212.6
36.7 42.5 50.9 52.8 48.9 44.7 45.7 50.5 54.6 52.9 53.9 55.5 55.4 56.7 59.9 62.2 60 59.7 62.1 63.7 65.2 66.5 69.3 70.6 72.6 74.9 70.7 69.8 70.4 74.5 85.1 91 79.7 57.2 36.2 30.1 21.7 11.2 11.3 11.9 11.8 12.4 18.2 26.8 39.3 53.9 64.8 75.6 87.2 98.5 107.4 110.5 111.4 108.5 103.6 103.2 90.2 79 70.9 66.1 59.4 54.1 48.7 49.4 52.7 57.7 65.8 77.1 81.6 72.6 55.6 47.9 39.7 38.5 38.3 38.2 38.3 41.6 42.3 46.3 49.6 59.6 62.6 62.7 62.7 62.1 62 59.4 54.7 48.6 46.8 44.3 42.6 40.6 40.5 40.2 40.3 40.8 41.2 41.2 50.7 52 51.7 52.9 48.3 48.6 52.7 59.6 61.6 60.2 56.7 52.9 49.8 48.3 49.8 51.5 55.1 58.9 68.1 76.6 83 86.5 86.6 85.2 82.3 81.9 83.2 85.4 87.8 88.9 90.3 91.1 95.8 98.8 104.4 108.9 115.1 120.9 127.4 132.8 135 138.3 140 140 140.1 140.8 141.3 142.2 143.2 143.9 144.2 144.9 145.5 145.7 147.4 152.2 152.3 152.5 154.5 158.8 160.9 163.3 165.1 167.2 169.8 171.2 171.8 170.6 169.8 169.2 168.1 166.1 164 161.8 159.7 157.8 155.8 153.2 150.5 148 145 142.7 140.7 139.9 140.8 142.4 147 146.8 153.7 162.1 166.3 172.2 176.2 180.3 184.5 188.6 193.7 198.8 205.3 211.6
36.7 44.3 52.6 60.7 57.2 48.7 47.5 51.3 53.8 54 56.2 56.7 56.9 56.6 60.7 62.7 60.9 62.9 64.7 68.1 69.8 71.7 71.7 72.3 72.8 75.4 71.8 70.2 67.4 69.3 77.9 79.8 72.7 56 36.6 30.7 24.3 9.1 11.9 11.7 11.5 11.9 14.5 25.5 38.9 53.1 62.1 75 92.4 104.7 110.4 117.9 118.3 114.5 106.6 100.4 93.3 85.4 77.8 71.5 63.7 57.7 51.7 49.2 49.2 52.6 58.1 65.9 74.1 71 55.8 51.6 39.8 38.4 38.2 38.1 37.9 40 41.1 42.3 43.8 51.5 55.6 54.1 52.6 52.2 54.3 52.9 47.9 44.3 43.3 41.6 40.4 40.5 40.1 38.7 40.3 41 41.6 41.5 42.4 50.9 50.1 49.2 47.5 47.7 48 51 59.3 58.8 54.2 53.1 49 48.9 51.3 53.8 56.9 62.6 69 76.7 82.9 85.6 86.3 84.1 81.8 81.7 84.3 88.3 88.5 92.4 91.4 93 98.5 99.3 103.8 108.2 114.6 120.9 128.3 133.1 135 137.8 138.6 139 138.6 139.4 140.3 140.5 141.3 141.8 141.9 142 143.6 142.8 147.5 150.2 151.4 151.7 154.6 159 163 165 167.2 169.9 172.3 174.6 175.8 174.9 173.2 171.9 171.5 170.1 168.2 166 163.9 162.1 160.1 157.7 155.5 153 150.9 148.9 148 147.4 144.6 145.1 148.6 152.1 160.1 161.8 164.1 170.4 176.4 180.7 184.8 189 193.7 198.8 204.2 210.2
37.6 43.8 53.3 59.5 63.8 53.6 48.7 53 53.7 55.2 57 59.8 61.1 59.8 63.4 63.1 65.1 69.1 74.5 75 76.1 75.7 74.9 74 72.9 72 71.3 70.4 66.6 63.7 64.1 65.8 65.4 53.3 36.8 35.8 26.6 14.8 11.8 11.6 11.4 11.4 12.2 23 37.7 49.5 58.5 71.6 88.5 105.8 115.6 122.2 128 120.7 111.3 105.3 98.7 91.9 85 76.4 70.2 62.1 56.2 51.9 48.2 48.1 53.2 55.7 64.4 61.8 52.7 46.1 39.3 38.3 38.2 38 37.8 40.8 42.2 41.3 43.2 47.7 50.2 49.2 49.8 49.6 50.2 49.5 47.6 45.8 43.9 41.7 40.5 40.2 40.2 40.3 40.2 40.8 41.3 43.1 43.6 42.6 47.1 48.2 48 46.4 47.5 48.6 49.9 50.2 53 50.5 48.8 50.6 53.2 55.6 58.8 63.8 68.1 75.6 82.9 84.6 84.4 82.8 81.1 80.4 87.1 88.6 88.6 94.3 95.2 95.2 97.5 99.1 103.1 106.4 110.4 121.2 127.7 132.3 134.6 136.6 137.1 137.7 137.3 137 138.3 140.3 140.9 140.3 140 141.4 140.4 141.1 144.1 147.2 149.4 150.9 154.7 158.6 162.5 166.6 169.8 172.3 174.7 177.2 178.7 179.1 177.2 175.7 174.5 173.8 172 170.2 168.2 166.1 164.2 161.9 159.8 157.6 155.3 153.2 152.8 150.5 148.1 146.4 146.8 147.8 150.4 152.9 160.8 167.8 175.5 180.9 185.2 189.4 194.4 199.5 204.3 210.3
37.9 44 52.2 58.9 62.8 55.6 49.7 53.9 54.9 54.9 56.9 62.9 66.9 65.4 64.2 64.6 68.7 77.3 81.4 80.6 80.8 79.7 77.9 77.6 77.9 74.2 71.4 69.7 65 61 57.7 58.1 59 50.2 38.7 28.7 24.8 17.3 9.1 11.5 11.3 11.5 14.1 20.5 34.8 46 57.2 69.5 82.5 97.5 110.2 123.5 132.6 126.7 117.5 112.9 104.9 98.9 92.9 84.4 77.3 69.5 59.4 54 48.2 45.9 46.8 49.6 49.9 51.3 49.5 44.7 39.4 38.3 38.3 38.3 38.4 39.5 43.7 45.7 44 48.6 50.4 51.3 52 52.5 52.7 50 48.7 46.6 44.2 42 40.8 40.6 40.5 39.8 39.9 40.6 40.9 41.5 46.1 45.3 45.5 46.1 47.6 45.6 44.8 53.2 50.3 49 49 47.8 49.3 52 53.9 57 61.1 65.4 69.5 73.8 82.4 83.4 82.8 82 80.4 80.2 85.1 86.8 88.4 93.5 95.1 98.2 98.1 101.3 102.8 105.3 109.8 118.2 125.7 130.7 133.5 135.2 134.9 135.5 135.3 135.2 136.7 138.5 140.1 139.8 138.6 140.3 139.2 138 140.8 143.5 146 150.4 154.4 159.3 164.3 168.4 171.6 174.2 177 179.7 181.7 182.5 181.5 179.9 179.1 177.6 176 174.1 172.1 170 168.2 166.2 164 161.9 159.6 156.8 155.1 153.9 151.9 149.6 148.8 148 149.3 152.1 157.8 165.3 173.4 180.9 185.5 190.1 195.5 200.3 205 210.1
38.7 41.3 50.5 57.4 61.1 55.8 49.9 53.4 55.4 56.2 57.2 62.5 68.3 70.2 63.6 66.6 74.2 82.4 86.9 91.1 88.2 86.5 81.5 80.1 81 78.9 73 69.7 66.4 58.7 54.5 52.6 50.8 45 36.1 28.5 26.8 21.9 14.8 11.1 11.1 11.2 14.6 21.5 33.6 41.9 54.7 65.1 76.4 91.2 103.1 116.8 129.7 130.3 124.3 119.9 110.5 106.5 100 92 85.1 76.9 65.6 54.4 48.1 44.5 44.5 45.9 47.9 48 48.7 44.9 40.7 38.3 38.3 38.3 38.3 39 43.1 47.5 47.3 48.7 53.1 53.7 54.2 54.6 53.4 50.5 47.7 46.6 44.5 42.5 40.8 40.6 40.3 40 40.4 40.6 40.7 41.7 41.8 43.6 43.9 44.7 45 44.7 45.1 47.2 51 46.9 46.5 48.6 51.1 53.1 55.5 58 61.8 65.8 68.4 71.8 77.5 80.9 83.5 82.5 79.7 78.6 81.4 84.2 88.3 91 97.8 99.5 99.9 101 102.6 105 109 114.3 120.8 128.2 132.2 134.6 134 133.6 133.6 133.8 134.7 136.2 137.7 138.6 137.5 136.4 137.2 135.2 136.8 139.5 142.4 149.6 154.3 159.6 165.4 170.5 173.6 176.5 178.4 181.8 184.7 185.8 185.6 184.2 182.9 181.4 179.9 178.2 176 174 172.3 170.4 168.2 166.1 163.5 160.3 157.5 156.3 155.5 153.2 151.8 151.3 150.7 151.8 156.5 162.9 171.5 180.3 185.1 193.2 199.2 203.3 205 210.1
39.1 41.3 48.4 55.2 58.2 54.9 49.9 54.7 59.8 57.2 58.3 61.5 66.1 69.6 64.3 68.8 78.3 84.8 93 95.9 94.8 91.9 86.7 83.6 82 77.7 73.1 68 63.7 57.6 53.9 50.8 46.7 42.8 35.9 30 26.6 21.5 16.4 10.6 11 11.2 12.2 18.7 28.3 39.1 50.8 60.5 69.2 84.1 97.3 107.1 118.6 123.9 129.4 119.2 114.5 115.3 110.1 103.1 96.2 82 71.7 57 48.5 43.2 42.5 44.8 49.7 47.7 46.2 45 41.1 38.3 38.3 38.3 38.3 37.8 40.5 45.7 46.9 49.6 54.8 55.5 55.2 55.7 54.3 50.7 45.7 46 45 43 40.5 40.4 40.1 40.3 41.1 41.2 41.4 40.9 40.9 42.4 42.6 42.8 42.6 44.2 43 43.1 43.2 46.2 45.3 49.6 52.7 55.6 58.3 59.3 60.8 63.3 66 69.4 75.3 78.8 81.7 80.8 78.4 77.2 79.2 82.6 86.4 89 95.9 100.6 101.8 101.4 102.8 105.4 108.2 111.2 116.5 124.4 129.1 132.1 132.2 131.9 131.9 132.5 133.1 134.3 135.1 136.1 136 135.3 133.7 132.9 137 140.6 143.5 148.7 153.9 160.5 166.7 172.3 175.6 178.4 183 184.4 186.3 187.7 187.9 187.5 186.6 185.1 183.7 181.9 180.1 178.1 176.4 174.6 172.5 170.4 168.4 164.9 160.4 160 158.8 157.4 156 154.5 153.7 153.4 156.3 159.9 168.6 177 184 189.3 194.5 199.3 201.4 207.2
37.1 39.4 45.1 50.5 53.6 52.7 51 52.9 59.7 62.5 62.5 65.6 60.7 64.1 63.9 71 80.3 86 95.1 95.5 96.2 94 90.6 87.8 84.7 79.9 74.8 68.7 61.2 56.6 53.8 51.7 48.3 45.2 37.8 29.2 24.3 20.1 14.4 12 10.9 11.1 12.3 16.6 24.1 34.1 45.8 55.5 64.4 75.7 88.5 99.6 110.8 117.6 121.1 116.1 119.1 120.4 116.4 115.8 105.2 89.8 74.8 60.8 50 43.2 41.6 43.4 47.4 48.1 48.2 45.2 41.2 38.1 38.3 38.3 38.3 38.3 39.9 42.1 44.6 48.1 53.8 57.2 55.6 55.6 55.1 51.9 48.2 46.1 44.9 43.1 41 40.9 40.7 39.7 40.9 42.6 42.4 43.2 44.6 44.8 42.2 42.6 44.4 42.6 41.8 42.7 46.2 44.8 47.6 52.2 55.4 59 61.1 60.9 61.1 62.8 64.2 68.2 73.1 76.3 78.8 78.5 77.2 76.2 78 81.9 85.9 89.5 96.1 99.8 100.2 101.6 101 105.2 109.8 111.2 112.9 118.6 125.1 128.9 129.9 129.2 129.5 130.2 131.3 131.9 132.2 132.7 132.6 131.8 130.2 131.5 136.2 141.7 145.1 148.7 154.5 161.1 167.1 173.1 176.6 179.9 183.6 186.6 187.5 188.7 189.5 189.4 188.9 188.4 186.5 185.2 183.9 182.2 180.6 178.9 176.8 174.7 172.8 169.6 165.1 164.8 163.4 161.8 160.4 159 157.4 156.1 156.5 159.3 165.3 173.5 182.1 187.5 191.8 195.4 198.8 203.9
42.1 40.1 40.2 43.3 48.7 50.7 50.5 51 55.3 62.9 64.7 64.4 58.9 59.3 65.7 75.8 81.3 88.1 93.2 95.7 98.4 96.7 94.3 92.2 87.3 82.8 76.6 68.5 62.1 57.5 54.8 53 50.8 51.2 49.8 37.6 23.3 17.1 13.3 11.4 10.9 8.7 11.8 16 22.6 33.6 42.6 51.1 60.1 68.5 81.5 92.2 102.2 109.9 112.3 112.4 112.4 117.7 116 117.5 107 95 81.1 64.4 53.5 43.9 41.1 42.7 47.5 48.5 48.8 46.7 43.4 39.3 38.3 38.3 38.3 37.9 39.9 41.5 43.8 44.7 50.2 52.9 53.7 54.8 54.2 51.3 46.3 45.3 44.4 42.3 41.1 40.5 40 40.1 41.2 44.9 48.2 50.6 49.6 42.8 43.6 43.7 45.8 45.9 44.2 45.9 47.9 51.4 53.8 57.6 62.7 64.9 67.5 67.4 67.1 67.1 65.5 66.2 71 74.3 76 75.7 75.1 74.8 76.9 80.3 83.9 90.2 96.1 100.5 100.6 100.6 101.1 101.6 106.5 108.9 110.9 114.9 120.1 124.8 127.3 126.5 125.9 127.1 127.7 127.8 127.8 128.2 128.9 129.3 127.4 130.7 134 141.4 144.2 148.7 153.2 160.5 167.1 172.9 176.7 180.3 183.8 186.6 187.8 188.1 189.2 190.4 190.6 189.7 189.7 189.1 187.5 185.8 184.7 183.1 181.1 179 176.5 173.6 171 169.8 168.4 166.8 165.3 163.7 162.2 160.9 160.2 160.5 163.5 169.9 179.1 184.3 191 192.8 197.3 202.5
44 41.2 39.9 40.1 44.5 46.6 49.2 51.9 51.1 55.4 60.9 58.7 56.7 58.4 64.6 72.4 79.5 86.3 93.8 100.1 101.6 102.9 100.1 97.1 92.9 87.3 83.4 69.6 63.6 58.8 56.5 55.3 52.7 51 51.8 45 30.6 17.8 13.1 11.3 10.7 10.3 11.3 14.5 22.6 31.6 39.1 47.3 59.1 64.1 74.3 85.5 94.6 101.1 103.7 108.6 106.8 108.1 112.4 112.8 111.9 101.2 81.5 66.1 55.9 44.9 40.5 40.9 45.7 48.3 50.9 50.2 45.1 41.4 39.3 38.4 38.3 38.1 38.7 41 45.2 45.9 51.4 52.6 53 53.6 52.1 49.5 46.5 45.1 43.6 42.4 41.1 40.5 40.4 39.9 41.1 44.8 43.2 51.3 50.5 49.9 47.5 46.4 46.7 45.5 45.3 47.4 51.1 56.6 64.8 68.3 71.7 75.3 76.7 75.2 72.1 74.4 72.8 68.8 69.5 73.5 74.6 73.8 73.7 74.8 76.6 80.1 83.9 90.7 97.3 98.8 100 102.6 100.7 100.1 103.7 106 108 111.9 114.8 117.7 122.7 123.8 123.2 123 123.6 123.7 123.3 123.8 125.1 126.4 125.1 128 131.7 138.7 143.1 147.6 153.7 160.6 166.7 172.2 176.8 179.6 183.5 186.6 188.5 188.2 189.2 190.9 192.3 192.1 192 191.2 190.3 188.8 187.7 186.7 184.9 182.8 180.3 177.7 175.9 174.8 173.4 171.8 170.2 168.5 166.7 165.6 163.3 161.4 163.7 167.9 174.9 181.4 187.5 191.4 195.5 201.3
44 41.7 40.5 40.9 41.9 46.4 51.4 50.1 49.5 49.7 54.6 54.6 55.1 59.3 66.9 75.9 82.8 86.8 93.9 100.6 105.7 107.1 107.5 102.1 99.1 96.3 92.5 78.5 65.5 59.2 56.8 56.5 54.6 50.6 50.7 44.2 32 19.2 12.6 10.9 10.7 10.6 10.3 13.1 18 24.2 31.1 39.6 53.3 60.1 69.2 81 88.7 93.4 96.1 101.7 103.1 103.2 105.7 108.1 110.9 101 84.3 70.4 61 47.9 40.8 39.6 41 44.1 51.7 55.2 49.8 44.3 40.3 38.6 38.4 38.3 39 39.1 44.7 47 50.2 53.4 54.4 55 53.3 46.9 46.9 44.9 43.4 41.1 41.3 41 40.7 39.4 40.9 44.9 45.2 44.2 47.4 46.1 46.5 47.4 44.7 46 45.8 48.2 52.5 61.7 71.4 80 82.2 83.8 86.4 85.1 81.7 79.5 78.7 74.3 70.1 71.6 72.3 72.8 72.9 74.3 76.6 80.2 84.4 89.5 94.6 96.7 99.1 102.5 102 98.6 100.8 103.4 104.9 108.2 111.9 114.1 115.8 119.8 120.2 120.4 118.8 120.1 119.6 120 120.7 122.7 123.6 124.7 128.3 134.3 140.3 146.2 154.3 160.4 166.2 171.5 176.4 179.8 182.8 186.4 188.5 188.8 189.8 191.7 193.1 193.3 193.4 193.5 192.5 191.5 190.7 189.7 188.2 186.6 184.3 182.2 180.9 179.6 178.4 176.7 175 173.3 171.6 169.4 167 164.5 164.1 167.2 172 178.1 184.9 188.5 193 198.1
47.6 44.3 42.3 41.5 45.9 44 51.5 49.5 49.4 49.8 51.7 53.7 55.4 57.9 64.2 75.1 88.2 88.9 92.6 101.8 111.2 112.7 110.2 110.5 108.2 101 95.2 88.4 74.1 60.4 57.2 56.4 56 52.4 46.3 40.1 28.5 18.7 11.9 10.5 10.7 10.7 8.7 11.4 15 20.3 28 34 45.3 54.5 65.5 81.2 88.4 87.5 91.1 95.5 99.9 99.1 97.8 103.2 105.7 99.4 87.4 72.6 64.7 54.6 43.7 39.2 39.2 42.7 52.4 57.8 53.8 46.3 41.8 39.4 38.6 39.1 39.8 39.2 40 44.8 49.7 52.4 54.1 56.4 55.9 53 47.4 44.9 43.4 41.6 41.4 40.5 40.2 38.3 40.5 41.4 43.7 44 45.1 46.1 45.9 50.1 49.9 47.5 46.9 49 55.5 64.2 73.9 86 90.5 93.5 96.2 96.4 91.1 89.1 86.1 80.2 73.9 71.8 71.6 71.9 72.6 73.9 75.8 79 83.4 87.8 92.4 94.6 97.5 99.9 101.1 97.8 97.6 99.9 102.6 106.6 110.1 112.7 112.7 114.1 115.9 117.1 115.7 116.4 116.4 117 117.4 121.3 120.6 122.3 125.7 131.9 137.3 144.8 153.6 160 165.3 170.6 175.8 179.6 182.7 186.1 188.1 189.3 190 192 193.5 194 194.3 194.8 194.1 193.5 193.2 192.5 191.5 190 188.8 187.6 186.6 185.4 183.9 182.1 180.3 178.2 176.5 173.9 170.5 167.6 164.2 166.5 170.5 175 180.9 186 192.4 199
46.3 46.1 47 45.8 48.6 50.4 48.5 49.4 49.4 52.3 55.5 56.5 56.5 58.1 62.3 73.3 86.7 94.1 90.6 101.4 112.4 115.3 110.1 111 115.7 104.5 97 89.8 78.5 62.4 57.8 54.8 54.1 52.9 48.3 40.7 32.3 20.3 20.2 10.5 10.9 10.5 10.4 10.5 12.5 17 24.4 29.1 38.7 50.8 61.7 73.6 84.9 85.1 89.4 92.6 95.1 95.1 94.7 97.2 99.4 94.6 83.2 72.8 65.8 57.7 47.2 40.8 39 42.1 52.4 58.7 57.9 49.7 42.6 40 39.2 39.6 41 38.7 39.1 43 47.5 52.2 55.5 55.4 55.6 53 46.4 44.3 43.1 41.6 40.7 40.4 40 39.9 40.2 40.7 43.4 43.2 44 44.9 44.7 46.4 47 47.1 48.8 51.2 57.4 66.8 77.4 85.7 96.1 102 107.4 109.1 105 100.2 94.5 87.6 80.4 76.4 73.7 71.9 72.3 73.2 74.9 76.6 80.4 84.9 89.9 95.5 95.3 96.9 97.7 97.2 95.1 96.5 100.2 104.8 109.8 113.4 112.9 111.3 112.2 112.9 113.2 112.6 113.7 114.8 114.1 118.6 117.3 120.1 124.4 132.2 137.8 143.6 152.5 158.6 164.2 168.9 174.4 179.3 182.9 185.5 187.4 189.1 190.8 192 193.6 194.1 194.3 194.5 195.1 195.2 195.2 195.4 194.9 193.8 193.1 192.9 192.2 191.1 189.5 187.6 185.8 184.4 181.3 178.4 175.3 171.7 168.4 168.4 169.7 172.5 177.6 184.4 190 196.6
51 47.2 51.8 49.5 44.5 48.9 48.8 48.5 51 54.3 57.4 60 61.1 59.3 60.3 65.9 77.5 84.9 89.1 97.6 111.2 116.9 116.4 109.4 111 105.7 99.1 90.7 79.1 64.3 58.8 56.6 57.4 58.7 56.5 52.4 46.6 37.3 25.3 13.6 10 9.9 10.3 10.9 10.9 13.1 20.1 26.8 33 45.4 58.9 68.4 76.4 81.1 86.8 89.6 90.8 92.2 92.3 89 95.4 92.3 82.2 74.2 66 58.1 49.9 40.6 37.8 41.4 49 55.4 60.9 54.9 45.5 39 39.7 38.4 37.6 38.4 39.7 43.7 43.9 49.8 54 54.5 53.8 52.4 49.3 45.5 42.7 41.1 40.7 40.4 39.9 39.7 40 40.2 41.1 41.9 42.5 43.8 44.4 45.3 46.6 48.2 50.2 54.1 60 69.5 80.3 87.6 96.9 105.5 112.4 117.4 117.2 112.2 107.1 98.1 91.4 87.4 79.6 73.7 73 72.3 72.8 73.5 76.1 80.5 85.8 89.2 91.7 93.3 95 94.9 94.2 94.7 98 103 109 113 112.4 110.6 109.1 108.7 109 110.4 111.7 112.8 112.6 116.4 116.7 119.3 123.7 132 138 143.8 150.8 156.9 162.6 167.6 172.7 178.4 182.6 185.1 186.9 187.7 190.9 192 193.1 194 194.3 195.2 195.9 196.2 196.9 197.9 197.9 197.9 197.2 197 196.8 196.6 195.1 193.2 190.9 188.6 185.9 183.1 180.2 176.3 172.8 171.7 169.6 171.4 174.7 181.8 187.9 194.1
54.6 51.5 51.6 49.1 50 51.3 49.5 48.5 52.3 55.6 58.1 60.6 61.5 60.6 61.9 64.1 69.8 78.7 86.5 93.7 109.6 120.2 125.6 115.7 104 103 100.1 93.8 80.9 65.4 58.4 58.5 61.4 64.4 65.7 66.9 64.2 55.8 42 25.9 10.8 9 9 10.4 10.5 10.9 16 22.2 30.1 40.2 52.8 63.1 66.8 78.8 84.5 87.3 88.6 89.4 87.5 86.1 84.7 83.2 77.8 72.5 64.5 56.8 49.4 40.8 36.9 39.3 45.7 51.6 58 56.6 49.4 40.9 39.6 38.8 38.9 41.4 40.2 42.6 43.4 47.5 50.8 52.9 51 51.2 50.5 44.6 42.9 41 40.7 40.3 40 39.7 42.9 37.7 40.4 40.6 41.7 42.6 44 45.4 46.9 49.6 53.3 58.4 64.3 72.5 81.5 89.9 97.8 104.4 114.9 121.6 123.8 120.4 113.7 106.3 99.4 93.5 87.2 78.3 74.8 73.3 72.5 73.3 73.8 75 79.2 83 87.8 88.4 90.7 92.9 94.9 92.8 95.5 98.2 103.9 106.6 108.4 109.2 107.4 106.5 106.8 107.9 111.6 111.3 110.6 110.3 117.1 118.6 123.9 131.3 136.1 143 148.8 154.1 160.8 165.8 170.6 177.1 181.3 184.5 187.2 186.9 189.7 191.6 192.8 194.2 194.8 195.6 196.2 197.2 199 200.1 200.6 201.4 201.4 201.2 201.2 201 200.2 198.7 197.1 193.8 190.3 187.7 184.8 181.3 178.8 175.7 172.9 170.8 173.3 179 186.1 191.6
57.3 57.1 53.2 51.7 54 52.5 50.1 52.6 57.5 59.7 60.1 63.1 63.5 63.6 64.3 64 65.9 77.5 86.6 91.3 101.8 115.4 122.6 120 108.3 99.6 98 95.7 84.2 73 59.9 60.1 67.3 72.9 78.6 82.1 82 74.9 65 47.8 21.6 9.9 10 10 10 10.5 11.3 17.5 25.7 35.8 49 57.4 62.2 75.9 82.4 86.6 88.5 85.4 81.9 81 76.9 78.2 74.8 68.7 62.5 53.3 45.6 38.6 36.1 37.3 42.1 47.6 54 54.9 50.7 40.9 38.9 38.6 38.9 38.9 43.2 43.2 44 44 45.5 44.3 49.2 50 44.7 44.2 42.5 41 40.4 40 40.9 40.5 40.4 40.6 40.2 40.1 41.2 42.6 43.9 45.2 46.7 50.2 54.8 60.3 69.7 75.2 83.7 91.9 99.3 109.9 119.1 126.5 128.2 126.6 119.4 111.4 102.6 97.1 88.3 81.5 77.8 75.4 73.1 72.9 73.4 74.3 76.3 78.8 82.7 85.7 87.4 89.7 92.5 92.2 92.6 94.7 99.2 103.9 104.7 104.8 105.5 105 104.8 105.5 110.7 109.9 108.9 112 113.7 115.7 121.9 130.2 134.1 141.6 146.9 151.8 158.8 164 169.2 175 179 182.1 185.4 186.7 188.4 190.9 192.7 194.9 195.6 195.9 196.2 197.9 199.7 201.4 203.1 203.9 204.6 204.9 205.1 205.2 204.1 202.9 201.3 198.5 195.5 192.3 189.3 186.9 184.1 180.1 176 172.3 171.4 176.9 184.2 187.7
65.1 60.5 56.5 54.8 56.4 53.5 54.8 61.1 65.8 72.8 71.2 69.6 66.1 66.4 67.3 65.9 67.4 74.5 83.4 87.1 97.2 111.6 117.4 118.5 113.8 105.3 94.1 91.3 87.2 79.6 70.5 70.2 76.9 82.6 90.3 95.6 93.5 91.5 83.1 67.7 42.9 19.6 8.4 9.8 9.8 9.9 10.4 13.9 23.3 33.1 48.4 56.2 65 74.1 81.2 86.7 88 87 80.4 76.1 71.6 72.8 73.4 66.5 58.3 48.7 41.9 36.9 35.5 36.4 38.8 42.3 48.5 51.3 50.5 43.2 37.4 38 38.8 38.9 43.2 44.5 44.6 44.2 44.5 44.4 48.2 44.7 44.7 44 42.8 41.1 40.9 42.1 42.2 40.3 40.4 40.4 37.9 39.8 41.2 42.6 43.8 45.1 46.9 50.8 55.5 62.1 69.7 75.6 82.2 92.1 102 110.6 123.3 130.2 132.3 131.2 124 115 105.8 98.2 92.5 87.3 82.6 80.2 76.4 72.5 72.8 74.1 75.9 80.1 84.9 83.8 87.5 89.3 91 93.6 94.2 95.2 97.2 100.7 101.3 103.4 104 103.7 103.4 103.5 109.1 109.1 108.9 110.8 111.9 116 121 126.8 132.4 138.8 144.8 149.3 155.4 161.1 166.5 172.3 176.7 180.5 183.7 184.4 187.1 190.2 192.6 195 196.2 196.2 196.8 198.5 200.2 201.9 203.9 205.3 206.6 207.2 207.8 207.7 207.6 207 206 203.4 200.5 197.5 194.4 191.2 187.3 183.1 178.2 173.1 169.3 174.8 181.2 184.4
70.3 62.5 60.9 59.5 58.8 56 61.7 67.2 71.7 75.1 75.2 73.6 70.3 69 68.8 70.6 72.9 74.6 79.7 84.4 91.4 106.2 114.1 119.3 118.8 112.7 102.3 97.1 92.7 88 80.4 76.8 83.5 93.7 101.2 106 105.9 101.8 96.8 80.6 53.6 29.5 12.7 9.8 9.8 9.2 10.1 12.5 23.2 31.4 42.5 53.6 65.6 71.8 78.8 83.5 87.8 88.8 81.6 75.5 70.1 66.8 67 63.8 55.8 47.3 40.7 36.4 35.2 35.5 35.8 36.5 39.8 45.4 47.6 42.6 36.9 38.6 38.6 42.3 47.7 47.8 44.7 43.7 44 44.6 44.6 48 43.9 43.8 42.1 41.3 41.9 40.5 40.3 40.2 40.3 40.2 37.7 39.6 40.4 42.2 43.5 45.3 47.4 51.4 56.3 63 69.8 75.8 82.1 90.7 100.2 108.7 121.7 132.6 134.1 132.4 126.8 116.6 106.9 99.8 97.1 90.4 86.4 84.2 78.2 74.7 73.8 74.6 76.4 78.5 82.6 89.5 89.5 89.5 89.6 93 93.8 97 97.7 98.2 98.7 101.3 102.1 102.3 102.4 102.6 104 103 107.4 109.5 111.3 116.2 118.8 124.4 130.5 135.6 142 146.4 152.4 158.3 163.8 168.7 173.2 177.4 181 182.7 185.5 188.8 192 193.8 196.2 196.3 197.7 199.2 200.7 202.4 204.4 205.2 206.6 208.3 209.9 210.3 210.6 210.5 209.5 208.1 205.2 202.1 198.9 195.4 190.6 185.6 180.3 174.6 168 171.9 177.7 180.6
74.6 69.6 65.2 66.2 61.3 60.5 64.9 70.3 75.1 78.2 77.3 76.1 73.7 71.7 70.1 72.3 73.4 76.8 79.4 84.4 89.8 100 111.3 117.5 119 118.7 115.9 111.4 99.4 92.2 88 82.8 90.6 100.1 114.7 124.6 125.2 113.3 95.1 69.2 46.8 25.5 18.5 8.4 9.7 9.6 9.4 13.3 23.3 31.5 40 49.3 60.9 68.7 74.7 80.1 85.5 87.4 83 75.4 69 63.4 61.4 59.8 55.3 48.5 41.2 36.1 35.1 34.6 34.6 35.2 35.5 39.8 42.5 42.4 35.4 39.5 40.3 42 53.3 49.7 48.9 43.7 43.6 44.3 44.6 43.7 43.2 42.8 41.8 41.7 40.6 40.5 40.1 40.1 40.1 40 39.8 39.5 40.3 41.7 43.8 45.4 47.6 51.2 56.7 63.1 71.2 77.8 85 91.7 98.9 106.4 116.1 129 136.9 133.5 126.2 118.9 111.2 101.2 97.3 92 86.7 82.1 78.4 75.8 75.5 77.7 78.8 79.8 80.5 85 85.5 85.1 84.7 86.7 89.8 91.4 95 97.5 97.3 99.1 100.3 100.8 101.3 102.1 102 103.4 105.2 106.1 108.5 112.8 116.8 121.3 127.6 133.2 139.2 143.7 149.5 155.2 160.6 165 169.3 173.5 176.8 179.6 183.4 187.7 191 194.2 195.6 196.6 197.9 199.4 200.8 202.3 204.9 205.4 206.3 208.6 210.3 212.3 212.6 213.6 213.2 211.8 209.5 206.5 203.3 199.7 195.2 188.4 182.1 174.6 166 169.7 175.1 177
80 75.4 69.3 68.7 65.5 64.4 67.7 71.4 78.9 84.6 83 80.7 77.8 78.8 77.8 74.3 75.4 77.2 80.6 84.8 89.4 95.1 110.4 117 121.2 127.6 124.3 116.9 114.1 98.5 87.1 83.5 89.8 100.3 115.4 125.3 126.7 108.5 79.4 49.7 34.8 17.6 14.1 9.9 9.5 9.6 9.6 14.7 23.7 29.9 37.1 46 57.1 65.2 72 77.1 79.6 82.7 82.2 75.7 70.1 64 59.1 56.5 53.2 47.7 42.1 38 35.8 35 34.3 32.9 31.4 34.1 38.5 36.7 33.5 37.9 40.4 42.1 46.2 50.9 52.5 46.8 43.4 43.5 43 42.7 42.5 44.2 41.2 40.7 40.4 40.1 40 39.9 38.2 39.8 39.2 40.1 41 42.3 43.9 45.3 47 49.9 56.3 62.3 70.6 79.2 86.1 93.7 102.4 106.7 110.9 122.3 131.1 131.9 127.8 122.7 114.1 103.1 96.1 91.3 87.5 83.4 79.6 76.9 76.6 79.6 81.2 83.1 83.7 83.4 83.7 84.4 85.5 87.1 89.5 91.2 92.2 93.7 95.1 97.3 99.9 99.7 100.5 100.9 101.1 101.8 104.4 105.2 106.3 107.5 112.7 117.8 123.3 128.9 135.8 140.8 145.6 151.8 156.5 160.9 165.4 169.4 172.8 176.3 180.7 186.8 190.4 193.7 195.4 196.8 197.8 199.3 200.8 202 203.5 205.2 205.9 209.2 210.8 213.2 214.8 216 216.4 214.7 213.3 210.1 206.6 204.2 200.8 194.6 184.6 176.1 167.8 167.7 171 172.2
83.6 79.7 71 67.5 69.7 70.8 72.1 75 81.3 87.5 86.9 83.8 82.4 86.5 84.6 81.7 78.9 76.9 78.9 82.9 89.2 95.6 105.5 113.3 128.1 133.6 130.6 125.2 128.6 113.7 93.2 84.2 86.2 95.9 105.7 113.3 112.5 92.3 65.7 42.4 24.2 13.1 10.3 17.7 9.3 9.8 9.9 17.1 24.7 31.4 38 44.8 53.6 61.7 69 73.5 74.9 78.1 79.2 73 67.7 65.7 59.5 55.7 51.5 46.9 41.4 37.7 36.1 35.4 35.9 32.4 29.7 30.1 31 31.7 32 35.1 37.1 40.4 44.1 48 52.6 44.6 43.9 42.5 45 46.2 44.4 41.8 40.9 40.7 40.4 40.1 39.8 38.8 39.5 40.3 40.2 40.4 41.3 42.3 43.8 44.9 46.5 50.1 56.5 63.1 69.5 79.1 87 95.7 102.8 107.5 108.2 111.9 124.7 129.8 126.2 122 112.4 102 96.1 92.1 88.4 83.1 79.8 80.4 79.8 79.7 81.6 83.1 86.2 86.9 86.8 86.8 86.7 88.7 91.8 96.1 94.8 97.1 94.6 96.2 97.9 98.2 98.9 99.2 100.1 100.9 101.7 103.8 104.8 106 108.7 114.7 120.4 123.9 131.9 137.6 141.7 147.2 152.3 156.5 160.8 165.6 169.4 173 177.5 183.8 189.3 192 195.2 197 198 199.2 200.7 201.6 202.3 204.4 205.5 209.2 211.3 213.1 215.1 216.5 218.4 217.5 216.6 212.4 209.5 206.8 203.7 196.4 186.1 177.1 169.1 163.2 167.8 168.1
86.2 83.1 74.2 69.4 74.7 77 79.4 81.5 85.3 95 91.3 88.3 88.3 91.1 91.1 92.4 90.3 84.1 82 82.2 87.7 91.6 100.6 113 125.4 130.8 129.7 131.9 137.1 128.7 107.3 89 83.8 91.2 100 103.2 99.3 86.8 59.4 37 20.4 11.1 10 9.9 7.7 9.6 12 19.7 26 31.6 37.4 42.4 50.6 59 65.3 70.1 71.5 72.8 74.1 75.2 69.2 64.3 60.6 55.9 51 45.7 40.4 36.5 35.7 36.3 36.2 28.9 29.3 29.7 35 33.5 30.3 30.7 34 39 40.6 41.1 42.8 41.5 39.2 39.6 44.8 46 45.9 42.1 41 40.7 40.4 40.1 40 38.7 39.7 40.7 41 41.2 41.5 42.3 43.3 45.8 47.9 50.3 56.6 64.4 71.7 79.7 86.4 96.7 104.4 108.7 109.9 109.1 118.8 123 119.7 116.5 110.5 103.9 97.5 92.5 88.4 83.2 79.9 79.9 79.9 79.9 79.9 83.2 87.1 87.2 87.8 88 88.7 91.4 95.2 98.7 96.8 98.5 97 98.1 97.5 96 98.1 98.8 98.8 99.3 99.5 102 103.4 104.8 106.4 109.9 117.3 120.8 128 133.1 136.8 141.4 148.7 153.2 156.7 161.1 166.6 169.3 175.3 180.9 185.7 190 193.8 196.2 198.3 199 200.6 201.7 202.4 202.8 204.9 207.5 211.2 212.7 214.8 216.4 217.8 218.2 217.6 214.9 211.8 208.4 204.6 199.2 189.3 179.1 172.4 162 163.4 164.2
88.6 86.8 78 72.9 79.7 83 84.9 87.9 90.5 98.3 99.6 93.8 94.5 101.6 105.1 103.1 103.3 95.2 89.9 83.3 84.1 86.1 93.9 105.3 113.2 119.2 127.4 137.3 140.7 136.6 117.2 92 85.7 84.4 94.6 100.7 99.2 81 54.9 31.6 18.7 10.6 9.9 9.3 7.6 9.3 16 23.4 27.5 32.2 37.1 41.2 47.4 54.9 61 65.9 68 68.3 70.4 71.6 69.8 65.2 61.3 57.3 52 44.5 40 35.1 33.6 35.6 35.2 28.1 29.1 31.6 37.1 35.2 29.6 31.7 32.1 33.1 37.5 39.1 38.9 39.8 36.9 38 44.3 48.3 48.8 42.4 41 40.8 40.8 40.8 40.8 39.6 39.5 40.7 41.1 41.4 42.2 43.2 44.2 46.8 49.6 53.3 59.2 65.1 75.2 82.3 85.8 94.1 103.2 107.8 110.2 108.9 112.8 115.1 114.7 111.9 108.8 103 97.9 93.4 88.1 81.8 79.9 79.9 79.9 79.9 79.9 83.8 86.2 87.1 88.7 88.8 89.5 92.2 97.8 98.4 100.1 100.8 100.8 99.6 99.3 99.5 98.7 98.5 98.7 98.3 99.1 100.3 101.6 103.4 104.2 107.5 113.4 117.2 120.9 127.9 133.3 137.8 143.6 149.3 153.1 156.6 162.3 166.2 171.7 177.6 182.5 187.1 190.6 194.9 197.7 198.8 200.4 201.8 202.3 202.7 203.5 205.3 209 212.2 214.4 216.7 218.3 218.5 217.8 216.5 214.1 210.5 206 199.9 192 183 173.6 163.2 159.5 160.7
91.4 88.2 81.2 75.3 83.3 88.8 90.6 92 94.9 101.2 106.2 102.7 101.5 105.9 109.7 111.5 110.2 105.4 100.4 91.4 88.7 87.9 91.7 98.9 106.4 112.8 121.1 131.4 140.1 138.3 127 101.4 85.4 82.2 82.3 92.8 91.7 73.2 50.5 27.6 16.3 10 9.6 9.3 9.5 11.7 18.6 25.9 29 32.9 37.4 41.7 46.1 50.9 56.4 60.7 64 66 65.6 69.4 69.8 66.3 61.8 56.5 52.4 45.9 40.1 33.7 31.6 34.2 32.8 27.5 29.5 37.1 39.9 38.5 33.6 29.7 29.8 29.9 33.5 33.1 32.7 32.3 35.8 34 41.9 47.9 52.2 53.3 42 41.1 41.1 41 40.7 40.1 39.5 40.7 41.3 42.2 43.2 44.1 45.4 47.9 50.7 54.8 60.3 65.5 73.5 83.6 85 90.6 98.7 105 109.8 106.3 107.3 109.4 110.2 107.3 104.2 100.6 96.7 92.4 87.8 83.7 79.9 79.9 79.9 79.9 81.8 86 87.4 88.9 92.3 92.6 90.4 92.8 97.3 100 102.1 102.1 102.5 102.6 103.3 100.8 100 99.4 98.9 98.7 98.4 99.1 100.1 102.1 103.3 105.8 109.9 113.7 117.5 123.2 130.2 133.5 138.8 146.1 150.8 153.1 158.7 163.5 168.2 174.8 180.4 184.5 188.4 192.8 195.1 198.4 200.1 201.3 202.2 202.6 203.4 204.2 205.8 209.6 212.2 214 217.3 218.4 218.1 217.4 215.3 211.2 206.3 200.9 193.6 185.3 175.6 165.6 158.3 157.6
93.1 89.3 82.3 79 85.4 92.5 96.3 97.8 98.2 101.7 107.8 109.1 106.4 111 113 114.7 113.4 112.8 110.5 109 107.9 103.4 102.3 103.3 103.9 107.6 115.3 124.5 135 140.1 133.1 109.9 86.9 81.3 71.9 77.6 82 64.3 44.6 24.2 14 9.8 9.5 9.2 9.8 13.6 20.6 25.9 28.4 35.5 39.8 43.5 46.9 51 55 58.8 62.1 63.5 64.3 66.8 67.7 66.3 61.2 57 54 47.5 40.5 31.8 30 30.9 30.7 27 32.6 39.8 32.2 42.1 43.1 36.1 30 29.8 30.1 31.3 31.2 31.2 31.5 33 39.5 46.5 52.5 54.5 49.2 41.7 41.1 40.8 40.3 39.9 39.7 40.5 41.9 42.9 43.9 44.9 46.4 48.9 51.7 54.7 58.9 63.9 72.9 82.3 84.3 88.7 93.9 101.8 105.2 104.4 108.5 110.6 108.7 104.7 101.3 98.6 95.7 91.2 86.7 83.6 81.3 79.9 79.9 79.9 82.1 87.1 87.9 90.6 93.8 94.8 94 94.7 96.6 100.7 102.8 104.9 106.5 106.9 107.6 106.9 104 100.6 99.3 98.9 98.3 98.2 99.1 101.3 103 105.2 107.6 110.4 114.3 118.7 125.5 129.8 135.8 143.3 147.9 151.6 155.9 161.4 166.9 173.5 178.4 182.3 186.3 190.2 193.6 196.8 199.6 201.2 201.8 202.5 202.8 203.2 204.8 207.9 210.3 212.5 215 217 217.4 218.1 215.6 212.1 207.4 202.5 195.1 185.8 176.8 167.8 158.6 155.5
96.3 94.1 86.9 83.9 89.9 97.6 103.1 104 103.8 104.1 109.6 111.2 110.8 111 116.5 118.7 118.1 118.7 120.6 118.6 114.8 113.2 108.5 110.2 104.7 106 117.8 122.9 127.8 135 132.1 118.5 93.6 77.9 69.2 60.5 61.5 54.6 34.6 19.2 11.8 9.7 9.5 9.3 9.8 16.7 23.2 26 31.8 38.2 41.7 44.3 48.8 52.4 56.2 58.4 62.3 63.8 61.6 62 64.2 62 59.3 52.2 51.3 49.9 41.6 31.3 28.3 29.2 27.8 26.9 31.7 32 40.2 44.7 48.8 47.4 38.6 32.3 30.2 30.5 30.6 31 31.6 32.8 35.7 43 50.5 53.6 49.9 44.3 40.9 40.4 40 39.5 39 39.9 41.4 43.1 44.1 44.9 46.4 48.6 51.3 54.3 57.1 62 69.9 79.7 85.3 89.3 93.6 96.9 103.4 105.3 108.2 109.6 107.2 102.9 98.6 95.6 94.1 90.9 86.8 83.9 81.2 79.9 79.9 79.9 82.9 87.3 88.9 91.8 94.6 95.6 95.5 96.5 98.4 100.6 104.5 106.9 108.6 110.2 111.7 110.9 108.8 106.1 102.1 99.1 98.4 98.1 98.5 100.4 102.7 104.7 106.3 108.5 111.3 114.2 120.5 126.3 130.8 136.8 145 150.9 156.2 160.7 167.3 172.3 177.9 182.9 185.5 189 192 194.5 197.3 199.3 201.1 201.6 202.4 203.5 204.5 207.8 208.8 210.8 213.8 216.1 217.7 218.9 216.4 213.4 208.7 204.2 197.1 185.4 177.5 169.4 159.7 151
97.7 93.7 89.9 88.6 93.6 105 110.9 110.7 112.1 112.5 111.7 114.3 111.6 113.7 119.7 125.9 126.5 123.8 123.1 128.2 126.5 117.7 112.3 109 107.9 104 116.3 125.2 128.1 131.6 132.7 126.7 105.9 80.4 66.6 58.5 52.5 45.6 26 16.8 10.4 9.4 9.3 8.8 10.3 16.5 23.1 28.7 36 41 42.9 45.7 48.3 52 55.7 57.4 62 63.6 62.1 57.4 57.3 56.4 54.5 51.4 45.6 49.4 44.2 36 28.3 27.9 26.1 26.1 29.6 36.3 41.7 46.9 52.3 52.8 46.7 40.2 34.7 30.4 30.7 30.9 32.8 37.3 37.8 42.4 47.7 50 48.3 41.9 40.9 40.3 39.8 40 39.8 39.4 41 42.6 44.3 44.9 45.7 49.3 52.5 55.8 58.8 63.4 69.9 78.5 85.4 89.6 93.8 96.9 100.7 104 108 107.7 104.1 99.8 95.6 92.7 91.4 91.1 88.7 86.1 83 79.9 79.9 81.5 83.5 88.2 89.5 91.7 94.6 95.3 98 99.6 102.2 102.3 105.6 108.8 111 114 115.5 114 111.9 108.3 105.3 101.6 98.7 98.3 98.3 99.2 101.6 103.8 105.7 107.3 109.7 111.7 115.1 120.2 123.7 131.2 139.3 148.2 157 161.9 168.2 172.9 179.9 184.8 186.2 188.5 190.7 193 195.4 197.5 199.6 201.3 202.2 203.5 205.2 207.8 209 210.5 213 215 216.6 218.6 217.7 215.8 212.4 207.8 200.7 187.9 178 169.7 160.1 153.6
95.6 95.5 94.5 93.6 97.7 109.7 116.3 119.6 123.3 123.9 117 115.7 112.5 117.5 121.9 128.5 135.7 129.7 127.8 136.5 129.7 118.2 113.8 106.8 105.1 105.4 112 124.4 129.9 134 134.9 126.4 111.5 88.1 65.8 58.1 50.1 35.8 22.5 12.8 9.4 9.1 9.2 7.6 10.5 15.1 22.3 27.8 36.2 41.7 44.3 45.3 48.1 50.3 53 57.1 61.5 64 62.7 60.4 57.5 54.6 51.7 49.3 45.3 42.8 42.2 35.6 28.4 25.8 25 25.2 29 36.2 42.1 49.4 56 57.8 53.5 46.7 41.3 34.3 30.6 34.2 39.8 43.3 44.7 43.4 43.8 47.7 45.1 41.2 40.9 40.2 39.9 39.8 39.6 37.6 40.9 42.6 44.1 45.2 45.7 50.1 54.8 58.3 61.2 65.4 69.9 78.1 87.1 89.6 92.4 95.7 99.3 101.5 105.3 104.7 100.9 97.4 92.9 89.8 90 90.5 90 87.4 84.3 82.5 83 86.1 84.6 86.3 89.1 91.4 93.6 95.7 98 99.7 101.2 101.7 104.7 109.4 113.4 116.3 117.8 117.8 115.4 112.2 108.7 104.5 99.7 98.3 98.4 98 100 102.3 104.6 106.6 108.2 111 113.1 118.2 123.2 127.9 135.9 144.3 152.3 160.7 167.9 173.5 179.7 185.1 187.4 188.5 190.2 192.6 194.4 196.4 198 199.8 202 203.5 205.5 207.5 209.3 210.2 211.9 213.9 216.6 217.8 218.6 217.9 214.7 210.1 205.1 194.6 185.2 173.8 163.4 154.6
102.2 100.9 98.1 98.6 103.4 113.7 123.3 129.6 129.5 126.9 120.4 117.5 118.9 119.9 122.8 129.6 134.7 134.6 137.7 140.6 133.6 125.2 110.8 105.2 108.2 111.4 115.4 122.1 131.8 139.8 137.5 126.8 115.6 101.8 74.2 61.1 49.4 33.9 21.3 11.8 7.1 8.3 7.6 9.1 10.1 14.7 22 25.7 31.8 40.1 44.7 45.2 48.1 49.1 51.5 54.4 57 60.3 61.4 62.5 61.9 60.1 54.3 47.6 43.4 38 34.3 30.9 26.1 24.1 23.3 23.6 29.5 36.9 44.6 52.5 59.3 63 59.3 52.3 46.8 41.5 32.5 36.6 45.9 50 51.2 47.1 42.7 45.7 42.1 41.5 40.9 40.2 39.9 39.8 39.6 39.1 40.9 42.6 43.9 44.9 45.6 49 56.3 60.9 64.1 67.5 70.5 77.3 84.8 88.5 92.4 96.3 99.2 99.6 100.3 100.6 98.2 94.8 91.7 89.6 89.6 89.5 89 89 88.2 86.6 86.7 86.6 86.1 86.7 89 92 94.1 97.5 98.8 100.5 101.1 101.9 104 107.3 113.2 117.1 119.1 119.8 118.6 115.8 112.6 106.9 101.8 98.9 98.2 98.1 96.5 100.4 102.3 104.6 107.5 109.7 111.7 115.5 119.7 126.5 134.4 142.5 149 157.5 168.6 174 179.7 184.6 187 188.9 190.3 192 194.1 196.1 197.5 199.3 201.4 203.5 205.4 207.3 209.3 210.5 211.9 213.9 217.1 218.4 219 220.3 219.1 215.2 210.9 204.8 192.2 182.3 168.9 156.5
110.3 108.5 104.1 105.1 108.3 118.2 122.9 127.6 130.7 129.8 125.2 119.4 123.5 122.7 125.2 124.6 133.7 138.4 137.4 142.1 138.7 132.8 109.5 104.1 110.7 118.7 122.1 122.9 131.9 139.9 139.6 124.6 111.8 101.2 85.4 66.1 46.4 30.2 20.1 7.1 8.6 9 9.6 9.7 10 15 22.2 26.3 30.7 35.6 41.5 46.1 47.8 48.7 49.8 51.7 53.5 56.9 59 60.5 61.3 61.4 58.3 50.9 46.2 37.7 30.7 26.7 23.2 22.4 22.6 23 30.4 38 45.6 55 63.1 68 63.6 59 53.1 46.2 36.3 37.2 46.9 55.1 58.2 53.4 45.9 43.2 41.9 41.3 40.7 40.3 39.9 39.8 39.6 39.3 40.9 42.5 43.5 44.4 45.7 46.6 58.2 63.7 68.4 71 73.3 78.5 85.8 89.4 97.6 97.8 99.6 99.4 97.2 96.8 95.8 92 90.5 89.6 89.6 89.7 89.5 88.7 89.7 90 88.6 87.2 87.2 87.9 88.5 90.6 94.2 99 99.9 101 102 103 104.7 107 111.7 117.3 119.8 121.6 121.6 119.2 116.6 111.4 105.5 101.2 99.6 98.2 98.2 96.8 99.9 103.1 106.2 107.8 109.6 114.6 118 124.9 132.8 139.6 145.3 154.7 165.6 173.4 178.3 182.8 187 188.3 189.3 190.5 192.9 195.2 197.3 199.2 201.2 203.5 205.8 207.7 209.2 210.9 213 215.2 217.4 219.5 221.3 223.3 223.3 221.1 217.5 212.4 203.3 190.9 176.5 161.3
115.5 110.6 106.5 106.7 111.7 121.2 124.3 126.4 129.8 133.5 132.8 122.8 120.1 122.3 127 125.4 134 133.9 133.8 141.1 143.6 135 114.4 104.2 109.5 124.1 131.9 134.5 133.7 132.2 134.1 126.4 118.9 105.9 91.2 71.9 52.4 35.8 22.7 10.5 8.4 8.9 9.3 9.4 9.9 14.9 21.4 28.8 32.1 32.5 39.4 44.3 48.4 49.7 48.8 49.8 51.3 54.4 55.9 58.3 58.3 60.3 57.3 50.6 45.4 37.9 30.1 24.7 22 21.8 22.9 23.1 29.5 37.1 45.3 55.1 62.4 65.9 66.6 62.9 56.4 48.9 40.7 35.7 46.2 54.8 58.4 51.3 45.8 42.7 42.2 41.5 40.9 40.4 40 39.6 39.3 39.2 40.8 42.2 43.3 44.3 45.7 46.5 46.5 67.5 71.3 73.5 75.1 79.1 86.5 88.8 87.7 101.6 101.5 100.3 97 95.5 94.1 90.1 89.8 89.8 89.8 89.8 89.8 89.4 91.1 93.1 91.9 90.3 89.3 89.3 90.3 90.3 95.1 98.9 99.7 101 102.5 104.2 107 109.8 112.3 116.9 119.6 122.7 124.2 122.4 119.5 116.8 109.9 104.2 101.6 98.8 97.7 97.8 99.4 101.1 104.3 106.6 108.9 111.3 114.8 118.5 126.5 134.3 141.4 151.2 161.7 171.7 174.8 180.2 184.3 187.6 188.6 189.6 191 193.8 196.8 199.2 201 203.5 205.9 208.2 210.5 212.3 214.4 217 220.2 221.9 224 226.8 228.2 226.9 223.9 218.8 209.6 199.3 183.6 167.9
115.4 112.4 106.9 107.3 113.7 120.8 126.4 131.3 131.1 135.5 133.3 127 120.6 122 127.7 129.6 127.8 131.1 130.7 140.5 144.3 136.6 120.6 104.6 110.6 127 141.8 150.9 148.3 134 124.6 126.7 124.2 118.1 93 67.6 55.6 40.2 25.4 15.5 8.4 8.8 9 9.1 10.1 16.1 20.6 28.3 31.7 30.6 34.6 39.6 45.8 48 47.5 47.7 49.1 52.1 54.5 55.8 56.9 56.3 54.4 47.6 41.5 35.5 29.4 24.7 22.3 21.2 22 22.6 28.2 36.6 44.4 50.3 56.5 62 65.5 63.5 57 49.4 42.3 35.4 45 51.9 54.3 49.2 43.3 44 42.1 41.6 41.1 40.6 40.2 39.8 39.4 38.7 40.5 41.6 42.8 44.2 45.5 46.2 60.3 74.8 72.6 74.2 77.3 80.7 87.7 89.8 88.1 100.1 102.9 101.2 97.5 95.3 93.3 90.7 90 90 89.9 90 90 90.9 94.9 98.6 99.1 94.1 91 91.1 91.6 91.8 95.5 98.2 99.8 101.2 102.5 103.9 108.1 111.9 114 117.6 120.1 121.9 125.7 125.4 121.9 118.5 113.8 108.4 104.7 101.9 98 97.5 99 100.5 102.1 104.2 106.8 108.5 112.7 115.4 120.1 127.9 134.5 145.4 156.4 166 171.3 175.2 180.3 185.1 186.5 187.4 189.1 192 195.8 198.7 201.1 203.6 206.3 208.8 211.2 213.5 215.8 219.1 222.9 224.8 227.3 230.1 232.3 232 230.2 225.5 217.2 204.8 190.5 174.6
113.3 113.4 110 108.4 113.5 123.5 130.2 135.6 137.3 135.7 131.3 128.9 129.8 129.3 130 130 126.9 128 130.5 139.8 143.6 142.4 123.7 108.6 112.8 122 140.5 156.3 153.6 141.7 128.2 125.3 125 120.9 92.4 59.7 50.9 46.7 27.8 14.8 6.8 8.7 8.9 8.7 9.6 13.8 19.7 26.3 34.2 31.3 32.3 34.5 41.6 45.5 45.7 45.5 46.7 49.8 51.7 53.1 54.1 54.1 49.1 44.4 39.6 36.1 31.2 25 22.6 21.1 20.2 21.7 28.4 36.6 42.2 47.8 53.4 58.4 61.3 59.6 55.6 48.9 42.4 36.3 42.6 49 48.8 44.1 45.3 45.1 44.5 41.8 41.4 40.9 40.4 40 39.7 39.4 39 41 42 42.8 43.7 46.3 66.5 73.7 74.2 75.4 77.6 81.5 85.1 93.3 98.9 105.1 105.4 103.5 98.6 95.7 94.1 90.9 90 90.2 90.4 90.6 90.8 91.7 96.2 100.8 103.3 98.7 94.3 92.7 93.7 93.6 94.7 97.1 100 101.3 103 104.8 108.1 111.9 114.5 118.1 121.9 122.2 125 127.5 125.2 122 118.9 112.2 108 105.3 102.1 96.8 98.7 100.6 101.4 102.8 105.6 107.6 109.6 111.8 116.5 124.2 129.3 139.4 149.7 160.4 168 170.7 176.1 182.4 183.6 184.5 186.9 190 194.8 198.7 201.2 203.7 206.9 209.5 211.8 214.1 216.5 220.6 224.9 228.9 230.9 234.3 237.9 238.1 236.8 232.1 223.9 211.9 196.7 179.7
115.4 112.8 110.3 108.3 113.3 127.3 135.4 137.6 138 134.2 134.7 137.3 138.5 141.2 138.3 132.5 130.5 128.9 129.1 133 141.5 139.7 131 115.7 111.8 126.8 143.3 151.3 152.3 146.2 135.1 126.9 116.8 100.8 72.5 53.4 47.4 40.6 20.3 10.1 6.8 8.3 8.6 8.3 8.2 15.1 18.3 24.4 31.3 33 28.5 34.8 39.4 41.5 42.8 43.4 43.1 46.6 48.2 49.8 51.2 51.2 48.1 43 38.3 34.6 33.6 26.6 21.5 19.6 19.3 21.3 27.4 34.9 40.4 45.3 50.5 54.7 57.5 56.8 53.5 48 42.6 37.7 39.1 46.8 43.7 43.1 48.4 51.2 49.3 44 41.7 41.2 40.7 40.2 39.9 39.7 39.5 42.2 42.4 42.5 43.3 44.6 61.3 68.3 74.5 74.9 76.8 81.7 89.1 95.8 100.2 106.9 107.4 105.7 101.6 98.5 96.3 92.1 91.1 91.1 91.2 91.4 91.6 92 95.4 100.8 105.2 103.3 98.4 94.9 94.7 94.7 95.3 96.5 99.1 101.4 102.9 105.4 108.4 112.1 115 118 122 124 124.7 128.2 127.8 124.8 123.1 117.4 112.4 108.8 105.4 100.6 96.9 99.7 101.4 102.7 104.1 107.7 107.7 109.8 112.4 118.9 124.8 132.7 142.7 152.7 162.6 165.2 167.8 175.9 180 181.4 183 186.8 192.4 197.3 201.5 204.3 207.1 210 212.5 215.9 220.5 225.4 230.2 234.1 238.6 242.2 244.7 243.1 242.2 240.1 231.6 217.7 205.2 185.9
115.8 113.3 109.6 106.8 110.2 132 140.4 141.2 137.1 136.5 137.5 141.3 149.1 151 151.3 141.7 137 131.9 134.3 135.5 135.5 138.6 133.4 121.7 111.3 127.1 147.2 156.6 157.7 149.5 138.7 123.3 100.9 80.3 60.3 47 34.8 23.5 11.9 8.7 8.5 8.3 8.2 8.1 8.1 14.2 18.6 20.6 27.3 31.6 26.8 31.6 37.5 39.7 41.9 41.7 41 41.7 43.6 45.7 47.9 48.3 46.4 41.8 36.7 32.7 30.7 25.1 20.2 18.4 18.5 19.8 24.5 33.6 39.5 42.6 47.2 51 54.1 55.2 53.1 50.1 44.7 39.8 36.6 42.3 42.4 44.2 48.4 52.5 52.9 49.2 43.1 41.5 41.1 40.4 40 39.7 39.1 42 42.7 42.8 43.3 44 57 66.4 75.1 75.7 74.3 80.2 88.4 97.7 102.5 108.7 108.9 106.5 103.1 100.1 96.6 93.5 92.8 92.1 91.7 91.5 91.7 92.1 94.3 100.1 105.4 105.1 102.1 96.9 95.5 95.6 96.2 97 97.7 100.8 103.4 106.1 108.8 112.1 115.5 117.8 122.4 124.9 126.4 127.9 128.9 127.2 126.1 121.3 116.4 112.3 107.8 103.4 98.3 97.9 100.8 103.2 103.3 104.9 106.1 107.3 108.6 114.5 120.3 126.7 135.5 143.7 152.5 161.1 164.2 167.8 172.8 177.3 180.3 184 189.7 196.3 201.6 205.7 209.5 212.8 217.1 220.7 226.5 230.5 236.2 241.2 247 249.8 251.8 252.4 250.3 247.6 240.8 224.9 209.3 192.9
117.9 115.3 111.5 105.7 108.9 125.2 138.2 143 144.4 134.4 135.6 140.6 146.4 148.5 154.6 149.2 147.4 141 138.1 137.5 141.2 140.9 133.7 122.7 109.1 118.2 141.8 151.3 149.5 147.4 133.1 112.3 90 69.5 53.8 42.2 30.4 16.7 10.1 8.6 8.4 6.5 8 8 8 11.2 15.2 16.3 21.8 28.5 25.2 25.8 34.7 29.2 29.6 40 39.8 38.9 39.1 42.3 43.7 44.2 41.9 37.8 33.8 30.4 28.7 22.9 21.8 17.6 18.3 18.8 22.7 32.2 38.2 40.8 44.7 48.9 51.2 53.2 53.1 51.2 47.3 42.4 36.7 40.8 43.3 47.4 48.7 49.1 48.5 47.8 43.7 42 41.6 40.8 40 39.6 38.1 40.9 42.2 42.7 43.4 44.4 50.9 61.7 70.3 75.4 73.1 82.9 87.3 95.4 104.3 110.5 112 108.5 105 100.2 97.7 95.9 95.5 94.6 93.5 92.6 92.2 91.9 93.5 99.1 104.7 105.4 104.3 100.7 97 97.1 96.6 97.2 97.9 99.9 103.2 107.8 109.6 111.5 114.7 117.2 122.6 125.5 128.1 130.7 132.7 132.3 129.9 125.6 122 116.1 111.5 107 102 96.3 98.8 102.1 103.1 102.8 104.3 105.8 107.3 110.3 115.9 122.3 129.1 137.3 144.9 152.5 160.8 162.6 166.6 171.1 175.6 180.5 188 195.7 202.1 207.7 211.6 216.1 221.5 226.9 230.4 234.5 239.7 245.2 251.9 257.4 260.8 262.4 261.1 255.4 248.9 234.7 216.6 199.6
120.1 116 113.8 106.8 107.7 114.8 128.8 141.4 141.5 134.5 133.4 137.9 143.4 147.4 149.1 153.6 155.1 150.3 139.5 144 148.9 150.7 146.2 131.5 116.1 109.6 133.1 141.9 131.9 126.8 123.1 101.3 77.4 56.7 46.1 37.6 31.7 17.3 9.3 6.5 6.5 8.2 8 7.9 7.9 10.6 13.1 17 19.1 22.3 22.3 24.6 30.8 32.7 29.6 40.1 39.6 37.9 38.4 37.8 38.5 40 37.3 33.3 31.1 27.9 26.5 23.2 16.5 16.8 17.3 18 20.5 29.8 35.5 39.3 43.4 47.3 50.5 52 51.9 49.9 46.3 41.8 38.3 42.7 43.9 44.7 44 45.7 50.3 47.2 44.6 42.7 41.7 41 40.2 39.6 38.9 41 42.3 42.8 43.5 44.2 45.7 58.7 64 70 71.6 80.8 87.2 94.5 104.5 111.6 115.4 111.6 107.5 104 100.9 98.7 97.8 97 95.9 94.8 93.5 92.7 93.1 97.5 103.5 105.5 105.4 103.2 100.8 98.7 96.7 97.3 98.5 99.6 103.7 107.6 110.7 112.5 114.1 116.7 122.3 125.6 130.5 133.3 136 137.7 136.9 131.1 125.3 120.9 115.3 109.9 105.2 99.4 95.3 99 101.8 101.5 101.6 104.1 105.9 107.5 112 118.6 124.4 131.2 138.2 145 152.8 157.4 161.3 166.4 171.8 178.3 186.1 195.1 202.5 209.3 213.3 216.7 225.7 231.4 235.1 238.7 242.5 248.8 256.8 264.9 270.9 274.3 271.4 265.9 256.9 243.9 226.3 207.4
