ncols 200
nrows 91
xllcorner 230000
yllcorner 700350
cellsize 50
21.1 47.6 73.6 95.2 117.3 141.2 168.9 201.4 229.1 244 239 237.9 233.2 228.8 219.8 214.5 204.9 193.2 183.9 173.6 166.3 155.3 153.6 149 142.2 134.9 130 127 122.5 113.8 100 92.2 84.4 76.1 73.8 73.1 70.3 58.3 48.5 42.3 39.5 33.3 31.8 33.3 30.6 24.4 21 19.2 13 6 6 6 6 6 6 6 6 6 6 6 6 6 6 6 6 6 6 6 6 6 6 6 6 6 6 6 6 6 20.6 31.4 44.4 73.1 96.3 119.3 144.9 170.8 206.1 224.6 248.2 267.1 293.5 320.1 368.7 385.3 388.3 402.2 425.4 429.9 431.7 425 411.2 391.6 381.5 368.4 361.3 357.5 361.3 361.9 361.3 360 360.7 359.9 356.9 360.5 363.4 371.9 378.3 385.4 392.5 400.6 408.9 424.5 439.9 447.9 466.9 482.5 505.8 524.7 549.3 567.6 575.4 558.4 531.1 511.1 500 498.2 489.5 478.6 460.8 441.2 415.3 393 381.1 361.3 349 333.4 317.4 304.4 297 286.6 278.8 271.2 262.3 252.9 245.8 241.7 237 227.9 225.9 223 224.9 220.6 223.6 235.6 242.2 256.3 260 257.7 261.4 255.9 249.4 238.8 227 218 224.3 230.4 225.1 212.4 205.3 199.7 201.2 210.7 216.5 231.5 240.5 261.4 280.3 296.9 316.2 338.7 356.3 372.8 390.6 405.3 416.7 417.6 426 442 453.7 471.8
26 49.4 74 97 120.6 143 175 199.7 220.7 231.1 227.9 227.7 225 217 204.4 196.4 186.2 176.5 168.3 160.1 153.9 147.6 139.9 133.3 125.5 119.4 114.4 107.5 101.2 93 83.6 75.6 66.2 59.6 60.8 60.6 56.5 52.1 40.5 34.6 29.3 25.2 24.7 26.3 22.8 16.4 11.3 9 6 6 6 6 6 6 6 6 6 6 6 6 6 6 6 6 6 6 6 6 6 6 6 6 6 6 6 6 6 13.6 29.6 37.5 54.9 76.4 104.7 135 160.9 186.4 211.5 230.2 250.6 266.8 296.9 326.8 366 381.6 387.2 403.2 422.6 427.2 433.5 420.8 414.1 396.6 384.8 371.9 368.6 367.1 366.8 366.3 367.9 365.3 364.1 362.3 362.3 362.1 365.4 369.4 376.1 380.8 389.3 402 408 417.4 425.9 442.7 456.1 475.3 489.3 505.5 527.3 537 546.2 539.3 521.9 503.6 494 485.7 475.8 469.4 460 448.2 403.3 386.8 369.8 363.1 351.5 333.5 321.8 306.8 295.3 286.3 274.1 263.4 255 252.4 246.1 236.6 234 227.7 220 216.6 213.5 211.5 212.7 218.8 231.1 231.4 238.1 235.7 239.2 235 227.5 221.4 213 205.2 209 224.5 229.1 217.5 205.3 200.9 196 199.3 211.6 225.3 238 258.9 279.7 299.1 324.3 335.7 351.4 375.7 391.9 403.9 413 420.7 427.2 436.9 456.8 477.9
34.9 54.2 73.9 99.1 124.7 148.9 181.3 200.5 214.9 223.6 225 219.6 214.8 199.8 189.1 178.3 169.5 162.3 156.4 147.1 142.9 133.1 123.1 117.5 110.9 104.1 98.4 92.8 84.1 74.8 66.8 59.8 56.1 54.6 53.2 49.6 46.7 37 35.4 26.3 22.3 17.8 19.1 18.1 12.2 7.1 6 6 6 6 6 6 6 6 6 6 6 6 6 6 6 6 6 6 6 6 6 6 6 6 6 6 6 6 6 6 6 18.6 37.4 47.9 62.7 86.4 117 149.6 172.5 207 226.6 242.1 257.5 275 307.3 339.8 351.4 368.6 394.5 406.3 413.8 418.6 425.5 430.7 429.6 401.8 388.6 381.1 379.3 377.6 373.8 375.8 372.6 369.8 367.1 366.4 365.2 363.6 366.6 373.1 380.1 385.2 391.8 398.3 406.9 413.2 423.6 436 454.1 465 474.8 490.1 501.7 515.9 523.4 524 534.3 502.9 487.2 471.9 459.8 450.5 441.5 432.9 414.5 385.3 365 355.6 348.7 333.5 319.3 310.7 302.5 290.8 286.4 274.6 262.8 253.6 245.9 238.8 231.8 224.1 217.1 210.4 208.6 205.7 209.5 206.4 207.5 218.7 215.7 219.2 218.7 213 207.4 204.9 197.8 192.2 194.3 209.7 219 211.6 203.1 200 196.4 186.1 206.3 216 233.9 255.7 276.8 295.8 325.1 339.9 352.8 384.7 391.1 399.1 413.1 421.1 420.9 438.3 453.4 470.6
40.8 56.7 79.2 106.7 128.5 158.3 183 200.9 213.3 220.3 213.9 206.1 193.8 183.8 176.2 167.1 157.7 151.1 143.7 135.5 126.7 121.2 111.7 103.1 95 88.6 83.2 74.3 66 58.6 54 52.5 49 43 40.6 38.8 33.8 31.5 27.7 20.6 17.1 15.2 13.3 12.3 9.1 6 6 6 6 6 6 6 6 6 6 6 6 6 6 6 6 6 6 6 6 6 6 6 6 6 6 6 6 6 6 6 11.9 25.4 43.1 59.2 71.8 104.9 139 161.5 188.8 222.4 240 251.4 261.6 283.8 315.4 339.4 348.9 365.8 402.4 412.9 412.5 423.4 435.7 438.3 421.9 408.2 402 398.7 393.6 388.4 381.5 380.5 377.8 374.3 371.8 369.5 368 364.8 370.1 374.5 379.2 384 393.1 399 406.8 412.5 421.5 432.2 444.6 462.1 474.7 486.9 492 491.7 496.6 512 509.5 501.6 473.5 460.1 447.3 442.2 436.9 413.9 395.7 389 366.9 348.1 343.3 336.4 327.1 313.9 303.3 300.2 288.4 276.7 266.4 255.1 245.7 237.6 231.9 226.6 223.8 216.9 209.9 205.2 199.6 195 196.6 196.1 202.7 203.3 198.5 195.9 193.7 194.9 183.2 179.2 181.7 187.3 199.5 196.4 194.8 192.6 190.8 187.7 196.1 213.5 232.3 253.2 271.1 291.5 328.7 342.8 350.4 373.2 387.4 396.8 410.7 413.2 417.8 434.7 442.6 458.8
45 66.3 82.5 108.8 139.2 166.7 178.3 198.4 208.7 207.4 196.9 189.3 179.6 170 162.6 155 146.4 137.6 129.9 122.8 114.1 106.5 97 87.9 79.6 73.7 66.8 58.8 53.2 50.9 47.3 43.2 38.9 35.9 33.2 33.5 29.4 25.8 20.5 16.3 11.4 12.1 11.6 7.6 6.4 6 6 6 6 6 6 6 6 6 6 6 6 6 6 6 6 6 6 6 6 6 6 6 6 6 6 6 6 6 6 9.5 20.2 31.7 47.5 68.1 90.9 127.1 157.6 183.2 209.8 235 251.7 263.2 266.1 294.9 318.9 343.4 357 369.9 394.6 397.2 407.3 427.5 436.6 432.7 432.1 429.3 429.5 414.3 405.8 396.2 390 386.8 383.2 378.2 376.8 373.5 370.4 368 374 378.6 388.3 392.9 393 399.3 407 411.7 418.6 428.4 436.7 453.5 465.8 477.6 480.8 479.2 482.1 481.7 484.9 485.4 472.3 450.8 430.9 418.4 396.9 390 389.2 375.1 357.4 346.9 338.8 328.3 321.8 317 313.9 300.8 289.2 277.7 267.1 255.9 242.6 246.1 239.1 236.2 231.6 224.1 218.2 213 209.1 202 194.9 191.4 190 189.9 189.3 188.9 188.8 183.2 177.8 172.7 170.9 173.1 179.6 182 179.8 181.6 184.9 186.4 191.5 211.9 226 246.2 264.8 288 325.5 342 347.4 369.8 389.4 400.1 404.4 410.8 413.9 423.8 434.5 449.7
50.8 69.1 87.7 116.5 144.7 163.4 171.8 187.2 196.7 190.4 181 171 163 155.8 148.3 141.3 132.7 126.4 118.4 109.7 101.4 89.6 81.2 76.5 67.1 61.2 54.8 48.8 45 45 36.8 34.8 32.2 30.6 28.1 26.2 22.1 22.7 21.1 17 12.1 10.3 10.5 9 6 6 6 6 6 6 6 6 6 6 6 6 6 6 6 6 6 6 6 6 6 6 6 6 6 6 6 6 6 6 10.1 17.9 27.7 41.2 53.1 79.3 110.6 141.8 164.3 189.5 222.4 244.1 257.4 266.4 272.7 298.1 318.2 348.8 367.5 374.2 387.9 400.2 415.3 426.5 434 442.5 448.3 444.8 446.3 432 413.1 405.6 397 392.6 389.7 385.7 384 380.5 372.4 374.7 377.8 382.5 386.8 395.5 402 404.9 406.8 412.5 420.3 427.8 439.4 449 462 466.3 467.2 471.5 470.8 470.7 464.6 450.6 438.6 434.9 421.7 405 389.1 381 378.4 369.2 354.2 344.4 334.3 329.2 319.4 315.3 310.2 301.9 288.9 280.4 263.7 265.3 262.6 256.4 252.2 242.8 237.2 231.6 223.8 219.1 211.5 205.5 205.4 197.6 191.9 185.7 185.1 185.1 182.7 178.1 173.6 170.9 168.1 170.9 171.3 171.2 169.1 175.6 182.9 186.4 189.5 202.6 222.6 236.8 255.4 280.3 322 333.4 342.7 368.5 392.5 393.7 396.8 405.1 410.2 414.7 432.2 452.6
56.7 77.7 95.1 120 139.2 147.3 160.3 170.8 174.6 169.2 161.1 154.2 148.4 139.1 133.6 127 119.1 110.8 101.8 93.4 85.1 72.2 69.6 63.3 58.2 49.5 46.9 40.1 36.7 34 30.8 29.5 29 26.6 25.3 26.6 24.5 21.9 21.3 16.1 13.1 10.9 10.4 6 6 6 6 6 6 6 6 6 6 6 6 6 6 6 6 6 6 6 6 6 6 6 6 6 6 6 6 6 6 11.9 18.8 25.7 39.4 51.4 64.7 91.2 124.3 153.2 171.1 201.2 234.8 249.3 256.6 271 277.1 301.8 324.6 351.6 371.5 380.8 390.5 405.8 417.7 431 447.6 460 460.2 460.2 456.3 435.2 418.8 411.8 406.9 398 395.6 391.4 389.2 386.2 378.8 377.5 380.5 385 390.1 396.7 401.5 408.8 414.9 418.8 425.2 432.3 444.3 453.8 457.7 460.4 459.6 459.4 462.7 460.4 455.2 450 440.4 415.1 405.4 393.7 376.9 365.9 359.9 353.4 344.1 333.7 325.7 315.5 313.9 311 309.5 299.2 288.5 276.7 279.4 274.1 267.5 264.2 255.2 249.7 243.1 236 227.2 220.4 214.4 209.1 202 197.1 191.5 187.4 181.9 181.6 178.5 175.7 172.8 169.8 166.2 169.9 166.6 162.4 160.9 169.3 176.8 180 178.8 196 215.2 230.7 247.5 272 307.6 324.4 332.3 357.4 378 386.3 395 407.7 407.5 412.5 432.9 449.9
64.3 82.5 103.9 118.2 135.3 143.9 149.8 154 153.2 144.6 143.3 138 132.3 122.4 114.6 110.4 105.2 93.2 85.9 77.3 69.1 63.2 58.3 55.1 48.6 44.9 39.3 34.5 31.6 30.5 29.3 27.2 27.8 27 26.1 26.8 25.8 22.4 20.5 17.9 15.2 12.8 6 6 6 6 6 6 6 6 6 6 6 6 6 6 6 6 6 6 6 6 6 6 6 6 6 6 6 6 6 6 13.5 21.7 27.4 38.2 47.2 53.9 77.4 105.9 135.5 161.4 179.1 211 239.5 253.9 265.8 281.7 289.9 305 328.3 361.2 373.7 381.8 390 405.2 427.4 444.1 464.2 481 477.8 470.8 456.1 441.4 431.2 416.6 410.3 402 397.5 393.1 389.2 385.9 378.8 381.4 384.9 389.3 391.9 398.2 404 410.5 418.7 427.2 434 443.2 453.2 458.4 459.5 456.9 454.3 450.5 448.8 442.8 437.6 433.9 424.6 417.9 401 385 375.1 363.6 354.7 348.8 341.5 333.8 327.3 319.5 306.7 307.5 298.2 295 292.8 293.2 287.2 282.8 275.1 270.1 262.4 256.7 248 239.4 233.5 226.9 219.1 216.6 206.7 197.2 191 186.7 180.5 179.7 179.1 176.4 170.6 166.7 163.3 167.8 161.9 156.3 155.6 162.3 172.6 174.7 176.1 190.5 208.5 223.5 239.7 260.4 294.2 308.8 316.3 337.1 364.8 385.4 390.6 398.5 409.7 412.3 426.3 442.3
70.8 86 103.1 117.6 134.8 136.3 138.6 137.2 132.9 127.9 122.8 120.2 113.5 107.3 99 94.4 88.7 81.8 74.4 63.3 58.1 53.3 51.1 48.5 42.5 39 36.1 34.5 31.9 29.9 29 29 30.9 31 30.2 31 26.4 24.8 22.6 18.9 15 10.9 6 6 6 6 6 6 6 6 6 6 6 6 6 6 6 6 6 6 6 6 6 6 6 6 6 6 6 6 6 11.4 21.2 29.5 36.9 43 48.9 61.8 88.5 120 145.9 164.8 188.8 217.4 239.9 259.9 276.5 291.7 299.9 313.3 335.9 373.4 383 385.5 393.6 421.3 438 461.4 485 499.3 486.4 473.6 461 450.3 433.8 421.5 409.7 404 402.3 397.3 390.3 382.8 378.5 383.8 387.4 391 395.6 403.5 410.4 416.9 424.3 433.5 441.5 453.3 461.6 468.6 484.3 492.1 485.2 458.7 435.1 426.8 419.7 409.9 404.8 396.3 387.4 378.4 368.7 359.8 353.6 349.3 343.5 337.3 325.5 327.6 322.8 313.4 317.4 315.3 311.5 306.9 299.4 295.8 285.4 278.6 275.4 264.7 259.5 251.6 244.9 236.8 230.4 226.1 215.8 202.5 192.5 186.8 181.9 174.5 177.2 177.9 173.9 164.4 161.6 162 159.9 154 154.3 158 162.5 164.3 173 185.8 203.5 215.2 231.2 251.1 278.8 292.3 305.3 326.2 355.1 376.1 393.4 406.1 409.3 412.2 421.3 430.5
73.1 91.8 109.3 121.3 126 124.4 122.7 120.4 115.1 108.3 104.2 101.2 96.7 91.4 86.5 80.2 76.5 70.1 59.9 53.5 51.5 46 44.7 41.6 39.1 36.6 34.5 32.3 30.7 31 33.6 36.3 37 36.4 37.7 33.2 31 28.2 24.5 20.8 16.9 11 6 6 6 6 6 6 6 6 6 6 6 6 6 6 6 6 6 6 6 6 6 6 6 6 6 6 6 6 6.2 21.8 26.4 33.9 38.7 43.5 57.8 72.3 98.4 127.3 157.2 172 195.2 223.1 246.6 261.8 290.1 307.1 315.9 317.7 336.8 365.7 375.1 383.6 404.2 428.2 459.7 465.8 493.5 503.8 487.4 475.5 466.6 453.7 440.9 426.7 415.5 405.6 403 397 390 386.2 381.4 387.1 389.2 393.9 399.7 406.9 414.9 424.3 431.9 440.1 448.9 459.8 474.4 486.9 498.7 502 491 480.5 440.5 421.6 411.8 402 393.9 387.4 381.5 375.1 369 362.7 356.2 350.2 345.6 337.1 338.5 336.9 334 320.7 330.6 329 319.1 319.4 310.1 304.2 295.1 293 284.8 279.4 270.8 261.5 253.2 246.6 238.1 230.1 222.7 210.7 201.4 190.4 183 179 172.7 173.2 171 162.3 160.4 162.3 157 153.4 152.4 153.5 155.7 160.3 167.8 177.3 192.1 207.6 223.7 241.4 265.5 282.5 298.1 321.9 349.7 372.5 389.3 394.1 404 409.9 413.1 422.2
78 97.6 108.8 114.5 112.6 105.4 105.9 101.3 97.2 90.9 87.9 84.7 83.2 77 69.5 69 63.2 57.9 50.8 46.6 43.5 40.8 40.1 38.3 37 34.9 34.3 33.4 34.4 37.6 38.7 41.4 43.5 42.2 42 39 37.3 31.7 28.2 23.3 20.1 16 6 6 6 6 6 6 6 6 6 6 6 6 6 6 6 6 6 6 6 6 6 6 6 6 6 6 6 6 13.2 24.5 30.6 37.5 37.1 55.6 70.9 79.7 102.6 131.9 156.7 187 206.3 228.6 244.8 267.4 292.5 318.1 327.9 326.7 341.2 357.8 365.6 392.7 417.7 443 465.3 468.2 485.8 502.1 487.8 476.2 473.3 459.8 447.3 432.2 413.7 404.7 402.5 394.3 388.8 388.9 388.1 394 396.4 399.6 405 410.3 419.3 429.8 437.9 447 456.4 470.4 481.7 492.3 507.4 506.1 484.2 460.3 436.5 419.3 405.5 400.2 389.5 382.8 375.2 367.9 362.9 359.5 359.6 353.3 347.9 346.4 347.3 344.6 340.3 333.1 337.6 339.1 329.9 324.9 323.5 317 312.2 306 297.7 290.3 280.7 272.2 264 255.4 242.2 231.5 220.9 214.5 207.3 195.8 183.8 176.1 169.8 166.5 166.1 159.8 169.2 159.7 155.5 151.8 151.6 151.8 149.9 156.6 161 168.3 185.7 198.7 204.5 228.4 260.9 278.7 292.2 316.3 342.8 358.8 377.7 392.5 398.7 398.6 401.2 413.3
86.2 98.5 104.1 99.1 88.9 84.7 85.5 83.6 78.3 76.9 72.8 67.9 62.3 63 59.3 56.4 50.6 47.6 42.9 40.4 38 37.2 35.9 34.5 33.3 33.2 33.8 37.1 39.8 45.4 45.6 46.7 49.3 50.6 49.7 45.7 41.6 36.4 31.1 25.3 23.3 17.9 7.5 6 6 6 6 6 6 6 6 6 6 6 6 6 6 6 6 6 6 6 6 6 6 6 6 6 6 6.2 20.5 30.2 35.4 38.4 46.7 73.1 77.8 92.8 109.9 138.4 159.6 196.5 223.9 236.2 245.8 269.5 295.9 318.2 330.4 330.2 337.4 352.4 375.7 404 428.1 456.7 464 470.3 480.8 491.1 487.8 479.1 474.2 461.2 449.1 433.6 418.6 407.1 398 395 392.9 392 392.9 398.7 402.3 406.8 412.8 418.7 428 435.7 445.1 455.6 467.1 481 491.3 503.8 510.7 505.8 485.9 475.3 460.4 431.1 406.3 397.7 389.9 381.2 377 373.2 366.9 362.5 352.9 349.1 352.1 349.8 349.4 347.9 346.9 345.2 346.4 350.4 347.8 341.8 339.5 333.4 326.9 315.5 312.8 303.4 293.9 287.2 278.5 266.4 251.6 245.8 234.7 221.5 211.8 204.2 193.4 179.6 171.7 158.1 159.3 154.8 161.2 158.2 153.7 151.1 151.4 151.5 151 152.6 155.7 160.6 177.8 188.1 201.8 225.8 251 266.1 286.9 314.6 339.3 357.4 372.1 384.6 392.3 392.6 395.8 402
83.8 88.2 81.7 78.7 74.8 69.1 69.8 67.4 64.9 58.9 52.8 51.6 50.3 47.6 43.1 42.9 42.1 40.2 40 36.4 35.2 34.7 34.6 35.6 37.2 38.4 43.9 44.2 48.3 52.9 55.7 55.1 57.6 59.6 58.9 54.2 48.4 41.9 38.2 32 28.9 25 12.9 6 6 6 6 6 6 6 6 6 6 6 6 6 6 6 6 6 6 6 6 6 6 6 6 6 6 12.3 27.6 34.9 39.2 35.9 60.4 76.6 85.6 99.9 114.7 146.4 170.3 200.2 228.6 246.6 248.4 269.7 294.4 322 341.8 334.2 341.8 362.9 390.7 416.9 446.9 472.4 464.8 470.8 475.6 486.6 484.9 480.7 468.8 454.4 448.6 433.1 415.7 404.9 398.3 397.8 399.5 395.9 397.4 403.5 409.4 412.1 418 425.1 433.7 443.1 453.4 465.9 478.3 490.4 500.4 507.2 513.1 507.6 503.6 479.1 459.7 433.8 408.6 395.2 387 381.8 375.9 372.1 367 365.3 361.5 356.8 356.7 356.7 355.7 354.3 352.3 350.7 354.6 354.6 352.9 352.1 344.7 346.5 345.4 332.3 326 318 302 299.9 287.4 274.9 263.5 249.9 239.5 228.6 220 214.5 204 191.1 181.5 166.4 153.8 154.3 152.3 152.6 151.5 150.8 149.1 148.3 149.8 150.7 153 157.7 164 178.6 193.9 210.6 231.5 256.1 279.9 301 329.6 351.5 356.7 370.1 378.5 382.2 390.9 396.8
65.7 66.4 66 62.6 58.1 54.8 55.3 53.6 51.4 45.7 44.5 42.5 43.3 44.8 44.3 38.5 36.9 36.5 35.8 35.1 35.5 36.4 38.5 41 43.3 49.2 51.5 56.1 60.8 65.3 66.7 67.4 66.1 67.5 66.3 62 58.5 50 45.7 42 34.1 24.7 17.4 6 6 6 6 6 6 6 6 6 6 6 6 6 6 6 6 6 6 6 6 6 6 6 6 6 6 17 32.2 38.6 40.8 40.5 65.3 79.4 89.1 92.2 116.6 145.5 177.5 202.7 230.7 248.9 254 262.7 293.2 321.9 339.7 338.2 347.7 374.4 408.1 431.3 464.1 471.8 471.5 470.1 474.6 482.1 480.3 475.9 459.1 448.1 429.1 422.3 409.7 406 398.3 401.7 403.3 396.1 401 407 411 420.5 425.8 432.7 441 450.9 461.9 475.7 487.9 502.2 513.3 517.4 525.2 522.6 513.8 495.7 474.4 435.9 414.4 398.6 390.5 383.8 375.3 375.4 372.2 365.3 363.8 362.4 364.4 363.5 359.4 360.5 362.9 356.8 360.5 361.5 361.6 359.4 358.7 357.8 355.2 344.8 329.6 319.7 313 308.3 300.6 286.4 278.3 263.6 249.1 231.4 218.1 208.2 199.2 188 177.7 168.8 164.9 154.9 153 151.7 150.7 150.4 150 149.4 149.8 149.5 151 153.7 159.1 168.9 184.8 203.4 223.5 240.5 264.6 291.5 313 337.2 340.8 353.5 367.5 365.7 378.6 385.6
59 55.3 51.7 51.8 47.4 44 44.6 42.2 40.5 43 42 44.6 44.8 44.7 47.2 36.8 36.6 35.8 36.2 35.9 36.5 39.9 44.2 49.7 52.4 56.6 66.1 68.8 75.1 78.4 79 77.5 77.5 76.6 77 73.3 69.7 61.6 53.3 49.3 38.4 31.6 20.9 9.9 6 6 6 6 6 6 6 6 6 6 6 6 6 6 6 6 6 6 6 6 6 6 6 6 6 19.1 35 42 43.5 44.5 67.2 79.2 85.7 87.6 116.8 146.9 183.2 206.1 231.5 248.2 253.2 267 299 317.9 333.7 337.7 356.8 395.7 422.9 445 472.3 476.5 478.8 471.3 475.8 478.9 463.6 454.4 449.3 439.5 424.6 412.8 408.1 405.6 400.1 403.3 406.4 401.2 404.8 411.6 420.7 430.2 433.6 436.6 448.7 459.7 471.1 486.9 499.6 515.3 530.3 536.1 533.5 523.8 524.1 496.1 462.5 450.4 435 421.3 404.3 390 383.7 377.2 373.8 369.6 370.7 368 368.4 365 363.4 365.5 364.8 364.1 365.1 368.8 370.3 368.1 367.3 364.2 360.3 347.9 336.2 332.4 323.9 317.4 310.9 297.3 288.2 280.7 263.1 241.4 226.3 209.1 197.6 187.4 176.7 168.2 162.9 157.3 154.1 152.7 151.9 150.9 150 149.4 147.4 149.3 149.5 150 154.7 160.5 183 197.2 206.6 227.4 251.5 279.7 299 314.2 326.4 333 346.6 357.1 363.7 368.4
49.2 44.4 41.7 41.8 38.1 38.3 36.2 37.8 40.7 41.8 38.2 39.4 40.3 43.2 41.7 37.5 36.2 37 37.5 40.6 46.1 53.1 57.2 60.8 62.2 74.6 78.3 82.5 86.9 89.3 90.1 89.5 90.1 89.3 90.4 86.1 82.1 74.5 65.3 58.7 46.7 36.4 23.6 14.2 6 6 6 6 6 6 6 6 6 6 6 6 6 6 6 6 6 6 6 6 6 6 6 6 6 15.1 25 40.5 48.2 46.3 68.5 77.3 80.8 83.7 112.8 155.4 185.3 211.1 231.6 249.7 249.8 258.5 295.4 312.3 326.2 336.7 371.2 407.9 451.1 456.3 470.2 484.4 478.5 470.7 475 479.5 464.4 446.1 430.7 422.9 420.8 413.6 411 408.2 403.4 406.9 406.4 399.8 410.2 413.9 424.4 431.2 435.4 447.7 459.9 471.6 480.7 495.7 513.9 528.8 541.5 548.2 543.8 532.1 517.9 503.3 480 463.5 454 441.8 423 399 388.7 380.4 379 378 377.2 377.4 373.5 371.2 372.4 374.8 372.4 368.1 371.9 377.5 374.7 374.8 375.1 375 370.7 362.8 356.9 344.8 328.4 322 321.4 308 292.3 277.5 268.6 246.4 227.9 213.3 206 195.4 186.7 170.6 168.8 159.4 154.6 153.9 152.8 151.6 150.6 149.9 148.8 147.4 148 147.4 150.9 157.9 170.3 181.6 194.2 215.8 240.6 265 280.1 295.4 310.2 315.5 325.7 341.5 347 349.3
38 35.8 33.6 34 34 34.4 34.3 34.8 35.7 40.2 41 41.2 39.7 44.4 39.6 40.6 44.5 44.8 49.4 53.8 57.8 63.5 70.3 74.6 79.3 85.5 90.6 98 102.2 104.4 105.4 104.1 104 102 101.3 99.5 94.4 87.6 78.9 67.3 53.9 41.6 31.3 20.4 7.9 6 6 6 6 6 6 6 6 6 6 6 6 6 6 6 6 6 6 6 6 6 6 6 6 10.5 27.8 42.4 44.6 46 70.4 75.3 78.7 79 112 168.8 188.1 211.1 226.8 242.9 236.2 250.8 288.8 306.3 320 348.1 382.1 437.7 457.6 464.8 474.1 491.2 476.3 467.3 468.8 475 456.9 440.3 438.2 422.5 418.5 415.5 412.4 408.2 408.8 407.8 407.9 407.1 414.1 419.7 427.3 437.9 444.5 453.8 468.8 483.2 491.9 509.1 527.7 542.7 556.2 559.6 567.5 552.9 538.5 542.1 516.2 490.5 466.7 453.8 420.8 405.1 403.3 392.4 385.1 389.1 387.6 380.5 380.3 377.8 380.4 380.5 380.3 377 376.3 380.4 384 383 384.2 383.8 380.2 372.5 367.7 352.8 343 323.9 317.2 308 303.2 284.7 274.6 261.2 238.3 224.9 216.2 204.2 194.8 178.3 168.3 160 156.8 155.2 154.3 152.2 151.5 150.7 150.1 149.4 149.3 147.1 149.9 152.6 164.4 177.9 183.6 204.2 226 251.5 266.5 278.3 291.1 292.7 308.9 319.2 325.8 329.9
29.2 29.7 29.5 31.6 32.7 32.8 33.6 34.2 38.6 41.7 42.8 43.3 43.1 45.5 45.4 50 53 57.1 62.1 65.4 69.4 79.3 85.3 89.5 94.6 100.8 106 115.5 121 124.4 124.7 119.2 117.2 114.5 113.2 114.6 108.5 99.6 90.1 80.3 64.9 50.5 36.8 24.4 16.6 6 6 6 6 6 6 6 6 6 6 6 6 6 6 6 6 6 6 6 6 6 6 6 6 6.1 34 43.8 32.1 42.9 65.8 71.2 77.8 74.5 120.5 159.2 186.8 198 217.2 233.5 240.3 260.6 277.6 300.5 329.3 357.3 390.9 446.3 462.2 471.2 476.9 479.2 466 465.2 462.3 461.1 445.1 441.4 436.4 427.2 416.7 413.8 411 407 410.4 411.7 407.8 413.6 419.3 426 434.8 441 450.7 463.8 478.5 497.5 503.3 522.7 542.2 557 567.9 575.6 576.2 579.2 575.3 566 538.6 499.3 474.4 445.2 422.1 414.1 409.1 398 392.2 395.6 389 387.5 388.1 390.6 387.2 386.2 381.4 379.9 378.8 386.7 388.2 389.3 390 387.2 378.8 375 367.3 354.1 346.5 329.3 319.7 308.1 296.1 287.3 275.9 259.6 242.8 226.4 219.5 205 192.2 180.4 169.3 168.3 160.2 156.8 154.6 153.4 152 151.2 150.5 149.4 147.5 148.6 149.6 150.8 154.6 162.9 174.1 188.7 209.2 236 245.2 255.7 261.8 276.2 284.4 294.6 306.7 313.4
25.4 25.2 27.7 29.6 31.6 34 35.7 36.9 39.1 43.7 46.6 47.6 52.8 53.4 59.1 61.3 64.5 66.3 72.8 79.2 87 95 101.1 106.4 112.1 119.4 126.7 134.6 143.6 147.5 144.5 138.7 132.4 129.6 129.1 130.1 122.6 112.9 102.2 92.9 79.2 64.3 46.9 31.1 17.3 6 6 6 6 6 6 6 6 6 6 6 6 6 6 6 6 6 6 6 6 6 6 6 6 7.6 30.3 34.9 23.1 43.3 65.9 70 77.1 70.1 123.7 152.9 178.2 193 206.8 222.4 237 258.6 282.1 312.9 342.1 362.2 390.5 454 464.5 465.8 475.1 474.5 464.6 453.9 450.1 447.1 445.8 436.8 433.4 430.1 421 414.7 410.2 411.1 410.3 411.8 415.9 419.2 424.2 429.7 439.9 448.8 457.6 469.4 486.7 501.9 513.3 533.3 553.1 568.8 581.6 596.1 601 603.7 588.7 575.7 558.6 531.2 494.5 479 437.8 422.2 412.4 413.1 401.2 399.3 399.8 397 400.6 397.3 391.3 388.3 387.9 386.7 384.4 391.7 393.1 394.3 394.1 391.3 387.4 379.5 368.6 358.8 347.6 335.6 323.5 311.9 299.9 288.2 273.1 248.4 235.6 220.7 209.9 201.7 191.2 183.3 174 165.5 160.7 158.1 155.5 153.2 151.8 150.8 150.1 149.6 148.3 148.7 149.6 150.3 151.3 152.8 161.1 176.7 191.8 215.2 227.9 237.7 250.6 253.5 267.8 274 286.3 296.1
22.7 25.6 28.9 31 33.3 34.7 36.8 39.3 44.3 48.2 54.2 53.1 59.7 65.6 70.2 74.3 78.8 84 89 98.6 106.2 113.9 120.5 126.8 135.2 141.7 149.8 154.6 162.3 162.1 161.2 156.6 153 148.7 146.4 145.8 137.9 125.4 117.5 107.6 93 78.8 58 39.1 23.2 10.7 6 6 6 6 6 6 6 6 6 6 6 6 6 6 6 6 6 6 6 6 6 6 6 6.6 21.4 26.9 17.3 33.4 58.8 66.4 73.5 59.7 116.9 142.8 161 184.9 197.5 215.2 233.5 266.6 295.9 325.9 351 366.3 389.6 433.4 457.2 455.6 470.9 477.6 473.6 457.3 446.2 445.6 446.9 439.3 430.4 424.4 423.9 416 415.3 416.2 415.5 417.3 420.9 422.6 428.2 435.5 444.3 451.7 465.2 481 495.3 509.8 522.8 542.3 566.5 586.6 606.8 622 627.5 627.8 613 584.7 564.5 535.3 504.1 488.1 464.7 432.8 421.9 413.7 414.4 415.3 415.5 414.9 408.4 401.7 398.3 396.8 395.5 392 389.9 395.1 397.3 399.2 399.4 396.4 393.7 390.3 383.1 365.9 355 345.9 333.6 321 306.6 286.6 269.9 250.4 231.5 218.8 205.6 195.1 184.4 177.9 174.5 171.6 165.4 159.6 154.6 152.9 151.9 150.6 149.6 149.6 148 149 149.5 149.6 150.3 151 153.4 165.9 182.7 200.1 215.7 232.6 237.1 239.1 249.4 254.3 257.6 266.5
24.7 28.1 30.8 32.1 34.9 36.9 40.5 47.2 50.3 56.3 61 66.9 71.3 79.9 85.7 91.8 98.1 105.3 108.8 120.1 128.6 135.6 143 151.7 157.3 162.4 168.4 174.6 182 190.5 181.1 171.6 171.2 168.7 160.3 156.5 152.9 141.4 131.8 120.6 110.2 93.4 70.3 49.1 29.1 14.9 6 6 6 6 6 6 6 6 6 6 6 6 6 6 6 6 6 6 6 6 6 6 6 6 11.7 13.5 12.7 21.5 44.5 60 69.6 54.6 104.7 123.9 139.8 166 184.3 211.6 238.2 271.8 300.1 325.8 354.9 361.6 385.5 424.9 440.5 448 463.9 477.9 478.4 463.2 448.2 446.5 449.1 445 434.2 424.8 421.1 421.5 417.4 415.1 418.2 420.5 424.8 429.1 433.7 443.6 452 461.2 474.4 486.7 505.1 520.6 533.6 552.1 580.8 607.7 627.2 634.6 640.1 638.7 615 589.3 560.3 544.2 518.7 494.7 473.8 450.4 433.7 430.1 428 427.7 426.6 422.4 418 417 415.4 410 402 398 400.4 400.8 404.1 404.8 407.1 403.7 399.4 392.6 386.4 379.9 363.4 346.3 336.6 327.1 312.5 299.1 282 257.4 241.6 222.7 215.1 205.6 195.4 193.8 181.3 183.6 176.1 165.7 156.1 153.7 151.3 150.5 149.9 148.9 148.7 147.1 149.1 149.4 149.7 150.2 150.7 160.7 170 182.4 202.6 216.2 217 221.8 226.3 231.4 233.6 241.7
28.3 33.2 36.9 41.7 43.3 46.4 53.9 56.9 60.3 67.7 74.7 83.6 89 92.8 104.9 115.5 121.4 127.1 131.8 140.4 148.2 156.1 165.7 177.2 179.2 182.4 191.8 199.8 203.9 204.4 207.2 195.1 187.5 181.6 175.4 167.5 167.3 155 144.4 131.2 122.8 105 88.3 57.6 36.9 20 9.9 6 6 6 6 6 6 6 6 6 6 6 6 6 6 6 6 6 6 6 6 6 6 6 6 6 6 12.7 31.3 49.8 55.3 51.5 89.8 110.2 127.1 154.3 183.9 223 242.7 267.7 295.2 318.6 340.6 355.1 380.1 424.7 436.4 443.8 461.9 467.4 468.9 462.5 451.9 445.4 443.1 433.6 428.1 424.6 423.3 419 418 416.3 422.7 425.4 428.7 433.7 439.5 451.8 459.4 468.6 482.5 499 515.1 530.5 546.1 568.5 597.6 623.6 639.6 648.4 649.2 649.4 629.9 593 561.7 537.9 521 497.7 486.3 460 443.5 443.2 441.8 442.1 438.1 432.8 431 428.9 420.7 408.6 404.4 404.9 410.4 409.5 408.3 410 410.5 409.8 405.6 403.2 401.6 394.5 373.3 353.2 344.3 335.8 321.7 305.9 285.9 258.4 252.3 237.8 227 216.6 204.2 198.6 188.2 191.2 191.9 179.9 172.3 163.1 151.9 150.4 150 149 147.2 147.8 148.7 149.1 149.2 149.4 149.8 150.4 157.4 169.2 184.5 191.3 202.8 206.1 204.5 207.7 221.7 223.6
36.6 41.4 45.9 49.8 53.3 60.1 64.8 73.5 76.8 85.8 93.3 100.4 106.9 115.9 126.3 136.7 143.5 148.5 152.9 159.3 166.7 175.1 181.8 187.9 193.8 204 215.1 220.8 226.1 227 219.2 213.9 206.3 199 197.1 180.8 174.5 164.7 153.9 146.7 131.5 115 96.5 66.4 42.3 27.5 13 6 6 6 6 6 6 6 6 6 6 6 6 6 6 6 6 6 6 6 6 6 6 6 6 6 6 7.6 17 36.8 48.6 47.2 73.9 106 122 143.2 186.5 221.6 243 262.4 289 310.5 332 351.8 377 410.7 429.2 439.3 456 464.1 474.6 464.3 456.8 445.5 436.4 432.6 428.4 429.7 427.4 421.6 422.1 421.2 425.3 427.7 434 437.3 446.2 454.9 465 476.1 489 507 526.6 543.1 559.5 587 617.5 637.9 652.1 659.9 661.9 642.5 630 597.7 566.8 539.1 521.2 507.3 499.9 469.2 460.7 459.6 456.8 457 449.8 441.5 434.8 426.7 417.5 413 411 413.1 416.6 416.5 417.9 418 415.4 414.2 411.5 404.3 397.1 386.1 374 363.4 353.3 342.3 328.4 308.9 298.6 282.8 269.5 254.5 241.9 226.2 213.5 203.4 200.6 198.7 196.2 186.3 179.6 174 162.7 155.8 149.3 148.2 147.9 148.6 148.7 147.8 148.7 148.7 148.9 149.3 151.1 163.5 169 172.5 185.6 188.4 190.8 195.9 202.4 209
43.9 50.8 58 61.6 69.5 76.2 83.2 91.6 98.2 105.2 112.7 121.2 127.6 137 146.7 155.4 164.8 170.2 175.7 181.4 188.9 196.1 203.3 214.7 224.7 226.4 234 239.9 244.6 244.4 236.6 226.5 219.5 219.3 217.5 201.9 184.3 175.4 164 154.4 147.4 126.6 108 73 47.4 31.7 18.5 6 6 6 6 6 6 6 6 6 6 6 6 6 6 6 6 6 6 6 6 6 6 6 6 6 6 6 6 22.3 38.8 40.3 67.8 102.1 114.1 146.8 180.9 217.8 242.6 254.8 279.2 297.8 319.7 341.5 373 396.6 415.5 433.2 451.3 464.5 471.7 467.3 452.7 442.6 438.1 437.7 432.2 427.6 426.8 428 424.8 426.9 430.1 434.4 437.7 441.5 450.5 459.8 472.4 482.7 495.4 516.3 534.4 556.1 575.8 602.5 633.5 649.6 660.2 668.4 665.6 644.9 611.9 587.6 564.5 545.3 525.6 513.3 493.2 475.7 479.5 476.1 471.4 468.5 463.1 460.9 450.7 441.9 429.6 421.7 425.5 425.3 428.1 423.6 425 425.2 422 421.4 417.8 411.3 403.2 396.1 392.8 376.3 364.4 355.2 341.2 330.3 312.4 300.1 283.1 266.4 251.2 238.7 223.5 212.1 212.8 208.9 204.7 196 184.6 173.8 164.8 169.3 161.2 149.9 149.4 148.2 148.7 147.1 148.7 147.7 148.1 147.9 149.2 156 160.6 162.5 165.4 171.8 176.2 182.3 189.1 196.1
52.8 64.5 71.4 80.9 88.7 94.2 101.7 109 117 124.1 133.6 142 150.6 157.7 168.8 180 186.7 193.8 198.1 203.4 215.7 232.3 238.4 248.3 253.6 261.6 261.4 257.3 258.6 255.1 241.7 238 232.7 231.7 235.7 225.4 199.6 184.6 175.8 170.3 158.6 134.2 106.8 78.1 54.4 37.6 25.3 10.6 6 6 6 6 6 6 6 6 6 6 6 6 6 6 6 6 6 6 6 6 6 6 6 6 6 6 6 20 36.2 35.2 56.4 83.5 113.4 143.8 175.4 218.3 240.9 247.5 268.7 287 306.8 332.1 362.8 385.2 405.1 434.7 458 467.6 459.8 463.7 456.4 450.9 440.4 434.3 433 430.9 433 432 429.8 429.4 431.8 435.7 439.1 446.3 455.2 467.7 480.5 492.9 503.4 523.2 544.6 569.8 588.9 615.4 642.3 665.9 671.2 676.6 662 644 616.6 596.1 581.6 567.9 538.3 518.2 504.1 491.4 494.3 491.5 488.6 486.7 479.7 474.2 452.5 443.6 436.6 437.9 435.6 434.5 435.4 435.4 438.6 436.6 435.2 428.3 425.5 421.6 418.2 411.9 399.2 388.4 380.2 376.9 363.6 349.5 333.6 324.6 303.5 290.7 266.4 250.3 235.9 223.1 224.4 222.2 213.5 203.4 192.9 192.4 182 175.7 165.1 155.9 150.9 149 146.6 150.2 155.2 151.1 148.6 147.5 148.5 152.9 154.4 156.3 154.9 162.1 166.1 171.8 171.3 177.8
69.2 82 91.9 99.1 107.1 115.2 123.6 132.1 137.6 146 155.3 164.7 176.2 183.6 196.4 203.5 212.2 213 221.1 237.9 247.3 261.3 268.5 281.2 277.9 283.1 285.3 283.4 276.1 263.2 258.8 255 254.4 247.7 244.2 232.1 212.5 197.1 184.8 179.2 162.4 134.1 105.8 83.3 59 44.6 31.6 14.9 6 6 6 6 6 6 6 6 6 6 6 6 6 6 6 6 6 6 6 6 6 6 6 6 6 6 6 18.4 28.3 33.4 52 79.4 111.8 138 180.5 219 238.2 246.9 259.6 280.5 299.1 323.6 350 379.2 402.4 434.3 450.1 460.8 451.8 457.4 458.7 456.5 443.3 436.1 436.7 433.2 432.2 434.6 430.1 430.2 433.8 441.3 444.4 449.8 460 471.2 483.8 498.6 515.2 533 555 580.5 604.9 625.6 657.5 669.2 677.5 674.3 663.8 643.2 635.7 617.7 594.4 565.3 543 531 524 515.5 513.6 512.3 504 498.9 482.1 476.3 468.9 456.9 454 453.7 444.6 444.1 448.6 452.2 453.5 453 449.2 438.1 435.5 433.7 427.7 417.3 397.2 394.7 391.3 382.2 367.2 350.1 334.5 320.1 307.4 290.4 276.5 263.2 245.8 235.5 237.5 231.8 223.1 215.3 209.3 199.2 189.4 182.2 171.3 159.7 155.4 151.9 150.5 150 152.3 151.9 148.8 147.7 148.3 150.1 152.3 152.7 152.9 154.7 159.2 161.5 167.8 162.9
87 98.1 108.8 117.5 127.5 137.1 144.5 153.5 164.6 174.1 182.7 193.4 201.4 213.4 221.4 224.8 227.7 237.2 250.9 265.3 280.8 289.6 298.5 306.6 298.8 298.5 296.7 296.1 287.1 289.5 286.7 277.8 271.3 265.1 250.2 235 221.1 207.9 195 187 168.5 144.6 114.5 90.4 66 50.1 36.6 22.3 10 6 6 6 6 6 6 6 6 6 6 6 6 6 6 6 6 6 6 6 6 6 6 6 6 6 6 10.7 18.6 31.3 53.9 81.5 115.7 143.3 183.5 210.2 234.8 251.1 256.7 280.9 299.5 318.4 353.7 377.3 393.4 414.4 432.5 446 458.4 462.5 461.4 463.1 453.6 438.5 439.5 434.9 432.9 430.9 429.1 431.2 435 441.4 448.4 454.7 464.2 475.7 489.1 507.4 525.9 542.2 571 598.3 615.4 633.8 666.2 676 676.2 670.6 661.8 651.8 631.1 608.8 598.9 564.1 561.2 553.3 539.8 537.1 535.9 534.8 523 507.3 502.2 496.1 485.3 474.8 474.9 463 456.5 458.3 463.1 477.1 482.3 484.1 480.6 466.4 436.5 431.9 425.1 419.8 412.9 405.5 398.7 395 382 365.2 348.1 335.7 315 297.9 286.1 272.7 256.6 251.1 251.6 243.6 233.7 227.5 221.4 208.1 198.9 191 179.1 169 157.7 155.2 152.6 151.4 149.1 148.3 148 146.5 148.2 150.6 152.3 151.5 150.1 151.2 152.1 153.7 154.6 154.6
107.3 117.6 128.2 134.3 146.9 157.3 167.8 180.2 193.5 203.7 208.3 217.5 226.5 237.3 244.2 246 254.9 271.1 286 289.6 308.8 317.5 330.5 331.2 312.3 313 309.8 307.1 308.2 312.6 305.9 294.8 284.2 274.4 261.3 244.9 234.5 222.1 208 193 176.5 147.2 117.7 89.3 70.9 56.4 42.8 29 17 10.2 6 6 6 6 6 6 6 6 6 6 6 6 6 6 6 6 6 6 6 6 6 6 6 6 6 6.7 12.9 26 51 84 118.1 149.7 178.9 208.5 237.3 252 257.4 282.8 298.1 315.8 346.8 373.2 402.5 422.3 442.3 457.2 461.9 464.5 460.8 459.2 449.8 438.3 436.9 433.2 432.1 431.9 433.5 436.9 440 446.3 450.4 458.2 470.5 483.9 494 517.9 532.9 554.5 584.5 614.2 627.6 646.7 670 682.1 677.5 672.9 666.9 645.4 627.7 609.3 602.3 589.6 577.5 567.7 559.2 559.1 554.5 545.1 534.2 533.5 525.2 512.7 502.9 493.9 488.1 488.3 481.5 484.8 486.5 495.3 500.6 497.3 493 478.3 449.7 436.9 436.8 432.6 421.9 416.3 410.3 403.4 387.4 360.2 345.3 333.5 320.8 306.9 296.9 285.3 270.9 260.5 263.7 258.2 250.7 239.4 230.2 218 202.1 197 189.6 180.7 170 169.7 161 153 149 148 146.8 148.2 148 148.4 150.7 151.8 150 149.4 149.7 148.9 151.6 148.5
124.3 136.9 147.6 159 169.1 181.1 192.4 205.9 219.9 226.9 233.9 239.6 252.4 264.6 264.7 268.3 279.2 292 297.7 310.9 328.7 346.2 355.3 355 330.8 332.2 326.7 323.7 332.4 333.1 320.8 309.6 297.1 279.5 270.6 253.4 240.2 232.8 218.7 199.7 181.1 149.7 121.9 94.1 72.9 61.8 52 37.7 24.5 14.6 6.5 6 6 6 6 6 6 6 6 6 6 6 6 6 6 6 6 6 6 6 6 6 6 6 6 6 10.8 31 53.2 89.4 121 154.5 182.6 211.6 234.2 249.4 264.5 288.9 299.7 321 353.1 380.1 402.6 428.1 446.9 466.2 472.9 469.2 461.9 462.9 449.3 442.1 437.8 435.4 434.8 432.6 436.1 440.3 442.4 446.3 455.5 465.6 476.8 486.7 505.2 522.4 541.6 566.7 599.8 626.9 638 658.4 673.1 685.5 691 683.9 667.9 660.1 644.3 623.9 614.6 603.9 593.4 591.7 575.9 573.8 565.8 557.9 560.3 543.2 535.1 527.5 528.3 531.9 514.9 506.4 510.6 513.2 507.9 506.1 509.7 506.5 488.3 475.9 451.6 450.3 447.2 441.6 434.2 429.2 422.7 405.7 387 372.4 358.3 344.1 331.2 323.2 314.8 298.4 283.4 268.4 278.4 283.4 275.8 264.1 243.5 232.1 221.7 216.7 206.9 195.5 189.4 187.5 179.5 159.2 150.1 148.4 147.6 146.7 149 147.9 148.2 148.9 150.3 147.9 147.2 146.9 146.3 145.5
145.7 155.4 168.3 183 193.5 202.6 216.4 230 241.5 251.2 260.8 269.3 272.2 281 286.3 291.3 300.2 305.5 317.3 335.6 351.6 363.4 376.6 367.6 351.8 343.8 339.2 342.3 351.8 358.8 335.2 316.4 305.7 293.7 285.8 281.8 255.9 248.1 233.1 216.6 180.5 146.1 124.9 95.8 80.6 69.9 59.4 47.7 32 20.4 13.3 6 6 6 6 6 6 6 6 6 6 6 6 6 6 6 6 6 6 6 6 6 6 6 6 6 15 31.7 52.3 88.3 118.5 147.9 178.7 205 229.4 249.5 270 291.3 300.1 318.4 356.8 373.9 394 424.3 462.2 480.2 476 469.8 467 463.5 454.4 444.5 441.2 438.5 435.4 433.2 436.9 440.8 444.9 451.6 459 470.2 480 491.9 509.2 526.2 546.8 577.9 609.7 633.8 642 665.2 680.5 701.2 704.1 697.2 694.3 683.8 676.4 659.6 636.1 627.4 618.6 603.7 591.5 591.2 585.3 575.2 570.4 572.1 558.3 552.3 560.4 551.3 535 527.8 529.3 531.1 530 522 515.4 509.1 498.1 479.6 466.3 462.1 459.3 458.1 459 447.2 443.2 434.5 421.6 399.4 377.8 364.6 350 338.5 324.5 310 290.4 285 291.1 294.4 283.9 271.4 258 256.3 251.1 231.2 221.6 212.2 205.9 203.6 193.7 184.4 158 151 149.4 148 147.6 148 148.1 147.9 151.9 149.4 151.8 153.7 148.5 147
159.5 171.8 188.9 204.5 213 227.3 241.2 251.1 261.6 282.4 289.1 296 306.7 307 308.4 315.9 320.8 324.1 340.5 354.1 368 383.8 386.2 372.1 362.2 356.4 359.8 361.5 372.3 371.3 355.7 325.5 322.1 318.1 301.6 287 277.6 259.6 232 219.4 185 142.3 121.3 100.8 84.3 75.8 65.9 56.6 42.2 25.9 14.1 6 6 6 6 6 6 6 6 6 6 6 6 6 6 6 6 6 6 6 6 6 6 6 6 6 16.4 32 50.6 80.7 118.1 148.4 180 208.3 232.6 253.9 273.6 292.4 298.2 316.8 343.2 367 393.6 439 468.7 480.1 475.4 471.8 472.2 462.2 449.7 442.7 440.7 438.5 434.7 435.7 439.6 443.6 450.9 458 465.6 476.3 489.5 500.1 514.9 537.5 555.6 580.8 614.9 633.6 646.8 665.3 689.8 708.3 720.8 722.2 724.5 701.6 692.5 676.3 668.2 651.5 632.5 612.8 609.4 607.7 605.9 608 609.9 586 580.2 589.2 583.6 573.5 552.7 546.5 536.7 539 526.6 519.2 509.9 507.5 502.6 507.1 501.3 478.8 473.7 475.3 478.7 470.2 468 459 450.2 436.5 416.5 399.3 379.1 341.6 323.6 311.5 300.3 302.1 297.7 294.9 291.6 284.6 278 271.1 262.1 251.7 232.8 219.7 217.8 213.5 191.3 179.8 161.3 154 150.4 149 148.1 152.3 150.6 145.6 147.6 157.3 155.8 157.7 153.7 146.2
174.3 190.6 207.8 222.6 237 249.7 262.6 276 289.2 296.5 307.7 320.3 328.3 332.2 328.3 339.8 343.3 345.1 354.7 367.9 382.6 399.4 392.5 377.8 372 370.6 375.9 381.1 375.8 369.5 356.3 334.4 333.3 322.6 312.3 294.1 290.4 258.8 231.4 220.6 189.3 151.8 128.9 106.3 89.9 82.1 71.7 62.8 49.7 30.9 16.8 6 6 6 6 6 6 6 6 6 6 6 6 6 6 6 6 6 6 6 6 6 6 6 6 6 16.8 33.3 56.8 89.2 125.9 156.6 190.6 215.6 239.6 253.6 269.2 285.3 293.2 315.9 341 365.1 399.8 451.2 469.3 475.3 477.4 480.3 476.4 470 453.9 448.2 443.3 439.6 439.3 441.8 445.1 451.4 455.2 462.1 470.6 481.8 495.5 506.6 525.2 547.9 569.1 589.9 617.3 639 654.4 670.9 693 724.6 740.5 747.1 735 727.9 705.9 693.4 675.3 658.5 640.1 638.8 624.3 620.1 626.7 631.2 632.9 613.6 609.5 601.5 599.7 589.8 563.9 553.4 546.1 539.9 530.1 524.4 524.8 523.7 525.3 532.4 526.9 509.7 487.3 489.7 480.1 473.1 473 476.2 464.9 450.6 428.3 404.3 386 363.1 341.2 326.8 309 311.6 314.3 308.1 306 304.9 301.1 301.2 283.5 263.2 252 230.9 227.6 214.9 198.4 181.1 168.2 159.9 152.5 151.4 153.2 150.2 149.3 147.3 148 145.3 147 144.7 143.4 142.8
185.9 208.9 222.8 240.2 255.5 268.8 281.6 294.6 309.3 317 325.6 342.7 352.2 343.8 348.1 357.7 370.6 372.5 387.8 398.3 404.2 410 391.4 384.3 382.7 381.3 378.6 380 383.3 361.1 354.1 344.2 335 323.8 314.8 303.8 295 251.9 241.6 214.3 179.1 156.5 129.9 113.3 93.8 85.9 79.7 69.6 56.1 39.9 21.6 6 6 6 6 6 6 6 6 6 6 6 6 6 6 6 6 6 6 6 6 6 6 6 6 6 15.6 35.3 64.4 96.3 127.9 162.3 189 211.6 238.3 255.8 265.9 279.3 292.2 318.8 342.5 366.5 405.4 452.7 467.3 477.8 489.3 486.9 478.3 470.7 464.1 460.5 456.8 447.4 445.6 450.4 451.7 456.2 461 470.4 476 487.6 503.8 512.5 534.6 557.3 575.6 604.7 631.1 650.6 661.8 679.3 709.9 739.4 755.7 759.6 752.4 736.2 719 692.3 674.8 665.7 659.8 646.5 648.2 644.8 654 654.2 648.8 654.5 647.8 635.4 625 607.2 589.1 561.1 552.1 540.7 542 541.4 543.5 546.1 548.6 549.4 539.6 529.1 509.2 494.9 493.2 480 481.7 479 465.4 438.3 426.5 410.2 388.8 360.8 348.7 330.5 310.7 325.6 329.7 325.6 321.2 328.5 323 309.7 291.6 273.8 260.5 247.2 238.5 224.4 206.4 189.7 171.5 160.7 157.6 157.3 157.6 151.7 153.8 152.6 150 149 148.4 151.3 151 148.1
201.4 219.9 232.9 256.8 269.2 284.8 300.5 323.9 335.4 341.1 354.6 362.1 368.6 362.3 370.4 379 391.2 404.8 413.7 422.9 423 412.1 403.9 402.3 394.2 396 382.3 379.8 373.8 359.7 357.5 352 332.1 321.9 319.3 315.3 299.1 252.4 242.9 204.3 184.6 160.5 130.3 119.5 98.8 87.7 85.3 75.6 68.9 48.8 27.6 6 6 6 6 6 6 6 6 6 6 6 6 6 6 6 6 6 6 6 6 6 6 6 6 6 15.2 34.9 70.2 103.2 124.1 153.5 183.4 210.1 238 255.1 266.1 280 294 318.2 340.5 365.8 404.2 448.9 470.7 478.2 489.9 491.9 483.2 471.2 467 461.7 457.4 455.3 454.9 454.8 456.9 460.3 464.6 477.6 484.7 495.7 509.5 521.9 544.4 560 582.3 613.6 641.1 662.8 668.1 685.3 726 745.4 767.7 773.5 766 757.3 724.7 706.7 690.5 682.4 676.7 675.6 680.6 686.6 696.1 688.1 685.2 679.2 657.5 642.4 625 610 595.8 592.1 579.5 567.1 562.7 566.6 570.1 585.7 572.6 565.4 554.2 541.4 528.4 503.7 491.7 489.3 482.2 475.6 463.4 448.3 435.2 418.5 392.9 365 349.8 325.4 352.3 349.3 331.3 336.3 333.5 328.9 332.9 329.8 320 312.8 276.9 266.8 254.6 237.6 218.4 190.1 175 170.5 163.7 158.9 156 153.2 163.4 156.9 152.6 149.8 152.5 154.1 152.8 150.1
212.1 226.7 253.2 267.9 281.2 302.8 325.9 348.6 361.1 369.2 378.8 383.9 376.8 387.1 394 399.4 408 417.2 429.3 438.6 429.1 424.5 420.2 413.3 406.3 400.7 386.4 383.3 375.2 359.2 355 340.9 328 326.1 320.2 311.8 286.4 257.5 229.7 202.8 184.6 152.5 133.9 118.3 95.5 86.2 82.3 78.8 73.3 54.7 35.3 10.1 6 6 6 6 6 6 6 6 6 6 6 6 6 6 6 6 6 6 6 6 6 6 6 6 12.6 33.6 69.9 93.2 119.5 147.1 182.2 212.5 235.5 251.5 263.5 279.8 297.6 319.7 339.4 368 409.8 449 468.9 475.8 493.4 492.8 486.7 475.2 472.8 466.4 465.9 464.5 462.4 457 462.2 464.2 471 484.3 490.3 505.9 521.9 531 552 567 596.9 619.9 647.4 660.8 679 704.9 741.4 753.9 771.1 776.1 772.5 763.5 743.5 733.9 724 713.3 726.6 725.8 722.7 728.1 726.9 718.6 711.2 694.9 666.3 649.7 639.4 628.5 619 614.1 601.6 588.7 589.1 596.4 616.4 614.3 589.3 577.4 563.4 550 535.1 527.6 496.6 485.3 487.2 479 466.4 453.7 431.7 411.3 391.2 370.2 341.5 357.7 374.4 366.8 352.9 340.1 339.2 338.9 339.4 347.8 337.6 310.6 297.6 298.5 282.8 259.7 239 212.4 186.4 177.3 171.3 162 155.3 156.5 163 158.7 155.7 157 165.9 160 159.3 156.9
222.9 238.8 255.5 277.4 300.5 324.3 345.4 366.6 379.1 393.3 404.6 410.5 414.8 407.2 416.3 419.8 426.4 432.8 440.7 443 447.3 453.2 439.1 428.4 418 404.6 394.4 395.1 374.9 360.1 350.1 339 330.1 328.3 321 308.4 301 281 233.1 208.9 187.7 160.3 141 124.2 105.6 84.3 80.8 80.6 69.6 53.1 27.9 11.2 6 6 6 6 6 6 6 6 6 6 6 6 6 6 6 6 6 6 6 6 6 6 6 6 9.5 32.1 65.3 89.3 115.1 144.9 185 212.6 232.7 246.5 262.7 276.3 294.7 321.4 344.7 378.7 420.8 451.8 476.1 478 493.8 496.5 495.2 481.8 481.8 476.9 470.8 469.9 468.6 464.4 465.5 470.6 478.9 488.8 497.1 513.5 524.8 535 552.7 574.5 603.8 618.1 639.4 665.8 693.3 716.7 755 767.4 773.9 779.8 780.3 783.2 781.9 775.2 764.1 764 763.7 762.8 755.3 761.8 759.3 753.6 746.2 727.3 698.6 678.2 672 664.1 664 643.2 611.3 608.8 617.5 636.8 644.3 625.8 603.5 582.7 570.8 553 545.6 530.9 514.1 485 476.3 479 465.8 444.7 425 407.1 390.4 364 371.6 398.4 394 383.8 362.9 347.5 348.1 345.2 344.8 343.6 334.4 328.1 321.7 330.4 293.7 263.8 240 220.4 200.9 185.3 171.9 163.7 158.8 159.8 160.6 160.2 158.5 165.8 174 168.8 165.9 163.7
237.4 251 267.8 290.9 315.1 336.6 356.7 379.1 392.1 410.4 419.8 430 435.6 423.9 440.8 440.1 442.7 448.9 453.1 458 475.9 474.6 466.1 452.9 429.9 415 402.3 401.3 380.4 374.5 359.2 343.4 333.1 326.2 321.6 322.9 303 279.2 252.8 211.9 193.3 169.1 152.5 134 111.9 86.8 80.7 80.8 67.2 47.2 26 10.9 6 6 6 6 6 6 6 6 6 6 6 6 6 6 6 6 6 6 6 6 6 6 6 6 6.7 28.3 63.4 86.9 113.2 145.3 179.8 205.6 231.5 246.8 264 276.3 288.9 322.6 348.1 385.1 423.7 445.2 475.3 480.2 496.4 502.3 498.5 486.6 485.2 483.8 481.5 478.4 474.5 475 478.1 481.7 488.9 493.4 504.9 519.2 534.5 543.1 564.9 582.9 601.4 628.7 655.8 673.6 707.3 730.2 755.2 764.2 762.5 774 780 810.4 816.1 811.4 810.2 802.1 796.9 793.6 792.1 802.3 803.2 797.6 785.3 765.8 730.8 701.7 698.3 684.2 681 644.5 640.6 643.1 660.3 681.6 666.7 635.4 617.2 592.8 576.8 561 549 530 506.2 491.5 482.4 453.5 445.8 431.7 417.3 404.9 376.9 386.5 422.1 414.1 402.7 382.3 366.4 363.1 356.3 354 353.6 349.8 348 344.2 356.9 353.2 316.4 277.4 251.6 230.9 211.5 193.5 178.2 168.8 166.7 163.6 165 165.7 165.8 173.7 172.6 172.7 172.7 170.4
244.4 256.1 281.7 306.7 324.2 349.5 372.7 386.5 408.8 425.3 437.2 445.3 451.6 451.1 457.1 457.2 459.1 464.7 471.3 488.5 505.2 496.7 481.7 450 427.4 426.4 408.4 395.6 386 375.9 362.8 347.7 335.2 329.8 333.2 327.8 311.4 278.6 247.5 215.1 198.4 173.9 158.5 144.2 115 89.7 83.6 73.8 59.8 42.6 23.9 11.3 6 6 6 6 6 6 6 6 6 6 6 6 6 6 6 6 6 6 6 6 6 6 6 6 6 27.2 60.2 83.6 116.5 147.3 176.2 203.1 230.3 250.9 274.1 275.7 284.5 321 345.6 386.8 423.8 438.8 469 477.3 501.4 500.2 498.3 491.2 494.2 493.6 493.5 490.9 487 486.3 492 493.4 495.8 500.3 511.1 535.9 544.1 553.2 570.1 587.2 608.7 637.9 662.8 696.4 731.2 743.9 739.6 749.4 760.1 759 771.2 818.1 834.9 850.8 848.7 839.6 831.3 832 838.6 853.9 854.9 841.1 822.7 790.4 771.4 746.7 716.3 703 678.7 679.4 673.9 678.2 712 694.1 669.7 637.4 615.6 592.4 581 570.9 560.8 547.5 527.6 496.2 483.7 458 435.2 424.6 413.2 388.3 400.6 438.8 439.1 427.2 401.9 391.3 379.4 369.8 363.8 363.7 359.7 363 359.1 357.7 379 355.6 323 296.8 278.3 260.2 235.8 211.8 195.9 185 175.1 172.8 173.6 173.8 175.2 177.6 181.6 183.8 183.3 184.4
250.9 267.3 295 312.3 332.7 356.1 380.6 396.9 419.7 435.2 452.7 459.3 465.9 468.9 473.8 474.8 479.2 483.2 492.4 511.1 524.8 515.7 493 449.1 435.4 436.3 414.9 405.1 380.2 369.6 362.9 356.3 349.2 337.5 337.3 336.7 327.7 289.1 247.1 218.4 197 172.4 158.1 144.6 114 95 89.2 76.4 60.6 44 22.3 14.2 8.2 6 6 6 6 6 6 6 6 6 6 6 6 6 6 6 6 6 6 6 6 6 6 6 6 22.8 56.3 86 114.4 143.9 172 195.5 228.6 254.1 270.9 269.9 282.4 318.3 342.8 367.1 417.3 441.5 469.8 486.3 496.2 498.1 500.1 495.9 502.6 504.1 503 499.5 495.5 498.4 501.1 503.1 504.5 510.1 521.9 539.6 550.8 561.2 579.6 600 622.6 644.3 683.3 716.6 742.5 754.4 750.3 741.1 744.5 760.2 760.2 795.8 831.1 864.4 886.6 888.3 875.4 874.5 884.1 910.5 894.3 871.5 846 819.5 786.2 754.4 721.4 708.9 706.6 703.1 692 719.3 745 719.3 687.3 655.2 626.7 606.3 587.4 582.1 573.3 557.6 543.2 516.1 501.2 465.1 438.5 429.9 409 414.8 440 444.2 439.8 419.8 409.6 404.4 395.4 386 377 373.7 370.6 369.8 370.9 369.5 389 373.6 359.3 354.4 315 282.1 261.3 237.1 216.6 204.7 193.2 180.9 185.8 189.5 188.9 182.8 195.5 192.5 197.4 196
261.7 276.5 301.4 326.8 345.2 367.5 385.3 406.6 427.5 457.5 469.8 476.1 479.3 480.2 488.4 490.9 498.2 507 517.3 534.5 536.7 521 497.9 470.7 442.9 442.3 414.9 399.4 382.8 380.6 369.7 362 357 347.5 344.2 342.7 332.4 281.4 264.3 220.2 197.3 180.6 156.5 138.2 123.2 105.3 91.9 81.5 71.2 36.8 22.3 15.4 8.1 6 6 6 6 6 6 6 6 6 6 6 6 6 6 6 6 6 6 6 6 6 6 6 6 18.2 49.1 80.5 105.8 135.8 157.8 191.2 234.8 257.8 260.8 255.2 271.4 309.3 342.3 367.5 403.4 439.4 459.8 484.3 492.1 505 504.8 501.5 511.2 511.6 511.3 509.3 507 509 509.8 512.7 517.9 518.3 525.6 540.9 551.7 572.5 595.4 616.3 638.7 670 706.5 731.2 755 767.6 756.9 750.2 740.2 748 748.2 773.4 815.5 846 902.2 924.8 907.6 918.2 924.1 933.8 909.9 883.1 856.7 824.7 785.7 761.5 738.1 726.7 725.4 715.9 722 755.8 757.7 733.6 705.6 670 635.7 612.1 598.6 586.4 578.4 566.1 553.6 516.7 497.4 483 457 436.8 420.7 452 456.2 453.1 449.6 420.9 416.2 412.9 407.4 396.7 388.5 384.4 384.2 380.3 377.6 382.3 396.2 402.7 390.9 372.3 338.5 302.3 277.4 247.9 230.2 213.6 202.6 187.6 198 203.7 197.3 193.2 198.3 200.2 207 204.3
267.5 285.9 309.5 332.1 356.5 382.5 398.5 414.9 447.3 473.9 484.1 492.5 492.8 497.7 501.2 508.1 518.6 533.2 547.4 557.6 539.3 526.5 501 463 448.1 436.8 422.6 401 396.8 395.7 379.6 368 363.8 361.1 345.7 342.9 313.5 284.2 267 221.4 201.2 184.8 165.3 143.3 128.8 115.3 93.7 85.7 72.5 39.2 29.2 16.7 12.2 6 6 6 6 6 6 6 6 6 6 6 6 6 6 6 6 6 6 6 6 6 6 6 6 13.8 41.9 71.5 97 121.7 146.6 191 229.6 254.5 254 251.2 256.9 302.3 319.9 370.5 383.7 428.6 445.8 482.2 498.4 508.1 508.9 505.5 517.7 523.9 514.9 519.2 519.6 522 525.4 525.7 530.7 530.7 531.5 542.8 559.2 584 615.5 647.1 669.2 701.8 737.3 751.2 772.3 774.2 772.3 748.4 745.1 730.3 738.5 766.8 790.2 824.6 877.4 914.9 940.5 962.6 965.3 945.9 914.1 878.7 850.4 816.5 785.5 759.7 743.9 739.8 739 731.8 752 802.1 775.7 742.6 709.9 681.2 652.3 622.8 603.1 592 584.6 572.7 556.2 521 499.2 484.4 467.3 440.3 453.2 476.1 477.4 463.5 449.2 436 429.2 421.5 417.3 410.9 402.9 396.3 384.8 389.1 386.9 392.3 402.1 402.6 403.8 387.7 338.3 306.1 278 259.4 236.1 225.6 213.5 202.2 206.3 205.3 203.9 201.2 201.4 208.9 211.6 210.3
274.9 291.6 315.1 340 363 384.7 401.8 430.3 460.5 479.6 495.1 509.1 508.3 512.4 516.8 525.4 538.4 544.6 557 566 536.7 525.1 512.3 470.8 453 438.7 416.2 410.2 401.2 393.1 376 368.3 364.8 357.3 343 338.1 323 275.5 246.4 222.3 205.1 184.9 164.6 145 130.2 118.3 92.9 90.6 67.5 46.3 33.1 20.1 14.8 6 6 6 6 6 6 6 6 6 6 6 6 6 6 6 6 6 6 6 6 6 6 6 6 7.9 36 61.3 85.2 112.8 143.7 183.9 210.2 242.1 239.5 246.2 249.6 282.1 316.2 353.2 373.6 412.1 427.6 468.1 497.9 510.7 511 503.4 517.9 524.8 519.8 530.9 532.4 539.4 543.3 536 539.7 539.9 540 550.5 576 610.3 636.2 671.1 692.6 727.8 761.4 762.2 773.4 769.4 759.9 750.9 731.5 723.4 731.7 758.3 783.3 814.5 858.2 892.2 911.3 934.5 968 947.5 905.8 868.5 842.6 816.4 784.6 769.6 765.3 764.1 758.9 761 813.1 817.8 789.3 758.4 725.8 683 654.4 630.5 613.5 600.2 589.8 581.1 560.9 532.2 506.1 487.5 467.6 460.3 492 488.7 487.6 483.6 464.5 449.9 440.6 435.9 429.2 421.9 416 407.4 394.3 397.2 395 411.3 416.5 402.2 400.3 377.5 351.2 325 300.1 276 250.3 238.1 224.4 212.5 214.7 216 219.5 216.2 209.3 217.6 218.9 216.2
282.3 301.1 324.7 348.7 371.6 392.4 417.8 440.1 466.1 483.8 507.7 522.5 519 527.3 533.5 545.1 553.2 556.5 562.2 556 540.3 529.7 497.8 471.2 452.9 435.3 418.6 414.6 404.3 387.5 375.8 371.4 367.4 354.2 342 333.9 308.9 300.3 254.1 225.7 203.4 184.7 167.2 145.8 126.6 113.6 94.9 87.1 64.9 51.1 35.8 22.2 16.6 6 6 6 6 6 6 6 6 6 6 6 6 6 6 6 6 6 6 6 6 6 6 6 6 6 29.3 53.9 74.4 110.4 133.7 170.8 198.8 229.1 238.9 240.7 242.5 274.4 303.6 336.2 359.9 378.6 410.5 449.5 481.8 502.2 511.9 502.5 516 521.6 524.5 541.2 548.3 553 549.8 547.4 551.4 546 546 557.3 595 627.4 663.5 686.1 715.4 741.8 754 758 766.7 765.5 753.2 748.5 732.2 721.6 724.4 749.9 779.1 813.7 847.6 876.7 883.8 902.3 948.3 943.1 907 875.9 847.6 827.7 819.5 813.1 802.9 786.3 798.4 847.7 853.2 818.4 787.6 760.5 733 703.7 673.5 646.6 630.3 621 602.9 583.2 570.1 534.6 507.7 486 478.1 506.1 507.3 506.2 498.2 500.9 482.8 462.8 450.6 447.8 431.2 423.4 420.4 407.8 396.8 405.8 407 426.5 432 418.4 399.7 388 360.8 333.3 298.6 273.3 255.1 240.9 230.8 233.5 231.9 234.1 233.7 227.8 224 230.3 225.4 222.6
298.2 305.8 330.1 356.5 377.1 407.2 424.7 442.9 466.5 495.7 517.5 530.6 528.6 536 546.3 562.7 565.2 573.2 571.5 560.5 541.3 528.9 505.1 473.9 453.8 433 420.1 412.8 400.9 382.9 373.4 368.9 366.8 356.5 339.2 323.6 313.6 299.2 261.6 230.7 205.6 190.2 170.2 150.3 125.6 109.1 96.9 83.9 59.5 60.3 44.3 29.1 19.4 6 6 6 6 6 6 6 6 6 6 6 6 6 6 6 6 6 6 6 6 6 6 6 6 6 22.4 50.8 75.9 100.2 116.5 155.9 183.5 203.1 230.4 233.8 227.7 260.9 286.2 318.8 338.3 368.9 403 428.1 456.7 489.2 502.8 481.5 518.1 530 526.2 547.3 553.5 554.8 554.5 555.6 549.1 546.1 550.1 568.5 611.3 657.6 682.8 704 725.7 741.7 749 753.4 752.3 745.9 736.9 735.2 733.7 726.4 719.2 743.1 773.4 804.1 832.8 856.4 865.1 882.1 923.4 940.6 958.4 937.5 892.5 869.1 852.4 827.2 828.2 831 873.3 877.4 848.2 816.7 782.9 757.7 737.9 714 690.8 667.9 650.5 629.4 608.4 584.6 565.7 532.1 504.8 499 509.4 531.8 533.2 519.7 510.1 499.3 484.4 460.3 449.5 439.7 424.3 419 414.6 405.6 405.6 411.4 416.4 438.1 445.4 434.2 420.8 404 386.2 351.4 321.5 300.8 280.8 260.8 253.6 255.8 252.5 249 245.1 237.8 239.3 239.7 233.4 233.7
306.3 327.4 336.4 362.3 387.6 411.2 432.6 452.6 481.2 504.5 523.6 535 536.4 548.6 560.1 574.7 584.1 583.1 579.4 567.1 544.6 524.2 501.9 476.3 461.3 443.9 425 410.4 396.7 379.3 369.5 363.2 355.2 342.7 330.7 318.1 308 283.4 261.1 235.7 202.2 181.6 151.9 132.9 126.2 110 97.9 94.8 79 67.7 56.2 37.1 24.7 13.2 6 6 6 6 6 6 6 6 6 6 6 6 6 6 6 6 6 6 6 6 6 6 6 6 13.9 44.7 71.6 91.6 111.5 141.6 174.7 191.6 213.4 226.3 213.6 230.1 266.4 303.1 318.1 356.3 385.9 407.3 435.9 457.5 477 470.8 498.1 527.5 526.3 541.3 545.6 554.6 560 556.3 549.6 547.3 552.3 576.6 630.8 675.6 699.1 721.4 735.1 748.6 743.9 734.2 729.2 729.3 740.6 736.1 731.2 719.4 710.4 731.9 764.2 786.6 810.9 833 844.3 871 900.3 918.9 936.9 948 925.7 891.8 863.9 859.4 865.1 917.4 901.2 870.8 837.5 807.8 780.5 756.3 735.7 718.1 698.3 680.7 660.3 631.7 608.1 584.9 560.8 528.8 523.1 527.2 549.8 565.8 552.9 536 519.8 502.9 487.2 456.1 445.9 432.5 422.9 417 418.4 413 410 419.2 425.8 449.5 448.3 443.8 445.2 424.5 417.1 406.8 375.2 350.3 325.9 297.1 273.8 279.8 271.7 269.2 267.8 259.4 254.8 250.5 248.2 245.7
315 339.2 359.3 376.8 394.4 414.1 438.7 460.7 491.6 515.7 531.2 539.2 543.9 558.7 571 590.9 598.6 596.4 576.8 562.5 548.4 526.2 498.9 479.9 469.8 436.7 419.7 406.2 397.5 378.1 368.5 363 354.1 344.7 332.1 315.5 292.1 268.9 247.6 243.7 224.2 198.3 175.5 173.7 153.7 133.7 117.8 108.1 90.5 81.6 66.5 48.5 30.1 17.4 6 6 6 6 6 6 6 6 6 6 6 6 6 6 6 6 6 6 6 6 6 6 6 6 6 36.4 64.6 83 105.7 129.6 173.6 182.5 197.4 214.4 201.5 219.1 256 291 297.6 339.4 348 385.5 413.9 420.9 437.8 459.4 493 516.4 516.7 532 562.9 567.7 571.4 554.9 543.8 545.8 554.9 583.1 640.9 688.2 710.3 730.6 742.7 748 726.3 710.6 720.8 727 728.5 727.7 718.4 711.6 695.8 724.6 749.7 769.2 787.7 808.9 823.9 846.3 876.7 892.4 912.2 924 932.6 936 944.2 941 926.8 928.7 896.7 862.5 828.9 803.5 779.1 758.7 733.8 714.5 699.9 683.7 662.2 633.4 599.3 585.6 558.7 547 553.9 576.1 583.9 582.2 565.9 548.1 526.6 504 484.8 460.9 442.4 429.1 422.1 420.8 420.9 416.3 414.5 423 436.3 450.2 452 453.9 456.5 436.3 424.9 422.7 398.8 375.7 349.7 329.9 293.3 299.3 289.3 288.1 287.5 270.6 266.8 266.8 266.4 262.9
321.7 345.3 367.5 391.5 407.2 425 446.2 467.4 493.3 514.8 531.9 538.9 550.7 568.7 585.2 604.1 603.3 594.1 566 546.4 529.5 508.5 492.9 479.5 460.5 436.3 419.8 405.5 394.1 371.1 350.8 343.5 332.1 323.8 305.5 286.1 274 275.6 283 278.5 263.4 234.1 208.1 182.6 167.6 144.7 129.2 119.5 110.5 94.8 82.4 62.6 38.5 27.4 17.2 6 6 6 6 6 6 6 6 6 6 6 6 6 6 6 6 6 6 6 6 6 6 6 6 24.6 50.9 76.8 104.3 126.9 156.4 176.7 185 187.3 188.2 206.5 228.1 271.7 296.3 315 332.5 352.7 384 391.2 426.7 453.9 470.8 497.8 512.9 541 561.9 571.6 559.4 548.1 541.4 542.5 556.9 597.1 645.3 692.5 717.2 734.6 747.4 743.1 713.8 700.9 713.7 707.2 710.1 707.3 704.6 700.1 690.5 711.2 728.8 743.9 763.6 786.1 802.8 826.6 848.7 869.8 890.5 902.1 907.1 916.4 922.2 924.9 925.3 919.4 901.4 860.4 828.8 800.1 776.4 758.7 737.9 717.7 698.6 684.2 661.8 638 607.6 592.5 569.7 573.9 592.5 599.7 602.4 592.7 574.7 551.9 532.9 513.2 483.5 461.9 446.6 437 430.6 425.4 421.5 415.9 416 422.1 438.8 449.9 454.8 465.2 460.6 457 444.8 423.6 414.2 377.7 363.8 339.4 309.7 325.4 310.7 299.2 286.1 289 286.4 287.2 286 279.6
334.2 355.2 373.8 400.9 417.8 440.9 457.5 478.6 503.8 522.9 530.8 543.9 562.3 581.6 595.5 609.1 618.5 611.3 583.6 545.8 528.5 512.4 495.7 475.4 452.1 435.3 421.6 407.2 387.3 386.4 379.8 366.8 348.3 330.6 321 320.4 336.4 320.9 296.7 289 267 247.9 215.9 189.1 172 155.8 138.2 128.4 118.1 108.2 98 76.5 49.8 31 18.9 17 6 6 6 6 6 6 6 6 6 6 6 6 6 6 6 6 6 6 6 6 6 6 6 15.9 29.2 66.7 102.9 123.1 133.6 158.8 174.8 173 177.7 194.4 214.6 240 280.5 293.7 307.8 334.8 349.9 389.8 421.8 451.1 465.9 504.6 519.2 531.9 553.2 565.5 546.8 544.5 541.8 542 558.6 604.7 644 688.8 716.1 734.8 738.4 731.2 716.2 696.3 696.3 685.2 688.4 684.5 685.2 679.3 669.1 690.8 715.6 722.7 745.6 764.1 784.3 813.9 828.5 848.8 870.7 878.9 882.8 889 895.7 898.8 899.9 897.4 892.1 874.4 832.6 803.1 777.8 756.1 736.2 712.2 688.4 670.6 657.1 631.2 610.8 594.4 592.8 612.1 627.5 626.6 627.3 611.3 583.7 563.4 541 519.2 495 475.1 459.5 445.2 432.1 433.5 424.3 417 418.9 423 439.9 456.5 463.4 472.4 472 467.4 457.2 435.7 415.2 390.5 373.9 346 326.3 341.1 321.7 306.9 309 309 314.5 306.2 303.6 299.6
340 359.5 384.2 408.9 425.5 447.7 469.3 489.5 509.7 522.2 533 556.4 576.2 593 603.2 617.8 616.6 592.3 569.5 551.8 536.5 518.1 496.2 473 453.4 438.9 425.1 411.5 406 402.5 396.3 387.6 364.9 358.4 371.9 375.2 367.3 332.9 321 320.6 310 253.9 229.3 206.1 196.5 178.3 147.8 135.8 129.7 118 106 85.2 62 40.3 27.9 18 12.8 6 6 6 6 6 6 6 6 6 6 6 6 6 6 6 6 6 6 6 6 6 6 6.7 21.7 60.7 97 111.9 124.1 139.9 166 167.3 167.4 182.3 201.8 225.4 263.9 273.4 295.3 311.3 347.8 383.4 418.6 442.3 475.5 501.8 518.2 519.5 524.4 539.9 552 540.2 544.2 535.3 560.4 594.4 648.1 680.3 713.7 735.9 741.7 715.9 699.4 681.2 672.5 663.8 664.4 665 662.7 656.6 646.9 672.9 695.5 705.6 723.5 747.1 776 798.2 812.3 829.7 849.3 850.8 854.9 860.6 864.3 867.1 871 873.7 874.2 874.8 847.8 813.5 783.8 758.3 736.1 713.6 683.5 664.9 645.1 626.8 620.3 619.6 627.8 646.2 661.2 649.7 643 614.9 589.1 571 554.9 529.4 501.7 481.3 462.9 446.5 437.6 431.6 426.4 423.9 423 423.9 443.3 457.1 461 474.7 484.7 478.3 463.5 450.4 433.8 417.1 387 359.4 351.9 353.9 334.6 328.2 328.5 327.2 331.2 325.4 330.4 321.8
342.2 364.6 393.7 416.9 435.7 457.1 476.3 495.5 511.6 527.4 541.8 564.9 594 608.9 615.2 628.4 619.6 599.3 582.2 555.9 538.2 523.3 505.6 476.4 461.3 445.1 432.5 422.1 420.9 415.3 409.6 401.7 394.4 399.5 400.8 399.3 383.3 350.6 338.2 339 314.7 290.7 262.3 235.8 220.2 187.3 164.7 152.2 142.3 131.6 113.7 95.7 73.7 52.1 37.6 22.6 16.3 9 6 6 6 6 6 6 6 6 6 6 6 6 6 6 6 6 6 6 6 6 6 6 11 55.6 83.9 100 113 125.8 149.7 150.1 155.2 168.5 189.4 215.7 253.8 258.2 280.1 306.6 339.1 372.7 403.2 442 469.7 500.6 515.3 502.9 501.2 535.3 545.9 534.6 543 526.1 554.7 586.8 633.7 663.5 716.8 729.4 729.9 696.9 682.9 667 649.8 639.7 641.4 635.3 634.7 633.6 634.4 657.5 668.7 685.7 697 731.3 760.8 782.9 799.2 810 827.1 828 828.9 832.8 839.9 835.8 838.7 847.2 849.9 855.3 847.4 825.3 789.8 764.1 730.8 717.7 685.7 664.2 645 641.7 649.6 655 676.3 687.8 679.4 668.5 653.6 629.7 596.9 574.6 545.7 522.1 494 472.3 460.7 445.7 436.6 435.3 431.1 428.2 427.3 425.1 434.6 453 464.2 474.6 487.6 487.5 482.3 473.5 457.7 427.2 412.8 377.6 362.9 360.9 346.2 348.6 349.4 351 347.2 352.6 340.5 314.7
354.3 370.1 397.4 423.1 446.8 468.3 481.6 497 514.7 529.5 551.1 580.6 611.8 617.8 617.7 624 614.5 597.3 573.5 557 538.2 520.3 501.1 476.9 464 454.8 439 439.6 433 425.9 421.4 416.4 411.4 419.9 417 408.8 391 363.1 351.6 348.9 327.5 298.9 274.6 256.1 240.5 203.4 181 167.2 159.5 143.8 124.1 106.7 87.2 66 45 32.3 19.6 16.2 6 6 6 6 6 6 6 6 6 6 6 6 6 6 6 6 6 6 6 6 6 6 6 28.9 68.8 76.4 97.5 116.4 122.8 129.2 143.4 158.3 175.8 204.8 224.5 252.4 275.7 296.1 321.7 361.3 409.7 432.2 459.8 490 500.4 499.2 497.9 515.9 534.4 528.4 526.8 516.2 544.8 575.2 615.6 675.2 708.6 722.5 723 705.1 666.3 646.7 636.5 619.6 612.7 609.8 610.6 616.8 625.4 628.2 649.2 663.5 677.7 713.8 739.5 766.6 785.3 796 807.9 810.8 810.7 805.8 813.8 814.7 816.6 824.8 825 831.6 823.9 814.5 791.9 763 733.3 707.4 686.9 663.5 661.4 672 700.7 706.8 721.2 706.9 691.8 684.3 649 616.2 580.1 549.9 521 499.3 480.7 460.6 453.2 448.5 441.6 439.4 438.6 432.4 429.2 427.4 434.8 448.5 466.3 477.8 485.5 488.2 492.9 485.1 470 447.9 428.8 400.6 389.4 368.5 367.4 362.5 363.4 365.5 372.8 372 348.8 325.9
346.4 368.3 395.8 430.5 447.4 471.3 483.3 500.7 518 537.3 557 591.7 613.4 616.2 613.5 621.6 615 599.2 586.9 560.3 541.5 520.9 503.4 489.1 477 463.7 455.8 456.6 446.5 439.7 432 426.6 425.3 431.1 428.8 413.5 403.2 378.4 367.3 362 361.2 331.4 299.4 282.9 249.6 222.8 197.4 179.2 166.8 148.6 132.5 116 102.4 83.3 51.4 44.1 30.8 20.7 17.8 6 6 6 6 6 6 6 6 6 6 6 6 6 6 6 6 6 6 6 6 6 6 18 36.5 52.5 72.8 107 108.5 114.7 129.6 149.3 171.5 197.7 223.4 250.2 269.1 292.1 319 360.3 389 413.4 447.2 470.8 493.9 502.7 501.5 492.4 522.5 515.6 504.2 505.9 539.3 563.4 610.8 668 699.1 720.4 720 716.6 666.6 634.4 620 602.8 594.8 592.1 595.8 603.4 617.6 612.3 633.3 648.5 659.7 685.5 716 745.8 764.5 779.2 790.2 790.5 790.7 787.5 789.2 795.9 797.2 803.5 806.1 810.6 806.1 799.6 790 765.1 735.7 711.2 693.8 689.8 707.5 734.6 736.5 740.2 725.1 713 704.5 680.7 649.2 621.5 571.5 529.2 503 484.1 473 463.1 453.8 446.6 444.5 443.9 445.2 437.2 431.9 429.6 437.3 449.2 462.1 477.4 486.1 489 489.8 485.7 472.6 457.6 437.1 429.1 408.7 389.5 385.5 382.5 384.1 391.9 396.2 382.7 357.8 336.5
346.3 367.2 397.3 430.9 446.4 468 484.9 501.1 522.6 542.8 559.1 585.1 605 611.8 612.6 618.6 614 603.5 580.5 563.9 547.4 529 516.1 501.1 487.9 467.1 472.5 465.5 458.5 459.2 447 437.4 436.9 438.3 431.2 423 421.9 389.5 381.9 380.3 371 347.5 322.1 294.8 261.3 229.9 204 191.7 176 154.3 142.4 122.5 107.6 83.8 65.1 54.7 42.1 26.9 21.2 6 6 6 6 6 6 6 6 6 6 6 6 6 6 6 6 6 6 6 6 6 6 6.9 31.3 40.4 56.5 90 97.6 107.1 122.2 136.8 160.3 192.4 216.4 242.6 259.8 282 309.9 349.4 382.3 400.8 434.1 460.5 486.3 496.2 499.5 492 486.2 501.8 493.5 499.1 520.8 565 616.4 657.4 684.8 713.6 720.9 711.2 679.2 637.5 618.1 601.3 586.7 583.8 585.8 594 599.5 596.3 621.9 635 646.3 666.4 698 724.3 747 760 773.8 780.8 780.8 772.9 773.6 781.5 789 794.3 801.2 801.7 799.5 788.7 778.7 757.1 732.3 716.1 722.6 727.1 725.9 734.2 737 729.1 718.7 709.2 701.6 676.7 635.7 599.1 565.8 525.3 501.8 483.8 469.8 457.5 453.3 445.2 447.2 449.5 447 440.6 431.4 430.5 438.7 446.8 462.3 476.9 487.1 491.8 498.2 493.6 482.4 467.4 448.3 433.5 412.3 408.9 407.5 409.5 411.8 415.4 409 395.6 369.8 345.6
346.7 370.4 395.3 421.7 445 467.5 486.4 505.6 526.9 541.4 556.2 575.4 592.2 602.8 613.2 620.1 625.1 622.7 614.9 587.9 563.9 540.9 523.5 507.5 495.7 492.4 495.9 490.4 480.3 474.7 463.5 450.6 450.7 445.6 438 428.3 421.8 401.5 389.4 386.4 373.2 348.2 331.3 310.3 277 239.6 217.3 203.1 190.5 165.7 153.1 129.3 112 97.3 73.2 67.4 52.9 39.2 24.7 17.8 6 6 6 6 6 6 6 6 6 6 6 6 6 6 6 6 6 6 6 6 6 6 20.6 30.8 48.9 62.3 72.4 97.4 114.3 123.2 152.1 181.9 203.2 227.2 248.7 275.4 304.5 342.1 363.1 390 423 451.5 472.9 476.9 481.9 486.1 479.9 484.9 481.7 496.5 514.6 582.1 624.8 648.7 681.5 711.7 728.5 698.8 672.1 630.4 613.1 594.7 583 572.6 576 581.1 584.6 586.2 602.8 621.2 633.1 650.5 678.7 699.8 717 733.8 755.1 762.5 762.8 759 757.5 768.2 780.4 786 794.3 794.9 787.6 774 764.7 747.6 725.8 719 733.6 728.4 721.2 728.7 723.2 712 706.5 700.1 693.8 667.1 621.8 592.5 558.7 527.4 503.7 486.8 472.9 457.6 447.9 443.5 446.9 453.1 449.8 443.6 432.8 431.7 438.8 449.5 464.3 475 483.6 486.1 495.9 498.4 488.3 470.8 449.7 438.2 435.9 429.6 437.7 438.6 435 437.1 423.6 401.5 378.3 359.2
350.9 371 395.8 421.6 445.9 469 484.3 506.3 525 542.1 557.1 572.3 589.4 603.2 615.4 634.2 641.4 639.8 634.6 606 582.1 557 538 523.8 501.5 511.6 518 506.6 500.5 490.4 476 464.6 459.6 465.4 450.5 436.8 434.7 409.5 399.2 388.1 367.4 345.6 333.4 307.1 299.8 252.9 233.3 212.9 191 170 145.2 138.3 123.8 104.7 84.9 79.5 72 49.3 41.8 24.4 13.1 6 6 6 6 6 6 6 6 6 6 6 6 6 6 6 6 6 6 6 6 6 6.9 24.1 41.4 53.9 66.2 90.3 105.1 115.5 140.8 167.8 187.7 219.9 247.4 272.7 301.8 334.7 353.3 372.9 410.7 442.5 460.3 468.6 463.5 481.4 475.5 482.8 475.4 489.1 509.5 575.2 613 632.6 673.4 692.5 728.1 699.6 666.8 633.5 614.1 592.9 579.4 570.3 571.5 572.8 576.5 578.2 585.4 599.4 625.8 637.7 660.6 677.6 689.3 707.2 732.2 739.9 738.1 731.9 737.7 753.7 767 779.4 784.7 787 781 766.7 748.6 732.6 716.7 720.1 723.6 715.1 700.9 705 704.4 706.4 702.5 695.3 683.7 655.2 612 589.8 552.2 530.3 508.3 484.5 465.5 454.4 447.6 443.1 441 448.3 452 443.8 433 431.8 438.3 450.6 461.2 470.8 477.7 485.4 490.7 491.4 489 483 465.2 457.5 455.1 456.6 462.5 468.2 460.2 449.7 441.3 414.3 395.9 372.8
352 376.4 397.9 424.6 444.3 466.6 485.3 505.1 526.5 547.9 561.1 575.7 587.6 603.3 623.8 650.4 657.1 648.6 637.4 608 603.3 577.3 551.2 537.7 527.5 540.8 547.5 536.9 520.6 511.7 489.1 479.4 472 470.6 457 442.7 436.4 408.3 399.5 384.4 362.3 345.4 329.4 305.8 291.8 259.4 236.9 213.3 205.4 188.4 178.4 170 152.7 123.2 90.8 87.7 77.5 64.2 54.7 43.7 25.7 12 6 6 6 6 6 6 6 6 6 6 6 6 6 6 6 6 6 6 6 6 10.4 20.8 33.3 48.5 50.4 66.9 92.2 106.9 122.7 149 184.9 212.4 235 264.1 298.3 327.8 346.8 362.2 382.7 433.5 448 446 465.2 468.5 457.7 461 466 483.1 504.8 556.9 597.9 625.5 651.9 674.7 710.6 695 673.6 643.7 618.4 591.9 577.4 564 561.6 565.7 571.5 566.7 578.1 588.6 608.2 630.5 639.8 655.2 666.6 679.4 702.4 717.7 711.2 711.1 718 734.7 753.9 767.8 774.9 780.6 774.1 760.9 742.2 731.2 718.4 708.2 704.6 693.9 688.5 681.2 689.2 696.2 694.7 687.3 676.1 644.2 608 574.1 547.6 521.7 500.6 478.5 464.9 460 447.4 439.4 436.3 444 442.3 434.3 428.8 431.3 438.3 448.2 455.6 467.6 478 485.8 497.2 504 512.7 507.6 493.3 495 494.7 490.8 494.3 490.6 480.3 453.8 439.1 420.3 397.5 372.6
353.3 373.6 395.1 421.8 448.3 468.7 484 505.6 528.6 547.7 558.9 578.7 591.1 611.1 632.3 650.9 655.4 642.5 628.9 611.3 602.8 590.2 567.9 546.8 559.9 577.1 571.8 558.2 538.1 525 521.7 491.6 480.5 477.5 460.4 447 441.9 408.5 390.5 374.2 354.3 346.8 323.6 306.5 280.9 254.1 234.8 234.5 223.5 206.7 192.3 181 169.7 141.1 102.6 99 83.4 72.1 68.2 57 41.8 23 10.9 6 6 6 6 6 6 6 6 6 6 6 6 6 6 6 6 6 6 6 6.6 17.2 23.8 36.5 41.2 49.2 69.1 90.5 114.5 145.2 166.6 197.3 223.1 256.2 301.6 324.8 336.3 352.5 371.1 407.1 434.4 427 451.2 463.7 444.4 450.2 454.4 479.9 500 545.9 584.9 608.3 642.6 662.2 687 683.8 667.7 647.8 624.2 596.5 581.8 571.2 557.1 557.7 559.5 554.4 565.2 575.6 589.6 608.6 622.3 633.9 642.2 655.4 675.6 689.3 688.4 691.5 702 721.6 741 754.9 769.4 772.4 768.6 751.9 736.6 729.1 737.6 717.4 693.7 680.5 672.5 671.2 677.2 688.3 688.4 678 662.4 627.6 597.1 567.4 547.1 520.7 499 486 463.5 453.9 442.7 438.5 432.8 434.1 431.3 430 426.6 427.9 439.3 452.1 462 472 482.8 494.2 505.2 517.9 524.6 520.5 521.7 527.4 526.7 525.9 521.6 506 485.7 456.3 441.5 420.7 398.3 374.8
350.2 369.9 396.1 420 451 465.6 481 503.7 525.5 541.2 556 577.9 596.7 613.9 634.1 646.6 651.7 640.1 629.8 617.1 604.5 591.4 582.6 577.8 594.2 603.4 589.7 569.2 550.4 539.3 536.2 507.4 487.6 480.1 468.8 449.6 433 405.3 393.9 384.8 356.1 349.2 330.3 320.1 292.8 258 239.8 249.1 237.2 220.4 201.1 186.8 173.4 149.5 111.5 101.8 91.4 84.6 74.5 65.2 48.8 26.3 22 6 6 6 6 6 6 6 6 6 6 6 6 6 6 6 6 6 6 6 6 13.3 13 29.5 30.1 39.9 58.9 80.7 106.3 134.9 162.7 192.3 217.5 249.4 281.9 310.7 328.9 337.4 353 379.6 415.8 415.6 424.3 454.4 438.6 431.2 446.8 469.7 489.6 527.9 562.7 586.8 613.6 649.2 660.7 671.7 670 664.2 641.6 610.7 587.5 569.3 555.7 550.1 550.6 544.9 554.9 566 575.2 591.9 608.5 610.7 622.6 635.6 654.1 662.3 666.5 670.9 686.5 709.8 728.4 744.9 759.8 764.2 762.4 750.8 735 732.2 735.1 715.9 692.4 679.9 670.4 668 674.5 689.8 690.5 675 673 637.2 595.4 568.3 546 520.1 495.3 475.2 464.4 450.9 445.4 439 432.6 430.1 431.7 431.1 427.6 427.1 441 452.9 463.2 479.1 491.5 499.3 514 517.1 526.7 525.5 548.2 554.3 554.8 548 532.1 514.8 490.6 461 442.9 425 396.7 381.5
349.9 368.4 391 418 447.8 465.9 483.8 498.9 516.2 533.4 546.9 569.1 589.6 608.6 624.3 647.5 642.7 635.5 631.5 619.6 608.7 598.9 590.5 592.9 608.5 616.9 602.1 593.8 578 543.2 533 513.1 492.2 483.4 473.2 452.8 428.3 407.6 396.8 372.1 356.6 343.8 326 306 286.2 265.8 264.2 264.4 248.2 234 211.6 191 173 145.6 131.4 116.6 98.9 92.4 78.3 67.2 54.1 44.2 26.6 13 6 6 6 6 6 6 6 6 6 6 6 6 6 6 6 6 6 6 6 6 6 6 13.4 28 46.5 72.5 96.7 126.9 153.1 184.6 208.3 238.6 264.6 286.9 306.8 319.7 337.9 360 386.6 391.6 397 418.3 414.1 434.4 438.3 457.8 477.8 512.2 553.8 572.8 596.7 628.5 647.9 665.8 668.8 661.2 655.3 620.4 592.5 570.1 553 542.5 540.2 541 543.9 553.4 564 580.4 592.3 597.1 608.7 621 638.4 645.2 650 657 673.4 693.5 716.3 737.1 750 756.8 758.9 746 733.9 732.2 725.4 706.5 688.3 677.9 668 663.9 662 675.8 679.1 666.6 665.1 640.9 614.7 589.4 561.4 531.2 506.1 483.5 474.2 453.3 444.9 435.9 434.8 427.5 430.4 428.6 425.4 424.6 439 451.5 467.9 482.7 494.5 502.6 515.5 522 522 539.6 560 562.3 559.3 553.3 541.2 523.9 493.6 465 443.2 424.3 402.7 389.7
346.9 365.3 386 417.9 452.8 466.3 481.5 493.8 510.7 524.4 536.5 554.9 570 587.8 606.7 614.7 619.1 634.5 629.6 621.7 616.9 604.5 594.9 599 608.9 618.4 614.8 593 575.9 554.8 543.5 517.7 498.2 487.6 478.6 459.6 439.4 408.8 390.1 373.1 358.8 343.5 323.1 307.9 285.5 273 282.3 281.6 274 249.5 232.7 205.6 184.9 154.4 145.6 132.3 112.9 89.2 78.3 67.8 55.1 43.1 30.8 21.2 6 6 6 6 6 6 6 6 6 6 6 6 6 6 6 6 6 6 6 6 6 6 6 13.7 38.9 61.6 82.1 115 145 175.7 200.1 224.6 244.2 260.3 277.7 298.4 322.1 340.3 364.6 380.8 381.9 389.4 403.2 416.6 425.6 448.6 470.7 501.1 528.2 552.3 579.4 600.8 633.8 650.8 657 656.1 656.5 627.9 601 572.1 556 541.7 533.6 534.1 536.7 543.4 551.8 561.1 574.8 582.7 594.9 604 620.6 630 633 645.6 663.6 682.9 708.1 730 744.8 747.9 744.6 738.5 729.4 735.5 721.3 703.1 684.2 670.6 665.6 660.9 645.1 659.7 665.6 655.1 652.7 643.5 614.9 584.3 558.7 525.7 502.7 481.2 468.3 449.3 443.2 435.2 434.2 424.8 427.5 423.7 421.9 423.2 441.2 455.2 471 483 491.3 501.8 518.4 517.8 520.1 551.9 564.7 565.2 558.4 556.2 547.5 532.2 502.2 473.4 450.5 434.5 415.4 404.3
341.5 357.1 378.8 406.7 440.2 452.4 467.5 483.4 504.4 520.1 533.4 546.8 559.9 577.2 578.9 588.3 600.2 607.6 623.3 623.1 615.1 605.7 597.1 599.3 606.4 624.7 617.5 601.8 589.1 574.6 552.5 533.9 504.7 488.6 475.6 459.5 442.8 417.3 394.4 385 363.5 349.5 328.9 315.8 304.9 291.1 297.4 302.1 293.8 278.3 254.9 228.2 196.7 177.6 182 158.4 133.9 106.9 86.3 75.1 65.3 52.6 37.4 24 6 6 6 6 6 6 6 6 6 6 6 6 6 6 6 6 6 6 6 6 6 6 6 6 23 47 69.6 104.2 140.3 168.6 190.8 207.4 221.6 234.4 251.8 279.8 305.5 317.8 357.5 365 360.6 378 391.1 394.2 416.1 432.3 456.6 484 507.3 533.4 553.1 582.9 606.6 633.3 641.9 634.4 638.4 631 608.8 583 560.9 544.3 532.4 527.1 528.9 532.5 539.5 550.4 559 569.7 580 593.6 604.6 605.7 622.4 635.4 648.9 674.9 701.7 722.6 735 738.2 734.4 729.8 722.4 739.9 729.4 701.6 684.3 667.1 663.3 650.1 638.7 642.5 649.7 644.9 646.5 631.1 600.5 566.4 541.4 515.6 493.2 475.8 456.4 448.6 441 431.5 427.8 424.1 422.2 418.6 415.4 422.4 445.1 455.9 464.4 478.1 487.9 502 514.1 512.3 525.5 554 565.5 564.5 563.2 561.3 550.5 537.4 512.4 485.9 460 445.4 436.4 424.7
337.9 355.7 372.4 392.1 416.7 440.5 452.9 477.2 502.4 516.1 527.7 533.7 554.2 554.1 562.4 582.1 585.9 586.4 602.8 616.1 604.1 604.9 598.6 598.2 604.8 619.4 622.8 606.6 595.4 585.7 574.9 542 521.1 496.5 475.4 459 439 422.8 408.5 400.7 392.4 375.9 354.6 337.3 324.8 310.4 313.5 310.4 309.6 300.9 288.7 250.2 227.9 233.4 204.5 182.1 159.8 132.5 99.1 82.8 70 61 44.4 32.7 20.8 6 6 6 6 6 6 6 6 6 6 6 6 6 6 6 6 6 6 6 6 6 6 6 6.7 34.6 56.6 96.3 126.8 159.1 177.5 189.1 199.7 211.2 233.3 264.1 277 294.8 328.7 346.3 350.2 363.4 374.5 382 400.3 417.9 442.2 471.6 488.1 512.8 538.9 563.6 587 611.6 619.6 630.7 630.7 627.5 614.8 595.4 568.4 544.3 528.6 514.5 518.6 526.8 531.2 538.9 550.5 557.9 567 576.3 588.1 598.3 611.9 624.5 643.3 665.4 692.5 715 724 729.1 724.2 715.3 713.3 720.3 719.6 700.8 679.3 662.6 653.1 643.8 630.6 633 638.3 637.9 635.7 620.6 599.6 561.6 540.1 516.3 500.2 480 458.9 443.8 434.1 429.2 425.1 427.9 418.4 412.7 410.8 420.1 439.2 446.5 461 472.5 485.1 505.1 509.4 517 533.7 558.3 564.6 564.1 560.7 562 555.7 546.9 523.7 502.3 473.1 463.8 453.4 439.5
334.2 350.2 369.9 385 404.8 423.4 450.5 470.2 496.6 506.6 520 525.3 540.2 550.8 547 561.6 575.8 567.9 585.2 599.3 599.2 593.8 593.1 592.5 601.8 615.1 619.4 596.1 594.2 584 573.5 543.3 530.5 495.9 479.5 465 445.3 442.5 422.6 419.3 410.7 389.1 371.7 356.6 347.3 327.4 326.2 327.2 331.4 314.9 289.7 260.2 253.6 232.6 213.8 192.4 168 144.6 120.8 102.1 82.6 69.1 51.7 40.8 29.9 24.9 11.7 6 6 6 6 6 6 6 6 6 6 6 6 6 6 6 6 6 6 6 6 6 6 15.2 41.1 76.6 107.6 146.4 165.2 178.4 189.1 198.1 215.7 245.7 253.4 278.9 305.4 324.5 338.1 354.9 363.4 368.8 394.3 405.9 430.2 451.4 480.5 506.6 525.8 545.9 563.7 591.7 604.5 600.2 608.4 609.2 605.2 591.1 574 543.3 528.3 513.2 511.5 523.3 526.9 529.4 538 548.1 556.5 565.4 574.4 589.9 602.1 615.8 635.1 656.2 679.7 702.3 713.7 716.9 713.3 706.6 703.8 705.7 702.4 690.7 674.6 657.6 642 636.2 625.7 630.6 632.8 633.9 630.9 614.6 583.3 559.3 536.8 517.7 497.3 475.3 458.9 450.6 434.1 429.5 424.4 422.4 415.8 411.6 404.9 416.8 428.4 441.7 458.2 470.2 482.7 503.6 502.4 516.9 537.6 557.4 564.8 562.8 561.8 564.2 556.4 550.1 544.7 519.7 486.9 486 467.1 450.4
333.9 344.3 363.6 376.4 400.5 418.3 440.1 457.7 484.1 500.4 511.1 517.2 521 537.9 537.3 541 548.3 554.1 570.2 584.7 588.7 581.8 579.7 584.5 598.7 604 611.5 591.3 581.4 580 553.9 535.6 516.7 500.1 489.8 472.6 453 458.1 439.5 438.2 427.1 409 391.6 369.5 367.5 348.2 333.3 343.3 338 309.6 286.5 262.6 266.3 247.5 235.6 213.2 184.5 160.3 138.4 122.5 111.5 93.6 70.4 52.8 45.7 25.2 32.8 15.4 6 6 6 6 6 6 6 6 6 6 6 6 6 6 6 6 6 6 6 6 6 6 21.1 54.6 96.7 124.4 154.9 167.5 182.5 185.1 204 221.3 238.3 260.9 288.8 305.4 325.3 340.7 353.8 359.6 377.6 392.1 410.1 435 469.1 484.6 510.7 527.9 547.8 559.7 591.2 586.6 597.1 597.4 583.7 577 564 540.4 520.6 511.9 504.5 513.7 518.1 519.3 527.3 537.1 545.4 552.2 569.5 582.2 592.3 609.3 626.7 647 667.5 686.4 701 704.1 700.9 697.5 695.4 693.6 688.6 676.7 664.5 648.9 637.3 623.5 618.3 623.6 627.5 628.4 631.8 621.3 600 570 544.7 526.2 499.9 477.1 458.1 445.9 433.4 425.5 419.4 416 412.6 411.2 410.9 416.7 428.7 441.3 454.8 463.4 476.6 488.7 496.2 513.7 538.9 548.6 559.5 562 564.3 558.3 562.4 554.5 546.1 528 511 492.6 470.3 451.3
333.5 341.7 351.3 366.3 391.2 411.6 427.6 452.2 472.6 488.8 496.9 506.5 508.6 515 524.6 524.2 530.4 545.9 557 557.9 565.5 560.2 570.1 579.6 591.9 596.2 605.7 586.9 573.8 557.8 548.7 538.3 530.3 506 493.5 484.8 469.2 466.6 454 446.8 442.1 427.7 415.8 381.6 372.1 355.8 347.2 347.2 334.8 307.8 282.8 268 271.5 274.2 247.1 235.5 213.2 183.1 165.4 145 128.7 107.4 86.6 60.7 54.3 50.7 26.3 23.8 20.5 13 7.7 6 6 6 6 6 6 6 6 6 6 6 6 6 6 6 6 6 6 6 6 26.7 77.1 102.2 136.8 153.2 165 169.8 174.1 201.4 230 248 274.9 297.2 308.1 318.3 335.9 347 346.8 372.5 395.5 427.1 448.1 466.9 485.1 512.4 530.6 543.5 558.8 576 577.4 581.5 561.7 549.9 545.7 530.7 518.1 509.3 497.7 506.4 508.5 513.8 522.1 531.2 537.7 548.2 561 572.8 583.1 601.1 617.3 636.2 656.2 673.1 688.6 692.8 689.1 689.2 688.5 687.8 679.7 668.8 655.7 644.7 633.7 616.3 612.8 615.1 617 627.9 633.1 619 596.6 580.6 564 540.3 510.1 481.3 463 444.8 438.7 432.9 422.2 414.7 409.4 410.1 407.7 411.8 423.4 435.9 447 459.9 473.2 477.8 494.2 516 538.9 545 552.8 554 556.8 559.4 562.1 558.4 550.1 534 523.3 503 477.3 457.5
338.5 339.9 347 357.1 374.1 393.8 418.5 443.7 448.7 476.6 484.1 491.5 494.6 493.5 500.1 508.7 512.6 514.7 522.2 533.2 536.4 545 558 570.7 578.3 584.3 585.8 568 567.7 566.3 555.8 546.3 530.9 514.4 508.3 491.3 481.6 470.3 460.2 455.1 438.1 438.4 415.1 395.4 384.2 375.1 359 336.1 321.2 303.1 291.7 271.5 272.1 281.2 267.3 254.2 235.5 216.9 190.1 165.9 135.8 117.7 93.4 74.7 65.3 58.1 50.4 27.1 26.8 23.4 13.4 6 6 6 6 6 6 6 6 6 6 6 6 6 6 6 6 6 6 6 6 11.6 58.4 86.9 108.1 130.8 148.7 154.1 154.2 187.5 225.5 243.4 265.7 286.9 291.8 297.8 320.5 325.5 330.2 352.9 382 409.8 428.8 446.9 470.2 494.8 509.7 528.8 538 546.5 549.9 552.2 549.1 538.9 525.4 522.3 516.5 505 494.2 500.9 505 510.3 518.4 521.1 531.3 544.2 553.8 565.8 578.3 591.8 607.9 625.8 645 660.2 672 678.8 678.7 680.6 683 679.3 671.9 661 650.5 639.7 627 614.5 601.9 608.4 611.2 621.5 624.8 615.2 599.6 586 571.6 540.3 509.6 488.7 468.7 448.6 441.8 438.2 421.5 410.2 403.9 409.6 404.1 405.6 421.5 433.1 447.6 460 471.5 476.7 494.3 523.2 539 544.9 548 551.1 558.1 558.4 560.6 559.8 554.1 543.9 527.1 507.7 485.8 460.5
347.1 348.1 348.4 353.7 362 378.8 401.1 422.2 426.7 458.6 463.9 473.3 476.3 480.7 479.6 493.7 492.5 499.2 503.9 508 514.3 533.2 546 562.1 566.5 568.2 570.6 559.8 568.6 569.2 562.9 545.9 533.1 521.5 515.8 498 488.1 481 468 469.3 440.8 432.1 416.3 411 394.5 376.6 359.8 342.4 330.5 312.8 303.8 273.7 276.6 276 272.4 258.2 243.9 235.7 197.3 172.2 139.7 124.4 94.5 85.1 69.8 64.8 53.7 29.1 18.1 10 6 6 6 6 6 6 6 6 6 6 6 6 6 6 6 6 6 6 6 6 6 6 42.4 68.8 87.4 112.3 127.6 132.4 142 175.7 211.6 232.2 246.6 271.9 279.5 282.5 296.2 309.4 316 340.1 364.1 396.9 417.7 428.9 454 470.9 493.2 503.4 519.9 527.4 541.4 549.5 541.3 537.3 517.7 519.8 510.9 500.5 489.6 494.6 499.7 505.7 505.1 520.5 527.8 538.4 549.5 560.5 570.7 584.1 598.5 614.3 634.1 648.4 657.6 665 669.8 671 673.9 675.9 666.8 655.9 647.7 639.4 627.4 613.3 601.6 601.1 606.2 610.2 612.6 607.8 600.2 583.7 561.2 539.5 524.6 498.6 471.1 449.6 437 428.9 415.8 405.6 401.1 404.7 398.5 406 417.6 436 449.1 461.4 465.3 480.3 505.7 527.7 536.7 544.3 546.7 550.7 552.9 555.6 562.9 560.5 554.9 547.2 532.7 515 499.9 471
361.2 360.9 359.8 355.1 356.9 361.6 382.4 399 407 422.7 442.7 451.1 460.5 462.9 465 462.1 470.6 486.1 488.3 488.3 503.2 523.2 532.9 553 560.2 553.9 557.8 554.3 569.1 564.6 561.5 552.8 538.8 526.1 521 508.1 491 484.9 483.8 466.3 446.4 428.8 426.7 425.5 405.2 379.5 355.4 343.1 337.6 325.3 302.1 276.2 276 273.4 275.2 266.9 252.6 231.2 199.9 169.6 139.9 123.1 100.1 91.2 78.5 67 51.3 34.2 21.2 7.4 6 6 6 6 6 6 6 6 6 6 6 6 6 6 6 6 6 6 6 6 6 6 19 49.9 73.3 91.3 98 113.8 135.3 163.2 194.9 213.3 230.4 255.7 266.9 270 277.2 290.6 296.8 324.6 349.3 383.3 401.9 419.9 436.4 458.7 478.2 490 510.3 517.4 527.4 536.3 533.7 523.4 510.2 510.6 498.1 491.7 483.7 487.7 494.1 493.9 507.9 514.7 521.8 531.8 541.8 553.1 564 575.2 589.4 605.7 623.8 637.4 648.5 654.5 659 663.3 666.2 669.2 664.6 651.1 645.1 638.3 627.8 613.6 600.2 587.1 595.5 599.5 603.2 603.5 598.6 586.5 566.3 544.6 526 506.9 477.4 455.2 435.7 424.2 412.5 401.8 399.5 399.8 394.9 402.6 416.6 431 445.3 456 460.6 482.1 511 528.3 538.2 543.7 547.7 551.5 551.6 553 563 561 551.9 541.5 533.2 518.7 503.9 481
373.4 372.4 369.5 362.4 358.8 359.6 359.9 374.4 388.8 401.7 413.1 422.1 431.9 442.6 446.6 445.3 449.3 456.9 470.9 471.3 490.3 508.9 526.3 542.1 545.6 542.8 548.5 548.3 559.2 555.6 555 555.6 540.5 527.7 528 513.2 496.3 491.1 492 467.5 455.2 438.6 438.5 434.3 425.9 393.5 358.4 339.8 341.5 321.8 292.3 280.4 278.4 269.7 270.3 267 255.4 242.6 202 165.9 142.9 129.7 103.5 97.4 88.9 71 51.8 37.4 24.1 19.9 6 6 6 6 6 6 6 6 6 6 6 6 6 6 6 6 6 6 6 6 6 6 10.2 33.8 53.2 67.5 85.6 110 125.7 144.7 170.9 194.4 212.4 230.8 234.1 242.2 261.7 271.8 282.6 309.7 334.2 357.7 384.6 402 425 442.7 456.3 478.8 501.3 506 508.4 513.8 513.4 512.2 500.8 495.3 488.1 485.6 478.6 480.7 483.9 497.1 503.2 509.3 516.8 525.8 535.5 545.6 556.7 568 581 597.1 614.9 629.2 638.4 644.5 650.8 657.3 659.8 660.4 655.8 646.6 638.8 631.5 622.4 611.3 598.5 585.6 582.8 589.5 593 594.4 586.4 571 556.4 534.3 521.4 504.9 474.9 448.2 432.3 420.6 411.7 399.5 398.2 394 392.9 398.3 410.7 423.3 438.3 450.5 461.7 487.9 511.5 527.9 537.8 540 544.2 548.7 546.8 550.8 555 554.7 546.5 539.2 532.1 521.6 502 486.2
384.7 382 377.6 373.1 366.3 359 352 358.9 375 386.4 398.2 409 416.2 416.8 426.2 424.6 434.1 431.9 445.1 457.4 477.7 492.9 511.8 525.6 535 533.8 538.3 540.7 543 546.6 548.5 551.9 536.8 524.7 522.4 513 503 495.8 485 472.8 464.8 445.1 441.7 437.8 422 388 365.6 339.1 327.2 303.2 288.2 283.2 284.7 269.5 269.1 255 255.1 236.4 201.1 164.2 138.5 121.5 106.4 101.4 92.5 72.2 52.8 37.6 22 20.7 6 6 6 6 6 6 6 6 6 6 6 6 6 6 6 6 6 6 6 6 6 6 6 13.4 38.7 58.8 74.8 95.4 112.1 122.5 148.8 176.3 202.9 208.5 201.9 227.6 238.4 256.3 270.2 289.4 316.7 343.8 359.7 389.9 409.8 428.3 437.4 464.1 486.7 494.8 490 494.2 494.5 495.6 494.7 488.3 480.9 475.2 473.2 476.3 482.3 490.9 497.5 504 510.9 518.5 529.2 539.6 550.6 560.8 575.1 589.3 606 620.7 629.9 638.2 645.8 653.1 655.9 652 647 638.7 631.4 624.2 615.5 606.8 594.1 583 568.9 579.5 584.9 580.8 574 563.7 544.9 528.2 512.4 498 472.5 450.1 427.1 415.2 407.8 397.4 394.4 391.6 391.5 398 411.4 422.2 429.4 446.7 465.2 487.1 509.5 523.3 530.1 532.7 537.7 541.4 542.6 547 548 546 541.9 541.1 532.3 527.4 520.2 499.8
394.5 393 386.2 381 374.8 363.9 348.7 345.7 361.2 369.8 380.4 391.9 400.2 391.5 390.3 413.4 420.7 414.9 427.5 440.9 459.1 477.5 499.1 514.2 525.7 524.9 532.6 532.7 531.4 541.5 546.1 537.8 531.2 525 524.3 513.4 509.5 501.3 488.5 481.3 462.3 444.9 436.9 416.8 399.5 371.5 361.9 341.8 326.8 303.5 291.6 283.5 282.2 274.6 262 256.5 238.9 229.1 201.6 174.8 144.4 129.6 101.2 100.7 90.7 68.7 47.6 30.6 21.4 11.4 6 6 6 6 6 6 6 6 6 6 6 6 6 6 6 6 6 6 6 6 6 6 6 6 19 45.9 58.4 82.6 98.2 109 123 154.4 178.3 186.3 178 189.7 223.8 243.6 253.9 269.2 295.9 320.5 348.7 377.6 398.5 415.5 426.5 450.5 476 484.5 478.2 486.8 490.8 500.1 497.7 492 483.9 473.2 469.9 468.6 474.9 483.6 491.6 498.8 506.2 513.5 522.5 532.7 543.5 555.1 568.8 582.7 598.2 612 622.1 633.4 643.5 648.3 649 644.6 638.7 631.6 626.6 618.1 611.2 602.2 590.5 578.2 566.4 569.4 573 569.4 565.8 564.5 541 529 509.2 491.4 470.1 444.6 426.6 415.2 410.8 404.2 396.2 393.4 391.5 398.3 411.6 420.6 431.3 445.4 463.5 485.9 502.1 515.4 522 524.6 530.8 534.6 537.3 541.2 545.3 542.1 541.1 541.5 534.8 534.2 527.3 512
408.8 404.4 396 387 378.8 366.9 353.8 341.7 338.4 347.5 357.2 372.4 374 366.5 370.1 387.6 409.7 395.1 410.1 423.3 445.7 461.2 478.3 500.5 512.3 517.5 524.8 525.2 523.7 528.2 535.4 529.4 526.4 526.6 522.8 517.5 516.5 510.5 508.6 480.5 467.7 450 433 408.5 383.9 367.1 359.4 348.1 335.8 324.4 297.1 289.9 277.4 264.9 248.9 239.3 222.7 211.7 204.5 170.2 145.3 133.5 108.8 95.3 89.7 65 48.7 29.9 19.5 11.7 6 6 6 6 6 6 6 6 6 6 6 6 6 6 6 6 6 6 6 6 6 6 6 6 6 25.5 39.3 54.4 83.4 89.6 103.2 123.6 146.3 156.7 151.5 169.9 199.6 221.8 233.4 244.3 269.9 305.2 332.2 353.5 380.1 397.5 413.2 435.6 452.5 472.9 470.5 482.8 483 492.2 502.2 497.4 485.6 471.9 467.3 460.1 466.6 478.6 486.4 492.9 500.1 508.6 516.9 525.9 535 549 564.3 580.8 589.8 606.6 618.2 629.3 639.5 645.1 642.8 638.4 633 625.1 617.8 609.4 602.3 592.2 584 573.4 562.6 555.1 562.4 560.7 554.7 549.8 536.5 522.8 503.1 483.8 466.5 446.6 432.4 416.5 415.2 403.4 396.7 394.4 390.3 399.6 408.2 418.4 426.2 440.8 461.7 481.9 494 506.7 512.9 517.5 522.8 523.4 525.3 532.9 536.5 535.7 532 535.7 532.7 535.2 532 521.6
420 414.9 405.6 395.3 385.1 374.6 361.1 341.9 326.1 324.7 336.1 346.5 350.8 344.8 352.7 362.1 372 380.6 396.8 410 429.7 444.8 464.2 485.6 501.9 510.5 514 516.6 517.9 519.8 521.7 522.8 523.2 524.2 525.9 522.5 525.6 520.5 506.8 488.2 476.1 461.6 442.8 423.2 399 371 355.3 351.3 343.1 317.2 301.7 290.5 284.8 270.1 253.7 235.4 210.3 200.7 186.5 161.5 146.2 120.1 107.4 101.5 82.7 65.6 53.3 34.1 20.6 15.6 6 6 6 6 6 6 6 6 6 6 6 6 6 6 6 6 6 6 6 6 6 6 6 6 6 7.3 27.1 41.4 67.2 71.8 87.5 102 121.9 127.9 125.9 158 178 201 214.4 222.5 256.4 294 309.7 333.5 358.6 374.9 397.5 417.6 437.1 448.8 454.9 474.7 491.6 490.3 496.3 487.8 472.8 468.9 463.4 455.2 458.2 471.5 480.7 487 494.8 503 511.4 518.6 530.9 545.6 561.8 577.5 590.9 602.6 614.4 624.9 637.1 643.2 640.3 634.5 626.9 617.9 609.4 602.3 592.8 585.4 575.5 565.1 553.8 542.8 551.4 553.5 549.8 537.6 527.8 515.1 498.3 478.4 461 448.6 436.4 418.1 409.1 400.7 393.6 390.5 388.9 396 406.8 414.7 423.4 436.9 455.3 475.6 485.8 497.3 503.3 507.6 509.3 510.7 512.7 520.3 523.2 520.6 517.9 524 528.3 535.1 532.6 524.2
429.5 424.4 415.2 405.6 393 378.9 367.4 352.3 322.4 312.5 320.4 324.3 325 331.9 335.8 343.7 351.9 366.5 379.4 396.4 409.8 432.3 449 470.7 488.1 498.5 503.8 508.5 512.3 514.2 516.7 518.1 520.1 525.3 526.9 526.8 527.1 522.7 504.4 495 485.9 469.6 449.7 429.8 401 379.4 363 344 333.9 321 306.3 292.3 282.2 267.9 267.4 229.6 208.8 188.4 181.4 164.4 152.2 119.7 111.6 105.5 88.9 70.8 52.4 33.5 23.9 16.9 10.4 6 6 6 6 6 6 6 6 6 6 6 6 6 6 6 6 6 6 6 6 6 6 6 6 6 12.2 29.9 41.6 50.4 69.1 86.7 98.5 98.8 118.6 145 162.8 179.6 192.1 215 241.6 271.8 294.5 313.7 332.2 353.1 379.5 402.3 430 445.3 452.5 473.6 497.7 488.9 475.2 472.6 463.9 459.4 454.9 445.3 456.2 465.5 473.8 482.4 490.2 497 505.6 515.4 529 543.2 560.3 574.9 588.2 601.8 612.3 622.6 633.3 639.9 636.9 631.2 621.5 611.7 601.9 593.8 586 577.1 566.8 557.3 544 530.2 540.6 545.1 540.2 528.5 522.1 512.2 495.6 475.7 457 445 432.5 415.2 406.3 397.6 393.7 391.1 388.2 392.3 399 412.3 419.2 431.4 450.6 465 475.6 484.9 493.2 497.4 496.6 497.9 500 504.5 505.4 504.7 509.3 514.2 522.7 526.9 531.1 522
438 436 423.7 410.8 394.2 385 366.1 337.5 316.5 304 307.2 306.1 308.5 319.9 320.7 327.3 338.5 352 360 376.5 397.8 415.8 436.7 456.8 473.4 487.1 493.8 499.4 506.9 511 514.4 517.9 520.7 526.8 530.6 530.5 529.5 526.6 512.6 499.9 493.2 475.8 457.2 433.6 409.5 391 374.4 349.7 328.9 315.3 308.6 291.9 281.6 265.6 255.6 232.1 205.1 192.7 172.2 156.4 139.8 125.6 113.3 102.8 84 66.2 47.4 28.8 21.6 20.1 15.2 6 6 6 6 6 6 6 6 6 6 6 6 6 6 6 6 6 6 6 6 6 6 6 6 6 6 14.5 24.4 36.2 56 66.5 75.5 88.4 107 127.9 147.8 168.4 180.5 196.6 220.3 246.6 271.9 298.6 324.7 353.8 382.5 400.4 424.9 437.9 441 459.7 482.5 479.7 476.1 463.4 457 454.6 443.7 445.7 452.7 459.6 469.7 477.6 482.1 492.5 502.1 513.4 526.8 542.4 558.4 571.8 586 598.2 608.2 620.9 631.7 634.2 632.4 625.2 615.8 604.9 595.4 587.4 578.6 569.4 559.3 548.6 539.7 522.5 530.6 536.5 528.5 518.5 510.3 501.7 486 466.4 452.7 441 430.7 416 405.3 398.8 395.8 392.4 388 390.7 397.7 411.2 416.1 423.7 441.4 455.2 466 472 480.2 486.1 487.7 484.4 485.6 488.9 491.2 494.1 500.8 505.8 512.5 516.6 526.2 518.9
444.9 446.5 436.2 409.1 396.5 378.2 350.9 318.4 303.8 296.9 297 295.5 293 303.3 306.2 309 324.8 333.7 349.3 362.7 379.3 397.5 418.4 439 458.4 473.5 481.8 490.2 499.3 505.7 513.3 518 522.1 530.4 532.5 534.2 533.7 527.7 521.1 507.3 495.2 479.4 461.3 442.6 420.7 405.9 388.4 353.5 332.9 319.1 302 285.2 280.4 266.7 255.6 236.1 210.3 187 174.4 149 126.4 118.9 108 97.3 81.2 64.4 41.5 36.2 36.7 31.7 19.6 21.9 10.2 6 6 6 6 6 6 6 6 6 6 6 6 6 6 6 6 6 6 6 6 6 6 6 6 6 6.2 22 43.7 46.2 57 77.8 95.3 111.7 136.6 153.9 169.7 180 203 238 267.8 284.4 314.9 334.4 365.5 389.5 411.4 425.2 431.1 445.4 461.6 461.7 466.9 456.3 450.8 446.3 433.3 438.8 447.9 456 463.8 466.9 479.2 489.2 500 511.5 526 541 554.7 568.1 582.8 594.2 605.3 620.1 629.3 630.6 626.6 618.9 608.8 599.5 589.5 581.8 572 561.4 553.3 542.3 531.1 517.5 516.3 518.2 512.7 508.4 496.8 488.4 474.9 464 455 444.2 432.5 419.3 406.1 398.3 394.2 391.3 387.9 390.6 397.4 407.7 412.2 417.3 431.2 447 456.6 460.4 465 468.8 470.7 469.8 471.2 475.7 476.3 483.2 492 494.1 501.3 501.8 499.9 499.2
454.9 438.1 432.9 420.9 401 378.1 352.8 318.4 298.9 291.7 287.6 286 283.8 287.5 292.4 294.2 311.3 320.4 334.3 350.9 367.9 386.7 403.2 424.1 442.3 458.6 470.8 477.2 489.3 496.7 508.5 519.2 524.8 531.7 535.9 537.9 538.9 534.7 528.5 505.6 490.7 479.2 465.5 449.4 424 400.7 379 357.7 346.6 333.8 317.1 298.3 276.8 259.7 247.8 235 213.5 194 177.8 156.7 137.7 118.1 105.3 92.6 75 60.7 59.8 55.8 48.5 42 29.9 21.2 11.4 6 6 6 6 6 6 6 6 6 6 6 6 6 6 6 6 6 6 6 6 6 6 6 6 6 6 14.3 27.4 35 54.2 70.5 80 99.8 127.8 136.3 163.3 163.6 199.1 222.1 245.2 270.4 300.5 324.9 344.2 373.5 399.5 413.4 423.3 432.4 444.7 446.4 451.7 442.4 433.7 434.6 424.6 435.7 443.5 450.7 457.5 466.2 476 486.1 495.6 510.2 523.9 537.3 550.4 564.4 579.2 590 603.8 615.2 626.9 626.5 622.4 613.7 601.8 592 584.1 576.3 566.7 556.9 545 533.4 520.9 507.5 504 502.2 498.5 491.3 482.9 476.5 465.3 458.5 450 438.2 431.3 421.2 405.4 398.6 396 392.8 388.3 390.8 395.1 402.9 405.7 412.5 423.9 438.5 446.4 448.9 451.4 452.4 455.2 455.3 455.7 458.4 459.9 470.6 481.6 484.3 485.7 485.2 484.4 486.4
452.7 434.7 421.7 405.9 400 370.3 346.3 305.3 292.1 285.5 280.5 276.5 273.3 278.9 278.3 286.4 296.2 307 323 339.4 356 374.9 390.4 411.4 424.5 443.2 454.3 471.1 476.2 484.7 502.4 518.8 525.9 535.2 542.9 544.9 541.3 537.7 528.2 510 491.7 472.7 456.1 433.2 416.5 401.5 378.9 368 356.7 351.9 337.8 317.4 295.2 274.2 255.9 229.9 210.5 193.8 177.6 163.5 140.1 121.2 109.1 85.8 83.2 82.4 74.5 65.1 58.9 50.8 42.7 22.1 11.1 6 6 6 6 6 6 6 6 6 6 6 6 6 6 6 6 6 6 6 6 6 6 6 6 6 6 12.8 22.7 33.9 46.1 61.8 66.5 89.2 104.9 125.6 146.2 146 169.4 200.1 215.3 250.2 277.6 304.4 320.3 352.8 386.6 416.6 425.7 423.1 430.1 438.8 435.8 427 423.3 422.5 418.5 433.8 438.6 447.1 455.1 463.3 472.9 482.7 492.8 505 521.6 534.8 545.8 558.4 572.4 582.6 598.9 609.1 618.9 623 617 606.2 597.8 587.4 580.5 571.3 561.4 551.7 540 526.9 512.5 499.7 487.1 488.7 485.6 479.4 473.1 464.8 455.6 449.4 443.4 434 427.3 418.8 406.7 399.7 396.4 392.2 387.5 390.4 394.5 399 400.9 407.3 412.7 423.7 433.9 434.6 439.5 445 444.2 441.3 439.3 441.6 446.6 454.7 466.8 473.2 473.1 472.6 469.5 470.1
455.4 441.7 426.1 406.3 387.5 369.9 336.2 309.2 287.4 280.1 269.3 269.5 266.7 269.6 268.3 277.7 284.9 297 310 323.3 341.7 363.2 378.5 398.4 414.1 427.3 446.5 458.7 468.1 478.6 497.5 517.7 531 542.9 548.3 549.9 545.8 538 522.9 506.8 490.1 470.2 448.6 425.9 410.7 394.6 384.7 374.9 358.5 348.8 342.3 323.2 305.1 289.2 271.9 244.2 229.1 212 189.6 169.2 143.7 116.1 116.2 106.9 97.4 97.3 96 74.6 58.3 54.5 48.1 29.2 18.7 6 6 6 6 6 6 6 6 6 6 6 6 6 6 6 6 6 6 6 6 6 6 6 6 6 6 6 13.4 21.3 36 48.3 69 60.6 90.6 117.1 125.7 122.1 146.1 175.7 198.2 226.5 251.8 275.3 299.4 334.8 371.9 404.6 412.8 413.6 424.6 435.6 431 423.7 418.4 417 411.5 425.2 435.6 442.8 451.5 460.6 469.4 478 488.5 501 515.3 529.3 544.2 554.6 563.5 575.1 589.9 599 610.1 613.7 610.2 603.5 595.6 584.6 576.6 567.9 556.4 545.6 533.1 520.1 506.6 494.6 480.1 479.7 476.6 472 467.3 457.6 451.8 441.8 436.5 429.3 423.7 416.2 406.6 398 394.8 391.2 386 389.8 393 393.3 397.1 402.1 406.3 409.6 412.3 425.8 426.6 428.9 427.8 423.7 420.3 425.9 434.6 444.8 456.9 465.9 459.2 454 450.5 452.1
472.7 458.7 433.4 413.7 386 356.7 326.7 303.5 285.3 277.4 271.1 260.5 258.8 262.4 264.5 270.3 276 286.2 295.7 313.8 329.5 350.8 367.5 385.7 404.7 419.2 432.1 452.5 466.3 478.7 499.4 518.8 537.3 550.1 555.9 557.9 550.9 543 525.7 514.2 494.3 474.5 451.2 430.7 412.6 396.5 388.4 371.8 360.4 349.4 339.6 322.1 307.8 292.5 274.5 254.3 231.8 218.2 190.7 177.4 151.3 146.1 138.1 125.4 116.4 99.6 93.2 85.9 66.8 59.8 49.1 36.2 22.7 11.1 6 6 6 6 6 6 6 6 6 6 6 6 6 6 6 6 6 6 6 6 6 6 6 6 6 6 6 6 13.7 28.9 55.7 49.6 73.1 88.7 98.7 107.2 120.2 158.2 181.8 204.6 230.9 253.4 282.3 324.5 351.2 380.3 393.4 406.3 414 434.7 429.5 418.2 416.4 410.3 415.2 421.9 431.5 438.8 447.6 456.1 464.8 473.9 483.1 495.3 508.7 523.7 538.3 550.4 556.4 564.9 578.1 588.7 602.8 609.5 608.4 604.5 594.8 581.7 572.8 563.1 551.6 540.1 529.2 516.5 503.5 489.6 473 471.6 470.4 465.2 461.1 452.3 449.7 442.5 431.1 424.3 418.4 410 405.1 397.1 393.9 391.2 388.9 389.7 392.1 387.1 392.9 396.3 401.2 404.6 406.2 412.1 415.7 416.2 411.2 408.5 406.8 415.4 425.7 433.1 438.7 449.5 449.7 438.4 436.4 434.8
477.6 460.7 446 420 387.2 362.3 329.8 307.3 289.8 273.8 265.7 260.6 253.8 255.8 258.5 262.5 268.7 278.7 289.2 305.1 322.7 341.7 352.8 375.4 391.5 408.7 425.6 444.9 464 486.1 503.9 524.5 544.4 556.5 562.2 564.9 557.8 545.2 524 521.4 509.6 483.2 456.8 437.9 413.2 397.5 384.9 369.3 356.3 349.7 338.3 322.4 305.7 292.3 281.5 262 245.2 227 202.4 179.5 175.7 167.1 157.2 142.6 125.5 110.4 99.3 90.3 78.4 62.7 49.4 35.8 30.8 21.7 6 6 6 6 6 6 6 6 6 6 6 6 6 6 6 6 6 6 6 6 6 6 6 6 6 6 6 6 6 10 23.7 38.1 59 68 83.7 91.2 104.1 127.4 167.1 182.7 199.9 233.6 259.6 299.2 328.7 358.2 377.9 394.2 395.9 419.6 417.8 417.5 415.6 413.3 406 417.2 425.8 435.1 442.2 452.5 459.6 467.8 477.5 490.3 502.3 520.4 532 544.3 551.3 554.6 566.4 580.6 594.4 603.6 604.5 601.1 593 581 571.8 559.9 547.3 535.5 524.3 512.3 500.6 487.1 474.7 463.9 458.3 457.6 453.2 448.8 447.5 442.5 429.5 421.6 414.1 405.5 398.8 394.7 393.3 392.3 393.9 386.4 388.4 383.1 388.1 391 393.4 397.1 398 398.8 403.2 403.4 397.2 398.5 396.9 410.5 416.3 414.8 421.2 426.4 424.8 426.2 424.5 420.9
479.4 454.8 436.7 415.5 397.9 368.1 341.5 312.6 290.7 271.9 259.3 254 246.8 249.3 253.2 255 263.4 272.3 280.2 298.5 311.7 324.7 347.4 366.9 385 406.1 425.9 446.6 466.3 487.4 510.3 531.8 551.4 562.7 569.1 573.8 563.1 542.4 527.1 521.5 523 503.8 468.7 443.7 421.4 405.9 390.4 371.9 356.9 349.7 340.9 316.8 298.8 290.4 284.5 273.8 247.1 224.8 227 211.5 210.3 200.3 183.2 156.1 140.4 121.4 110.5 101.7 88.7 77.6 64.7 48.4 44.4 26.6 17.1 13 10.6 11.2 6 6 6 6 6 6 6 6 6 6 6 6 6 6 6 6 6 6 6 6 6 6 6 6 6 6 17.2 26.5 37.4 47.3 68 69.8 87.5 110.8 149.8 162.6 191.1 217.9 241.9 279.7 313.1 345.5 368.6 369.2 384.3 404.6 418 425 419 410.6 401 414.3 420.3 429 436.1 446.4 456.5 463.7 470.9 484.1 500.8 513.1 525.8 533.3 542.5 546.7 559.7 574.3 587.9 595.2 599.1 599.6 593.1 581.9 572.1 557.8 545 532.4 520 508 495.7 484.7 471.6 460.4 448.9 449.5 444.1 438.9 441.8 437.1 430.2 419.1 410.3 401.7 395.1 393 391.6 391.5 395.1 387.6 378.5 378.6 384 387.4 384.4 390.1 390.1 390.3 391.8 391.5 388 389.8 393.6 398.6 400.8 401.5 407.2 411.5 413.8 415.2 413 405.2
465.6 457.7 434.6 417.9 397.7 363.6 345 317.3 286.8 273 254.9 247.6 243.2 245.4 247.4 252.7 259.4 264.6 276 289.8 302.1 327.4 345.8 357.1 384.7 404.5 425.4 449.5 470.9 491.1 513.5 536 558.8 571.1 575 576.7 567.5 554.8 535 527.2 514.6 497.2 479.7 450.3 431.1 411.7 390.4 380.6 366.7 354.1 340.1 326 313.2 301.9 288.1 263.9 245.7 255.7 258.2 250.3 240.9 221 202 170.7 149.2 131.8 128.3 114.2 100.3 86 72.9 58.1 50.1 40.5 22.4 17.5 13.3 15.3 10.8 6 6 6 6 6 6 6 6 6 6 6 6 6 6 6 6 6 6 6 6 6 6 6 6 6 7.6 17.1 25.3 33.1 49.8 55.4 77 100 114.7 148 178.7 207.4 233.4 258.9 291.5 324.2 340.4 352.9 373.1 402.1 419.9 420.4 413.5 408.3 396.7 407.3 413.9 420.8 430.5 441.7 452.6 457.1 464.6 474 492.1 504.8 513.4 522.8 532.4 537.7 550.1 565.1 581.1 588.4 594 597.1 593.5 585.5 574.3 558.6 543.9 530.9 518.7 506.6 493.5 482.2 469.1 457.4 447.1 439.4 438.6 434.3 431.8 431.1 429.7 416.4 407.6 401.8 397.1 390.2 388.5 387.6 390 383.5 375.7 374.2 377.4 378.7 378.1 380.7 383 380.9 383.1 384.7 383 384.2 385.6 389.7 389.8 390.8 394.5 400.4 403.9 406.2 402.1 395.8
454 447 418.8 401.5 381.6 352.9 335.1 321.9 290.9 273.2 255.3 244 240.6 242.6 244.2 248.9 257.5 263.2 275.3 284 296.7 310.4 333.7 358.7 381.9 400.4 425.8 451 472.9 494.3 517.1 541.1 563.9 575.9 581.6 582.9 582.9 569.3 562.1 553.7 537.5 512.7 494.2 471.3 446.6 431.3 408 389.1 384.8 368.1 349.2 348.7 324.5 314.4 292.9 269.4 266.1 280.2 282.2 273.6 262 234.3 212.1 188 165.9 149.7 136.1 126.9 112.4 95.5 79.3 69.1 59.5 47.4 31.7 21.7 17.7 22.4 24.5 6 6 6 6 6 6 6 6 6 6 6 6 6 6 6 6 6 6 6 6 6 6 6 6 6 6 16.8 20.8 18.9 27.1 39.5 52.2 82.3 104.4 137.9 169.5 195.7 221.4 240.8 269.9 301.6 324.8 338.6 364.8 393.2 412.9 417.2 410.2 400.6 392.6 403 409.2 415.6 424.4 433.4 447.9 452.6 454.7 463.9 479.3 491.1 503.2 511.8 521 530 541.4 557.5 572.7 581.9 588.7 593.3 592.3 586.1 575 559.1 544 529.8 517.1 504.7 491.2 479.1 465.9 452.7 441.4 428.6 429.9 429.1 427.7 424.5 424 415.6 409.1 402 397 392.1 383.9 381.1 382.4 379.2 372.3 370.1 372.9 373.8 372.8 373.6 375.4 375.3 378.8 377.5 379.3 379.1 378.7 380.6 380.8 382.4 386 391.4 390.2 390.3 389.2 386.1
444.4 427 406.9 390.8 369.7 347.7 335.3 321.6 296.8 275.4 257.1 244.9 239.2 240.3 241.7 248.5 253.5 261.9 267.7 276.5 291 310.4 330.2 353.1 376.9 398.9 425.1 449.9 473.5 496.6 521 545.8 568.6 580.7 584.7 593.3 598.9 595.1 585.2 573.3 557.4 533 514.7 485 464.5 440.2 412.7 405.5 392.6 386.9 384.6 363.8 343.7 324 304.5 282.7 297 304.9 309.6 301.5 275.9 248.4 227.5 206 187.8 172.4 152.5 135.4 122.4 112.1 92 82.3 69.5 50.2 44 24.9 22.8 26.1 29.3 14.8 6 6 6 6 6 6 6 6 6 6 6 6 6 6 6 6 6 6 6 6 6 6 6 6 6 6 12.6 12.7 15.6 21.8 30.1 60.3 95 125.9 154 180.7 207.4 226.4 255.6 287.9 309.5 329.4 353.4 382.9 403.6 414 399.2 394.9 389.9 396 406.1 410.2 417.5 428.6 436.4 443.3 446.3 455.3 466.8 479.6 493.2 503.9 514.9 522 535.2 549.1 563 573.9 581.8 588.1 589.2 585 575.3 560.2 543.5 529.7 516.1 503 488.8 475 463.3 451.9 439.9 433.9 421.3 422.7 418.4 417.1 415.3 411.3 405.7 402.3 396.5 392.1 384.7 377 378.1 377.8 370.2 367.4 369.4 367.4 368.2 368.8 369.1 368.9 368 369.1 372.6 366.8 373.4 375.1 372.8 376 381.7 381 382 380.9 378.6 380.6
438.6 414.1 397.5 386.2 367.1 348.5 335 318.4 293.5 278.1 260 245.3 238 238.5 240.8 247.2 251.7 259.1 262.8 273.5 288.2 309.5 330.8 352.6 373.6 399.8 423 447.3 474.3 497.5 521 546.8 574.7 583.1 586.5 597.7 611 613.8 601.3 589.7 568.6 556.7 523.4 499.7 478.6 454.2 436.4 429.5 414.2 416.3 411.4 383 358.2 340.9 321.2 322.8 318.7 323 319.7 313.4 287.4 260.8 242.3 225.6 203.3 191.7 165.8 144.3 130.8 116.3 101.6 89.7 79.4 61.7 48 33.5 28.3 23.1 32.8 26.5 6 6 6 6 6 6 6 6 6 6 6 6 6 6 6 6 6 6 6 6 6 6 6 6 6 6 6 6 6 6 17.9 51.2 82.4 105.3 139.5 164 189.8 205.7 241.9 267.8 294.7 314.9 336.7 367.5 391.4 393.7 394 393.7 383.5 391.7 397.1 405.5 413 420.4 423.9 428 436.9 445.9 456.7 470 484.4 496.7 504.4 512 528.1 540.3 553.6 565.3 575.1 582.2 585.3 582.9 574.1 558 543.4 529.3 515.9 502.6 489.6 475.9 461.6 448.8 438 429.7 417.6 415 413.4 410.4 408.9 406.2 404.2 400.3 396.1 391 385.7 378.3 375.1 373.8 368.4 366.5 364.5 365.1 365.2 364.2 364.7 365.4 364.8 365.9 362.7 363.7 365.9 368.6 366.5 369.6 373.6 374.3 372 373.1 374.9 375.6
429.5 410.4 396.1 382.4 363.1 347.3 332.8 312.5 300.3 284.3 262.8 246.8 238 236.6 241.1 243.4 248.7 253.8 259.8 272.9 285.7 305.4 327.2 346 373.1 395.6 419.1 444.3 473.9 494.6 518.6 543 569.9 576.9 584.6 602 615.4 622.7 613.3 597.5 578.6 561.6 535.2 517.2 490.9 465.8 467.7 465.4 449.5 442.8 416.9 399.7 378.6 359 335.8 342.7 338.3 335.3 328.8 330.4 318 295.6 271.8 249.9 228 204.1 188.4 158.4 138.3 123.5 110.7 94.7 83.1 64.6 51.8 46.5 35 38.7 25.1 30.5 14.7 6 6 6 6 6 6 6 6 6 6 6 6 6 6 6 6 6 6 6 6 6 6 6 6 6 6 6 6 6 6 40.4 64.4 92 121 148.6 172.2 194.3 226.9 249.9 277 295.3 320.1 348.8 376.3 385.1 392.7 393.7 384.4 374.7 393.6 396.3 404.9 408.7 413.7 419.8 426 434.5 449.1 462.1 471.4 482.3 493.4 499.3 518.6 531.9 546 557.4 567 574.9 579.9 579.3 573.2 560 544.7 529 514.9 501.6 489.1 473.5 460.9 448.3 437.5 428.2 420.9 415.2 409 407.3 404.1 402.7 401 396.6 393 388.8 385.1 378.7 376.1 375.3 371.6 370.1 367.1 364.9 361.3 363.8 363.3 362.7 362.8 358.8 358.4 361.4 361.6 361.8 362.6 364.4 364.3 365.7 364.6 369.5 370.6 371.1
431.2 411.7 392.8 379.8 363.8 348.5 327.4 309.5 299.2 281.3 267.1 249.3 235 233 237.3 242.7 244.4 249.7 257.7 269.8 283.7 301.1 323.6 343.2 368.3 390.2 415.1 440.6 468.9 491.5 515.4 537.8 556.3 575.4 582.9 598.7 615.4 623.2 629.5 623.5 612.5 574.3 552.1 530.3 505.7 494.3 491.3 485 468.1 454.1 438.2 422.6 401.2 374.2 357.8 357.1 351.5 349.2 346.1 342.1 325.3 307.6 286.2 258.1 243.2 216.2 197.2 172.5 145.1 134.3 114 101.8 85.8 72.1 61.8 51 40.3 44 43.1 33.9 25.6 18.2 11.8 12.3 6 6 6 6 6 6 6 6 6 6 6 6 6 6 6 6 6 6 6 6 6 6 6 6 6 6 6 19.5 44.1 80.4 108.6 129.7 148.6 179.5 209.7 239.8 256.5 272.4 298.6 327.4 351 365.5 383.7 383.1 376.6 377.9 390.9 387.8 393.8 399.7 403.6 409.2 419.9 431.1 439.9 453.6 462.5 472.2 479.5 487.3 503.9 519.9 533.9 545.2 557.1 565.8 572.3 575.1 572.1 562.4 545.9 528.5 513.3 500.4 487.5 473.5 460.8 449.5 437.4 429.2 426 417.6 409.5 402.3 399.5 400.8 397 394.2 391 385.3 383.5 378.3 376.7 378 372 371.2 368.3 365.3 360.9 358.5 360.4 361.1 356.8 356.2 356.7 356.4 358.6 359.4 359.9 354.4 359.6 363 362.5 363.4 363.6 363.4
434 414.4 392.3 382.2 369.9 347.9 323.9 305.9 292.6 282.5 268.6 254.3 235.4 232.8 236 238.3 242.4 247.8 255.8 265.6 280.9 300.9 320.5 340.6 364.2 387.8 410.9 435.7 461.4 487.3 511.6 531 552.7 568.7 579.2 594.5 612.9 622.7 632 630.7 626 601.1 572.6 548.8 535.1 526.4 520.3 520 491.8 469.9 445 430.1 418.1 390.4 380.6 370.6 365.8 361.5 360.6 364 359.8 338.3 307.5 272.7 270.2 231.2 210.6 187.6 173.9 155.8 131.9 114.3 95.5 87.2 72.5 60.5 52.3 55.9 55.7 48.5 43.6 36.9 29.5 25.2 22.2 12.1 12.5 6 6 6 6 6 6 6 6 6 6 6 6 6 6 6 6 6 6 6 6 6 6 6 6 7.3 38.4 62.9 87.1 105.7 133.8 164.3 193.3 220.3 240 256.4 280.2 305.8 326.2 344.4 362.7 373.2 368.9 362.5 375 378.6 380.5 388.3 393.6 405.8 414.2 425.7 431.1 443.8 453.8 463 469.9 475.3 489.5 504.1 520 533.2 545.1 555.6 562.9 567.8 567.8 562 544.6 526.5 512.2 500.2 485.2 472.2 458.8 447.9 435.8 425.6 420.9 415.1 406.7 398.9 396.3 395 393.4 393.1 387.9 381.2 378.4 376 373.3 373.3 372.1 371.9 367.1 359.2 360.4 357.5 358.1 355.6 359.3 355.4 353.9 354.4 353.3 351 348 351.3 355.8 358.3 359 357.5 358.3 361
433.8 410.6 390.1 380 361.5 341.4 320.9 305.1 292.4 283 268.2 253.5 233.3 231.5 234.4 235.8 241.1 247.7 253.9 266.7 281.2 298.8 317.9 337.1 363.1 387.3 407.4 431.9 458.2 483 504.2 525.9 548.3 564.7 574.2 590.5 603.9 621.2 633.1 638.6 634.4 619.2 602.2 589.7 573.4 552.2 529.6 512.2 499.6 485.4 458.8 439 422.1 407.1 396.5 384.4 380 381.8 377.2 384.5 379.7 362.6 324.8 286.9 285.4 255 235.2 209.7 195.4 175 147.5 129.4 119.5 105.6 92.7 75.6 68.4 69.9 67 64.3 58.1 52 46.1 43.4 42.5 29.7 24.6 16.3 6 6 6 6 6 6 6 6 6 6 6 6 6 6 6 6 6 6 6 6 6 6 6 6 22.9 48.9 69.3 93.5 115 149.4 177 203.9 227 246.5 263.4 290 306.1 334.3 354.4 362 360.6 358 363.8 369.1 368.3 377.9 385.1 402.1 408.6 416.8 424.1 434.4 444.2 451.5 461.2 466.1 476.5 491.2 505.4 519.9 531.2 544.8 552.1 558.1 559.4 555.9 543.4 523.7 510.2 498.3 482.9 469.5 457.4 446.8 434.1 423.9 419.9 412.2 406.2 397.9 392.4 388.1 390.4 389.6 384.8 378.2 376.5 372.8 375 374.3 372.5 364.2 365 366.6 363.2 359.3 357.5 359 361.3 358.6 358.9 356.7 356.2 355.3 353.7 345.8 351.9 355.4 352.8 352.5 353.7 354.6
428.5 413.4 386.2 372.3 357.7 327.3 313.2 303.2 297.2 278.9 262 246.6 234.3 230.3 231.4 233.8 240.6 245.8 256.6 267.3 279.5 296.2 314.4 334.6 359.9 385.1 403.8 427.1 452.4 474.4 499.1 518.2 539.3 556.5 568.4 585.5 598 613.6 631.7 640.2 640.6 636 639.3 618.8 603.8 577.6 547 529.4 511.2 491.1 480.1 459.9 431.3 415 406.3 399.8 394.9 398.1 390.8 400.9 393.4 375.6 347.8 301.6 286.5 259.1 246.1 222.3 202.1 181.6 164 150.4 143.5 130 111.7 91.6 82.8 85.3 82.3 80.4 75.1 68 59.7 58.3 57.1 47.8 41.2 22.1 12.4 6 6 6 6 6 6 6 6 6 6 6 6 6 6 6 6 6 6 6 6 6 6 6 10 36.9 61.1 82.8 107.3 136.5 166 186 213.1 229.9 250.5 270.4 285.7 320.4 342.2 348.6 338.2 353.7 348.4 352.8 357.8 366.8 383.2 392.9 400.1 410.6 419.8 424 434.2 441.5 447.3 455.6 466.2 477.3 489.3 505.3 518.4 531.6 541.1 546.1 547.1 545 535.7 518.2 506.9 496.4 481.9 467.6 456 444.1 432.2 420.6 413.9 410.7 404 398.3 391.4 386.6 389.3 386.7 381.9 376.4 374.9 372 375.8 376.3 373.5 366.8 369.2 368.6 363.9 361.2 361 362.3 360.2 359.4 358.2 355.5 355.1 355.4 351.1 347.1 351 351.3 348.8 349 349.1 349.1
