ncols 200
nrows 82
xllcorner 270000
yllcorner 811500
cellsize 50
546.9 542.4 536.2 530 527.1 524.9 524.1 526.5 522.2 509.9 521.8 547.5 575 601.3 627.4 650 674.4 691.3 707.3 718.8 728.6 733.4 733.3 731.2 724.7 715.5 705.7 693.3 671.8 642.1 617.2 605.9 617.4 639.1 624.7 622.2 611 599.5 588.9 586.5 586.4 584.1 568 597 632.8 663.4 683.4 694.4 701.8 705.4 708 708.8 709.3 709.9 705.8 700.6 695.2 689.7 686.2 685.2 685 685.9 685.6 681.8 675.5 666.8 651.7 633.9 619.4 602.1 588.4 622.9 641.6 647.5 649.6 648.6 647.6 645 639.2 632.5 626.5 620.3 607.9 594.7 578.8 584.4 572.9 592.8 604.7 611 614.6 618.9 621.2 623.3 624.5 627.1 631.3 636 639.9 643.7 650.3 659.6 669.6 671.1 670.8 671.6 672.4 673 674.6 675.8 676.5 676.8 680 680.2 682 682.8 682.9 684 684.3 686.3 686.1 687.9 688.7 689.4 689.2 686.6 683.5 681.2 679 676.1 671.6 664.8 662.1 658.1 655.4 652.9 650.1 646.5 644.1 640.1 633.9 628.8 626.4 620.2 615.8 611.9 606.4 600.5 596.8 593.3 589.6 586.3 583.6 581.5 579.3 575.9 573.7 572.1 570.9 570.4 570 569 567.4 565.3 565.6 565.3 564.5 561.2 557.1 549.5 542.7 535.6 534.5 531.3 526.2 519.5 513.7 506.5 499.5 495.8 489.5 483.1 478.4 473.2 469.5 464 461.4 458.1 455.4 451.4 446 441.8 438.6 431.4 428.8 420.2 408.7 397.7 387.7 387.6
565.7 559.7 550.8 545.1 543.4 544.7 544.3 542.4 537.4 512.8 517.6 542.4 573.2 597.7 623.4 647.5 673 690.5 705.5 718.3 728 733.8 735.6 733.6 727.3 719.3 708.9 695.5 674.8 646.4 619.7 623.5 642.3 660 649.2 647.6 634.8 619.7 616.1 613.1 609 594.6 570.8 586.4 619.2 648.5 670.8 684.4 695.4 700.2 704 707.2 709.8 710.3 706.6 702.5 698.4 693.7 693.9 694.5 693.6 694 692.3 687.4 679.5 670.2 656.7 638.8 622.5 598.6 603.7 631.9 646.6 652.7 653.9 652.4 650.2 646.6 640 633.6 626.4 621.6 611.6 599.5 590.5 591.9 586.1 574.9 595.5 605.9 612.4 617 619.7 621.9 623.8 625.8 630.4 634.5 640.3 646.1 652.9 662.8 670.9 672.7 671.9 673.1 674 675.8 677.6 678.8 678.2 680.1 683.1 683.7 685.3 686.6 686.2 685.1 687.5 687.3 688.9 690.1 690.6 690.5 689.4 686.2 683.9 681.4 678.7 674.7 669.2 663.4 660.8 657.8 654.7 650.9 646.9 641.6 639.3 636.2 632 627 618.1 617.6 612 606.5 602.1 597.1 592.9 590.3 585.8 583.1 580.8 578.8 576.9 574.7 571.9 570.4 568.6 568.5 568 566.8 564.8 562.6 563.3 563.1 561.9 556.5 553 547.1 540.3 540.9 536.7 530.9 524.7 518.9 512 505.4 500 497.2 488.3 482.4 477.5 472.6 467.1 463 459.1 456.3 453.5 447.9 443.5 438.8 432.6 428.4 421 414.2 402.7 391.8 388.2 388
588.6 577.6 567.9 562.2 565.1 565.2 569.4 558.1 543.9 520.4 526.1 554.4 581.7 602.8 628.5 651.5 675.2 692.6 707 719.2 728.8 735.4 738.1 735.3 729.5 721.8 713.2 700.1 677.8 648.4 634.3 643.6 667 673.7 669.5 678.6 666.8 663.5 651.3 636.5 627.6 605.1 581.2 581.3 606.9 629 649.6 665 681.1 688.1 693.3 696.8 702.2 703.8 700.5 700.7 699.5 698 699.8 701.1 702.5 700.1 696.5 690.2 682.4 672.4 661.1 639.9 615.5 598.4 620 640.8 650.4 655.6 656.7 655.2 652.4 647.4 641.9 635.3 625.9 621.5 612.3 600.6 601 595.7 590.5 577.5 582.2 597.9 606.1 612.2 616 618.6 621.5 625.2 628.9 633.5 639.3 646.9 654.3 662.7 669.1 670.6 671.4 672.7 673.9 675.6 677.8 679.4 679.2 680 681.1 685 687.6 686.7 686.9 687.3 687.3 688.6 689.2 690.4 691 690.2 689.5 687 685.9 682.1 679.2 674.2 667.9 663.5 661.2 658.1 655.7 653.9 651.5 647.4 642.4 638.1 628.8 624 617.7 606.6 603.7 603 598.3 592.8 588.8 585.2 583.4 581.4 578.5 575.5 574.7 571.6 570.2 568.8 566.6 566.4 565.9 564.1 561.7 559.3 559.4 558.5 555.3 550.9 548.2 546.9 547.5 542.6 537.5 530.2 523.3 518.4 511.1 503.4 500 496.7 487.2 482.6 477.6 471 465.3 460.7 456.8 451.1 447.6 444.7 439.9 435.5 427.7 424.3 417.8 407 395.2 389.4 388.6 388.8
610.3 598.9 589.8 587.1 590.2 595 586.5 564.9 542.1 521.6 541.8 564.5 592.1 613.7 636.4 660.5 679.7 696.4 709 720.8 732.1 738.1 740.3 737.5 731.4 724.7 716.9 706.6 683.3 658.4 665.6 675.1 680.9 685.7 686.5 694.9 695.7 691 682.7 659.3 634.1 617.8 598.9 584.2 587.8 602.5 620.5 642.1 659.8 666.7 672.6 673.8 678.3 681.4 680.5 693.3 696.2 699.6 702.7 705.7 706.9 704.9 698.9 690.9 682.5 672.9 661 636.6 606.6 614 631.7 645.6 652.8 657.8 658.9 656.2 650.6 648.5 642.4 638.2 632.8 625.9 620.5 615 610.9 605.7 596.7 587.5 581 582.2 596.4 602.9 610.7 615.1 618.5 623.1 627.3 633.6 639.5 645.3 654.1 661 666.3 667.4 669.9 671.5 672.8 674.5 676.2 678.4 679.7 680.1 681.4 682.6 685.1 685.4 687.4 688.5 689.4 689.8 690.9 691.5 692.5 690.9 690.6 689.2 687 683.7 681.7 676.5 671.4 666.1 662.8 659.1 657.8 655.6 654.3 651.2 645.2 640.3 635.4 629.7 622.3 616.7 606.3 596.3 595 590.4 586.2 583 578.7 579.2 577.7 574.5 572.9 570.8 568.7 566.9 564.1 562.9 561.3 560.2 558.2 556.7 556.5 555.8 552.7 551.1 549.3 553.8 550.4 545.1 538.3 527.3 523.8 517.4 508.4 503.6 501.7 494.1 486.7 481.8 476.9 470.9 463.4 458.8 454.5 449.4 445.3 439 435.4 431.1 425.3 416.1 411.1 400.2 390.8 389.8 389 387.8
640.9 630.4 625.5 623.4 618.3 607 584.1 555.8 525.1 533.4 553.6 577.8 601.5 624.2 646.1 667.6 685.6 701 714.2 725 735.1 741 742.4 740.2 734.1 727.3 721.2 711.6 689.3 670.5 687.8 690.5 693.2 695.7 696.3 700.3 701.4 699.2 696.6 679.3 653.7 638.3 621.4 607.2 597.1 594.5 597.7 619 630.5 636.6 643.4 644.5 646.8 649.8 656.3 674.9 689.4 697.4 702.3 707.4 709.1 706.1 699.4 690.7 680.8 669.4 651.7 624.4 614.2 630.9 643.7 651.3 657.5 659.7 659.2 656.9 654.4 649.3 645.9 642.1 637.3 630.1 628 622.8 616.8 612.9 605.3 594.1 590 585 582.8 593.2 602.5 610.6 616.1 621 626 632.4 638.5 645.1 651.9 657.7 662.3 664.1 666.2 668.5 670.3 672.6 673.9 676.7 678.1 679.4 680.5 681.5 683 685.3 687.2 688.9 690.5 691.8 692.4 692.4 692.1 692.2 692 691.7 690.3 686.8 684.3 678.9 675 668.4 666.7 663.6 661.8 659.6 657.6 653.6 649.4 642.9 637.5 628.1 622.8 614 604.7 600.2 589.9 587.6 584.1 580.6 577.8 575.8 575 571.4 571.3 569.4 567.4 564.5 562.3 560.1 558.5 556.8 555.4 554.1 553.8 552.8 551.1 549.5 550.1 556.5 553 547.2 537.4 527 524.2 514.7 506.3 501.9 500.2 490.3 486.1 481.5 476.7 471.2 461.7 456.6 451.4 447.4 443.5 436.5 429.6 426.4 420.5 413 402.7 392.4 391 390.2 389 388.9
663.5 654.4 650.3 642.8 629 607.6 579 547.6 527.9 549.5 568.8 594.6 614.1 637.1 656.1 676.5 693.6 705.7 717 727.4 736.5 742.9 743.7 742.1 739.2 731 724.2 714.8 695.4 690.6 702.5 702.1 701.4 702.8 702.8 703.2 706.1 706.9 705.6 697.5 675.8 660.4 647.1 635.1 620.6 613.3 594.2 594.6 596.3 605.7 607.3 611.8 612.1 613.9 629.1 652.6 678.3 693.6 701.9 706.6 708.9 705.8 696.9 686.2 675.9 657.6 633.8 615.8 629.2 641.2 649.9 656.8 659.6 660.5 660.9 658.9 655.9 652.4 647.7 644.7 640.2 636.4 632.8 627.6 620.8 617.1 610.9 599.7 593.8 593.2 589.7 583.7 593.8 603.6 612.3 617.5 622.5 630.8 637.1 643.4 649 654.3 659 662.3 663.8 664.9 666.7 669.7 672.1 674.3 675.4 677.7 679.9 681.1 683.1 685.3 687.3 689.2 690.8 692.2 692.8 693 692.8 693.3 693.9 694 693.2 691.4 686.9 680 676.3 672.6 668.6 667.6 666.3 662.6 660.5 656.4 650 644.5 638.6 628.3 621.4 612.8 602.1 593.4 588.6 584.3 580.8 579.8 575.8 573.2 571.7 569.3 569.2 567.6 565.8 562.5 561.4 558.4 557.3 556.1 554.4 552.9 551.4 550.1 549 548.8 549.4 556.4 554.8 546.7 535.5 526.6 522.1 513.7 504.7 500.2 495.2 489.8 485.5 482 477.3 469.7 462.1 454.4 451.1 447.7 440.7 434.9 427.9 422.1 416.5 401 394.7 392.4 391.2 390.5 389.1 389.3
670.9 664.1 657.2 646.4 627 600.5 569.5 539 544.5 562.4 585.6 608.5 629.4 649.2 668.1 684.4 698.4 710 719.9 728.9 736.4 742.7 744.8 742.9 739 734.3 726.6 711.7 697.1 710.1 710.2 708.2 707.3 707.6 707 709 711.3 713.1 712.9 710.8 698.7 679.7 662.8 644.2 636.5 630.5 616.6 613.2 609.3 608.5 613.3 615 614.1 614.4 614.6 633.1 667.3 690.3 699.8 705 706.6 701.9 692.4 680.3 665.5 639.9 625.5 636.8 645.4 650.5 657 662.4 664.2 664.2 662.6 660.3 657.7 655.5 652.1 648.4 645 640.8 637.6 632.8 624.8 620.1 614.3 605.1 595.5 597.7 596.3 585.7 585.7 596.9 607.3 614.6 621.6 629.1 635.3 641 646.5 649.1 652.8 656 659.1 660.6 663.7 666.6 668.7 671.5 673.6 676.1 678.4 680 682.1 683.9 686.2 688.4 690.3 691.4 692 692.7 692.7 693.7 694.6 695.7 696.3 692.1 687.4 680.4 677.7 673.3 670 670.3 668.4 665.9 662.4 657.6 650.6 644.4 636.8 628.4 619.9 608.4 598.9 590.1 586.1 583 579.6 576.5 574.9 572.3 569.3 567 566.9 565.5 564.2 561.1 559.7 558.3 555.9 554.6 553.2 551.5 550 548.9 547.4 546.5 548.1 555.4 555.9 547.9 534.4 526 519.7 510.7 502.9 496.8 494.1 489.7 487.2 484 477.1 469.9 460.2 453.9 449.8 446.5 437.8 431.4 423.7 418.1 411.2 399.9 393.8 392 391.3 390.6 389.9 390.2
673.5 665 656.6 642.3 619.6 590.1 560 538.7 554.3 574.6 600.5 624.1 643.4 661.3 677.3 689.5 701.2 711.9 720.6 728.8 736.7 742.6 745.6 744.3 740.4 734.6 726.1 713.6 718.4 719 716.6 714.9 714.3 712.7 713.4 713.8 714.1 717.1 717.9 716.5 707.7 691.3 674.5 645.3 654.2 650.4 644.8 632.3 632.1 630.1 633 637.1 640 635.7 615.7 632.9 669.5 687.4 696.2 700.6 701.6 696.7 685.3 666.6 650.2 631.8 644.2 653.7 657.8 662 666.8 669.4 668.6 667.5 665.2 663.5 662 658.9 656.8 650.9 647.7 643.9 641.2 637.1 629.3 622 616 608.7 598.6 601.9 600.7 593.2 587.4 591 600.9 609.3 617.5 626.3 633.5 638.3 642.3 644.8 647.7 650 652.9 656.5 659.2 661.6 665.5 668.4 670.3 673.6 676.7 678.4 681.1 683.8 684.3 687.3 688.9 689.9 689.4 691.8 693.8 695.7 697.3 698.9 700.8 691.2 686.3 681 675.8 673.7 672.5 671.4 668.3 666.3 662.4 655.9 649.1 644.3 634.8 623.8 614 604.5 592 587.5 584.1 581.1 579.1 573.1 572.9 570.6 568.6 566.1 565.1 563.7 562.5 559.9 558 557.3 555 553.6 552.1 550.5 549.6 548.2 547 546.5 547.4 556.9 556.7 545.9 530.9 523.7 518.2 509.6 499.9 495.4 492.6 491.8 489.6 484.4 475 467.1 459.2 453.3 448.3 442.5 435 426.6 420.4 414 406.3 393.6 392.7 391.9 391.3 390.9 390.5 390.6
673.8 665.4 654.4 636.6 612 585.8 558.2 547.7 564.4 590 616.6 638.8 656.3 669.1 683 694.2 703.8 713.1 721.1 728.6 735.4 741.5 745.1 745.5 740.5 733.4 722.8 719.3 723.6 724.1 721.8 720.1 719.6 719.1 718.1 716.6 716.9 719.2 721.2 721.4 714.1 693 676 668.9 675.3 671.2 660.1 659.7 663 660.7 661.1 666.6 666.5 644.3 616.8 639.6 669.3 682.5 689.9 692.6 691.1 686.3 670.1 648.3 642.8 653.8 665.7 672.3 674.5 676 675.6 675.4 674.1 670.8 667.8 667.6 665.2 663 660.2 657.3 653.2 649.1 644.9 640.8 634.5 625 617.3 608.7 606.5 608.5 605.7 597.3 588.9 590.5 592.8 601.9 611.7 620.3 627.3 628.7 630.7 637.4 639.7 642.9 647.2 652 655.7 659 663 666.2 669.2 672 674.2 677.2 679.1 682.5 683.1 685.6 687.5 687.4 689.9 691.5 693 696.1 698.4 700.8 696 690.9 685.6 678.7 676.1 673.6 672.8 671.3 669 665.3 660.6 654 646.2 641.1 627.7 618.6 608.7 598.2 589.1 585.1 582.5 580.6 578.5 573.1 570.6 568.8 567.2 564.7 562.1 561.5 560.7 559.1 555.8 555.2 554.4 552.5 551.6 551.1 550.1 548.8 546.9 546.7 548.1 558.4 555.2 542.6 528.1 524.1 515 509.4 497.1 495 494.3 494.4 489.7 483.6 473 464.4 457.1 451.5 445.6 438.2 429.9 424.1 417.9 410.3 401 393.5 392.8 392.4 392 391.7 391.5 391.2
674.8 665.8 650.6 631.5 608.4 586 550.3 556.9 572.2 600.9 628.1 650.6 663.8 673.9 685.6 695.2 704.8 713.2 720.4 727.3 733.8 739.2 743.5 743.2 738.7 729.9 718.9 727.4 729.3 728.2 726.6 727.2 726.1 725.3 722.8 721 720.6 722.6 724.7 726.2 719.5 708.4 682.3 693.8 690 682.8 665.5 681.4 686.8 688.1 687 684.6 679.7 652.2 619.8 644.1 665.4 676.5 680.8 680.6 672.1 661.5 649.1 652.9 659.7 672.4 678.1 685.3 687.4 686.2 684.1 680.1 678.2 675.3 672.1 670.3 666.2 664.9 663.1 660 655.9 652.8 647.6 643.5 637.6 628.3 622.2 611.5 612.3 614.9 612.7 607.2 595.2 590.2 592.3 595.6 601.3 607.4 612.7 613 618 617.8 623.2 633.6 640.7 648.3 652.8 656.8 659.8 663.8 666.5 668.6 671.2 674.7 676.2 679.5 681.5 683.2 685 686.7 688.3 690.5 692.4 695.7 698.2 701.4 694.5 690.5 683.3 679 674.9 673 670.9 669.9 666.8 662.5 657.4 650.5 644 636.5 625.4 612.5 605 593.3 588.1 583.4 579.6 578.9 578.4 572.5 567.4 566.3 564.9 564.2 562.6 559.4 558.3 556.7 556.5 555.5 553.6 552.8 552.3 551.6 550.4 549.2 548 546.8 551.8 557.3 551.6 537.1 528.5 521.5 513.2 505.1 497.7 495.8 496.3 494.4 489.4 481.4 468.8 461.7 455.7 449.4 444.7 435.5 428.4 421.5 414.1 405.1 398.9 393.3 393.3 393.1 392.7 392.5 392.3 399.5
677.8 666.2 650.9 632.7 611 590.4 562.8 560.7 576.1 602.8 630.9 654.2 666.7 676 685.8 694.5 702.7 711.1 718 724.6 730.9 737.1 740 740.6 737 728.8 728.8 733.5 732.8 730.9 732.2 732 731.1 729.1 727.8 726.9 726.9 728.3 729.7 728.1 722.5 705.3 706.5 702.6 697.1 689.3 687 691.7 694.5 694.5 691.5 687.3 686.2 668.7 647 628.5 652.7 664.2 670.5 667.4 674.2 665.9 661.6 670.6 674.7 682.2 690.5 694.7 696.8 695.5 689.7 682.8 681.2 678.9 676.2 672 670.3 668.6 666.8 664.2 660 655.4 652 645.6 640.4 634.1 627.1 615.2 616.9 620.2 619 615.6 604.4 596.2 593.5 598.3 608.2 609.4 617.9 625.6 629.1 633.4 633.8 625.9 630.8 640.4 648.6 653.7 657.2 660.6 662.6 666.6 669.1 671.6 674.1 675.2 678.2 681 682.8 684.6 686.9 689.1 691.6 695 697.3 699.5 693.6 688.9 683.3 678.4 676.3 673.3 671.1 667.4 663.9 659 653.5 643.9 637.4 630.3 621.2 608.2 601 592.7 588 583.5 578 577.3 571.4 568.6 566.7 566.8 565.1 561.8 561.5 559.7 556.7 555.3 555.2 554.8 553.3 552.5 551.7 551.7 550.9 549.4 547.3 545.4 553.3 554.8 546.8 534.6 531.3 519.6 510.6 503.1 498.7 495.6 495.3 493.5 489.4 476 463.2 458.9 453.3 448.2 441.9 432.7 425.5 418.5 410.2 401.5 400 394.1 393.9 393.8 393.5 392.8 392 407.6
678.7 666.1 655.4 634.7 616.9 595.5 573.4 562.6 576.4 601 629.4 649.2 663.1 673.3 682.9 691.6 699.1 707.3 715.4 721.9 727.8 733.4 736.9 737 734.7 730.8 732.7 735.7 735 736.6 737.3 736.2 736.1 734.4 733 732.4 731.9 732.8 731.9 729.5 722.3 719 716.4 709.8 702.7 695.2 696 699 701 698.5 695.4 691.6 687.6 683.9 671.5 644.4 635.1 650.8 666.2 675.9 682.5 678.8 673.5 683.8 687 693.3 699.5 703.3 704.7 704.4 699.8 690.9 683.4 681.5 679.1 675.4 672.6 671.1 669.6 667.8 663.9 660 656.8 651.7 643.5 637.7 632 620.7 622.6 624.1 623.2 618.8 610.9 601.2 597.4 601.1 608.6 615.6 622.4 627.9 632.5 636.9 640.6 642.5 637.7 631.1 641 648.8 653.5 657.3 659.7 662.9 666.1 669.3 670.6 674.1 676.7 679 680.8 682.7 685.8 688.2 690.7 693.9 696.7 698 693.6 689.3 682.1 678.9 676 671.7 669.3 665 660.8 654.2 647.2 638.8 632 624.1 612.8 602.8 597.3 592.6 586.2 579.7 574 572.1 569.2 566.8 564.9 567.3 563.6 561.2 559.3 558.3 555.3 554 553.1 552.9 552 550.8 552.5 550.7 549.6 549.5 547.5 544.7 551.8 549.6 540.1 538.4 531 519 508.2 503.4 498.5 496 494.3 492.3 489.1 473.7 463.2 455.8 451.3 445.7 437.3 429.5 422.5 414.7 405.6 401.2 399.8 395 394.8 393.6 392.7 392.3 399 415.3
679.7 666.8 650.5 632.8 616.4 599.9 583.8 574.4 567 594.3 622 640.1 652.9 666 675.2 685.1 694.8 702.9 711.1 718.1 723.7 729.1 731.7 732.4 730.8 731.3 734.4 735.9 737.9 739.4 741.2 740.5 740 738.5 737.1 736.3 736.1 734.2 731.7 729 729.6 727.2 721.6 713.8 707.5 701.7 703.8 705.9 705.6 701.2 697.3 693.9 690.1 685.3 678.6 668.6 658.4 641.3 667.6 680.7 687.4 683.8 692 694.7 695.4 703 707.4 710.8 712.2 711 706.8 700.5 694.4 689.9 686.4 683.6 679 677.1 674 670.1 667.4 663.8 660 655.7 650.5 642.2 636.9 626.3 628.5 629.2 627.7 622.4 613.5 600.9 601.4 608.7 616.8 622.3 627 634 638.4 641.7 643.1 645.9 648.2 641.7 635.3 641 649.5 655 657.3 660.4 663.4 666.6 668.7 671.6 673 675.9 678.3 680.6 684.2 687.1 689.6 692 695.8 696.6 691.9 687.9 682.9 679.4 676.2 672.1 667.5 662 656.3 647.8 636.9 630.9 624 616.5 607.3 601.4 591.6 587.4 582.3 573.7 571.1 569.6 566.5 565.4 563.9 563.2 561.4 560.7 558.1 556.1 554.5 553.5 550.9 552.6 550.7 552 551.4 552 550.8 547.6 546.9 543.3 546.7 542 539.8 540.5 530 516.1 507.1 501.3 497.6 495.8 493.9 489.9 482.8 470.4 462.2 453.5 449.1 444.1 435.3 427.5 417.4 410.1 402.6 401.7 396.1 395.3 394.5 393.5 393 392.8 406.3 423.2
685.4 672 654 638.7 625.8 617.4 597.4 587.7 587.4 575.3 601.1 625.7 638.9 651.9 664.9 674.1 684.4 696.8 706.2 713.3 719.5 723.7 726.8 728.2 729.2 732.4 734.9 736.5 739.6 741.7 744.1 742.7 742.5 742.7 741.8 740.5 738.9 734.3 735.7 736.4 735.5 731.8 726.7 719.8 714 713.1 711 710.7 707.9 702.8 699.3 694.6 691.4 685.9 678.8 669.5 652.7 649.1 671.3 682.9 689.9 696.9 699.7 701.5 703.2 709.2 712.8 716.4 718.1 715.7 712.2 707 701.4 696.8 694.6 692.2 688.4 681.8 678.6 674.5 672 666.7 661.1 657.1 652.5 646.4 639.4 632.2 632.7 633.5 632.1 627.1 614.3 598.3 608.2 615.7 623 626.5 632.4 640.3 645.2 646.7 647.2 646.8 648.7 647.3 647.4 640.6 642.9 650.5 653.4 657.1 660.1 664 666.4 669 670.9 673.5 675.4 678.4 682.5 686.4 688.7 692.4 696 694.6 691.1 687.4 684.6 679.7 676.5 672.1 665.4 658 648.6 633.4 623.8 620.7 616.3 607.9 600.9 590.7 584 580.2 574.7 572 569.9 567.5 565.5 564.6 566.6 564.4 559.8 559.8 558.3 556.4 554.4 552.6 550.6 551.4 549.3 551 550.7 551 550.7 547.4 544.9 540.8 542.5 540.1 540 538.7 526.4 513.9 505.4 500.6 496.4 494.7 492.6 488.9 478.2 467.8 458.7 452 446.1 440.1 431.6 423.4 413.5 408.9 402.9 397.8 396.2 396 395.2 393.9 393.3 398.1 415.3 434.8
692 677.5 663.2 649.7 638 632 616.7 610 612 604.9 590.5 590.5 614.2 631.2 645.3 657.6 675.2 689.5 699.3 707.8 715 720 722.6 725.2 727.1 729.5 734.1 736.5 739.9 743.7 745.5 745.5 746 744.3 744.3 742.9 740.3 740.9 740.4 741.1 739.3 736 730.9 724.3 720.4 717.2 716.3 713.4 708.9 703.9 699.1 695.2 689.6 685 676.1 661.7 645 664 677.5 686.8 693.5 698.9 704.3 706.5 709.2 715.9 718.9 722.2 724.4 722.6 719.2 714.7 710.8 705.2 702.5 699.6 695.8 690.7 683.2 678 675.8 670.5 664.3 660.4 654 648.9 644.6 634.9 638 636.8 635.7 630.4 615.1 599.5 614.6 620.9 625.2 631 637.8 645.8 652.2 652 650.8 649.4 649.2 649.9 649.1 648 641.6 649.9 653.5 655.5 654.6 659.8 663.9 666.3 669.2 671.7 673.7 676.9 680.7 685 689.8 694.3 697 692.9 691.1 688.7 685.6 680.3 675.4 671.9 663.6 655.4 643.2 628.7 625.5 619.5 602.2 598.9 583 582.3 576.1 572.9 570.2 569.3 567.4 568.5 566.3 564.7 565.5 563.5 560.2 558.9 557.3 555.3 553.2 551.3 549.9 547.7 548.9 551.1 551.4 551.4 550 546.4 542.7 538.9 541.9 540.9 536.8 532.8 521.6 510.4 504.3 499.8 495.3 491.9 489.4 487.1 476.6 465.1 457.3 449.9 443.6 436 425.7 418.8 413.4 407 402.1 397.4 396.2 395.2 394.6 394.9 393.6 406.8 424.7 444.7
698.4 683.7 673 662.6 652.8 644.7 637.6 630.6 632.2 623.4 620 621.7 603.9 618.9 641.2 657.2 663 679.1 691.3 701.7 710.6 715.6 718.9 722 725.6 728.3 733.4 736.9 740.5 743.4 745.9 746.4 746.8 746.6 746.2 744.3 743.4 742.9 743.7 743.8 742 738.6 733.3 729.5 726.3 723 719.7 714.1 709.1 703.2 698.7 694.7 690.2 681.1 672.8 652.8 651.4 669 680.6 687.7 696.2 701.5 706.4 710.9 716.2 722.4 726.7 729.4 730.7 731.3 729.6 726.7 721.3 717 710.9 707.8 701.9 696.7 689.9 682.3 678.5 673.9 667.3 661.8 658.3 653.4 646.4 638.5 644.3 641.8 638.8 631.7 617.2 601.8 619.5 624.8 627.8 634.6 642.4 652.4 658.8 658.6 654.7 651.9 650.2 651.4 650.6 649.2 646.8 650.6 651.3 654 654.9 657.4 660.7 664.9 667.6 669.6 672.1 675.7 680.4 684.9 689.6 696.1 694.2 692.7 692.9 691.3 687.6 682.7 676.5 670.6 662.6 652.2 638.6 628.2 627.1 622.7 614.2 601.6 598.8 595.9 585.8 573.5 569 565.8 564.3 563.1 561.1 562.9 561.8 561.9 559.9 557.4 556.2 554.5 553.6 551.1 548.9 547.2 547.4 550.5 549.5 549.4 548.8 544.2 540.9 538.1 543.8 540.5 534.8 525 516.6 509.5 504.5 499.4 494.1 487.7 483.6 483.2 473.7 464.7 454.2 447.8 439.2 428.8 420.4 414.3 409.2 402.7 398.1 397.3 396.4 395.9 395.6 395.2 402.8 414.5 433.8 453.3
705 695.4 686 678.2 672.8 666.6 658.5 650.4 652.7 656.1 645 636.8 607.9 623.4 642.4 657.6 678.4 690.6 698.2 702.2 706.1 713.1 717 720.5 722.3 727.7 731.2 736.6 740.8 743.7 746.3 748.8 749 748 747.7 746.3 745.9 745.9 747.2 745.5 743.8 740.6 736.7 734.2 731.5 726.6 719.7 714.4 707.5 703.1 697.7 693.4 688 680.4 666 649.9 666.8 676.5 683.5 690.4 698.4 703.8 708.4 714.8 722.9 728.2 732.8 735.3 738.4 739 739.1 737.3 732.8 727 721.4 713.6 708.5 700.9 694.5 686.8 680.7 676.9 670.1 666.5 661.4 656.5 649.9 648.5 648.4 646.6 641.4 631.3 607.6 610.9 621.5 629.7 633.6 637.5 647.3 659.1 665.3 664 659.8 656 653.5 653 651.2 650.3 649.7 648.9 650.4 652.5 654.7 657.4 661 662.1 665.5 667.7 670 673.4 679 682.7 687.7 691.3 692 692.4 693.2 691.4 688.7 683.4 676.1 669 659.9 650.5 635 622.2 629.4 607 599.6 611.7 603.8 596.5 585.9 578.7 574.5 567.7 565.7 564.8 561 557.8 560.1 559.9 558.3 555.6 554 553.7 553 550.8 548.2 547.3 547.6 548.5 547.6 547.5 546.8 541.9 539 536.1 544.3 538.9 531.7 520.8 515.1 510.4 504.9 497.7 491 484.2 479.2 478.5 471.7 462 451.8 442.3 432 420.5 414.9 406.7 404.2 398.8 397.9 397.5 396.6 396.3 396.1 395.9 407.9 422.2 442 460.4
710.6 701.4 693.3 687.6 682.6 678.5 676.3 668.8 671.1 667.9 656.5 639.6 621 621.3 649.2 659.3 686.7 698.9 705.4 708.6 710.5 711.5 716.3 719 721.5 725.7 731 737.4 740.7 743.6 747.1 750.4 752 750.7 748.9 747.6 747.7 746.4 746.7 747.7 744.7 743.9 741.2 738.2 733.7 728.3 721.1 711.4 705.6 699.4 696.7 690.8 684.1 678.6 654.6 661.9 672.9 679.7 686.3 695.4 700.2 708.6 713.3 719.8 727.1 733 738 740.8 744.2 747.7 747.4 746.2 742 736.7 730.1 722.4 715.5 705.6 697.4 690.5 684.4 677.7 672.7 668.6 663 657.8 656 653.1 652 649.7 644.6 634.1 614.8 610.1 622.1 631.4 637.9 641.2 653.5 665.1 670.4 666.6 661.3 658.2 656.7 654.1 652.4 651 651.6 651.1 652.5 653.5 655.2 655.8 658.8 661.8 664 666 667.8 671.3 675.3 681.1 685.6 687.9 688.4 690.7 691.9 690.8 687.2 682.3 675.2 666 655.6 646.6 632.5 621.9 625.1 626 621.2 611.2 603.4 595.4 588.9 579.8 571.6 566.4 563.8 563.4 562.6 560.6 556.7 557.7 556.1 554.5 552.5 551.5 551.4 549.4 547.4 545.7 545.6 546.8 547.2 545.2 542.7 539.6 537.3 534.8 540.3 538.7 528.8 520 515.7 511.8 504.8 496.3 487.5 481.9 472.6 471.5 466 456.2 445.9 434 423.3 418.2 410.6 404.3 404.2 400.7 397.9 397.2 397.1 396.8 396.7 403 412.7 430.7 452 469.8
714.5 708.9 700.5 694.9 689.7 685.4 684 680.4 677.6 670.8 656.8 639.5 616.6 640.2 656.5 665.3 693.8 704.6 710.7 713 714.2 716 716.4 718.9 721.6 725.3 730.9 736.6 740.8 744.6 747.7 750.8 752.4 751 749.6 748 747.5 748.5 748.7 748.3 747.9 746.7 744.1 740.5 734.9 727 718.2 708.6 702.9 699.1 693.8 686.7 682.5 676 653.5 668.7 676.9 683.4 692.3 699.8 706.7 713.3 718.5 725.1 731.3 737.9 741.8 745.8 750.2 753.4 755 753.6 749.8 743.9 737.4 729.9 720.7 712.3 701.1 693.9 687.1 679.1 674.1 669.8 665.2 661.4 659.7 658.7 656.7 653.3 648.3 641.3 628.8 610.7 620.5 632.8 637.8 644.2 659.2 669.7 674 667.9 666.4 664.1 660.2 655.4 654.3 652.8 653.6 652.7 655 657 656 656.8 659.8 661 662.4 662.6 664 666.7 672 676.9 681.3 683.9 685.5 687.3 688.7 687.1 684.4 679.8 666.7 653.4 642.3 639.3 621.3 633.6 632.8 629 622.7 614 606.3 596.7 587.8 579.6 572.6 567.2 564.2 562.9 560.7 557.7 556.8 550.3 552 553.1 551.6 549.3 550 548 546.5 544.9 546.3 546.6 546.8 545 540.4 537.1 535 532.9 534 534.5 525.5 519.4 515.6 511.6 504.3 493.7 485.5 477.4 467.8 462.3 458.4 449.4 438.7 427.2 416.4 410.6 408.3 404.9 399.9 399.2 398.3 398.8 398.1 397.5 399.1 410.4 421 441.5 461.3 477.7
719.2 713 706.2 699.7 694.5 690.6 688 682.4 677.9 668 654.5 630.6 629.5 650.9 665.4 683.8 701.1 711.1 715.6 717.9 718.2 719.1 720.6 721.3 722.6 725.6 732.5 737.4 742.2 744.1 747.3 749.6 750.5 751.8 751 749.4 749.2 749.4 749.1 750.1 749.7 748 745.4 740.7 733.4 725.8 712.6 706.1 701.5 694.5 687.4 682.7 677.4 670.8 654.9 673.8 680.6 687.5 696.1 703.9 709.7 716.5 722.3 728.3 734.4 740.5 745.4 750.4 754.7 757.8 759.4 758 754.3 749.1 742.5 734.7 725.5 716.3 704 697.8 688.7 680.6 676.6 672.5 668.7 665.6 665.3 663.3 660.7 656.1 650.5 645.2 633.6 622.7 616.2 629.4 640.4 646.3 663 672.9 674.1 674.9 675.7 671.9 666.7 662.4 656.3 654.7 655.9 655.1 656.7 658.3 658.6 659.2 659.8 660 660.5 661.4 662.4 660.7 667.8 673.2 675.7 680.6 681.7 683.1 683.2 681.3 677.2 670 659.3 638.1 625.4 625.7 630.9 636.6 634.4 630.1 625.6 615.1 606.4 597.7 590.6 584 577 568.1 563.5 562.3 561.1 559.2 557.4 555.2 549.2 552 550.9 549.6 547.4 547.1 545.7 543.8 543.6 546.2 545.9 543.3 537.4 533.9 532.2 530.5 528.5 527.5 524 519.5 515.5 510.2 500.4 491.5 482.7 471.4 463.1 456.9 450.2 442.5 430 421.9 412.8 410.2 406 400.9 400 399.9 399.2 399.3 399.9 399.9 405.3 414.3 429.5 448.1 466.9 486.9
722 717.3 711.5 704.2 698.3 693.7 688.2 682.5 675.8 664.9 651.7 637.9 634.2 655.2 671.7 694.1 707.6 715.9 719.4 720.8 722.2 723.1 724.8 723.9 724.6 728.9 731.9 738.6 743.1 745.8 746.5 748 749.7 751.4 751.1 749.9 750.1 750.9 751.1 751.2 751.5 749.6 744.8 740 732.7 722.2 709.9 703.4 695.5 689.6 683.7 677.6 671.2 657.8 669.2 677.4 684.7 692.8 700.3 707 712.3 719.3 725 729.9 736 742 747.9 753.3 758.3 760.5 761.6 759.8 756 751.2 744.4 737.4 727.9 716.6 707.8 701 690.2 683.6 680 676.7 672.6 671 671.1 668.2 664.5 659.8 653 646.3 638 627.6 616.4 620.8 640.5 650.4 662.9 672.1 679.2 682.5 682.7 680.2 675.1 669.7 665.3 657.3 658.7 659.4 659.4 660.4 660.1 660 660.6 660 659 658.5 659 656.4 659.7 663.6 670.3 676.1 678.2 679.1 676.1 671.7 656.2 655.8 640.2 628.8 643.4 648.6 647 643.6 637.5 633 628.6 621.5 614 604 594.2 587 577.5 567.6 564.3 562.5 560.3 557 557 555 552.3 542.6 548.9 548.3 546.5 545.9 544.4 535.6 543.2 544.7 545.3 541 535.5 531.6 530.1 529.1 524.4 522.5 520.9 520.2 515.7 507.8 498.5 489.4 477.9 465.9 459.3 452.6 445.4 434.2 422.1 414.7 414 407.3 404.2 400.7 400.8 400.4 400.1 400.2 400.4 400.8 409.3 423.6 439.9 457.2 476.9 493.1
724.7 720.6 714.7 706.4 701 695.5 688.3 682.5 672 663.4 652.3 639.6 638.6 662.7 682.7 700.3 712 719.9 721.7 724.3 725.9 727.8 729.3 730.1 729.6 730.8 734.4 738.6 743 746.4 747.2 749.1 749.7 750.5 752.6 752.2 753.5 752.7 753.5 753.5 752.8 750.3 745.7 738.2 729.6 716.7 707.7 697.7 691.7 686.5 680.3 672.5 666.5 666 673.5 681.2 689.2 698.4 705 710.7 715.9 722.1 727.1 731.2 737.2 743.2 749.2 754.7 759 761.9 762.9 760.2 756.3 751.3 745.2 737.2 728.7 718.5 710.3 703.2 691.9 686.9 682.2 679 676.3 675.7 675.6 672.1 668.3 662.4 655 648 640.5 630.3 620.4 622.3 638.3 654.2 664.9 673.7 680.9 686.7 687.7 685.8 681.9 675.7 672.3 668.9 665 663 661.6 662.6 661.4 661.3 660.9 659.1 657.3 656.8 657.1 655.9 654.6 654.5 653.4 664.3 672.3 671.4 669 658.8 636 634.4 642.5 654.8 659.4 657 652.8 646.4 643.8 640.6 634 625.2 619.4 609.6 597.8 589.8 577.3 567.9 563.8 561.5 559.8 557.7 555.4 554 551.5 549.3 538.5 546.9 545.4 542.2 542.8 534.2 541.7 543.1 541.8 537.7 532.2 529.6 528.5 527.8 524.4 519.2 517.7 517.8 512.5 503.3 496.1 486.1 474.8 462.7 455.3 447.7 440.5 430.5 419.4 413.5 409.6 404.6 401.5 401.7 401.7 401.4 401 401.1 400.9 405.9 416.7 431 447.4 467 483.9 498.6
728.2 722.8 715.6 708.8 702 696.1 689.4 685.2 674.3 662.3 650.8 641.5 645.5 667.3 690 704.7 715.1 720.7 723.9 726.8 728.3 731 733.3 734.1 733.2 735.3 737.3 740.7 744.5 747 748.4 750.4 750.7 752.3 755.3 756.5 757 755.1 756 755 753.8 750.3 744 735.8 725.8 712.5 703.7 695.4 688.6 683.4 676.6 671.2 663.9 662.4 674.9 683.7 692.4 700.5 709.5 714.1 718.3 723.8 728.2 732.8 738.5 744.5 750.5 755.3 759.5 762.2 761.1 759.5 755.7 749.7 743.6 734.8 726.7 718 710.5 704.3 694.1 689.2 685.4 682.2 680.9 680.1 678.6 674.7 669.8 663 656.3 649 641.9 632.1 618.8 620.8 636.1 654.6 665 673 681.9 688.5 691.6 690.2 687.1 681.5 677.3 673.8 670.3 667.5 665.2 663.9 662.4 661.7 661.3 662.8 662.8 662 661.9 663.2 664.6 663.1 657.1 656.2 664.5 660.6 652.8 640.5 649.5 663.4 666.6 666.6 665.3 662.9 657.1 651.4 650.2 646.7 638.9 628.1 621.9 608.6 598.8 589.1 580.9 569.3 564.8 560.7 558.9 557.2 555.4 553.1 549.6 548 546.4 532.4 542 542.2 536.7 534.8 539.3 538.1 535.8 533.8 530.4 527.9 527 526.4 521.9 518.9 515.5 507.5 501.3 501.2 491.7 481 470 460.2 451.3 443.4 435.6 426.6 417.9 411 409.2 402.2 402.3 402 401.9 402.3 402 402.1 404.8 409.9 423.9 437.6 455.5 473.2 491 505.4
727.2 722.5 717 711.6 704.8 696.5 693.4 685.9 673.3 664.5 650.8 639.2 653.1 670.9 694 706.9 717.1 722 725.1 728.7 732.4 736 738.1 737.8 737.7 739 739.9 743.8 746.9 750.9 751.3 752.3 754.2 756.4 758.6 760.2 759.4 758.9 757.8 756.2 752.8 747.9 742 732.2 719.2 709.8 699.6 693.9 687.4 681.7 673.8 669.3 670.3 666.3 670.8 684.2 694.1 703.8 711.8 717.7 720.9 725 730.8 734.5 739.6 745.2 750.4 755.7 759.2 760.7 760.1 757.6 753.8 749 740.1 732.9 724.8 717.6 710.9 705.8 697.6 692.5 688.7 686.7 684.3 683 681 677.1 670.8 665.2 658.2 649.9 643.7 636.9 623.3 622.6 634.5 652.4 664.7 672.6 680 688.5 691.3 693.5 689.6 684.4 680.5 677.4 673.5 669.8 668 666.5 664.8 663.9 664.1 665.2 665.9 666.3 666.1 666.3 666.7 665.2 660.1 651.9 647 644.4 652.3 652.1 669.4 672.2 672.6 671.8 670.7 667.4 662.2 659.1 658.4 651.4 641.5 630.5 621.8 607.5 600.7 589 577.9 569.7 563.9 561 558.6 556.7 553.8 551.8 548.2 547.5 541.9 542.1 527.2 538.9 538 525.7 537 537 535 532.3 529.2 526.4 525.3 524.7 519.8 517.4 514.4 511.1 506 497.7 485.9 475.2 466.9 456.2 447.8 439.2 430.9 423.1 413.7 409.9 406.4 402.8 402.5 402.1 402.2 402.5 402.9 402.8 407.6 417.1 431.6 445.8 460.9 480.8 501.7 514.3
729 724.8 719.6 714.8 708.8 701.7 695 689.3 678.4 665.2 649.8 644.1 659.7 677.4 698.3 708.1 716.2 722 725.7 730.7 735 739.8 741.1 742.4 742.1 743.3 744.6 748.4 752.3 754.3 756.4 756.7 759.7 760.7 763.4 764.4 763.3 761.8 758.6 755.6 752.2 746.8 739.1 728.8 717.6 706.3 698.1 692.7 687.4 678.7 673.1 671.8 674.4 673.6 669.3 685.3 697.6 706.7 713.2 719 722.1 727.1 731.4 735.2 739.6 744.9 749.9 755 757.6 760 759.1 756.4 752.4 746.6 737.9 731.3 726.2 718.8 711.8 705.8 700.6 695.7 692 689.9 687.8 685.3 683.4 678.9 673.6 667.4 660.1 653.7 650.6 644.9 631.7 622.3 635.3 651.6 662.3 670 677.9 687.1 692.8 695.1 690.9 685.8 683 679.7 676.3 671.8 670.3 670.4 672 670.6 672.1 672.1 671.6 670.2 668.1 667.9 666.5 667.5 661.3 668.5 667.7 668.2 670.5 673.5 676.5 676.3 678.1 678 676.9 673.2 671.1 666.4 662.1 653.3 643.3 629.7 616.4 609 599.9 588.9 576.3 570.3 563.8 561.9 560.1 558 554.3 551.6 548.9 548.8 547.3 544.4 541 524.9 527.7 519.3 532.2 533.9 532.5 530.2 528 525.1 523.8 521.1 517.6 514.7 512.4 509.1 503.1 494.7 484.5 474.4 463.5 450.7 435.9 429.6 424.1 416.4 411.9 407.3 404.1 403.8 403.5 402.5 403.2 403.6 403.4 407.9 409.4 422.8 436.4 451.9 470.7 490.1 509.5 521.6
729.5 726.1 722.6 717 711.3 705.5 698.3 691.7 681.5 670.8 651.6 647.8 664 683.7 698.7 707.3 715 721.7 726.1 731.2 737.3 743 744.5 746.5 747 747.9 749.6 752.4 755.5 758.1 760.3 761.8 763.7 766.3 767.4 767 765.3 763.9 760.6 756.4 752 745.1 737.2 726.9 715.4 704 697.3 691.1 685.3 677.6 671.7 674.6 677.2 677.5 671.5 686.2 699 707.7 714.6 718.5 722.1 726.1 729.8 734.4 739.3 744.4 749.3 754.2 756.9 759.2 757.2 753.3 746.4 742.1 738.4 732.4 727 718.9 713.1 709.2 703.4 700.4 697 694.4 692.1 688.2 684.7 679.3 675.2 669.3 662.4 658.7 657.3 653.8 638.9 623.9 635.3 649.6 659.7 668.6 676.4 685.6 693.1 695.8 690.7 688.5 686 682.7 675.5 677.5 675.9 676.8 677.3 677.2 677.2 676.9 676.5 675 672.6 671 669.1 666.8 669.3 670.5 672.9 676.3 678.1 679.6 680.9 680.4 682.7 682.8 682.1 679.9 676.2 671 665.2 657 644.3 628.3 613.8 609.1 600.2 585.5 580.5 572.3 565.3 564.3 561.8 558.2 554.5 550 550.9 550.7 548.5 545.5 542.2 538.4 529.4 520 515.1 529.6 528.2 526.2 525.2 523.3 520.7 519.2 516.3 512.2 510 505.8 499 491 481.1 472.2 460.6 447.6 435.3 424.7 418.9 415 411.4 404.6 404.6 404.7 404 403.4 404.7 405.4 405.3 409.5 415.8 427.6 441.5 459.1 479 497 514.2 527.9
731.6 728.2 725.2 721.3 714.8 707.7 702.1 696.6 684.6 672.8 654.2 648.8 666 681 696.9 705.7 715.3 720.8 726.6 732 738.1 743.5 746.9 749.8 750.4 752.6 753.8 757.1 759.2 761.4 763.5 765.1 768.2 769.5 770.6 770.1 767.8 765.5 762.3 758.6 752.7 745.2 739.1 728.5 715.9 706.2 698.2 690.4 682.7 676 677.3 679.1 682.1 684.3 675.4 685.1 698.9 707.3 713.6 718.4 722.4 726.6 730.8 733.6 739.3 743.8 748.8 753.9 757.1 757.7 757.5 755.2 751.7 745.9 740.9 733.7 729.2 722.1 714.6 710.3 707.3 704.1 701.1 697.9 695.6 692.7 688.2 681.7 675.9 670.4 664.8 663.4 662.8 659.7 651.9 635.2 630.2 646.4 657.8 666.5 675.2 684.6 692.8 696.1 692.7 689.9 688.3 685.1 678.7 682.1 682.3 682.1 682 682.1 681 680.8 681 679.4 676.2 673.2 670.1 668 671 674.1 676.6 679.8 682.1 682.7 682.4 683.6 686.6 687.4 686.6 683.8 680.1 674.4 668 658.4 642.6 626.8 613.7 607.5 598.9 587.4 582.1 572.7 567.8 564.3 561.2 556.9 552.9 554.2 554.1 552.5 550 546.6 543.1 539.4 535 532.2 528.1 508.8 523.4 522 520.5 520.1 517 514.7 512.2 509.2 507.2 503.4 496.4 485.7 478.9 470.1 456.2 441.6 430.2 421.1 416.2 413.5 408.1 405.5 405.5 405.2 404.7 404.3 405.5 408.8 409.6 412.5 422.7 434.7 449.5 468 485.3 501.9 518.9 533.3
733.8 732.1 728.1 723 717 710.7 706.2 698.7 689.4 677.4 657 648.9 664.5 678.7 695.3 705.5 714.4 718.9 726.7 732.4 738.8 744.2 748.3 751.6 753.9 756.5 757.2 759.7 761.4 763.1 764.4 767.2 769.2 771 771.7 771.5 769.3 766.4 762.8 758.8 753 746.8 741.7 731.8 718.3 709.6 699.5 688.2 681.1 676.8 681.3 684.9 688.2 690.3 677.1 684.6 697.8 707.9 713.5 717.9 721.7 726.4 731.1 734.9 738.2 744.6 748.4 753.9 757.1 759.4 759.4 757.3 754.6 750.2 745.5 736.1 731 724.8 719.1 713.9 710.9 707 704.4 700.7 697.6 695 690.8 685 679.3 674.8 669.7 668.1 667.2 663.3 656.8 648.5 641.1 633.5 654.5 664.2 672.8 682.9 692.2 695 693.5 690.9 689.9 683.5 684.9 685.5 685.9 685.8 686.5 686.8 684.8 685.4 683.5 682.5 679.9 676.4 672.8 672.8 672.6 675.8 679.4 683.7 685.9 686.3 687.3 688.2 688.9 691.7 689 685.4 681.2 675 667.2 656.3 639.5 623.6 610 603.1 595.4 589.2 581.6 569.8 568.1 564.3 559.7 557.9 556.9 557.8 557.9 555.9 552.1 548.7 544.5 540.2 536.1 532.9 529.1 524.3 505.7 515.9 516 515.6 513.7 510.8 508 506 503.7 499.1 491.8 484.9 477.2 466.8 452.5 436.1 427 420.5 414.8 410.8 407.2 406.6 406.2 405.8 405.3 405.1 406.8 411.5 413 417.3 428.8 441.6 457 474.3 491.3 508.2 523.3 538.3
734.1 731.8 727.5 723.5 717.7 714.4 708.4 702.1 693.1 683.3 664 646.7 660.1 677.5 693 703 711.4 718.2 726.2 731.8 737.9 744 749 752.8 755.7 757.6 759.6 761 762.5 763.6 764.7 766.1 768.3 770.1 771.5 771.4 769.4 766.6 763.1 757.5 752.6 747.8 742.6 734.3 721.7 711.5 699.4 689.1 681.2 683 686.3 691.6 694.2 694.1 684.4 682.9 693.6 704.6 711.5 716.1 720 724.7 728.4 734.2 738.8 743.2 747.6 753.8 758 760.6 761.6 760.6 758.3 755.9 750.7 744.9 733.6 727.9 723.2 718.5 715.6 711.9 709.9 705.1 702.1 699 694.7 687.5 682.1 678.2 676.8 674.1 671 662.4 662.1 655.6 645.9 635.3 648.7 661.4 669.9 679.6 690.6 695.1 694.1 692.8 690.2 689.2 689.1 688.9 689.5 691 691.6 691.1 688.4 688.8 687.6 685.3 683.3 678.6 675.3 673.8 674.9 677.9 681.8 686.6 689.6 690.8 692.1 692.3 692.2 691.1 688.7 683.9 678.9 673.3 664.9 651 636.2 622.3 607.1 598.6 595.5 585.7 575.2 570.3 568.6 563.5 560.9 560.4 559.6 560.9 561.5 559.6 555.8 551.5 546.6 541.4 537.2 532.7 528.5 524 519.7 501.9 502.9 509.8 509.7 507.1 504.1 503.3 500.4 496 489.6 483.6 470.8 458.6 445.5 433 424.9 420.6 414.1 410.1 407.6 407.2 406.8 406.4 406.1 406 410 412.8 414.9 423.8 435 447.9 463.3 478.7 497 511.8 527.3 541.6
734.5 732.3 727.3 724 719.3 715.3 709.4 702.6 696.5 683.9 672.3 649.1 657.5 673.9 687.4 696.2 705.3 717.1 725.7 731.8 737.9 743.6 748.7 752.7 755.5 757.8 759.8 761.3 761.4 762.4 762.6 764.3 766.7 768 769.1 768.8 766.5 763.9 760.1 754.7 751.4 747.9 742.2 735.1 724.5 709.7 698.3 686.9 683.2 687.3 692.2 697.7 699.1 698.2 693.2 682.4 685.5 698.3 709 713.2 717.9 722.9 728.3 733.1 737.8 742.1 747.5 753.7 757.8 761.3 763 762.7 762.8 760.9 757.4 752.2 741.6 732.6 727 723.9 719.7 717.3 715.9 712.8 710.4 703.7 698.6 692.9 688 683.4 681.7 678.8 671.9 665 664.8 660.4 648.6 635.2 646.7 661.1 670.1 677.9 688.5 693.3 695 694.1 692.3 691.2 693.8 692 693.2 696.5 697.7 696.3 694.3 694 692.1 689.7 685.5 681.1 676.3 675.5 677.2 680.7 684.3 689.7 692.8 693.7 695.7 696.1 692.2 687.4 683.4 678.8 674.5 669.3 659.7 643.7 631.1 618.8 604.9 604.1 598.6 587.5 573.4 571.8 568.4 564.5 563.5 562.8 563.9 564.5 565.1 563 558.3 553.5 546.8 542.2 537.9 533.3 528.1 523.8 519 513.7 498.8 503.8 503 501.8 499.4 500.4 497.7 491.5 487.3 479.6 469.3 456 443.1 431.8 421.3 415.4 414.1 409.5 408.4 407.9 407.4 407 406.8 406.8 412.7 413.9 417.2 428.2 441.2 456 469.9 483.6 500.3 514.8 529.3 543.2
734.2 732 727.3 723.2 717.8 713 708.4 702.5 696.6 686.2 669.9 660.5 655.1 669 679.7 691.2 703.7 715 725.8 731.8 737.7 743.2 748.4 752.1 754.9 756.7 759 759 759.6 760.2 760.8 761.6 763.1 764.3 764.8 764 761.9 759.2 754.7 752.5 749.5 746.4 741.2 733.7 722.4 705.7 692.7 686.3 689.6 694.6 698.6 702.2 702.7 701.8 699.1 695 686.9 690.9 703.7 711.7 716.9 722.6 727.5 732.1 736.7 741.5 747.4 752.9 757.4 761.3 763.8 765.6 766.3 765.1 762.4 758.3 752 740.7 733 728.1 724.4 723 722.9 721.1 715.9 709.2 702.7 696.6 691.5 686.9 683.8 680.9 673.7 669.2 666.2 653.4 642.3 637.7 647.1 659.1 670.5 679.2 686.9 693.4 695.5 695.1 693.7 693.8 695.5 696.6 698.3 701.5 702.7 699.8 700.4 697.9 695.2 691.7 686.4 679.2 678.8 678.6 680.3 683 688.1 693.1 695.1 695.9 695.9 693.3 687.7 681.8 672.9 669.9 665.9 658.2 647.6 632.8 623.2 606.9 609.8 600.7 589.7 578.2 574.1 569.4 566.3 564.8 563.9 564.4 565.6 566.8 567.7 565.4 560.5 554.9 547.6 543.3 539.1 535.4 530.3 524.4 519.2 504.5 481.6 477.7 493.8 496.8 493.3 495.6 493.1 490.1 484.2 476.1 465.2 451.3 435.5 424.1 424.9 415.4 413.8 409.7 409.1 408.6 408.1 407.6 407.6 411.5 413.6 415.6 422.6 434.2 446.6 461.9 477.8 489.1 502.2 519.2 530.9 544.5
734.4 730.3 726.6 721.9 716.9 711.3 707.3 703.1 695.6 686.5 679.2 664.1 652.9 662 676.1 686.9 704 714.8 725.3 731.7 737.6 742.8 747.4 751.2 754.2 754.7 756.2 756.9 756.5 757.3 757.5 758.1 759.2 759.9 758.5 758.1 756.1 753.3 750.5 748.6 745.5 742.6 737.5 729.1 715.5 700.2 686.9 691.9 698.1 702.1 707 708.2 705.6 703.8 702.6 700.2 695.8 691.9 693 707.4 715.3 720.9 725.7 730.3 735.7 740.6 746.4 751.9 756.8 761.1 765.4 768.4 769.7 769.4 767.3 764.4 758.8 747.7 738.8 735.7 733.7 732 731.1 727 721.9 714.3 706.2 701.5 694.9 689.4 686.6 681.5 676.4 670.3 664.4 657 646.8 638.8 645.8 658 670.6 680.6 687.2 691.1 695 695.3 693.6 695.5 697.2 698.5 701 704 704.9 703.9 702.6 700.3 697.5 692.6 687 680.9 680.6 680.2 683.2 685.3 690.3 694.7 695.7 694.3 692.3 686.9 679 670.6 659.5 654.1 651.9 645.9 638.3 623.4 607.9 605.6 599.9 596.5 585.3 576.3 574.3 568.5 565.6 563.9 564.6 565 567.2 568.4 569.4 568.3 563.2 557.8 552 544.8 540.7 536.6 529.6 525.5 520.3 512.1 488 464.4 463.2 475.1 484 487.5 489.8 489.6 483.3 472.8 460.6 442.7 426.5 429.9 424.2 415.1 412.4 409.8 409 409.3 408.8 408.4 407.9 413.9 414.8 420 428.5 439.2 453.9 468.2 482.7 494.6 507.4 521.9 532.7 546.3
735.6 731.8 728.1 722.7 716.2 711.1 707.3 704 697.7 689.2 681.1 668.4 659.1 656 671.6 689.8 703.6 715.5 724.6 731.7 737.1 741.4 746.2 750 752.6 752.9 754.6 753.9 753.2 752.7 753.6 753.5 754.3 754.7 752.7 752.3 750.1 747.9 745.3 742.5 740.9 736.9 731.7 720.3 709.6 695.1 694.2 700.8 705.1 709.9 711.8 711.3 710.4 706.4 705.4 703 699.6 700.7 692.1 703.7 713.8 720.4 725.9 730.8 734.6 740.6 746.7 752.1 757.7 762.1 766.4 770.4 771.8 772.1 771.5 768.4 763.9 756.1 748.6 746.3 744 739.3 737.8 733.3 727.2 719.1 710.3 704.2 698.7 691.5 686.7 682.3 676.4 669 661.8 659.4 647.5 639.5 644.8 655.6 669.8 679.9 686.6 689.7 693.3 695.2 694.9 696.4 698 699.6 702.9 706.2 706.9 705.4 704 701.7 698.4 693.5 685.6 684.3 682.7 683.5 685.2 687.3 690.6 694.3 694.3 692.1 687.5 680.9 671.1 656.3 642.6 638.1 635.8 633.4 627.6 612.4 604 599.2 590.8 583.8 581.3 577.4 572.6 565.3 564.4 563 564.9 566.7 568.6 569.9 572.5 571 565.1 558.5 552.8 547.3 543.4 537.9 531.3 526.7 521.5 515.4 509.7 500.1 471.3 460 463 478.2 480.2 486.2 477.7 466.4 449.9 437.5 430 429.9 421.1 415.4 413.4 410.7 409.6 409.8 409.1 409 413.8 415.6 418 426.3 433.3 443.9 458.5 471.4 485.7 499.8 509.8 523.3 534.9 546.9
738.7 735 729.8 721.6 716.4 712.2 707.7 704 700.7 691 684 674.7 663.1 657.2 662.9 686.5 701.1 713.2 722.6 731.4 736.6 741.5 745.4 748.2 749.2 751.4 751.7 750.9 748.4 748.9 748.8 748.6 747.9 748 747.6 745.9 744.1 743.4 741.5 738 735.9 730.8 725.7 711.8 700.2 694 700.9 709.7 714 715.9 715.1 715.4 713.7 711.7 707.6 706.3 705.9 702.9 696.1 702.5 713.1 719.3 725.3 729.5 734.5 739.6 746 751.9 758.8 763.1 767.1 771.9 774.9 775.8 774.8 772.5 768.3 762 754.8 752.7 749.8 746.4 742.8 737.1 730.9 722.5 712 705.5 699.8 691 686 681.4 668 662.8 663 658.1 645.1 639.4 642.7 655.3 666.3 677 684.9 688.7 691.7 694.6 695.3 696.5 697.5 701.6 705.1 708.3 708.4 705.6 703.5 701.6 697.4 688.9 688.1 684.9 685.9 687 686.8 688.3 690.2 691.6 690.5 686.9 681.7 673.2 658.6 642 628.5 621.5 616.7 619.1 616.8 607.8 596.5 592.2 590 584.5 579 575.7 569.5 563.8 562.3 563.8 565.4 567.9 569.7 571.2 572.9 571.4 566.9 560.5 553.3 549.2 544.9 539 533 529.2 525 519.8 512.4 505.2 498.8 492 455.6 452.3 470.9 478.4 475 460.4 445.5 428.2 434.1 423.3 417.8 415.7 414.5 413 410.5 410.3 410.3 409.5 415.5 417 423 430.1 437.1 448.9 461.5 475.6 489 501.2 512.2 523.4 535.3 546.2
740.9 737.8 733 724.6 717.6 713 710.2 706 702.6 693.8 685.5 676.7 663.7 657.8 662.2 678.1 696.8 711.7 723.1 730.8 736.7 741.7 744.4 746.4 747.3 747.2 747.1 746.9 745 744.6 744 743.7 743.4 742.1 740.7 740.3 739.7 738.4 735.9 732.8 729.9 725.7 716.3 703.9 695.7 704.4 710.9 716.9 719.8 719.3 718.3 717.4 716.4 715.8 713.4 709 707.9 706 697.6 701.1 713.6 720.6 725.7 730.1 734.4 740.9 747.2 753.7 759.2 764 769.2 774.3 777.4 779.1 777.8 776 772.5 767.3 761.5 758.1 754.5 749.9 744.9 738.5 732.2 724.8 713.5 705 698.7 688.1 684.2 675.6 665 665.8 662.1 656.7 644.5 641.1 642.6 654 664.9 675.1 681.8 687.8 691.1 693.7 695.3 696.9 698.9 701.9 706.1 709.2 708.6 706.1 703.7 700.2 697.5 692.2 690.3 689 689.5 689.5 688.7 689.2 689.7 688.3 686.7 682 676.3 665.5 646.6 631.6 617.4 611.2 609.8 609.7 607.2 598.3 592.7 590.4 584.6 579.2 575.5 570.8 566 563.3 562 563.6 565.7 570.3 570.8 571.4 572.7 571.7 568.5 561.8 555 551.8 547.1 539.9 534.4 530.3 526.8 521.5 509.6 506.7 503.9 497.1 485.8 456.4 449.4 462.7 461.7 449.7 441.1 432.1 430.9 421 419 417.5 415.6 413.5 411.5 410.8 409.5 411.7 417 420.5 428.3 433.7 440.8 452.5 465.7 478.3 492.8 504.6 516.4 526.3 535.7 546.9
744.6 740.3 734.4 726 719.4 714.3 710.1 706 702.5 695.7 685.7 679.8 664.6 661 660.6 676 696.7 711 722.6 729.5 735.8 740.6 742.7 744.1 743.6 744.7 744.3 743.7 742.6 741.6 741.7 739.5 736.7 736.8 736 735.4 733.9 733.3 730.1 727.6 724.5 718.4 711.9 700.6 703.8 711.6 718.7 722.5 724.6 724.2 722.6 719.7 717.9 716.6 714.2 712.1 709 705.8 702.8 701 713.3 720 724.9 730 735 741.3 749.5 756.5 761.4 766.4 771.3 776.2 779.3 780.9 780.2 778.7 776.3 772.1 766.2 762.8 758.3 752.4 746.3 739.7 732.3 723.8 713.3 704 693.5 687 676.9 668.4 669.5 665.3 661.6 656.4 648.8 642.1 644.4 653.9 665.9 675.7 682.4 686.1 692 695.1 696.5 698.6 701.5 703.4 706.7 709.3 708.5 706.2 703.6 699.8 697.8 694.9 692.6 692.3 691.9 691.8 689.8 689.7 688.7 686.2 682.8 677.5 669.5 655.4 638.2 621.1 610.1 605.2 600.7 599.5 597.2 592.1 587.9 583.6 579.7 575.1 571.5 567.4 564.9 562.5 562.3 563 566 569.9 571.7 572.3 572.9 572 569.7 561.1 556.1 552.9 549.3 540.7 535.1 531.5 527.2 510 516.1 511.6 503.9 497.6 488.2 470.3 458.4 440.9 454 443.9 433.8 434.1 425.1 422 420.2 418.2 416.1 414 412.1 410.8 410.2 416 419 426.2 431.6 437.7 444.4 457.4 471 482.7 498.5 509 518.7 530.6 537.9 548.2
747.1 742.5 734.9 728.1 722 716.9 712.5 706.8 702.9 696.7 686.6 677.1 664.9 663.1 661.6 672.2 696.1 710.5 721.7 727.4 733.9 738.5 738.6 740.4 739.9 740.5 740.8 740.3 739.6 740.1 737.7 736.8 736.8 734.1 731.4 730.4 728.6 726.1 722.7 718 714 707.8 704.3 701.5 712.4 718.5 725 727 728.8 726.6 724.5 721.5 718.8 716.4 714.5 712.9 709 707 703.1 699.2 713.3 720.5 725.1 730.1 736.6 742.7 749.5 756.2 761.2 766.8 772.7 777.5 780.7 782.6 782.9 781.8 779.4 776.4 772.1 767.3 761.4 754 745.8 738.6 730.9 721 711.2 701.5 690 682.4 668.8 672.6 669.6 664.4 659.4 655.7 647.9 643.6 647.2 655.4 666.8 675.2 682.1 688.9 693.9 697.5 701.3 702.4 704 706.6 708.7 709.3 708.4 706.2 702.9 701.2 698.5 695.5 695.3 695.6 695 694 691.4 690 687 684.1 679.1 671.6 662 646.5 629.5 614.1 603.5 599.8 596.4 593.7 592.3 586.9 583.9 580.2 576.5 571.5 569.1 564.9 562.8 561.1 560.7 561.9 563.9 567.8 570.9 572.7 571.8 571.6 571.2 563.3 558.3 554 550.8 541.1 535.3 530.1 528.8 526.8 520.3 511.5 503.7 496.5 486.6 463.6 466 450.5 441.7 440.7 436.4 431.8 426.5 422.7 420.2 418.2 416.4 414.5 412.6 411.1 413.1 420.2 422.4 430.9 436.2 441.4 448.8 461.9 475.3 485.7 501.2 515.2 523 531.9 540.3 548.9
748.9 743.9 736.3 731.5 725.2 720.3 713.9 707 703.4 695.5 688.7 682.8 667.8 663.9 665.8 679.4 695.6 711.4 720.4 726 731.5 735.4 736.4 737.5 738.1 737.6 738.2 738.9 739.4 739.5 739.5 739.1 738.6 735.4 732.9 729.7 726.3 718.4 714.6 709.4 707.5 706.7 706.3 712.7 720 725.8 729.9 731.9 732.2 730.7 726.8 723.3 721 718.3 714.9 713 708.1 704.3 699.2 704.1 713.5 720.6 725.4 730.3 736.8 742.3 749.2 756 762.4 768.2 773.8 778.9 782.3 785.1 785.4 784.4 782 779.5 775.5 770.3 763.3 754.3 747.5 735.9 729 719.2 706 692.9 684.7 680.4 667.3 671.8 668.6 664.1 657.1 650.2 645.1 645.4 648.6 659.3 668.9 676.8 684.5 690.7 696.2 700 703.8 707.2 709.6 710 711.1 709.6 708.3 707.1 705 701.6 700.9 697.7 698.1 699.2 699.4 697.2 692.8 688.7 686.1 681.6 674.7 666.2 652.4 638.7 619.4 608.5 600.5 595.3 589.9 587.9 584.5 581.5 579.7 575.7 573.3 570.2 567.1 564 561.4 559.1 559.3 559.8 561.1 564.9 569.2 570.4 568.7 569.5 568.2 564.6 562.8 555 550.7 540.8 532.5 529.9 533.5 529.1 519 510.1 504.1 492.8 481.7 472.1 465 454 443.4 434.6 430.1 428 424.5 422.1 421.2 418.7 416.1 414 413.6 413.8 418.4 422.3 425.7 435.1 441.5 446.3 454.6 465.8 476.6 489.9 502.2 518.6 525.1 533 541.2 549.2
750.9 747.2 740.2 733.4 726.5 720.4 715 710.8 705.6 699.8 691.2 683.9 678.3 667.7 667.8 673.3 692.8 709.6 718.4 723.9 728.6 732.2 733.8 733.8 735.4 737.8 739.3 740.2 741.4 742.1 743 744.1 743.1 740.7 735.5 730.9 726.8 724.1 717.3 712.8 714.6 715.4 715 720.2 723.3 728.8 734.3 735.9 736 734.4 729.8 727 722.9 719.5 716.8 713.8 705.9 703.1 703.2 706.8 714.2 721 724.6 730.5 736.8 741.9 748.7 755.5 762.2 767.9 773.2 778.6 783.8 787.1 787.5 787 784.6 782.2 778.3 773 766.1 757.2 747.8 736.9 727.3 714.9 704.5 689.5 686.9 678.3 670 672.4 667.8 663.9 649.3 650 649.2 646.7 651.6 660.8 669.7 678.2 686.1 691.8 698.3 702.2 706.1 711.2 713.7 713.9 711.6 708.2 709.3 706.3 703.9 702.9 703.1 700.3 702 703.1 702.4 698.4 693.7 688.7 684.2 678.4 669.7 658.7 647 630.1 614.4 604.5 596.3 590.2 584.8 582.4 581.1 579.2 576.3 573.7 570.9 568.1 565.4 561.7 560 557.6 556 555.7 558 561.7 566 567.4 565.9 564.7 563.7 564.2 564.7 556.5 548.7 537.1 533.7 537.7 535.8 529.5 518 510 500.6 483.6 488 482.1 466.9 450 436.7 433.8 430.8 427.8 425.5 422.4 420.3 418.4 415.9 413.6 412.8 415.2 418.8 424 428 438.2 446.5 451 458.4 469.1 479.9 491.9 507.4 519.8 529.1 536.3 541.9 549.2
753 749 742.4 735.7 729.4 724.6 720.8 712.5 707.5 704.4 698.1 689.3 681.8 667.4 676.6 678.7 682.3 703.9 716.1 723 726.4 729.5 733.6 736.3 737.4 740.3 741.7 743.8 745.5 748.2 748.7 747.7 746.8 744.6 740.3 734.7 730.9 725.1 717 716.2 720.4 718.4 721.1 724.2 727.7 732.5 737.7 739.2 738 736.6 732.8 730.2 726 723.1 719.9 715.4 709.1 703.6 703.2 708.3 714.6 720 725.2 730.3 737.2 742.5 748.2 755 761.8 768.4 772.9 777.9 783.3 787.7 789.9 789.4 787.4 785 781 775.2 767.7 757.5 747.9 734.9 725.7 710.6 700.8 690.4 686.8 673.2 673.5 671 657.1 655 658.4 653.9 651.4 650.4 655.6 665 675 681.2 686.4 692.3 698.5 703.3 707.9 714.3 717.2 716.9 712.8 713 710.3 707.3 704.5 703.4 703.7 703.9 704.5 705.3 703.5 699.8 694.2 687.3 681.7 674.7 665.2 653.4 643.3 625.9 613.8 601.3 591.5 584.4 580.2 576.7 577.2 575.7 574 571.3 569 566.1 563.3 560 556.6 554.1 551.7 551.1 554.9 556.2 561.7 564.1 563.6 562.7 561 559.6 561.8 555.7 542.1 535.5 544.7 542.8 539.1 530.8 517.4 508.1 495.3 491.2 490.7 476.5 458.5 441.1 434.1 432.8 429.6 427 423.9 420.1 417.5 416.4 415 414.1 413.6 415 423.1 428.1 434.8 435.9 446.3 452.8 463.3 471.3 483.4 494.2 510.1 520.9 530.9 537.6 542.6 549.6
755.7 750.6 746.2 740.4 737.4 732.6 726.9 716.6 711 708 702.1 694.3 683.3 669.1 679.6 680.5 688.5 703.2 713 720.7 727.5 730.9 735.4 738.8 743.2 744.5 748.9 750.4 752.2 751.8 751.5 751.2 749.6 748.3 744.5 737.5 732.8 728.4 719.6 721.5 723.8 722.7 724.7 728.2 731.8 737.5 740.8 742.3 743.4 740.7 736.9 734.7 730.7 724.9 721.2 716 709.4 705.2 708.4 710.1 716.5 723.6 727.8 731.8 737.5 743.3 748.9 754.5 761.3 767.7 772.7 777.5 782.5 787 789.6 790.4 789.2 787.3 782.9 776.5 768.8 758.3 744.6 734.9 723.7 709.1 697.2 695.4 685.2 673.2 676.8 661.1 666.3 667.7 665.5 658.4 655.4 655 658.9 668.4 678.3 683.5 686.9 692.6 697.3 701.7 707.5 714.6 719 719.3 718.1 715.9 711.2 707.6 704.7 703.9 703.9 705.3 706 706.1 704.3 700.4 693.5 685 678.2 670.4 658.6 650 638.5 623.7 610.4 597.7 587 580.4 576.9 575.3 574.3 572.7 571.2 569.2 567.7 564.7 561.7 557.4 553.9 551.3 548.8 547 547.2 549.3 554.8 560.7 561.3 559.9 557.2 555 555.9 546.9 539.4 544 549.4 545.8 540.9 528.4 516.6 506.5 497.1 498.4 486.5 465.7 451.2 438.4 434.6 430.1 427.6 425.2 422.7 418.6 417.1 415.9 415.8 414.3 415 421.9 426 433.1 442.3 447 444.6 452 462.7 473.7 484.6 499.3 510.8 523.5 531.9 537.9 543.1 550.6
758 753.5 750.9 747.3 743 738 731.5 723 715.5 710.9 707.3 696.5 684.1 671.3 682.9 687 696.1 709.3 716 722.3 728.5 733.6 738.7 743.4 746.7 750.4 752.4 755.4 756.2 757 756.5 754.4 753.6 751.2 747.3 741.6 735 729.2 719.5 726.4 727.9 728.1 729.1 731.1 735.7 739.5 743.9 747.1 747.1 744.2 741.6 737.6 731.5 724.2 720.9 717.3 708.5 705.6 712.4 718.2 716.3 725.8 731 734 737.7 744.1 749.9 755.6 760.6 766.9 771.9 776.9 781.8 785.4 787.8 789 788.4 785.8 781.6 775.8 768.6 758.2 743.6 733.5 722.1 705.1 698.4 695.7 688.5 683.8 676.2 660.8 672.9 674.3 672.4 666.7 659.7 657.9 662 672.3 680.6 685.3 687.1 692.4 696.5 700.6 706.7 713 718 719.8 720.3 717.2 711.3 706.1 704.3 703.3 704.3 706 706.5 706.2 704.1 699.8 691.3 682.8 674.2 664.5 653.7 644.1 632.9 621.5 606.5 594.6 583.6 578.4 575 573.6 571.6 570.3 569.1 567.8 565.8 562.8 559.2 554.6 551.1 548.6 546 543.3 543.3 544.1 548.6 554.4 556.9 555.8 552.8 552.7 548.5 542.3 540.8 548.8 551.6 547.5 538.6 526.5 515.4 500.3 495.8 495.9 479.4 461.4 442.6 439.1 434.4 431.3 426.9 421.8 419.8 418.4 417.2 416.8 417.1 417.3 416.9 421.2 427.8 436.3 443.3 452 451.1 460 467.8 474.7 487 499.8 511.1 522.5 531.7 537.8 543.2 551.5
760.5 757.7 754.3 751.8 747.5 742.4 735.4 728.3 720.9 716.2 709.7 698.4 684.1 675.4 686.4 696.4 697.3 711.4 718.6 724.6 731.2 737.3 742 748 752.1 755.5 757.8 759.7 761.4 760.8 760 757.6 756.7 753.1 748.8 743.4 736.3 726.6 723.4 729.7 731.4 731.9 734 735.9 739.8 743.6 748.1 751.6 752 749.8 745.1 739.8 733.5 725.3 721.1 716.6 708 709.7 719.2 723 719.6 727.7 734.2 737.6 740.4 744.2 750.2 756.1 760.2 766.1 771 776.3 780.5 783.3 784.9 786 785.3 782.5 779 773 765.8 753.7 742.1 729.4 715 710.5 702.7 690.2 691.6 685.1 665.5 673.3 679.2 679.1 677.3 670.1 660.7 660.8 664.9 675.3 682.4 685.8 686.5 691.1 695.3 699.7 705 711.6 715.9 718 717.7 715.1 710.1 707 704 700.3 702.3 705.2 706 705.8 701.7 696 688.8 680 670.8 657.6 647.3 637.9 625.9 617.3 603.5 589.6 581.4 577.5 574.8 572.1 568.5 567.5 566.3 565.1 563 559.6 555.6 551.3 548.6 544.9 542.1 539.8 538.8 538.7 542.4 546.7 550.7 549.5 547.3 546.1 541.1 541.1 542.2 547.9 550.7 545.6 534.4 521.5 508.4 494.1 499.9 489.6 467.4 451.3 443.8 437.2 434.4 430.7 426.8 420.8 419.9 418.6 418.2 418.7 418 417.2 417.6 423.5 434.4 440.5 453.2 454 458.5 464.2 474.8 482.2 489.9 498.4 510.8 521.3 533.5 538.2 544.2 549.5
763 760.4 757.7 754.7 751.7 746.3 739.5 734.1 727.2 721.9 713.6 699.2 687.8 675.6 687 689.3 705.1 713.8 721.8 728.9 734.3 741.1 747.1 752.6 757.7 761 763.1 764.9 765.1 763.9 762.4 760.3 756.6 753.4 749.2 744.2 732.7 725.9 732 734.1 735.4 736.4 738.6 739 743.3 747.2 751.7 754.8 755.1 753 748.4 740.6 733.3 725.2 720.8 716 708 717.9 723.4 726.9 728.5 728.2 735.9 739.9 743 747.1 750.3 756.7 761.8 765.5 770.9 775.7 778.6 781.1 782.2 783 781.9 778.4 774.3 768.5 761.3 749.7 738 725.4 717 709.7 697.2 697.1 692.6 685.5 666.2 682.8 684.4 680.3 677.9 672 662.1 662.8 668.1 677.3 683.6 686.1 687.6 690 694.2 698.6 703 709.2 713.5 714.9 714 712 708.1 704.5 701.1 698.6 698.7 700.2 700.2 700 696.5 691.9 685.5 677.1 666.3 653.5 642.8 629.5 621.7 613.7 598.9 587 579.8 575.2 572.4 570 567.8 564.2 562.8 561 558.8 555.6 551.8 548.6 545.7 541.8 537.6 535.5 532.2 532.8 536.2 538.8 542.3 542.9 542.4 540.9 540.9 541.1 541.8 543.9 546.8 540.2 529.3 513.5 502.3 496.5 499.4 483.8 467.5 448.7 442.5 437.7 434.6 429.4 424.9 420.9 420.3 421.1 419.9 419.3 418.7 417.6 423.3 427.8 441 443.9 459.6 466.1 465.8 471 476.8 485.3 495.4 503.6 514.1 526.8 535.6 540.7 544.5 548.4
764.6 762.5 760.5 757.9 754.3 749.5 742.6 736.9 731.2 726.6 716.2 700 689.1 679.1 689.5 696 706.4 716.3 723 730.1 737.2 743.9 750.3 756 761.6 765.4 767.1 767.9 767.5 765.5 764.5 760.9 757.4 754 749.6 740.9 730.3 735.2 737 738.4 739.7 740.3 741.6 743.8 746.3 750.6 754.3 755.8 755.7 754 747.8 741.2 732.2 723.1 716.7 711.8 713.2 722.1 728.3 731.5 734.7 735 737.3 742.5 746.2 749.3 753.3 758.5 763.1 767.5 771.3 775.4 777.8 778.7 779.7 779.8 778.2 774.3 769.7 763.2 755.7 742.2 732.7 721.2 714.1 701.2 702.7 699.8 695.6 680.9 667.5 689.3 689.2 682.4 678.2 669.8 660.8 666.1 673.4 679.7 684.9 687.2 687.1 690.3 693.5 697.6 701.7 705.9 709.7 710.7 709.7 707.6 704 700.5 696.1 694.8 693.9 692.8 693.3 692 690.1 686.9 681.6 674.5 663.2 651.2 637.9 625.8 618.7 612.8 593.7 583.4 577.6 573.2 569.7 567.4 565.5 562.8 558.1 556.2 553.9 551.8 549 545.9 542.8 537.9 533.6 530.6 526.9 527.2 528.2 531.9 536 535.8 536.8 537.5 539.2 541.1 541.5 542.4 538.6 533 514.7 510.2 499.9 503.5 492.7 479.7 458 446.2 440.5 436.7 432.8 428.8 422.5 422 421.4 421 420 419.2 418.7 421.2 426.2 433.2 440.7 448 459 470.1 473.3 479.7 481.2 488.2 497.9 506.5 516.8 528.3 536.4 539.9 543.6 548.4
764.4 763.5 762.7 760 756.4 751.4 746 739 733.2 728 715.7 700.7 686.2 684.7 693.4 694.5 698.9 716.1 723.9 731 738 744.4 751.7 758.1 763.6 766.9 769.2 769.3 767.8 766.7 763.8 760 757.5 753.4 746.5 739.2 735.8 740.1 742.4 742.8 745.9 746.5 746.8 747.8 749.8 753.1 755.6 756.1 755.5 752.8 747.6 739.6 729.3 717.7 712.7 714.7 720.8 726.8 733 737 739.1 740.6 738.5 742.9 748.5 752.2 756 759.6 764.7 769.3 772.7 775.6 776.6 777.1 777.5 776.5 774.1 769.5 763.5 756.7 746.9 736.6 727.2 715.9 709.4 700.8 704.7 700 694.2 671.3 676.3 692.7 688.6 683.4 678.5 667.9 661.6 669.9 677.4 683 686.1 687.9 688.1 690.7 694.3 697.4 700.3 701.9 704.5 705.7 704 701.9 698.1 694.8 692.4 689.7 688.5 686.7 686 685.3 685.2 684.1 679.1 672.2 663.1 651.2 633.4 623.8 617.1 603.9 589.6 582.1 575.9 570.8 567.1 564.9 562.8 559.7 555.1 553 550.8 547.9 545.7 542.6 538 532.3 526.9 523.9 519.4 519.7 521.4 524.8 527.4 527.1 529.9 534.2 537.5 539.4 540.9 536.7 532.1 523.4 511.6 507.1 502.1 500.9 486.3 465.2 450.1 444.4 439.5 434.7 430.4 423.3 423.8 423 423.4 421.6 420.3 420.3 420 424.8 428.8 442 450.4 454.3 463.9 472.9 479.3 485.1 489.7 495.9 502.2 508.9 517.8 526.9 533.6 538.9 543.6 548.4
766.2 764.4 763.2 760.2 756.2 751.8 745.4 739 734.5 727.2 711.9 698.4 684.3 689.8 696.9 702.7 699.6 715.7 717.8 730.6 737.8 743.8 751.6 758.3 763.3 766.7 768 768.1 767.9 765.2 761 759 756.6 751.6 743.8 736.4 743 745.6 746.7 749.5 750.9 750.8 751.3 751.9 753 754 756.6 756.6 755.2 751.4 747.2 737.2 724.9 715.5 717.7 723.2 729.1 733.1 737.1 742.3 743.8 744.7 743.7 744.6 748.6 753.1 756.9 762 765.9 770.3 773.5 775.4 775.6 776.1 775.5 773.5 770.2 764.9 758.5 750 736.8 729.1 717.3 711.3 708.8 708.3 705.3 701.1 688.6 670.2 689.6 691.8 689.1 684.2 678.1 670.1 662.3 670.9 679.2 683.7 686.3 687.8 688.7 689.7 694 697.1 696.6 696.7 698.8 698.6 696.9 695 692.7 689 686.3 683.3 681 679.5 680.4 681.1 681.3 680.2 676.9 669.9 661.4 649.7 634.2 623 613 605 589.3 580.4 574.8 570.2 565.7 561.2 559.1 554.9 550.9 546.3 545.9 543.9 541.9 538.5 532.6 527.5 520 515.6 511.5 512.2 514.9 517.3 518.4 518.1 521.8 528.4 534.7 539.3 535.3 529.8 523.9 514.5 508.2 503.4 499.8 496.3 478.3 457.1 446.2 442.1 437.6 433.3 426.2 425.3 424.3 423.9 425 422.8 421.4 420.9 423.6 426 433.6 447.4 456 464.7 466.8 477.4 483.2 491.4 496.6 500.4 504.9 511.6 518.5 526.6 533.3 539 544.6 548.7
765.2 763.7 762.6 759.5 755.6 750.8 745.2 738.5 732.8 726.2 709.1 696.7 684.6 693.8 697.9 699.2 714.9 723.7 728.2 726.9 736.2 743.4 749.6 754.9 759.8 763.1 764.8 764.9 764.2 760.7 759 756.5 754.3 748.9 740.2 742.8 747.9 751.8 752.3 754.4 755 756.1 755.9 756 756.4 756.6 756.1 756.9 754.8 751 746 732.9 723.9 716.8 722.6 729.9 734.6 737.1 742.7 746.2 746.5 748.1 748.8 748.3 750.9 753 758 762.2 766.9 770.4 773.2 775.5 775 773.9 773.1 769.6 765.4 758.4 751.2 736.1 727.4 717.7 709.5 704.8 706.8 706.3 703.5 690.4 672 684.4 692.9 691.9 688.5 683.7 677.4 672.6 669.4 669.9 677.7 682.5 685.3 686.7 687.8 688.7 690.9 692.2 691.7 690.1 689.3 689 687.9 686.9 684.8 681.2 679.4 677.3 675.6 674.9 674.9 676.2 676.6 676.1 673 667.3 659.5 648.9 636.5 625.9 613.3 600.7 589.7 579.2 573.7 569 565.1 560.6 555.3 551.5 547.3 544.2 536.5 537.4 535.7 532.7 525.8 520.2 512.1 505.4 501.3 499.2 504.5 505.6 507.7 510 512.7 521.1 529.2 532.5 529.5 522.1 517.2 511.6 502.9 497.7 487.3 479.9 459.7 451.4 445.6 436.8 427.2 426.7 426.5 426.6 425.6 425.6 424.9 423.4 421.9 421.7 425.1 430.2 440.3 456.3 465.1 474.4 478.7 480.9 487.5 495 501.1 506.2 510.5 513.1 519.9 527.5 534.5 541.2 546.1 552.1
764.9 763.1 760.2 758.1 754.2 749.6 743.6 736.8 731 722 705.7 690.3 687.2 696.5 701.6 719.1 727.7 732.4 733.7 733.3 735.3 741.4 746.8 751.6 755.5 758.6 759.9 760.2 759.9 759.3 757.9 755.7 752.7 746.8 742 749.1 754 757.2 757.7 758.6 759.1 759 759.5 758.4 758.1 757.9 757.1 755.6 754.5 750.6 742.8 731.5 723.7 721.2 728.5 736.2 740.9 741.1 746 749.2 750.7 751.3 751.5 751.7 753.2 755.5 759 762.6 766.9 769.9 772.8 775.2 774.8 772.9 769.8 765.6 760.2 752.3 739.6 726.9 717.8 710.4 706.9 703.6 701.8 702 700.6 687.8 685.9 695 693.3 692 688.7 684.8 680.2 677.3 674.3 668.7 673.8 678.9 682.4 684.9 685.8 686.4 686.2 685.8 683.9 682.6 681.3 679.8 677.8 675.5 676 675.6 675.2 672.7 671.5 669.7 669.7 669.9 669.9 668.7 666.2 662.3 655.7 647.6 637.8 622.8 614 598.8 587.7 578.7 572.6 567.6 563.6 558.9 553.8 548.6 542.6 535.1 531.3 526.9 526.9 523 514.9 506.5 498.8 493.1 489.2 481.8 487.7 491.4 493.4 494.3 500.8 508.5 515.1 521.3 522.4 518.5 513.8 505.7 497.1 486.5 472.7 464.4 456.8 447.8 436.6 432.3 434.2 432.2 431 427.9 426 425.6 424.6 423.3 422.6 423.3 427.6 434.8 449.5 462.4 472.3 479.5 484.5 487.5 490.7 499.3 505 509.7 514.4 518.2 523.8 532 539.2 544.8 550.6 558.8
762.6 760 758 755.1 751.9 746.2 740.4 734.7 729.4 718.9 703.2 689.3 694 695 715.3 725 732.9 736.7 738.2 737.6 735.4 739 743.6 747.8 752 753.9 754.8 755.9 757 757.2 757.7 755.8 750.3 744.7 749.6 754.7 758.6 761.1 761.6 762.7 762.7 761.8 761.9 760.5 759.6 758 757.2 756.2 753.5 749.1 741.9 733.8 722.2 726.6 734.2 740.5 746 749.1 750.3 752.3 753.2 754.3 753.7 754.9 756.1 757.4 759.4 763.1 766.4 769.5 772 774.3 773.2 770.7 766.2 760.6 752.8 741.8 726.5 716.8 711.2 705.8 700.4 698.5 696.1 694.2 695.4 680.6 695.5 695.8 692.7 691.6 688.4 684.9 684.1 680.7 676.4 670.5 670.7 673.2 677.2 680.5 682.8 682.5 680.8 678.4 675.3 670.7 670.6 669 668.8 669.7 670.5 670 670.1 667.8 667.4 665.8 664.4 663.5 661.9 659.4 658.3 654.7 650.9 645.9 634.2 623.2 616.4 595.1 586.4 579.6 572.2 566 561.3 555.6 551.2 545.3 539.5 531.5 512.3 510.6 513.3 508.7 500.1 489.9 478.4 471.1 467.6 461.1 470.4 473.2 473.3 474.4 484.9 493.6 497.9 507.4 513.8 512.8 508.4 497.3 487.4 474.7 467.1 459 450 437.5 435.4 437.9 434.5 433.7 432.5 432.7 431 427.9 425.6 425 423.6 426.7 429.6 440.1 455.2 469.1 478.2 486.6 489.8 493 493.6 504.4 509.6 514.1 519.4 524.6 529.7 536.2 542.6 550.1 557 563.8
759.3 757.6 754.9 750.9 746.9 741.9 737.7 733.9 728 715.9 700.1 691.1 693.4 697.5 721.4 730.8 737.2 740.2 741.4 741 737.6 739.3 742.4 745.5 748.7 750.9 752.6 754.1 755.6 756.8 756.4 753.2 748.6 747.2 753.1 758.4 762.6 765.2 765.4 766 766.3 765.8 764.8 763 760 758.6 757.5 754.7 752.2 745.6 740.8 731.9 722.9 731.2 740.6 746 750.3 752.3 752.9 752.5 755.5 756.4 755.4 757 757.5 758.5 760.6 762.7 766 769 771.3 772.8 770.4 767.2 762.2 754.2 743.3 731.4 718.9 711 705.2 698.6 693.1 689.6 688.1 688.5 687.4 686.8 689.5 691.9 691 691.5 689.1 687.2 686.1 682.3 677 671.3 667 667.8 671.1 674.1 677 677.3 672.6 669.6 667.6 663.5 662.4 662.1 662.5 664 663.8 665.8 665.5 666.1 663.1 661.2 658.8 657 655.1 651.7 650.4 648.3 645.4 643.9 633.9 626.4 614.4 597.7 587.1 580.5 572.6 564.7 559.9 553.3 548.6 542.4 535.5 526.6 512.4 497.5 497.9 489.6 478.2 466.3 455.1 457.2 454.1 456 454.1 449.1 453.5 456 458.1 470.9 477.6 485 496.5 501 497.8 486.7 471.3 464.4 457.5 451.5 443.1 432.8 438.4 439 435.6 434.6 434.2 436.1 432.9 428.6 428.3 425.3 424.7 428.3 432.7 446.2 463.2 474.4 484.1 494.4 495.6 498.7 503.4 504.4 515 519.5 525.6 529.7 534.2 540.9 549.9 557.8 562.5 569.3
755.3 753.2 750.3 747.4 740.9 737.9 736.2 731.6 721.5 707 698.2 690.9 695.6 707.5 725.3 734.7 739.8 743.1 744.4 743 741.7 740.4 742 743.9 747.1 749.1 750.8 752.9 753.1 754.6 753.8 750.3 749.1 749.4 756 761.5 765.2 767.3 768.3 769.7 768.9 767.9 766.7 763.7 760.6 758.6 755.1 752.9 749.9 744.7 738.6 725.6 729 738.2 744.1 748.4 752.6 756.6 756.9 756.7 756.7 758.8 759.1 759.1 760.9 761.6 762.7 765.5 766.1 768.4 770.1 770 767.3 763.1 757 744.4 733.6 720.6 713.7 705.7 698 691.2 685.1 681.5 679.2 679.7 681.3 683 684.5 686.9 689.3 690.2 691 689.3 686 681.4 676 669.6 663.9 662.5 663.2 664.5 667.4 667.7 664.7 662.2 656.8 654 653.4 655 655.9 659.5 659.8 661.9 663.3 663.1 662.3 659 657 653.6 646.9 641.3 639.6 639 635.5 633.7 631.5 622.2 610.8 598.9 591.8 581.3 572.6 564.4 558.4 552.6 546.2 539.7 532.4 522.2 504.3 495.3 479.5 468.3 458 460.1 466 468.2 463.9 459.5 455.6 454.5 448.1 451.2 451.3 450.3 449.2 452.3 470.9 483.7 482.6 473.6 458.5 446.3 437.6 434.9 434.3 435.3 442.1 440.8 438.8 435.1 435.4 437.2 432.2 429.4 427.9 426.1 426.2 429.9 437 452 464.7 476.7 488.3 499 502.4 505.8 510.5 516.7 520.5 525.2 531.4 534.7 539.4 546.7 556.1 564.6 569.8 573.3
752.4 751.4 746.6 741.5 739.7 737.7 734.7 726.3 718.7 705.1 696.3 696 704.5 715.5 728.8 737.5 742.3 744.6 744.8 744.6 743.8 743 740.8 742.8 746.7 748.3 749.4 751.7 752.7 752.1 751.6 750.4 749.7 752 758 762.5 766.2 769.6 771.2 771.4 771.2 769.7 767.6 764.1 761.5 757.9 754.6 751.1 747.8 741.6 731 730.7 738.4 743.9 748.2 750.9 756.2 759.2 759.2 761 759.6 760.8 762.1 763.7 764.6 765.3 766.4 768.1 768.8 769.2 768.9 768.6 764.9 760 751.8 734.5 725.9 716.3 707.2 699.6 690.6 684.8 679.3 673.9 670.9 672.2 674 677.9 680.5 683.6 685.4 687 688.9 687.5 683.6 679 673.4 666.4 660.9 655.3 652.8 655.5 656.7 656.6 655.1 651.3 647.3 644.8 643.2 645.4 649 653 657.1 659.1 661.1 661.3 662 659.6 657 653.3 642.2 633.3 630.3 628 625.7 624.9 620.8 610.9 610.6 595.2 597.5 586.3 572.6 563.7 557.4 551.2 543.2 536.3 529 514.5 499.6 487.3 468.7 461.1 464.5 464.8 471.1 478.1 483.5 477.8 470.1 461.6 460.5 453 449 448.7 447.8 446.1 444.6 448.8 463.8 451.6 443.2 436.7 437.4 436.6 441.3 445.5 444.1 443.3 442.1 440.1 435.2 436.9 430.9 429.5 427 427.7 428.8 432.7 441.8 457.2 470.9 482.9 498 503.9 508.4 510.6 519.8 523.7 524.5 531 537.7 539.8 544.1 553.7 565.6 572.1 575.2 578
751.1 748.2 742.2 740 738.1 737.4 736 731.1 721.2 706.8 697.7 697.7 710.5 720.9 730.5 738 741.7 744.1 745.5 745.9 745.4 745.2 744.9 743.3 745.3 746.4 749.1 750.2 750.9 749.8 751.1 751.4 750.2 753.4 757.6 763 767.1 770.4 772.4 772.4 771.9 770.7 768.6 764.8 760.2 757.8 754.1 749.8 744.1 733.7 731.7 737.9 742.9 748 750.4 753.9 758 761 763.9 764.2 764.3 764.6 765.5 768.2 768.4 768.9 770.3 771 771.6 771.4 769.9 767.4 763 754.3 744.9 727.7 718.1 709.3 701.9 692 685.3 679.3 671.4 667.1 664.8 665.3 667.4 672.9 676.1 678.6 680.3 681.3 683.2 682 679.2 674.7 669.6 663.3 655.4 647.5 643.8 643.2 643.3 643.4 643.4 640.6 638.5 635.1 634.6 636.1 640.9 645.8 652 657.1 660.2 663.4 663.4 662.3 659 652.9 641.3 632.2 623.3 619.7 617.8 615.5 612 613.3 601.4 602.8 598.7 585.3 572.4 563.4 556.4 550 540.9 533.4 524 510 497.3 480 461.9 464.7 468.5 470.6 475.1 485.6 489.6 488.1 481.4 477.7 475.1 471.2 457.4 448.4 443.6 442.6 442.3 442.6 440.3 438.4 439 439.8 448.1 452.1 449.3 445.9 447.1 446.9 446.9 445.1 435.9 436.9 431.5 429 428.5 428.4 430.2 435.3 445.7 461.4 477.8 486.3 497.5 509.3 512.2 516.3 524.9 529.4 530.6 535 541.9 544.1 549.7 561.6 574.3 577.9 578.8 580.4
747.8 744.6 739.9 737.8 737.6 736.3 736.8 730.4 719.2 705.7 696.9 698.5 712.6 722.9 731.2 736.4 740.7 742.7 745.3 746.6 747.2 746.4 746.4 747 747.7 747.2 749.4 750.3 750.3 750 750.2 751.8 752.2 754.6 758.7 763.1 767.5 770.9 773.5 773.4 772.4 769.7 768.2 763.8 760 757.3 753.5 750.6 746.1 736.8 741 742.3 746.6 750.6 752.8 757.5 761.3 763.8 765.9 767.5 767.9 767.3 769.1 770.7 771.7 772.3 773 773.7 774.1 772.3 769.7 765.6 758.9 751 741.6 721.7 713.7 704.7 692.4 686.6 680.6 675.1 667.2 664.3 662 661.3 662.8 667 670.3 672.6 673.9 675.1 676 675.7 673.1 669 663.3 655 648.8 641.4 635.1 632.4 632.7 633 632.4 630 626 624.5 623.8 626.4 632 638.2 644.9 652.4 658.5 663 665.4 664.7 661.6 655.3 644.1 630.9 621.8 615.1 608.8 604.8 604.1 603 602.3 602 595.6 583.6 571.2 562.6 556.1 548.8 539.9 530.8 517.9 502.4 492.1 470.6 463 467.8 472.9 478.1 483.8 492 496.3 493.6 488.2 481.8 477.6 473.2 468.5 468.1 464.2 461.5 455.9 445.2 444.8 443.6 450.5 455.3 455.4 454.6 452.5 450 451.4 451.9 451.7 445.2 441.8 440.9 432.2 429.9 429.6 431.2 432.6 439.3 452 465.7 479.8 491.2 498.1 510 513.3 522.7 531 533.7 534.4 536.3 543.2 546.9 551.8 568 576.8 579.9 579.9 580.4
745.8 741.6 740.8 738.8 737.6 736.8 735.8 729 717.8 705.8 700.3 699.1 709.3 721.7 728.9 733.9 738.2 741.2 744.1 746.5 747.7 748.1 748.1 747.8 747.7 748.6 749.3 751.1 751.9 751.7 751.9 751.3 753.9 756.6 759.6 762.9 766.6 770.1 772.8 773.7 771.7 770.7 768.9 764.8 761.7 758.4 754.2 750.6 742 748.3 747 746.7 750.2 753.7 755.3 759.5 762.1 766.9 768.5 770.4 770 769.9 771.4 772.7 773.4 774 774.9 775.8 775.6 773.3 768.9 763.4 756 747.5 737.1 717 708.6 701 687.9 681.6 675.3 671.6 665.2 661.6 658.8 656.1 656.6 659.3 662.4 665 666.3 667.2 666.8 666.2 665.6 662.6 655.7 649.6 642.1 634 625.8 623.3 622.7 621.6 621.1 620.4 618.8 617.2 613.1 616.3 620.7 629.8 638.4 645.4 653.9 659.7 664.6 666.5 663.1 656.3 644.3 632.3 622.7 612 604.3 597.5 594.3 592.5 594.1 595.7 590.8 581 569.6 562.4 556 547.4 538.1 526.8 511.2 497.4 488.3 467.4 465.4 470.7 478 486.9 495 499.9 504.2 501.7 495.4 488.1 483.3 476.7 473 470.4 467.8 466.1 466 463.4 459.1 461.8 461.2 459.3 457.9 457.2 456.7 452.7 455.7 457 457.1 450.5 441.6 443 431.6 430.5 431.7 431.8 435.4 440.6 455.5 468.7 479.5 491.8 500.5 508.6 515.5 526.5 535.6 537.5 537.7 538.3 544.2 548.6 552.5 565.8 572.1 574.6 576.2 576.9
743.6 742.5 739.8 738.2 737.8 736.7 733.4 724.6 714.2 704.6 700.7 700.3 714.5 709.1 722.7 731 735.8 739.8 741.7 744.9 747.5 747.3 748.3 748.1 748.4 749.9 750.9 751.5 752.1 753.3 753.7 753.1 755.4 756.7 759.3 763 765.9 769.3 771.5 772 770.7 770.2 767.8 764.7 762.3 758.2 755.5 748.3 749.9 752.1 749.8 749.8 751.9 756.4 758.5 761.2 765.8 768.5 770.6 772.9 772.9 770.5 771.6 772.9 772.4 773.5 774.3 775 774.3 771.5 766.9 760.7 753 743.7 730.3 715.7 707.3 695.9 684.9 677.6 672.8 668.1 664.3 660.3 656.1 651.8 651.9 653.6 654.7 656.9 656.5 658.2 658.4 658.9 657.2 654.1 649.3 641.7 634.8 625.3 618.9 614.6 614.1 614.5 613.9 613.7 612.7 609.9 608.7 608.7 613.3 619.3 630.1 639.2 646.9 656.4 661.1 664.4 663.2 656.8 643.6 633.2 622.7 608.7 600.4 592.4 585.3 585.1 583.8 586.9 584.9 576.4 568.6 561.2 554.9 545 534.9 521.4 503.1 494.6 481.8 465.7 468 474.1 486.1 494.7 501.3 506.7 508.4 505.1 496.2 494.5 489.1 483.4 479.1 474.8 471.9 470.8 470 466.8 466.7 464.2 463.7 463.6 462.2 462.3 463.6 461 460.5 463 460.3 453.5 443.5 443.2 432.5 431.7 433.6 434 436.6 443.2 454.2 469.2 479.4 491.8 501.8 511.3 516 527 536 537.6 540.1 540.5 544.4 548.2 553.7 561.9 565.7 568.9 569.4 571.4
740.7 741.1 738.9 736.9 737 733.5 719.9 704.7 701.6 699.8 700.1 711.4 723.2 721.1 718.1 724.8 732.7 736 741.4 743.4 746.9 748.8 749.8 750 748.9 750.6 751.6 752.4 753.3 755.2 755.8 754.6 755.2 757.4 759.9 762.7 765.6 768.4 769.9 770.7 769.4 768.8 767.8 765.6 761.3 758.6 754.5 749.3 754.5 754.3 753 752.5 755.1 758.3 761.2 763.9 768 771.3 773.5 773.6 773.9 770.9 771.2 771.5 771.4 771.9 772.6 772.5 772.3 769.5 764.1 757.7 750.3 739.1 724.3 714.4 705.2 691.9 683.5 674.1 668.8 665.3 662.5 656.8 654.2 649.4 646.6 646.5 646.2 647.4 647.3 647.2 646.7 648.2 647 644.9 639.8 633.8 624.8 619.2 615.1 610.9 608.9 608.3 607.5 606.6 605.5 603.7 604.5 604.7 607.3 612 620.6 632 639.8 649.1 657.5 661.3 661.8 656.3 642.8 631.5 620.4 605.8 596.8 588 581 576.3 574.6 577.9 580 575.8 568.3 559.4 556.3 543.6 531.4 514.4 499.5 490.2 467.6 467.2 469.9 480.7 491 497.4 505.9 509.5 510.2 506.8 501.8 499.9 496.3 492.2 488.3 482.5 479 476.9 475.5 471.6 470.4 469.3 468.9 468.7 469.1 468.5 470.9 469.8 462.3 466 463.2 451.1 444.8 442.5 433.1 432.3 435.2 436.2 437.3 440.5 454.1 465.7 477.6 491.2 501.6 511 515.5 527.3 535.6 535.6 539.7 541.8 546.8 550.4 553 558.9 562.2 563.7 565.4 567.6
738.8 738.2 737.3 736.3 731.8 711.9 710.6 713.4 703.3 704.7 708.8 724.2 728.1 728.5 728.7 722.2 729.1 734.4 738.6 742.5 745.6 749.5 750.9 749.9 749.9 750.7 751.6 753.8 755.6 758.1 757.3 755.4 756.2 757.9 759.7 761.8 763.1 766 768 769.1 768.1 766.8 765.5 763.9 760.6 756.4 750.1 755.1 757.4 758 757.2 755.8 758.3 760.1 763.6 766.2 769.6 773.2 775.4 775.5 773.2 770.6 770.2 769.3 768.6 769.2 769.2 768.4 767.1 764.3 759.9 753.7 745 733.4 722.4 712.6 703.7 690.8 683.7 675.2 667.8 662.5 658.6 655.2 652.5 646.3 641.9 639.8 639.3 639.8 639.7 638.4 637.9 639.2 638.8 636.6 632 626.1 619.4 614.5 610.6 607.3 603.2 601.4 601.3 598.9 598.3 597.6 597.5 597.1 599.3 603.7 610.7 621.9 630.5 640.5 649.9 656.2 658.1 654 635.7 628.9 617.6 604.5 594.6 584.4 576.6 565.2 566.5 568.9 572.9 571.7 565.6 557.8 553.9 541.2 526 506.6 496.5 475.9 468.3 468.9 472.1 484.6 493.7 502.5 509.2 511.8 511.8 508 504.5 502.8 501 497.8 495.9 490.1 487.4 484.9 482.6 479.4 474.2 474.7 475.2 475.7 476.3 470.8 473.1 476.6 465.3 469 464.1 452.5 445.3 438.9 433.2 433.4 435.8 437.4 439.3 440.6 445 461 476.7 489.6 498.9 507.4 513.3 523.2 528.9 532.6 535.7 543.4 547.5 550.7 553.2 556.7 559.2 562.8 566.9 570.1
734.3 733.6 733.5 731.7 717.5 717.7 718.5 708.9 712.2 715.6 723.5 729.6 732.3 733.5 732.9 732.4 731.5 730.7 736.8 741.2 745.7 749.6 750.8 751.7 751.7 751.9 753.7 754.6 757.7 758.7 758.4 757.6 756.2 756.8 759.6 761.5 763.2 764.7 766 766.5 765.6 766.2 764.1 762.7 759.3 753 754.9 757.5 760.2 761 760.1 758.8 760.3 763 765.7 768 771.8 774.4 776 775.6 772.1 770 766.6 764.9 764.8 764.5 764.1 762.7 761 758.7 754.7 748.5 739.2 729.8 720.7 709.3 702.8 691 684.8 678.2 672.9 667 658.7 653.8 650.5 646.2 640.7 631.7 631.7 631.3 630.1 630.1 630 630.3 630.7 629.4 626.2 621.1 615.9 611.2 605.8 601.6 597.8 594.5 593.7 593.1 592.5 592.4 592.5 591.8 593.8 596.5 602.3 609.1 618 628.9 640.4 649.1 653.9 648.9 635.8 627.9 617.2 604.3 591.8 580.2 572.1 565.9 554.9 559.4 564.7 565.4 561 556.6 550.8 537.4 519.6 500.1 488.8 470.8 469.3 472.2 475.8 489.6 498.7 507.7 511.3 514 513.2 510 506.6 507.4 506.4 504.5 501.4 495.6 494.6 490.6 486.9 483.7 479.8 479.5 481.5 483.4 483.7 479.4 477.5 480.7 473.3 471 465.6 452.4 444.2 438.4 433.9 435.2 436.8 438.6 441.3 444.1 444.8 452.8 467.9 483.6 492.6 499.8 507.9 516.8 523.2 527.9 534.9 543.3 547.3 550.7 553.2 556.6 561.5 564.9 569.5 572.3
727.2 722.6 715.3 712.6 709.1 719 712.4 713.5 717.7 724.3 730.5 734.4 736.3 736.5 736.2 735.6 735.8 734.4 733.5 740.2 745.3 748.5 751 752 752.4 751.9 753.8 755.7 757.4 758.6 757.6 758.1 755.7 757.3 758.6 760.6 762 762.6 763.8 763.9 764.7 764.1 762.9 759.1 755.4 754.7 758.8 761.6 763.5 763.1 762.6 761.4 761.9 763.8 767.3 770 773.4 774.9 776.4 775.1 771.2 768 762.7 759.1 758.2 758.6 757.4 755.9 753.7 751.4 748.1 743.1 736 728 717.6 711.4 702.3 690.5 685.6 678.4 675.5 670.7 662.9 655.7 651.6 646.2 639.2 633.4 628.2 624.3 623.9 623.3 622.7 623.7 623.3 622.3 619.2 615 609.4 604.9 599.7 596.2 593.3 589.8 586.4 585.7 586 586.2 585.8 585.5 587.1 588.5 591.7 599.1 606.4 615.3 628.6 640.6 648.3 645.4 636.4 626.4 615.3 601.5 589.2 577.2 569 562.4 555.8 552.4 554.6 557.8 556.8 554.1 544 531.2 510.5 492.7 471.1 470.9 472.2 475.9 485.6 496.6 505.5 511.6 514.6 516.3 514.3 512 510.6 511.1 511.3 509.9 507 500.5 499.6 496.6 492.7 487.9 485.8 486.5 487.6 488.8 490.3 487.8 482.5 482.9 475.2 471.1 465 453.3 445.8 435.7 435.4 437.2 438.5 443.2 443.7 446.4 449.5 447.4 454.3 473 483.2 491.6 501 510.1 518.4 524.8 531.7 542 546.8 549.7 552.8 557.3 562.9 565.4 571.1 574.2
715.6 710.6 714.8 720.8 718.8 716.1 716.1 719.4 724.1 732.1 737.1 738.6 739.7 740.3 739.4 738.1 738 738.5 738.6 739.3 743.9 747.1 749.7 749.9 751.7 751.8 753.9 755.2 757.7 758.3 758.6 758.1 756.2 756.9 758.5 759.2 760.2 760.8 761.6 762.8 762.6 761.3 760.6 757.2 755.3 758.8 761.8 763.9 765.7 765.5 764.9 762.8 763.4 765.1 767.9 770.9 774.1 775.7 776.1 774.9 770.8 765.7 757.9 751 751.5 750.9 750.4 748 746.3 743.5 740.4 736.2 729.7 720.8 715.2 709.5 701 691.2 685.2 680.7 675.9 672.1 664.6 657.4 651.9 646.2 638.1 632.4 627.1 621.5 615.4 617.4 617.4 617.6 617.7 614.9 612.5 608.8 603.7 599.5 594.6 589.8 587 584.5 580 579.6 578.3 577.9 577.2 578 580 581.4 583.5 588.9 597.6 605.7 617 630.1 639.9 639.3 633.5 624 613 600.2 585.7 572.4 563.7 556.1 550 538 544.1 547.9 548.8 545 533.4 519 497.8 482.5 472.4 474.4 475.3 480.3 493.2 501.6 509.9 514.6 517.4 518.6 517.3 516 514.4 516.3 516.2 514.9 512.5 507.1 504.3 500.6 496.5 494 492.8 491.2 494 494.3 494 493.6 490.6 484.7 474.9 471.4 460.6 451.1 444.3 435.7 436.7 438.1 441.3 448.8 450 452.9 460.4 460.1 456.7 452.9 468.8 482.7 493.5 504.9 514.2 521 530 539.1 543.9 547.4 552.7 560 563.2 565.8 570.1 576.3
711.8 718.9 728.4 728 724.2 716.8 723.9 725.9 731.5 738.3 741.9 744.3 744.2 743.7 742 740.8 740.6 741.3 741.4 741 742.9 744.9 747.4 749.2 750.2 752.6 752.9 754.8 756.9 758.5 758.7 757.7 756.6 757.9 758.7 758.2 759.4 759 760.3 760.5 761 758.9 758.1 755.5 758.4 760.4 763.6 765.4 767.5 767.6 766.6 765.9 764.8 766.7 768.1 771.2 774.2 775.3 774.5 772.4 767.3 762.6 755.1 747.1 744.6 743.7 741.1 738 736.2 733.2 730.9 728 722.1 716.2 711.7 705.8 698.6 690.9 687.5 683.7 678.3 673 665.9 658.3 652.1 645.7 638.3 631.9 625.5 620.2 616.7 607.5 610.5 612 611.2 610.4 607.6 604.6 599.5 595.1 590.7 585.3 582.4 577.9 574.3 571.7 570.1 569.7 568.8 571.2 574.3 574.1 574.8 578.2 588.1 599.4 609.6 619.5 629.8 633.1 628.5 619.9 609.2 598.6 583 568.8 559.2 550.6 544 536.1 532.8 535.3 538.2 531.9 517.3 502.9 482.7 474.3 475.7 475.6 478.9 489 498.6 506.3 514.3 516.8 519.7 521.2 520.7 518.7 520.5 522.7 521.3 519.7 516.2 513.1 509.1 505 501.8 500.6 499 499.3 499.7 499.3 498.9 495.9 493.2 484.5 479.1 474.3 462.2 451.1 445.9 436.7 437.7 439.1 445.1 452 456.5 457.1 464.1 475.4 477.6 468.2 457.1 475 487.2 498.3 506.8 516.3 525.7 534.1 541.3 547.4 554.7 561.7 564.8 567.2 571.8 579.7
719.4 730.9 732.8 730.9 723.4 723.1 731 733.7 742.1 744.5 747.3 748.3 748.6 747.6 744.9 743.8 744.4 744.2 744 742.8 743.4 746.5 747.6 749.7 750.8 751 754 756 756.8 758.8 758.4 759.2 758.6 757.9 759 758.1 757.4 759.1 759 759.6 759.4 757.9 756.3 756.4 759.2 761.8 764 766.6 768.8 770.3 769.9 768 767.9 767.7 768.9 771.8 773.2 773.8 772.2 769.6 764.4 758.5 751.7 743.1 738.2 735.6 732.6 729.1 725.5 721.6 718 714.5 712.7 710.5 706.5 702.7 697.2 693 689.3 685.2 679.5 672.8 666.2 659.9 653.2 645.4 637.7 631.7 626.6 619.4 615.5 610.2 599.9 604.9 606.1 605.7 603.9 600.8 598.1 589.1 581 576.2 575.1 571.7 566.5 562 560 561.8 561 567.9 569.3 566.9 566.5 570.3 579 590.2 600.5 610.4 618.5 624.5 622.7 616.3 605.4 595.9 582.4 565.3 555.5 545.7 536.6 526 522 527 526.4 519.9 502.4 488.8 476.8 474.3 477.8 482.1 489.9 496 503.9 512 516 518.7 522.1 523.3 524.7 525.3 528.5 529.3 528.5 523.8 520.8 515.5 512 509.8 508 508.3 507.6 505.7 503.9 504.3 504.1 500.8 495.8 488.6 479 470.2 460.7 450.6 444.2 439.6 439.1 443.3 448.1 455.1 460.7 463.9 466 479.4 483.6 484.1 467.9 461.5 480.9 493.5 503.3 512.9 520.5 531 541.3 548.3 557.1 563.8 566.2 568.8 577 582.8
732 735.9 735.7 731.8 723.1 732.1 739.7 744.7 747.9 750.9 751.9 752.6 752.9 751.3 750.7 750.2 748.7 747.6 746.7 745.9 743.9 746.7 747.2 749.4 751.5 752.6 754.9 756.5 757.1 759.2 760.1 759.1 759.8 760.4 757.9 758.7 758.6 757.3 757 756.7 756.4 756 755.7 757.6 759.5 761.9 764 767.3 769.8 772 772 770.7 770.2 770.1 769.9 772.7 773.3 772.5 769.2 766.3 762.4 756.6 750.5 741.4 734.4 728.5 724.7 722.3 717.4 712.4 709 708 706.4 704.7 702.8 700.6 696.3 692.3 688.9 684.1 679 672.7 666.4 659.9 652.8 646.3 638.7 633.3 627.2 621.7 615.9 609.6 602.7 594.6 598.2 600.2 599.9 597.4 592.2 583.2 574 570.8 568.6 563.8 558.6 547.7 554.1 545.6 560.6 563.5 563.9 561.6 552.8 561.5 570.1 579.1 587.8 596.9 604.7 612 614.2 612 603.7 595.5 578 561.6 549.7 538 529.9 521.6 519.1 515.3 511.9 504.7 493.8 479.5 476.6 476.1 479.4 489.8 497.3 501.7 509.9 515.3 518.5 520.4 524.4 527.9 529.7 531 534.4 534.7 533.2 530 525.8 519.1 516 514.9 514.2 513.7 512.9 512.6 509.5 508.3 508.2 504.5 497.8 490.8 482.2 474.6 461.2 452.9 443.9 440.5 440 446.1 452.4 459.9 464.1 468.2 470.6 474.1 480.4 490.7 484.6 466.5 472.9 490.9 499.8 511.1 519.3 530.1 541.6 553 560.1 566.2 568 571 581.9 585.5
737.4 738.7 737.6 730 731.6 740.3 746.2 749.5 753 754.8 756.1 758 757 758.6 758.2 755.6 752.9 750.9 749.9 747.7 745.8 746.7 748.6 750.1 751.9 754 756 757.4 758.6 760.1 759.9 760.4 760.8 760.4 759.8 759.5 758 757.1 756.9 755.9 755.2 753.5 754.4 756.9 759.5 761.8 763.8 767.2 770.8 774.2 774.9 773.8 772.4 771.2 772.2 773.3 773.2 771.5 766.5 763 760.6 755.1 746.7 738 729.6 722.7 718.7 714.7 711 706.8 704.2 700.5 698.9 698.9 697.5 696.3 694.1 691.2 687.7 682.6 677.1 670.4 665.4 657.8 650.9 645.1 638.9 632.6 626.9 621.5 615.8 608.8 604.1 593.8 587.1 591.7 589.3 585.4 581 573.3 568.5 563.8 561.7 558.8 554.8 549.3 537.2 535.1 552.3 557.1 556.3 555.6 534.2 550.6 555.3 561.1 568.8 578.8 586.3 596.2 602.7 603.3 597.3 590.2 572.7 554 544.3 534.3 522.5 515.8 509.1 498 504.1 493.7 481.5 479.7 477 477.8 491.3 498.6 502.9 507.9 513.6 518.3 522.1 525.6 529.8 532.5 533.5 535.5 539.4 539.5 537.6 534 527.8 522.3 519.3 518.3 517.7 517.1 518 518.8 515.8 513.8 511.3 505.1 498.7 489.3 481.9 474.9 460.9 453.1 445.3 440.5 440.8 448.8 455.6 460.3 465.6 470.9 479.2 483.3 483.8 492.5 492.4 465.9 471.3 488.2 498 508.3 517.5 528.6 543.7 555.6 564.1 568.9 570.6 572.1 582.7 587.1
740.8 740.9 738.7 730 737.5 745.6 749.8 753.2 756.5 759 760.2 761.9 764.1 766.2 765.4 762.3 757.7 754.1 751 748.1 748 748.4 749.2 752 754 754.2 755.9 758.1 759.8 759.7 761.3 762.2 761.6 761.2 761.1 760.3 758.6 757.9 756.9 754.5 752.2 750.9 751.4 754.6 757.2 760 763.1 767.3 772.8 776.6 777.4 776.2 773.6 772.6 772.1 773.4 772.1 769.3 763.6 760.9 755.8 749.2 743.5 733.4 726.1 719 712.2 707 703.7 701.9 697.4 695 693 692 691.5 691.6 691.2 688.3 683.8 678.9 674 668.9 662.5 656.1 648.5 643.5 635.9 629.5 624.6 619.7 615 608.5 598.5 594.4 589.6 580 578.2 574.6 571.8 566.6 562.4 559.1 557.7 555.3 551 546 528.4 531.9 522.9 534 535.6 534.8 522.3 525.2 526.5 529.9 541.2 550.9 565.3 577.4 587.8 592.3 589.6 579.6 562.2 547 538.6 525.6 513.3 509.4 502.6 494.2 488.4 483.3 481.2 479.3 477.9 488 500.8 504.9 509 514.8 518.3 521.8 526.9 531.4 534.8 537.2 538.5 541.8 545.2 544.9 541.3 536.8 531.4 525.6 523.5 522.2 521.5 522.5 525 524.6 523.3 518.4 515.8 508.7 500.4 493.8 483.5 473.6 458.7 451.4 445.4 442.3 442.2 451.8 459.3 464.2 469.1 475.7 482.1 488.8 490.9 486.8 490.7 479.6 466.8 488.4 496.9 505.4 514.9 527.8 546.3 556.1 569.3 570.1 572.2 574.7 580.7 584.8
742.9 743.3 739.2 736.4 744 748.9 752.5 756.4 759.3 762.2 765.1 768.1 770.9 771.6 769.7 766.4 761.1 755.6 751.8 749.4 748.1 749.4 749.9 751.2 753.4 756.2 758.6 759.8 761.5 761.1 762.8 763.1 763.6 762.8 761.5 760.6 758.2 759.3 757.6 755.6 753.5 751.4 746.4 749 753.4 758.5 762.5 768.9 775 778.5 778.5 775.3 772.7 772.1 771.4 771.6 769.5 766.1 760.8 755.1 749.2 743 733.5 729.5 724.2 718.1 707.9 703.4 699.9 696.2 692.5 689.2 686 686.8 686.4 685.9 685.7 683 678.2 673.9 670.6 666.2 660.8 654.3 647.9 639.9 630.6 629.7 628.2 623 615.7 605.3 598.6 593 587.9 581.8 564.5 557.7 560.9 559.2 555.8 555 553.3 551 545.6 534.3 520.8 511.3 507.1 505.3 504 503 503.5 501.9 501.7 501.1 510.6 522.2 538.1 554.4 568.5 576 576 562.8 547.6 535.5 523.7 512.5 509 503.8 489.8 483.1 482.4 481.2 480.3 482.7 490.5 501.5 506.7 512.1 516.8 520.5 524.8 527.6 532.4 537.2 539.7 542.2 544.2 547.6 552.1 549.9 543.2 538.7 534 529 528.2 526.6 526.7 528.2 531.2 530.6 530.8 531.4 519.2 508.7 501.2 493.2 483.9 470.1 460.5 451.1 446.3 443.1 447.5 453.5 462.5 467.1 472.1 480.9 486.9 491.3 496.2 497.1 489 488.9 469.4 486 496.6 503.6 513.5 530.2 543.9 556.1 571.2 571.4 573.2 576.8 580.9 584.5
744.9 744.7 740 739.7 746.7 750.5 754 756.6 760.3 764.4 769.5 773.5 776.3 776.3 774.6 770.4 764.5 759 753.2 750.9 750.8 751.2 752.8 753.6 754.7 757.9 761.1 762.8 764.1 764.6 766.5 765.6 765.6 764.3 762.9 761.9 761.8 758.6 757.8 757.3 756.8 755.2 753 744.8 749.1 756.1 762.2 769.1 776.4 778.5 776.8 773.8 771.4 770.3 769.5 768 765.3 762 757.4 751.3 742.8 731.4 724.5 721.4 716.1 711.6 704.4 699.7 694.8 690.9 687.5 683.4 682.8 681.3 680.6 679.3 678.1 676.4 672.8 669.8 665 660.7 656.2 650.3 643.6 637.8 637.1 634.5 631.1 625.3 612.9 606 598.6 591.3 585.2 578.4 571.5 563.7 550.6 543.3 546.9 546.1 544.9 539.6 529.6 515.4 507.8 507.2 507.4 511.3 513.5 504.8 503.9 502.1 501.7 499.4 499.9 497.6 511.5 527.5 542.7 550.6 548.2 537 522.2 519.1 513 507.3 501 489.2 484.1 483.6 483.8 484.1 488.6 496.2 499.9 510 514.2 519.2 523.2 525.4 529.7 532.9 539 541.8 544.6 547.5 550.1 553 555.3 552.9 546.7 541.9 536.5 532.3 532.4 531.9 533 533.7 535.3 536.7 537.9 537.1 524.2 513.1 503.1 491.9 485.1 470.3 459.2 451.4 444.6 443.5 449.9 456.3 465 470.3 477.8 483.8 489.1 494.3 499.7 502.3 497.3 488.4 480.2 477.2 495.6 502.4 511.5 527.4 540.9 555.7 569.1 571.1 573.9 579.5 584.6 584.4
747.3 746.5 744.2 739 747.6 751.3 753.9 757 761 766.4 771.7 777.5 780 779.8 777.7 773.1 767.2 761.4 755.6 753.4 752.8 754.5 755.5 757.3 759.3 762.9 764.8 767 767 768.9 769.3 768.2 768.1 767.1 764.7 762.9 761.7 761.8 759.6 758.7 758.5 756.3 753.9 745.3 740.4 752.6 761.2 768.8 773.6 774.4 773.5 769.3 766.7 765.8 764.5 761.8 758.7 755.6 750.5 743.4 735.5 724.5 718.3 710.9 708.4 704 700.5 695.7 690 685.3 681.9 678.4 677.9 674.9 673.2 671.2 670.7 668.8 665.5 662.7 659.9 654.8 651.3 646.2 641.9 641.1 639.5 637.3 633.7 627.7 618.5 607.9 598.4 589.6 582.8 574.9 566.4 558 551.9 545.4 535.4 531.2 535.7 525.1 512.5 509.5 509.3 517.5 535.4 538.3 534.4 521.8 514.5 506.3 502.9 509.7 510 498.8 496.5 499 510.5 523.7 525.6 514.8 511.3 505.4 499.6 494.8 487.5 485.6 486.6 488 494.5 498.3 506.1 513.1 500.6 518.9 521.8 524.8 529.1 533.8 535.2 542.4 543.9 548.1 551.7 553.8 557 558.5 557.4 555.7 550.6 545.6 539.4 537 537.4 538.2 539.3 537.8 539.3 540.8 542.8 539.8 529.3 515.7 504.2 493.7 483.2 468.4 460.9 453.8 445.3 445.1 452.4 458.7 466.3 471.8 479.3 487.3 492.4 498 502.9 505.1 501.7 491.4 486.1 475.4 494.9 502.6 510 520.9 536.6 552.5 560.3 568 574.5 583 587 583.9
749.2 747.7 746 745 747.2 749.7 752.3 755.9 761.1 766.4 772 777.8 780.4 780.4 778.6 774.4 768.9 764.3 761 760.8 759.9 756.6 757.8 759.5 762.4 766.8 769 770.1 771.7 771.9 771.9 771 770.6 769.3 767 765.2 764.7 763.4 762.2 762.7 760.2 757.4 754 740 736.3 749.4 758 765.1 768.3 768.9 766.5 762.7 760.1 758.3 756.4 754.6 750.6 747.4 742.2 735.7 725.2 718.9 711.7 706.9 699.6 697.3 695.3 690.9 685.5 681.9 677.9 674.5 671.1 669.5 666.2 665 662.9 660.7 658.1 655.5 653.4 650 646.8 642.2 640.6 640.9 640.6 638.3 634.9 630 620.1 610.6 599.4 589.3 580 571 563.1 556.5 549 545.1 538.6 527.7 521.3 516 511.4 511 511.2 532 544.2 547.4 546.7 527.6 522.2 520.3 524.2 521.8 518 511.5 498.5 494.8 494.7 494.8 502 494.8 492 490.7 490 488.6 486.9 487.7 491.5 501.2 509.9 514.2 519.4 525.1 511.5 527.1 528.9 531.2 534.8 540.2 544.1 548.2 551.1 555.8 558.1 560.3 561.8 562.9 561.1 558.1 553 548.4 540.9 541.1 541.9 542.5 542.2 542.5 543.6 545 545.6 543.2 532.6 518 505.7 494.3 482 469 462.7 454.9 446.4 447.6 454.3 460.8 468 475.1 483.8 490.8 496.4 500.8 506.1 507.8 505.7 499.3 490 475.6 490.5 501.7 508.7 518.3 530.3 547.9 557.7 564.9 571.9 588 585.7 581.4
751.2 749.4 748.5 747.8 743.4 748 750.5 754.5 759.6 764.2 769.2 774.7 777.2 777.8 777.2 774.2 770.7 769 767.7 767.3 766.2 762.1 761.5 762.1 765.7 769.9 772.1 774 774.4 774.5 773.7 773.1 771.4 770.3 769.2 767 766.8 765.1 766.1 767.1 764.3 760.4 754.2 735.7 730.8 744 752.9 759.2 761.8 760.6 758.2 754.8 752 749.1 745.9 741.1 740.6 737.7 732.7 726.4 721.7 712.1 705.3 699.5 694.2 691.4 688.9 686.5 682.5 678 675.6 670.9 665.8 662.4 659 657.2 653.9 653.3 651.2 649 645.9 643 642.3 640 638.8 638.9 639.2 637.4 634.6 629.5 622 610.6 598.2 588.1 577.1 569.2 559.9 552.9 547.1 543.2 536.9 524.3 516.6 514.7 511.7 514 530.3 544.3 550.7 555.3 556.1 539 528.5 523.4 519.1 519.5 518.7 517.6 516.2 509.1 495.9 495 492.4 491.9 490.9 489.9 489.1 487.9 496.8 506.5 509.5 517.1 520.3 526.5 531.4 534.8 521.5 533.7 535.3 536.9 544.4 546.5 550.4 555 560.3 564.6 564 565.6 567 566.9 563.7 559.5 554.4 549.5 543 544.7 545.8 545.6 545.2 545.3 546.6 548.7 548.9 546.4 536.2 518.3 506.3 493.9 480.7 470.9 463.4 455.3 447.7 448.8 457 464.3 470 478.7 488.7 495.1 499.6 503.5 508.3 511.2 508.5 505.2 499 478.7 486.4 492.5 505.8 515.6 526.8 538.9 550.8 559.1 565.2 577.6 580.7 579
753.9 752.4 750.8 748.9 747.4 746.6 749.9 752.5 757.2 762.1 766.4 771.1 774.2 776.2 776.2 775.2 774.1 775.1 774.6 774.2 772.1 767.9 764.5 765.9 769.8 773.9 775.7 776.2 777 777.1 776.3 774.2 772.8 771.2 771.2 770.3 769.1 769.4 771.5 770.2 767.7 761.8 753.5 733.7 725.2 736.3 745.4 750 752.1 751.4 747.8 744.2 740.7 735.2 733.8 731.8 729.1 725.5 721.1 714.5 708.1 701.4 697.2 693.2 687.9 684.5 682.1 681 677.3 674.8 672.1 669.1 664 658 652.5 651.4 648.6 647.6 644.9 644.1 640.9 639.3 638.1 637.2 635.6 636.1 636.1 634 632 627.7 619.1 609.7 598 585.2 575.2 564.8 555.6 549.8 544.3 539.5 528.7 516.5 513.7 512.9 522.3 536 543.8 550.4 557.6 563 564.1 561.5 552 542.5 529.9 526.8 524.9 527.6 526.2 521 516.2 508 496.6 497.8 496.2 501.4 508.5 511.2 511.7 515.7 521.9 528.2 532.7 537 540.3 541.8 529 541 541.5 545.3 551.6 551.4 557 560.8 569.2 573.6 571 572.3 572.9 571.2 566 560.5 556.5 552.2 545.4 548.8 549.8 549.1 548.6 548.1 549.3 550.9 550.1 546.2 536.1 519.9 505.9 492.7 481.7 471.5 464.2 450.6 449.2 452 457.5 465.5 472.5 483.2 491 498.6 502.6 507.9 511.2 511.6 511.7 508.5 502.1 486 483.4 488.6 498.6 510.6 521.4 530.8 543.6 552.9 557.2 565.3 570.8 572.9
755.8 754.7 752.9 751 749.1 747.8 749.3 751.8 755.8 759.4 763.6 768 772.3 775 776.4 776.4 777.7 780 781 780.4 778 774.4 770.5 772.5 775.8 778.1 778.8 780.1 779.3 779.1 776.5 775.4 774.4 773.5 772.5 771.3 772.3 774.6 776.5 774.2 770.6 765.4 755.9 733.8 716.6 726.1 734.6 738.5 739.6 739.7 736.9 734.1 728.9 724.5 723.1 720.1 715.8 712.9 707.5 702.2 699 693.2 688.6 685.1 682.2 679.8 677.8 677.6 676.5 674.5 674.4 670.8 664.5 657.2 652.7 647.9 646.1 644.5 641.5 639.9 637.9 634.4 632.6 631.5 631 631.5 630.7 629.5 628.4 624.7 618 609.1 593.6 581.6 571.9 561.3 549.9 545.6 540.6 530.6 518.1 515.8 515 525.7 540.8 546.7 551.9 559.7 565.1 576.4 581.6 581.4 573.3 563.4 554.1 546.7 538.1 535.5 535.6 530.4 525.4 521.9 514.5 513.9 514.6 516.7 519.9 519.7 522.1 526.4 531.4 537.1 541.6 546 549 550 534.8 543.7 549.2 553.3 557.7 558.2 561.2 566 576.9 575.8 576.2 579.7 577.8 575.3 566.2 560.8 556 551.6 551 552.9 553.1 551.6 551 550.5 551.7 550.2 548.3 545.6 534.7 518.5 506.4 491.4 479.5 471.3 462.7 451 450.2 453.7 460.1 466.9 475.8 488.4 496.1 501.9 506.2 512.2 516.3 515.2 513.8 510.4 504.7 483.4 490.7 493.5 493.6 505.9 513.4 521.8 534.4 545.4 549.7 553.6 558.2 561.3
758.5 757.1 755.2 752.9 750.6 749.3 750.1 751.4 753.7 757.1 760.9 765.3 768.4 772.5 775.9 777.9 780.4 783.5 784.3 784.9 782.4 781.1 780.7 779.8 781.4 782.4 783.6 783.7 783.4 780.7 779.7 777.1 776.6 775.2 775.2 775.7 776.9 779 780.4 777.9 772.2 765.6 754.3 732.9 716.4 715.6 719.8 725.3 726.7 725.9 723.1 720.7 716.5 715.1 713.1 708.4 705.6 703.3 698.4 694.5 689.9 685 681.6 679.6 676.7 675.9 673.6 675.1 674.3 673.4 673.4 668.7 663.7 655.4 651.3 648.3 643.3 640.8 639 637.5 634.3 631.8 629.4 626.2 626.1 623.7 623.4 622.7 622.2 619.5 614.6 605.3 589.5 577.1 566.4 551.1 546 541.1 532.4 518.6 517.3 516.3 523.2 540.2 549.7 554.1 564.4 574.2 584.2 591.4 596 594.3 581 574.8 565.9 556.9 552.3 547.2 544.1 539.3 534.8 530.9 527.1 526 525 516.7 526 527.3 529.2 535 539.6 543.4 547.7 550 553 549.1 544.7 550.3 554.6 560.7 561.9 562.4 565.2 573.3 580.4 578.5 580.6 581.3 579.3 574.7 566.1 561.3 555.7 551.8 552.7 554.4 555 554.2 553.5 552.8 552.2 549.6 547.3 543.6 532.9 518 502.7 489.5 476.1 467.7 461.6 451.7 451.9 458.6 463.6 470.3 479.7 493 500.7 505.9 510 516.3 519.8 519.8 516.4 512.3 507.1 488.3 492.4 498.7 504.8 500.9 504.7 516.5 523.8 531.7 540.4 543.7 546 553.3
760.5 758.2 756.1 753 751.7 751.1 751.7 750.7 752.4 757 759.3 763.7 767.5 769.8 773 777.5 780.9 785 788.1 789.4 787.5 786.8 786.2 786.7 786 787.4 786.7 787.2 786.1 784.9 782.4 781.5 778.8 778 777.6 778.9 781 782.7 783.8 780 772.6 763.9 749 730.6 713.3 707 710.6 711.3 713.9 713.8 711.9 709.1 709.7 708.3 705.4 701.1 697.6 693.3 690.1 687.6 682.6 678.4 674.5 672.7 672.8 671.2 668.9 671 672.4 672.7 671.7 668.1 661.8 654 649.9 646.2 642.9 640 633.9 633 631.3 629.2 626.4 621.7 616.8 612.5 612.4 613.1 611.5 611.2 607.5 597.7 581.5 570 556.7 547.3 540.5 534.5 520.1 518.2 517.6 526.5 539.8 549.2 561.6 573.3 580.8 593 602.1 604.1 600.9 602.7 592.7 583 576.5 567.5 559.9 556.1 551.7 546.3 542.5 538 534.4 533.1 532 530.8 530.8 534.3 535.9 541 546.6 551.3 555.4 554.8 557.2 553.6 551.4 557.6 560.3 566.4 566.8 566.1 568.3 575 578.2 579.9 582.6 582 577.6 572.4 566.3 560.3 555.6 554.2 555.2 555.9 556.5 555.1 554.2 553.5 551.6 548.8 545.9 542.2 529.4 513.9 500.3 486.4 474 467 452.9 453.3 455.5 462 467.3 475.3 485.2 496.2 504.3 509 514.5 520.6 523.6 523.4 520.1 515.7 508.1 490 496.5 502.2 511.2 515.7 518 507.9 511 523 527.5 534.7 538.5 541.9
761.5 758.5 757.5 753.5 752.6 753.7 754 753.5 754.9 756.3 758.8 762.7 765.9 770 772.7 777.6 780.9 785.6 791.3 793.4 793.6 793.6 793 792.3 792.9 791.5 791.4 790.4 788.2 787 784.9 783.3 781 781.1 780.2 781.6 783.3 785.6 784.7 780.2 773.3 761.9 750.4 730.4 711.5 705.4 701.8 700.8 703.4 704.7 703.2 702.6 702.6 699 695.5 692.1 689.7 687.4 684.6 680.6 675.7 672.8 669.2 667.3 665.5 665.2 663.9 666 667.5 669.6 669.6 666.4 659.8 651.9 648 644.5 640.3 637.6 635.4 631.5 619 619.4 622.2 617.9 611.8 607.3 600.9 600.2 598.5 598.2 596.3 587.3 571.3 559.8 548.9 543.7 530.3 521.7 520.1 519.2 524.6 538.6 548.6 561.3 576.9 588.6 597.6 605.5 614.7 614.4 613.3 616 607.4 596.5 581.1 574.2 568 564.3 558.8 552.7 548.1 544 539.9 538.3 536.7 535.8 535.1 540.7 543.8 547.6 555.1 557.9 561.2 562.8 560.1 554.1 557.6 561.7 565.6 569.5 569.8 569.2 570.7 575.1 577.7 579 581.2 580 575.2 570.3 565.2 560.2 556.1 556.2 555.8 556.8 557.9 555.9 554.7 552.2 548.9 547.5 543.1 535.9 525.1 511 496.8 482.9 470.8 456.9 453.7 455.8 458.6 465.7 471.7 480.2 487.5 499.1 507.5 513.1 519.4 524.6 527.1 526.2 522.9 518.3 510.7 492.9 497.2 506.6 513.2 519 524.4 529.2 527.6 523.8 520.9 520.5 522.7 528.5
761.8 759.6 757.4 755.5 755 755.5 755.2 756.3 755.2 755.9 759 761.5 763.6 769.1 772.7 776 781.3 786.1 792.5 797.9 799.6 800 799.5 798.6 797.8 796.6 795.1 794.3 793.7 791.9 789.5 787.3 785.1 784.7 784.7 785.4 786.5 786.3 783.4 778.4 770.6 759.2 740.1 724.8 711.9 703.1 698.6 696.6 694.6 694.9 695.4 693.9 695.8 691.9 687 685.5 682.7 680.8 678.4 673.9 670.6 668.2 663.4 659.3 658.2 657.9 657.3 660.3 662.6 664.7 665.1 663 656.3 650.6 647.1 641.9 640 637.9 633.9 632.6 630.3 626.9 612.6 606.1 604.2 603.1 596.2 593.8 590.7 582.7 579.1 570.9 557.7 548.9 544.6 534.4 523.7 521.6 520.6 520.1 539 549.4 561.8 572.6 587.9 603.1 614.1 620.7 624.8 621.9 623.4 622.8 607.4 598.6 589.1 579.5 574 572.1 564.1 558.5 555.2 550.4 546.1 544.9 543.2 540.6 543.9 548.1 550.6 554.6 560.6 563.5 566 565.9 562.1 560.2 561.2 564.9 567.7 570.9 571.3 571.1 571.9 574.7 575.8 578 578.1 575.8 571.9 567.3 562.4 558.3 555.9 556 556.1 557.2 558.5 556.4 552.5 550 547.5 544.3 538.8 530.6 519.5 506.6 491.8 478.1 469.9 456.1 456.1 456.1 464.8 470.6 478 483.2 491.8 502 510.4 518 523.8 528.2 530.7 528.9 525.9 520.8 514.7 503.7 495.9 510.6 517 522.2 529.8 534.3 539.6 542.3 542.2 541 545.1 547.3
762.1 761.5 760.1 758.5 756.9 757.4 758.6 758.8 758 756.6 758.1 761.1 763.6 768.4 772.7 776.2 781.6 786.8 794.4 800.4 804 805.1 805.4 804.2 802.2 801.2 799.9 798.9 797.6 795.5 792.7 791.2 789.9 788.6 786.9 787.1 787.7 786.2 782.2 775.2 765.8 751.6 736.3 722.6 712.1 703.5 697.5 693.5 692.5 690 689.3 688.6 689.8 685.1 681.7 680.7 678.6 676.5 672.8 669 665.1 661.8 660.4 656.2 655 651.5 652.2 654.4 657.3 659.8 660.3 659.3 654.5 651.3 647.8 642.3 639 636.2 634.3 631.4 627 622.2 615.3 603.1 592.4 593.8 591.2 585.4 582.6 578 569.5 557.2 550.5 545.1 533.4 525.1 522.5 521.8 523.5 537.9 550.6 558.9 573 586.6 600.5 614.6 624.6 631.6 633.8 635 640.9 634.8 624.4 612.7 601.4 589.8 580.4 579 570.6 565.6 560.8 555.4 550.5 546 547.2 549.3 552.8 555.1 557.3 561 568.2 570.4 571.7 569 563.2 564.2 565.4 566.8 569.9 571.4 571.7 571.9 571.8 573.6 574.4 575.2 574.3 571.4 567.9 563.4 558.4 556 554.4 554.2 554.5 555.8 556.2 554.4 551.1 549.1 546.6 540.3 532.4 524.9 514.8 499.6 487.2 476.3 457.6 457.4 459 458.3 468 473 480.9 487.5 497.6 507.4 517.7 523 528.6 532.5 534 531.4 527.9 523.3 517 508.9 496.5 511.8 520 525.9 534.2 539.9 545.5 550.5 552.8 554 557.8 560.5
763.4 762.7 761.9 762.3 761.9 761.9 761.8 760.8 759.6 759.2 759.4 760.6 761.9 767.2 771.9 774.5 780.2 786.4 793.7 799.8 805.5 808.6 807.9 807.1 805.7 804.6 803.5 802 800.2 798.7 795.9 794.7 793.9 792.1 789.5 788.8 787.8 785.9 780.9 770.5 755 741.9 730.7 719.2 709 702.4 698.9 693.7 690 691.7 689.6 683.9 683.2 680.7 676.1 677.2 676.3 672.3 669.9 666.5 663 659.5 655.9 653.5 648.7 645.7 641.7 645.4 647.2 652.6 654.5 655.2 654 652.1 648 643.1 638.6 635.7 632.7 628.9 622.3 617.2 611.7 603.2 595.7 581.7 583.4 576.5 571 565.8 558.9 551.1 545.1 529.6 526.5 523.6 523.4 530.3 537.7 551 560.5 571.7 585.1 597.7 610.6 626.2 633.9 640.6 643.8 648.4 648.3 642 633.5 625.9 615.9 603.1 590.6 583.4 571.8 571.8 566.2 561.2 557 557.8 558 559 562.4 565.2 568.1 565 577.1 580.8 576.4 571.3 565.3 567.2 567.9 568.3 570.5 571.3 571.7 571 571.3 571.8 572.1 570.6 568.4 565.8 562.6 559 555.2 553 550.9 550.4 550.8 551.9 552.4 550.9 549 546.7 541.6 535.1 526.1 519 508.8 494.3 482.3 469.8 457.9 458.1 459.9 463.7 472.7 477.1 484.7 491.6 502.4 514.1 523.8 528.6 533.4 537 537.5 534.8 530.5 525.1 518.2 509.5 498.4 513.2 522.2 531.3 540.1 547 552.8 556.7 559.8 562.9 566.1 567.9
764.8 764.3 764.5 764.6 765.1 765.4 765.1 764.6 762.1 760.1 758.4 759.9 761.9 766.2 770.3 772.9 778.6 784 790.5 796.6 803.5 807.7 808.8 808.9 808 807.3 806.4 804.8 801.8 799.8 798 796.4 796.3 794.6 791.3 790 787.7 785.4 777.8 768.4 755.7 744.7 731.3 721.1 712.1 704.3 698 693.9 690.7 687.2 690 686 680.2 676.8 675 672.2 672.1 669.8 666.5 662.8 659.1 654.2 651.6 646.4 647.7 639.6 637.9 634.3 636.6 642.6 650.5 651.2 653.3 652.1 648.4 644.5 641.9 636.4 631.7 625.6 620.6 614 607.2 601.8 593.6 585.6 571.8 564 559.1 555.7 549.4 542.8 532.1 529.3 526.7 525.2 533.1 537.2 552.1 562.3 572.3 583.2 594.6 605.6 618.2 628.2 641.6 650.4 655.7 656.9 656.6 651.3 646.6 637.7 629.3 612.8 599.4 589.9 581.2 572.9 568.5 567.5 566.5 570.2 568.6 571.7 573 576.7 575.7 570.6 586.3 585.7 579.6 572.9 571 570.7 570.4 570.8 569.7 570.5 570.4 569.2 568.3 568.5 567.8 564.9 562.7 560.6 557.6 554.3 551.1 548.1 547 545.9 547.2 547.9 548.1 547.7 545.5 542.4 535.2 529.1 520.7 512.5 502.3 487.7 471.5 460.2 460.3 460.7 467.2 474.2 478.6 483.5 488.1 497.6 508.4 519.5 529 534.2 538.3 541.1 540.6 536.7 532.4 526.4 519.1 509.9 501 514 524.6 534.3 546.7 555.9 561.4 564.2 566.1 571.3 573.5 575.6
765.9 767 766.3 767.7 769.1 769.2 769.1 768.2 764.6 760.5 759.6 759.8 763.1 765.2 768.4 771.6 776.3 781.4 786.5 792.4 799 804.8 807.1 807.7 808.4 808.5 808 806 802.6 800.3 797.7 797.1 797.5 796 792.8 790 788.4 784.5 777.8 768.8 753.7 740.3 730.5 721.7 713.3 707.1 700.2 694.7 691.1 687.8 685 685.5 681.7 676.5 673.8 670.2 668.1 663 661.7 657.2 654.7 648.3 645.6 641.3 644.9 644.6 645.8 640.5 626.4 632.3 643.3 648.2 651.9 653.8 652.4 649.4 645.5 639.1 630.5 624.4 619.6 614.6 608.7 602.3 593.9 585.3 575.5 566.2 554.9 547.2 542.5 536 532 528.6 526.3 535.3 541 554.6 565.7 575.8 583.4 591.8 602.2 613.9 626.6 637.5 649.1 658.9 666.2 668 669 666.8 660.9 652.3 640 627.4 612.9 600.1 590.5 584.7 579.7 578.1 578.5 579.2 581.8 585.6 584.9 587.2 589.3 575.7 589.6 588.7 582.1 575.4 574.6 574.5 573.8 572.9 571.3 569.4 569.3 567.5 564.6 564.3 563.1 559.5 557 554.9 552.3 548.6 544.1 541.6 541.5 540.4 541 541.7 543.1 542.8 540.6 536.6 528.8 520.8 513.1 505 494.4 479 461.7 462.4 465.8 473.4 476.4 479.2 484 491.3 495.2 505.6 514.1 525.5 533.7 539.4 542.8 544.5 543 538.4 534.2 527.7 520 507.7 505.8 515.1 527.7 541.6 554.8 564.5 570.3 574 574.8 579.7 581.8 585
