ncols 200
nrows 82
xllcorner 400000
yllcorner 412450
cellsize 50
348 350.6 353.2 355.9 358.4 362.9 364 366.2 368.9 371.7 377.8 377.6 375.3 372.8 370 366.6 364.8 363 360.7 360.5 360.7 359.8 358.9 358.7 358.3 356.6 355.5 354.8 354 352.8 350.8 348.5 346.5 344.6 341.5 337.5 334.6 331.1 328 325.5 322.9 320.4 318.1 313.1 309.9 307.3 305.1 302.4 299.5 295.5 294.2 293.2 288.3 284.7 281.9 279.3 274.8 271.3 265.9 262.4 257.4 250.2 238.8 227.3 211.4 220.2 232 243.6 255.5 259.3 262.8 265.9 270 271.9 274.6 279.9 286.6 286.5 280.9 286.7 290.8 295.4 303 314.9 332.8 340.3 341.5 341.7 342.8 338.1 329.2 324.6 321.1 317.5 313 307.6 299.2 283.5 270.6 256.9 247.4 247.4 247.4 247.4 247.4 247.4 247.4 247.4 247.4 255.3 265.9 281.2 293.6 293.9 293.3 291.4 288.2 284.8 280.8 275 282.4 283.9 285.5 287 287.1 284.8 284.8 290.7 297.6 309.6 320.1 323.8 325.7 324.8 321.3 302 280.4 297.8 318.4 322.3 318.9 312.6 312.2 313.2 324 334.5 337.7 344.3 349 352.5 362.5 370.8 376.8 378.2 377.7 376.4 375 373.7 373.3 372.1 369.9 368.3 366.3 364.5 362.9 361.3 360 357.8 354.8 351.9 349.4 346.6 343.1 340.9 338.6 334.6 330.9 328.5 326.4 323.2 322 318.2 312.6 302.6 293 283.6 267.5 260.9 250 240.4 228 222.9 213.6 208.7 205.9 202.9 200.5 198.3 195.9 194.2
343.9 346.3 348.7 351.1 352.6 355.1 358.8 362.3 363.7 365.2 368.5 369.5 370.1 368.5 365.4 362.8 362.1 358.9 357.2 356.3 355.4 354.8 354.7 352.8 353 352.8 352.5 351.4 350.3 348.6 346.1 342.5 339.1 336 333.8 331.4 329.1 326.3 322.1 320 317.8 314.9 312.4 308.6 303.9 300.4 297.8 294.6 292.5 290.7 288.1 286.4 282.1 279.5 275.9 272.7 269.8 264.6 259.3 255.8 255.8 259.5 230.1 220.2 220.8 229 240.5 255.2 259.8 263.4 268.5 271.8 274.6 277.2 282.7 286.7 285.7 285.5 291 294.2 296.1 301.8 310.8 329.8 342.2 343.8 342.3 341.6 341.1 335.9 328.9 325.2 322 318.8 313.7 307.9 297.2 275 266.8 247.4 247.4 247.4 247.4 247.4 247.4 247.4 247.4 247.4 247.4 256.2 268.9 283.9 296.5 296.4 295.2 293.9 290.7 288.2 284.6 278.6 287.2 289.3 286.8 287.1 289.3 290.9 292.2 293.3 294.5 297.9 304.9 312 316.8 319.6 321.1 319.8 299.7 303.3 310.7 311.6 311.4 312 323.1 326.9 329.7 334.7 338.9 344.8 354.3 368.3 374.2 376.9 377.3 377.5 376.6 375.3 374 373.8 372.9 371.5 370.3 367.8 366 364.5 362.9 361.3 359.7 357.5 354.4 352.2 349.1 346 342.3 340.1 337.4 334.6 331.1 328.5 326.8 323.7 320.5 316.5 311.5 304.7 294.7 286 277.6 267.4 257.5 247.4 235.1 222.6 216.4 208.7 205.6 202.7 200.9 199.2 197.6 196.1
340.5 342.6 344.7 347 347 347.2 352.6 355.7 358.5 362 362.8 366.2 365 362.6 359.6 356.2 355.7 353.2 352.1 351.1 349.4 348.6 348.8 349 348.9 348.9 348.1 347.2 345.1 342.9 339.7 336.5 334.5 330.9 329.6 327.4 325 321.1 317.1 313.9 311.1 307.6 305.9 302.4 297.8 295 291.3 288.5 284.8 282 278.4 277 274.4 268.9 264.2 262.5 260.2 255.8 255.8 255.8 255.8 255.8 240 218.2 227.3 239.6 252.2 260 264 268.8 273.8 276.5 278.7 285.9 287.7 283.2 289.7 293.7 297.7 300.8 302 310.1 322.7 340.9 346 346.2 343.6 340.8 338.5 334.1 330 326.6 323.6 320.1 314.9 307.8 289.9 273.3 258.5 247.4 247.4 247.4 247.4 247.4 247.4 247.4 247.4 247.4 247.4 258.4 273.2 291.1 299.8 299.2 297 294.5 292.1 289.5 287 280.6 287.2 291 290.5 292.2 294.1 294.8 302.5 300.7 297.4 296.4 298 299.2 300.5 301.7 303 305.8 306.4 307 308.5 316.2 323.5 323 325.1 327.8 331.1 336.4 340.9 347.8 359.8 373.3 375.5 370.5 370 375.1 375 374.3 373.1 372.3 371.4 370.4 369.5 367.2 366 364.4 362.9 361.3 359.7 357.2 354.7 352.7 349.8 347.1 343.5 340.3 334.8 333.1 330.3 328.5 327 324 322.6 318.4 312.9 305.6 297.2 288.2 281.9 273.4 263.1 248 237.7 225.7 216.9 211.5 206 204.4 202.7 200.9 199.7 197.6
335.7 338.1 340.5 342.8 342.7 347.6 349.2 352 353.8 355 355.7 356.7 356.6 355.6 352.8 349.4 347.8 346.5 344.2 342.9 342.4 342 342 342.9 343.5 343.5 343 341.4 339.3 337.2 334.3 331.9 330.1 328.2 326.2 323.9 320.4 316.2 312.8 309.5 305.7 301.3 298.8 294.7 292.3 290.5 286.8 283.5 277.9 277 271.8 267.3 263.1 260.4 260.8 255.8 255.8 255.8 255.8 255.8 255.8 255.8 255.8 228.7 241.3 252.4 258.3 264.3 269.4 274.5 278.6 282.5 287 288.1 284.5 292.6 296.7 299.5 303.7 305.9 311.8 322.3 336.9 347.6 348.5 346.1 344 340.8 338.2 334.8 331.1 327.9 325.2 321.3 316.4 309.9 294.3 276.7 267.3 247.4 247.4 247.4 247.4 247.4 247.4 247.4 247.4 247.4 248.5 263.3 279.9 299.8 302.5 302.3 300.1 297.6 294.6 292 288.9 282.4 288.1 292.8 295.5 299.5 308.2 310.8 306.6 316.9 322.2 320.4 316.5 313.9 310.8 311.4 312.5 316.2 319.2 320.8 311 319.4 321.9 322.6 324.2 326.6 330.9 337.7 342.5 348.8 359.6 373.2 371.2 364 365.2 371 373.1 372.6 372 370.1 369.4 368.3 367.3 366.6 365.3 364.4 362.8 361.1 359.4 356.9 354.7 352.9 349.9 347.5 343.6 336.2 335.7 333 328.3 323 320.6 317.7 313.3 309.1 306 300.8 294.3 289.2 284.3 276.4 259.8 247.1 235.7 222.3 213.4 210.7 206.4 204.7 203.7 202.2 200.3 197.7
325.9 332.5 334.1 339.4 343.5 344.8 346.2 347 348.3 349.4 347.7 346.7 345.7 344.2 342.5 340 337.4 336.1 334.7 334 332.9 332.6 333.6 334 335.2 334.1 335.6 335.3 333.5 331.4 329 327.3 325.5 323.5 321.6 318.5 314.7 310.6 307.1 304.2 300.9 296.4 293.7 290.7 287.7 285.8 282.8 279.5 274.2 271.8 266.7 263.4 256.5 255.8 255.8 255.8 255.8 255.8 255.8 255.8 255.8 255.8 255.8 256.4 258.7 263.3 263.8 268.8 275.6 280.3 285.1 285.2 288.9 286.9 289 297.4 301.4 304.1 306.8 314.3 325 340.3 351.3 352.7 350.8 344.8 344.1 341 338.7 335.6 332.1 330 326.5 322.7 318.4 312 301.5 284.6 270.4 258.1 247.4 247.4 247.4 247.4 247.4 247.4 247.4 247.4 253.2 264.6 286.6 302.6 305.5 305.6 305.3 303.7 297.1 294.5 291.6 286.6 286 294.3 298.6 305.6 314.8 318 318.3 319.9 324.4 326.3 327.6 328.5 328.8 328.3 328 327.3 326.1 324.3 322.5 318.3 319.5 322.6 324.1 325.7 334 339.4 344.6 351.3 359.9 366.8 366.1 368.4 370.7 374.1 372.4 370.4 369.3 367.8 365.6 363 360.1 359.3 361.1 362.1 361.7 360.3 358.8 357.2 355 352.7 349.3 345.4 341.2 337.3 334 328.9 320.5 311 307.8 301.8 299.8 298.2 296.8 294.7 289.5 280.5 277.2 267.2 251 242.7 231.1 220.1 212.2 208.5 207.1 205 204 202.9 200.5 197.6
318.9 328.4 333.8 338.9 340.8 341.5 341.7 342.9 344 343.1 342.3 340.4 338.6 337.3 334.7 333 331.7 329 328.5 327 327 326.6 326.8 326.2 325.9 326 325.7 326.1 326.8 324.6 323.3 321.6 319.8 317.1 314.9 312 308.5 305.2 302 299.1 296.2 292.4 287.8 285.3 282.6 279.7 277.5 273.8 270.4 263.5 255.6 255.8 255.8 255.8 255.8 255.8 255.8 255.8 255.8 255.8 255.8 255.8 256.3 261.7 264.1 267 269.8 275.1 283.7 284.6 285.7 289.3 287.8 291.2 294.2 301.6 305.2 307.2 316.8 328.1 343.7 354.5 357.8 355.8 353.4 343.6 330.6 338.6 339.4 336.2 333.6 331 327.6 323.9 319.6 314.1 304.6 285.3 274.3 257 247.4 247.4 247.4 247.4 247.4 247.4 247.4 247.4 260.9 272.1 297.6 306.4 309 310.2 311.7 309.9 304.9 297.8 294.7 292 285.9 294.7 300.9 308 311.3 321.5 323 324.5 326.2 327.8 329 329.7 329.6 329.5 329.2 328.7 327.8 326.1 323.8 323.3 320 321.1 323.2 326.9 333.9 338.7 344.5 353.7 362.5 373.2 375.2 375.3 374.9 374.4 374 371.5 364.9 360.5 355.4 350.8 348.5 346.6 350.1 352.5 357.4 358.5 357.5 355.3 354.6 351.2 347.3 341.5 337 331.1 321 313.6 305.8 295.4 292.6 290.7 288.5 287.2 285.5 281.4 276 265.6 256.8 251.9 245.4 233.9 222.1 216.7 213.5 210.5 208.1 205.8 204.2 202.7 201.5 198.8
312.1 325.6 330.3 332.7 335.8 337 337.5 338.8 339.1 338.3 337.4 336.3 334.6 331.8 330.2 327.7 325.7 322.6 321.3 321.4 320.6 320.5 321 321.7 321.7 320.6 318.3 316.5 317.1 316.7 315.6 313.6 312.4 308.8 303.5 295.4 303.7 301.2 297.8 293.7 290.9 284.9 279.8 277.6 274.8 272.8 268.4 263.6 255.4 255.8 255.8 255.8 255.8 255.8 255.8 255.8 255.8 255.8 255.8 255.8 259.9 263.7 265.6 268 271 277.3 284.3 284.4 281.9 287.2 289.3 289.9 293.4 296.7 300 304.6 308.9 316 328.2 343.2 355.7 360.8 360.5 357 354.1 340.9 335.6 328 337.8 337.6 334.5 331.7 328 323.8 320.7 316.6 305.7 282 274.1 260 247.4 247.4 247.4 247.4 247.4 247.4 247.4 252.6 265.4 283 302.3 308.6 310.7 313.4 316.6 316.6 310.9 303.2 299.2 296.8 291.9 293.1 300.2 308.3 317.5 322.9 325.8 327.1 328.1 329.1 329.9 330.1 330.1 330.1 329.7 329.3 328.3 327.5 325.9 324.4 323.2 322.5 322.7 324.6 331.1 338.5 346.3 353.7 361.9 372.4 378.3 377.9 377.1 376.4 374.9 370.3 362.2 351.6 345 340.3 339 337.3 337.5 341.1 345.8 350.4 353.1 353 350.4 345 338.5 329.6 321.9 311.2 304.1 298.2 292.5 286.3 282.9 282.4 280.9 279.7 276.3 271 264.1 254.1 247.2 240.8 230.6 224.6 219.4 215.7 212.6 210.5 208.8 207.4 205.7 204.6 202.8 199.9
306.5 321.3 326.3 329.2 331.3 333.1 333.7 334.5 334.5 333.8 332.8 331.2 329.2 326.5 324 321.6 317.7 315 313.3 313.6 313.4 312.5 313.5 314.5 314.7 314 312.6 311 311.5 308.4 307.5 307 306.6 291.2 293.1 292.6 297.1 292.6 288.4 284.8 281.9 274.2 264.9 256.3 255.8 256.2 255.8 255.8 255.8 255.8 255.8 255.8 255.8 255.8 255.8 256.2 259.1 261.2 260.9 266.1 269.2 272.9 274 280.6 283.7 282.5 282.6 284.9 289.7 285.2 291.4 294.3 297.5 300.8 305.2 309.9 318.6 331.5 344.6 351.6 360.3 362.7 361.6 357.7 353.6 350.4 339.4 332.1 341.2 338 335.4 332.3 328.4 325.5 321.1 315.4 303.6 284.5 273 257.2 247.4 247.4 247.4 247.4 247.4 247.4 249.1 262.2 271.6 292.5 305.2 310.9 313.4 317.6 321 321.3 316.5 308.6 303.7 301.1 297.2 294.7 301.1 307.6 316.6 322.6 326.4 328.1 329.5 330.2 330.4 330.3 330.5 330.5 330.2 329.4 328.4 327.9 326.1 324.2 324.7 323.9 324.4 324.8 329.2 335.7 343.6 352.4 358 365.1 378.1 378.4 377.6 375.7 373.5 366.6 356.9 348.1 339.7 333.9 329.1 325.1 324.6 327.9 332.3 338.7 344 350.5 346.8 334.7 327 316.3 308.3 299.7 294.1 288.3 283.9 276.9 269.7 271.6 273.1 270.8 265.8 259.2 251.9 244.5 239.1 233.4 227.7 221.3 218.1 214.4 212.6 211.1 210.3 209.4 207.7 205.9 204 200.9
309.1 315 323.5 325.4 327.8 330.7 331.5 330.7 330 328.9 326.7 324.5 322.5 319.8 315.5 313.4 310.5 305 304.6 303.5 304.4 303.8 305 307.3 307.6 306.2 305.1 308 305.6 305.9 304.9 301.8 301.5 298 295.4 291.8 281.4 281.1 281.7 277.8 266.8 255.8 255.8 255.8 255.8 255.8 255.8 255.8 255.8 258.9 261.1 262.8 262.2 261.4 263.2 264.2 267.6 270.2 271.6 275.9 279.5 283.5 282.9 279.4 283.6 285.2 288.7 290.4 289 293.9 296.2 298.8 302.5 306.6 310.8 321.4 331.4 344.4 352.2 357.8 361.7 359.8 361.5 358.3 354.7 351.4 345.3 345.5 342.1 339.7 336.8 333.1 328.8 325.8 319.1 308.2 294.4 280.8 267.1 247.4 247.4 247.4 247.4 247.4 247.4 247.4 258.8 267.7 280.6 298.8 308.1 312.8 318.5 322.6 326.8 327.1 321.2 315.9 310.4 304.7 301.5 297.8 302.9 307 313.6 321.7 326.2 328.6 330.5 330.8 331 330.9 330.8 330.8 330.6 329.7 329.5 328.8 326.6 325.7 325.9 325 325.9 325.8 326.9 333.7 339.2 347.6 354.8 359.9 375.8 376.5 376.2 373.9 370.1 362.6 352.4 342.5 334 327.4 321.6 316.6 315 316.7 320.3 327.5 333.2 341.2 338.8 327.5 316.7 307.3 296.1 288.2 282.4 276.7 271.8 266.9 262.5 260.3 261.3 259.6 256.7 250.3 244.7 238.8 234.1 228.8 225.1 220.6 217.7 215.9 213.7 212.6 211.3 210.5 208.6 206.9 204.8 201.9
301.1 317.5 319.3 324.2 327.5 327.9 327.4 326.5 325.3 323.8 322.3 319.2 316.7 312.9 308.8 304.1 300.2 296.9 293.6 290.1 283.6 284.5 293.2 299.1 299.6 298.2 296.5 294.2 296.7 297 296.5 296 293.4 275.3 275.1 276 275 270.1 264.1 255.8 255.8 255.8 257.7 263 266.6 265.1 265.9 267.2 267.8 267.4 266.6 268.6 269.5 270.8 273.3 277.9 280.1 281.3 281.5 280.4 279.3 281.9 284.5 287.2 289.7 291.8 290.1 293.4 295.1 298.1 301.2 305.9 308.9 314.3 324.8 337.2 346.7 354.9 359.8 362.8 362.7 363 362 358.8 355.5 352.3 349.1 346 342.9 340 337 328.3 313.4 311 307.5 295.7 283.8 272.1 258 247.4 247.4 247.4 247.4 247.4 247.4 247.4 260.9 273.4 290 304.6 310.6 317.2 323.8 330.1 333.8 333.8 327.2 321.5 315.7 308.7 304.6 302.3 303.7 307.8 313.4 320.1 326.6 328.9 331 331.4 331.7 331.6 331.5 331.5 331.9 331.6 331.2 329.5 328.7 329.3 328.4 327.6 326.9 326.8 327.6 329.5 336.7 342.8 349.3 355.1 360.6 366.3 370.8 366.7 362 355.4 346.8 337.1 330 318.8 315.2 311.3 308 309 314 319.2 324.4 327.3 325 317.2 305.3 297 287.8 278.8 273.2 268.4 262.8 259.5 256.5 253.4 253.1 249.8 246.8 243.5 239.4 234.6 231.1 226.5 222.4 220 217.6 216.5 215.1 213.9 212.7 211.4 208.9 207.8 205.5 202.9
300 311.9 317.7 322.3 324.1 323.9 322.4 319.9 319.6 317.5 315.3 313.6 310.4 305.5 299.3 294.6 286.8 277.4 271.7 271.7 271.7 271.7 271.7 275.9 280 279.5 280.5 273.4 274.9 273.3 284.1 286.1 279.7 268.5 255.8 255.8 255.8 255.8 255.8 255.8 266.7 273.9 273.4 270.5 274.6 275 275.8 274 274.5 275.3 279.2 282.3 282.3 282.5 281.2 280.4 283.1 284.6 284.5 284.1 286.2 289.4 292.4 291.2 291.6 294 294.4 297.7 300.9 304.3 308.5 315.3 323.7 326.9 339.2 348.5 356.6 363.1 364.9 363.8 363.4 362.2 360.8 357.9 354.6 351.3 348.1 344.9 341.9 337.7 322.4 313.6 312.8 299.1 291 284 272 257.2 247.4 247.4 247.4 247.4 247.4 247.4 247.4 253.8 264.6 279.3 300.5 309.7 315.4 322.3 329.8 336.3 337 338.9 332.6 325.1 319.1 313.7 309.3 306.4 308.4 311.1 315.5 320.9 327.1 329.4 331.5 332.6 332.3 332.3 332.6 333 334 333.8 334.4 335.1 336.4 336.7 334.5 333 331.4 329.8 329 329.8 331.5 336.6 341.5 346.6 350 350.2 350.8 349.4 347.6 344.2 339.2 331.6 323.6 315.4 306.3 306.7 304.5 303.7 307 312.9 315.6 315.4 309.7 303.4 294.6 287.4 280.7 273.1 266.4 263.1 258.6 255.2 251.3 247.8 250.1 247.4 244.6 241.9 237.9 234.3 228.9 226.5 222.1 219.6 217.5 216.2 214.9 214.1 213.1 212.2 211.2 208.9 206.2 203.9
298.9 305.2 313.9 319 319.3 318.9 316.9 312.7 311.2 308.2 307.1 304.2 301.6 296.9 288.9 276.2 271.7 273.7 280.9 290.1 293.9 287 285.1 270 264.3 264.3 264.3 265.1 257.9 256.8 255.8 266.1 255.8 255.8 267.5 261 270.2 276.1 281.1 283.3 283.6 283 281.2 278 280.2 280.8 283.4 286.9 287 285.1 281.7 281.9 281.6 283.6 284.2 289.6 290.2 291.8 292.4 292.4 291.7 293.4 294.6 295.7 297.8 299.4 301.4 305 307 312.2 314.8 330.6 337.7 341.1 349.4 357.8 363.7 367 366 364.6 362.4 361.2 358.7 357 354.2 350.5 346.2 342 336.6 329.1 314.2 303.3 299.3 291.5 280.1 267.6 253.3 247.4 247.4 247.4 247.4 247.4 247.4 247.4 247.4 258.1 272.2 292.1 308.3 315.2 319.9 329.7 338.4 341 341.6 335.3 336 329.1 323.5 318.8 314.5 311.4 312.7 315.8 318.7 322.7 327.5 330.4 332.8 333.5 334 334.2 334.6 335 337.3 339.4 340.8 343.6 344 343.5 342.3 340.1 336.9 334.1 330.9 331.1 331.2 332.9 335.9 339.6 342.7 343 341.8 339.5 336.3 333.9 330.3 324.5 318.1 310.2 298.8 300.8 300.6 298.9 298.3 303.8 304.3 304.8 297.2 292.4 285.1 280.3 273.7 268.8 264.6 261.4 257.5 251.7 250.1 237.6 247.9 245 241.5 239.1 237.2 233.3 230.2 227.3 222 219.8 217.9 216.5 216.2 216.1 214.6 214.2 212.8 210.6 207.6 204.5
298 292.9 292.9 310.2 312.4 310.1 306.3 302.6 301.7 298.3 295.5 293.6 288.8 283.5 273.3 280.4 290.4 298 302.8 304.6 305.8 304.5 303.3 300.2 295.6 288.6 285.7 272.9 275.6 275.5 262.8 255.8 268.2 280.6 282.4 276.9 287 289.2 289.7 290.4 290 288.6 287.6 288.9 293.3 292 288.3 286.7 287.5 288.7 292 292 292.7 292.4 291.8 290.9 292.2 295 296.5 297.3 298.2 297.8 299.8 300.4 303.9 306.7 308.6 312.7 315.8 324.2 330.5 342.9 349.2 354.7 361.3 366.1 368 368 366.6 364.6 362.4 360.1 356.1 354.7 351.3 346.8 340.8 335.9 324.7 304.9 298.7 293.5 281.9 272.9 260.5 250.4 247.4 247.4 247.4 247.4 247.4 247.4 247.4 247.4 255 265.9 282 304.9 315.3 320.2 324.8 335.3 342.4 343.8 344.5 343.1 340.1 335.8 330.2 323.4 319.4 316.6 318.7 322.7 325.1 328.1 330.7 333 334.6 336.5 337 337.2 337.8 341 342.6 345.9 347.4 347.8 347.4 347.1 346.2 344 339.5 334.4 332.1 331.1 331.6 332.3 333.5 334.8 336.9 336.5 334.8 332.6 329.9 326.6 320.9 314.9 309.9 303.7 297.6 294 297.5 297.2 294.9 294.8 292.9 292 287.8 282 277.2 273.3 269.4 267.8 263.2 258.5 255.5 253.5 247.9 227.7 243.4 242.2 238.6 235.1 232 230.9 228.4 226 221.8 220 218.2 217.3 217.3 217.6 216.3 214.9 214 211.2 208 204.9
318.2 316.8 306.8 288.1 290.8 285.1 282.2 291.5 290.2 286.6 277.7 276.6 275.8 274.2 287 299.3 304.1 307.9 310.6 311.6 311.6 310.9 309.4 306.1 301.4 296.4 287.1 273 287.7 287.9 286.3 285.4 287.8 289.4 288.2 282.5 292.5 294.8 294.8 296.2 295.8 299.1 298.5 296.8 295.5 296.1 295.4 294.8 294.7 293.2 294.3 294.6 296 295.4 295.9 298.5 300.6 301.9 301.4 302 303.4 303.6 305 309.7 313.4 315.2 317 325.8 331.7 340.8 348.3 355.5 361.4 366.5 368.1 370.2 369.8 368.5 366.8 364.3 362.1 358.3 353.3 348.5 345.1 338.9 331.9 321.7 303.4 300 285.6 275.9 266 251.1 247.4 247.4 247.4 247.4 247.4 247.4 247.4 247.4 247.4 253.9 260.2 276.4 296 311.4 319 324.2 329.1 339.3 345.7 346.1 347.1 346.3 344.8 341.3 335.4 329.8 325.7 323.9 326.3 329.1 332.9 336.2 338.1 339.2 342.2 343.8 344.4 344.2 348.2 348.2 348.2 349.4 349.5 348.9 349.1 348.4 346.7 343.5 338 333.3 332.3 332 332.4 332.5 332.6 333.7 333.3 332.4 331.4 328.1 324.7 319.4 314.8 308.7 302.3 299.9 291.3 289.8 295.3 297.1 294.3 290.5 286.1 283 282.6 276.8 273.6 271.2 267.7 265 261.5 251.4 249.3 238 246.6 226.3 234 236.8 234.9 230.3 225.4 226.3 225.3 223.2 220.6 219.6 219 218.7 217 217.5 217.6 216.7 214.9 211.8 208.6 205.5
325.1 322.7 319.9 316.3 309.9 304.8 292.3 282 279.2 284.7 294.6 293.4 288.8 299.1 302.9 308.4 311 312.4 313.7 314.4 314.5 313.5 311.1 308 305.2 300.3 281.7 290.8 296 295.4 295.3 295.4 295.9 296.1 294.8 283.9 297.1 299.7 302.4 305.2 303.6 302.3 300.2 297.2 298.1 298.3 299.8 299.2 299.9 300.7 301.4 301.2 301.9 302.9 304.6 305.3 305.4 306.4 306.8 307.5 309.9 312.3 315.4 319.7 324.5 327.5 332.6 342.3 348.6 355.6 361.7 366.3 370.4 371.3 372.1 371.6 370.8 369.1 366.5 363.4 358 351.4 345.4 339.5 333.1 326.4 315.8 303.3 292.5 282.7 270.7 256.9 247.4 247.4 247.4 247.4 247.4 247.4 247.4 247.4 247.4 247.4 255 265.1 273.8 289 308.9 319.6 324.3 328 333.6 342.4 348.3 347.2 346.3 350.4 348.7 346.2 339 336.5 332.5 332.2 336.7 343.7 344.8 344.9 349 351.4 350.9 355.7 356.5 357.2 354.2 351.1 349.8 349.6 349.6 349.6 349.2 347.5 343.7 338.3 334.8 333.2 332.7 332.3 331.5 331 330.8 331.7 331 329.7 328.1 324.1 321.1 315.8 310.4 302.9 297.8 291.7 290 284.9 291.4 294.7 295.3 293.3 290.8 289.3 286.3 282.1 278.7 275.4 271.6 267.6 262.8 258 251.3 236.2 217.6 209.4 218.4 229.2 234 224.9 214 212.7 216.2 217.2 215.1 215.6 217.3 216.3 216.7 217.6 218 217.4 215.7 212.4 210.1 206.6
326.7 323.6 320.2 317.8 311.3 296.6 282.8 288.8 297.1 302.4 304.9 304.7 304.1 309.3 310.8 312.9 315.1 316.2 317.7 319.7 318.7 318 314.3 310 305.7 296.5 288.9 298.9 300.5 300.9 300 299.9 300.6 300.7 300.5 301.2 307.2 308.2 306.8 305.9 304.9 305.7 304.7 300.2 303.2 304.2 306.3 307.3 306.2 307.3 308.2 308.8 309.3 309.9 310.1 309.5 310.2 310.5 311.9 315.1 318.5 319.3 330.5 335.8 337.6 344.2 349.1 358.8 365.5 369 371.5 372.3 373.5 374.1 373.7 372.7 370.9 368.4 364.2 357.5 350.1 344.4 338 329.9 312.7 307.3 296.3 286.2 276.5 267.1 252 247.4 247.4 247.4 247.4 247.4 247.4 247.4 247.4 247.4 248.6 258.9 266.3 277.2 292.2 304.3 315.1 323.5 328.3 332.5 338.5 346.3 350.6 353.2 354.4 352.7 353.8 351.9 348.3 346.3 342.5 341.2 345.6 353.9 354.5 355.8 357.6 360.5 365.1 374.3 371.9 361.8 354.9 351.5 349.9 349.4 348.8 347.9 345.7 340.7 336.8 335.5 335.4 334.8 333.3 332.7 332 329.4 328.3 327.4 326.9 326.5 324.5 321 319.9 311.6 306.5 301.8 296.3 291.5 281.5 276.1 285.9 292.6 293.6 292.7 290.5 288.1 285.9 283.8 280.7 277.7 274.2 270.5 264.9 261 255.6 250.1 244.2 229.8 204.3 212.6 217.3 212.9 206.2 199.9 201.2 202.6 200.4 199 199.9 202.2 207.5 214.1 217.1 217 216.1 213.5 211.3 208.2
326.9 323.9 320.3 314 300 284.5 298.3 304.8 307.7 312.5 312.6 308.9 308.8 313.9 314.8 317.3 320.5 323.2 325.4 324.3 323.1 319.4 316.7 312 303.9 291.7 301.8 303.6 305.1 305.5 305.6 304.1 306.6 307.7 312.1 311.8 310.1 307.4 309.5 310.7 310.4 310.9 309.9 306.9 309.4 309.9 310.1 311 312.2 313.6 314.7 314.8 314.5 314.6 314.8 314.4 315.7 317.9 320.3 323.3 328.2 335.1 344.8 349.8 354.8 362.6 368.8 373.5 375.7 375.6 375.5 377.3 375.9 374.5 374 372.6 369.7 363.8 355.6 348 341 334.2 324.6 314.4 300 290.4 281.8 272.6 261.2 248.9 247.4 247.4 247.4 247.4 247.4 247.4 247.4 247.4 248.2 255.4 261.3 272.1 280.8 292.3 305.8 315.1 322.2 327.3 332.5 338.8 343.7 349.8 353.7 354.9 355.8 357.2 357.3 359.1 358.8 356.4 351.9 351.6 356.2 360.6 365.3 370.7 374.9 380.8 384.5 375.9 368.3 357.1 351 348.2 346.5 344.1 343.1 340 337.6 336.4 337.1 336.7 336 335.1 335.4 334.7 333.5 330.9 330.1 329.2 328.9 328.7 327.2 325.4 323 319.7 308.3 292.7 290.3 289.2 289.2 271.2 275.6 288.1 293.7 293.7 291.5 289.9 287.8 285.6 282.6 279.6 275.9 272.9 269.4 264.2 258.7 252.7 245.7 235.6 215.5 196.1 199.4 195.1 189.7 187.2 187.8 187.9 187.5 190.3 189.1 190 193.8 198.2 203.7 208.4 210.5 212.2 210.8 205.8
325.7 321.1 316.2 304.7 287.8 298.8 308.2 312.4 316.1 316.7 316.7 314 313.8 318.4 322.7 326.1 328.8 330.2 329.3 327.6 326.4 322.5 317.2 310.4 300 303.7 307.4 308.3 309.2 309.1 310.9 313.3 316.3 314.6 312.7 306.8 302.7 311.1 314.6 316.7 317.1 316.4 314.7 310.7 314.7 314.4 315 316.9 319.3 320 320 319.5 319 319.5 319.9 320.1 323.1 326.6 329.8 336.1 339.7 351.5 359.4 366.5 374.5 377.5 379.4 379.8 379.9 379.7 376.6 377.4 376 373.8 373.1 369.9 361.7 353.6 348 339.9 329.1 318 306.2 297.7 289.4 279.4 271.4 261.9 250.2 247.4 247.4 247.4 247.4 247.4 247.4 250 255.5 257.9 262.3 266.7 267.5 282.3 295.9 308.3 316.8 322.9 327.7 331.4 335.3 342.8 349.3 354.1 356.6 358.3 360 361.3 364.1 367.1 369.7 367.6 365.3 366.4 371.5 376.4 383.3 387.5 389.4 382 373.5 362.8 355.7 350.8 346.9 343.8 341.8 339.9 338.4 337.3 336.4 337.1 338 337.7 336.9 337 337.3 336.4 334 333.3 332.5 331.6 330.6 330.4 329.1 327.1 323.5 318.9 311.1 305.5 294.8 279.8 267.8 255.3 253.8 271.9 288.2 294.6 293.2 291.8 289.9 287.3 284.5 281.6 277.8 273.7 271.6 267 261.2 254.8 245.9 233.2 222.2 210.5 200.5 192.4 188.6 182.8 177.6 178.8 179.5 178.6 180.5 181.5 184.3 189.2 191.2 193.5 196.3 194.6 194.6 194.2
317.7 312.5 305.2 295.8 291.3 309.5 315.8 318 320.7 322.9 323.3 321.8 319.4 324.3 328 331.5 331 332.5 331.2 327.8 327.5 323.7 315.9 305.6 304.9 312.5 314.7 316.3 316.7 319 320.2 318.7 315.9 317 316.8 313.4 308.8 314 319.8 322.1 321.3 320.3 319.2 316 320.1 320.5 322.3 323.6 325.2 324.5 323.5 323.3 324.4 324.7 326 328.3 332.1 336 345 353.5 357.8 367.3 374.7 383.7 387.4 387 385.3 383.9 382.8 381.2 379.3 377.1 375.4 373 368.8 361.9 353.7 345.9 335.2 324 314.1 304.7 294.8 287.4 279.4 271.4 265.2 257.9 249.6 252.5 249.4 249.7 253.1 255.4 257.9 261.7 264.3 265.1 270.9 280.2 286 294.6 308 317.2 323.8 328.1 330.9 334.9 341.3 349.6 353.6 357.1 359 360.6 363 367 370.6 377.2 383 381.5 376.8 376.7 382 386.8 386.4 383.2 375.1 367 360.5 356.3 351.3 346.9 343.8 341.5 340.2 339 338 337.7 337.3 337.5 338.2 339.3 338.6 338.6 337.7 336.4 336.1 335.5 334.9 334.1 333.1 332.1 330.3 328 324.9 321.9 318.5 311.5 307.7 299.8 294 280 249.2 250.5 269 291.4 294.7 293.5 291.9 289.1 286.3 283.8 280.9 276.5 273.5 269.4 263.6 256.6 250.3 247.6 241 232.6 221 212 200.8 191.8 183.4 174.6 169.2 167.6 165.6 168.9 175.8 178.9 181.2 184 185.1 186.3 183.6 181
310.1 302.9 297.9 290 298.7 312.9 320 324.9 328.3 329.8 329.7 327.9 324.5 328.6 333.5 333.1 334 334.4 331.6 329.2 327.4 320.4 311.8 308.9 315.1 317.9 321.6 324.1 323.6 322.7 320 321.4 321.9 322.1 322.7 323.9 322.5 312.7 318.4 324.1 324.4 323.5 322.9 322.1 325 327.2 328.8 328.6 329.5 328.1 327.8 328.8 330.1 332.5 335.1 339.6 345.2 355.1 364.1 369.1 375.9 381.5 386.7 389.4 390.3 388.7 387.1 385.1 383.9 382.6 380.1 376.7 374.3 370 361.4 352.1 345.8 329 321.3 310.9 301.3 293.2 286.7 280.2 272.2 262.2 259.3 258.3 259.1 259.3 260.3 261.5 261.1 263.6 266.9 271.5 275.9 276.3 287.1 295.4 303 309.4 316.3 324.1 328.4 331.7 334 338.3 346.5 352.7 357 359.1 361.4 363.5 367.3 372.1 378.6 387.3 389.7 387.9 382.9 382.3 381.3 378.4 372.3 367.5 362.7 359.6 353.7 350.4 347 343.8 342.5 340.5 339.4 339.1 338.9 338.6 338 337.4 338.5 339.6 340.2 339.3 338.4 338.2 338 337.5 336.3 335.3 334.3 332.6 330.8 327.6 323.8 320.7 317.6 313.1 310 306.5 300.6 278.9 258.3 244.2 251.6 271.8 293.8 295 293.6 291.4 288.4 285.4 282.4 278.5 275.5 272 267.2 261.2 254.9 250.6 244.7 236.5 227.4 218.8 209.4 192.2 184.2 179.2 176.5 173.3 166.4 160 164.5 171.4 175.7 175.5 177.7 177.1 175.2 172.7
296.2 293.1 300.8 312.2 308.3 319.8 326.2 333.7 335.7 336.2 333.9 331.3 328.2 334.2 336.8 338 337.5 335 333.4 328.4 322.8 320 318.8 318.8 326.2 328.5 328 326.9 325.5 327.5 326.8 326.8 326.6 329.2 331.3 330.6 330.4 326.5 317.9 327.1 328.1 328.3 327.7 326 331.2 333.9 333.9 333.9 333.9 333.8 335 336.6 340 343.4 349.7 357.5 363.6 371.2 378.4 383.5 386.7 387.8 392 392.3 390 388.9 387.8 385.4 383.2 381.4 378.2 374.8 372.1 363.8 355.6 345.4 333.8 323.3 313.5 301.1 295.2 287.9 280.3 273.9 266.3 265.7 264.2 263.8 264.2 265.2 266.3 267.5 271.2 274.4 277.5 282.4 287.9 292.4 302.6 307.9 313.5 319.3 325 328.8 332 334.4 338 344.3 350.5 355.5 359 360.5 361.6 365.2 370.2 376.3 387 390.6 390.9 389.4 383.2 376.3 370.6 363 359.6 357.4 354.3 351.3 348.4 345.1 342.9 340.7 340 339.5 338.6 340.3 339.9 339.3 338.5 337.9 339 340.1 340.7 340.5 340.2 339.7 339 338.3 337.6 336.5 334.8 333.2 330.8 326.5 320.6 315 309.7 306.3 305.8 304.9 300.5 279.6 255.2 239.3 244.3 261.2 278.7 296.4 294.9 292.7 290.3 287.6 284.8 280.9 277.9 274.6 269.9 265.1 259.8 253 243.4 235.4 225.2 216.8 204.3 200.2 195.8 190.6 185.9 181.9 175.1 161.7 156.3 159.7 166.4 169.8 170.2 170.3 169.7 166
305.1 312.1 320.8 323 318.6 322.4 333.9 337.3 339.5 338.9 336.7 335.2 332.3 337 340 339.1 337.7 335.8 332.2 329.3 331.2 331.3 333.8 332.4 330.9 328.9 330.2 333 333.1 332.3 332.3 332.8 335.5 336.6 337.3 336.5 334.5 331.8 319.2 331.2 332.6 333 333.1 334 337.4 339 338.9 339.6 340.3 341.5 342.1 346.4 353 359.8 367.6 372.4 381.3 384.1 388.1 390.5 392.4 392.2 391 390.8 389.4 388.1 385.5 383.9 382.8 380 377.6 373.6 367.2 356.2 347.3 330.6 321.8 309.1 300.5 296 289.6 284 277 271.1 268.7 269.9 269.7 269.7 270.4 271.4 273.7 276.6 281.3 284.4 288.4 295.6 302.2 308 315.5 319.5 324 328.7 332.3 334.1 335.8 340 347.3 350.5 355.5 358.1 358.5 360.9 361.7 366.3 371.9 382.1 389.3 389.3 386.6 383.8 376.1 366.4 359.6 354.7 353 351.1 348.6 344.7 343 340.6 339.1 337.7 337.3 337.6 338.2 339.3 340 339.9 339.1 338.3 339.4 340.5 341.1 340.9 340.7 340.2 339.6 338.9 338.3 336.8 335.6 332.9 330.4 326.4 318.1 306.5 296.3 290.3 288.4 286.4 281.5 273.8 251.7 233.9 237.3 250.8 267.6 291.9 295.9 293.7 291.6 289.3 285.9 282.3 279.3 276.4 272.8 268.3 263.8 254.6 245.9 240.8 233.5 224.9 220.8 218.9 213.9 207 194.8 189.2 183.4 173.8 159.1 152.9 154.6 160 162.1 160.9 162.4 160.6
322.6 326.3 329.1 329.2 319.7 319 334.5 338.9 341.4 342.8 341.9 338.5 336.3 341.1 344.3 344.5 339.2 335.2 335 338.3 337.6 335.9 334.5 329.5 332.3 335.1 335.9 336.9 337.3 337.9 339.7 340.9 341.7 342 341.9 341.4 338.8 335.8 329.5 331.3 336.4 337.8 340.1 340.2 339.5 344.3 345 346.5 348.5 352.2 356.3 363.3 372.2 379 386.3 389.2 391.4 392.6 395.2 397.1 397.5 394.8 390.8 389.6 388.5 386.2 384.4 381.6 380.5 379.1 375.5 369.7 358.4 347.6 337.2 323.2 310.6 300.7 295.3 289.5 286 281 273.8 273.7 274.2 274.4 275.3 275.9 276.8 277.7 281.8 285.9 292.5 297.5 304.2 312.6 318.5 321.8 324.8 328.8 331.1 334.4 336 337.5 339.6 344.6 352 356.2 357.4 358.2 358.7 360.3 361.3 363.3 370.5 376.2 376.6 375.8 372.6 368.6 364.6 359.2 353.1 347.6 346.5 345.3 341.3 339.8 337.9 336.9 336.3 335.6 334.6 335.4 334.8 336.7 337.9 339.1 338.8 339.4 340.3 341.4 341.6 341.4 341.2 340.6 340 339.3 338.1 335.4 335.1 331.4 328.4 322.8 309.8 295.7 285.2 279.6 274.7 273.2 271.2 265.9 252.7 229.6 229.7 244.9 259.9 283.4 296.1 295.2 293.2 290.7 287.6 284.4 281.7 278.7 274.6 270.7 266.6 260.3 254.8 248 242.7 236.9 236 235.6 232.3 226.5 213.3 197.2 192 181.9 171.7 160 146.9 147.6 150.8 152.8 153.1 153.3
329.8 332.2 333 331.7 332.5 330 324.4 339.5 342.2 345.8 347.5 344.7 340.3 345.3 345.9 344.7 344 342.8 340.7 339.7 336.8 337.4 334.5 334 337.6 341 341.5 343.6 344.3 344.9 347.1 348 347.5 347.4 346.5 346 343.5 339.5 330.4 335.9 340.4 344 347.1 346.5 343 348.6 351.8 355.8 360.7 367.4 374.9 383.4 392.8 397.1 398.6 399.6 398.8 398.6 400.1 401.8 399.6 396.2 393.5 390.2 388 384.6 381.5 379.3 377.8 376.3 371.9 360.2 349.7 336.2 323.6 312.2 303.2 296.1 291 285.9 282.1 277.1 276.2 277 277.8 278.7 279.7 281.6 283.1 285.1 289.7 295.3 302.3 311.2 320.7 327.6 331.2 331.9 333.3 334.8 335.4 337.1 339.5 340.9 344.2 351.3 353.6 356.2 357.6 358 358.4 358.5 358.5 359.1 360.6 364.4 366.5 366.2 363.4 360.6 356.8 352.4 347.7 344.4 340.1 338.4 337.3 335.1 334.3 333.6 333.2 332.8 332.1 332.7 331.6 334.2 336 337.7 339.4 340.7 341.2 342.2 342.4 342 341.5 340.7 339.8 338.9 336.7 333.9 331.2 328.6 324.1 314.6 297.9 285.4 280.5 268.8 265.9 263.8 262.5 258 248.1 226.4 226.4 239.8 256.4 275.6 296.4 296.6 294.8 292.5 289.8 286.9 284 281.3 277.5 274.5 271.3 266.3 261.9 256.4 249.8 247 245.7 243.7 240.1 235 227.5 214.3 198.5 190 180.8 172.4 161.6 141.6 142.5 144.2 144 143.1
333.8 335.8 336.2 334.4 337.3 339.8 334.8 336.4 343.5 348.7 347.8 347.8 346.9 347.1 346.5 344.6 344.9 342.3 339.7 342.5 341.9 341.6 335.3 339.7 341.9 344.7 348.6 349.9 350.7 351.1 352.5 353.6 353 352.7 351.5 350.6 349.1 344.1 331.6 341.2 346.1 351.6 352.6 351.9 349.8 355.4 361.7 367.7 375 384.5 392.8 402.5 406 404.9 403.6 403.6 403.3 403 404 402.1 399.2 396.2 392.7 389 386.1 383.6 380.3 377.3 373 370.2 362.7 349.3 337.6 324 314.1 304.6 297.8 292.9 288.4 283.5 278.5 278.6 280.2 282.2 282.6 283.6 285.3 287.2 290.5 294.1 300.6 307.6 316.4 326.1 335.8 339 339.5 338.7 338.2 338.1 338.8 339.8 342.4 345.2 351.3 355.4 356.1 357.1 357 357.4 358.2 357.8 357.2 356 357.5 358.1 357.9 357.1 355.1 352.4 349 347.5 342.9 339.8 335.2 334.2 333.1 331.7 331 330.8 330.5 330.3 328.3 324.4 327.9 332.9 336.5 338.5 340.3 341.8 342.3 342.4 342.2 342 341.5 340 339.2 337.2 334.7 330.9 326.1 321.3 310.5 297.6 289.3 279.6 268.8 259.2 257 255.7 252.1 248.2 240.3 220.6 222.4 235.2 253.4 271.5 292.4 297.1 296.1 294.4 291.7 288.8 286.5 284 280.6 277.6 274.9 271.2 267.7 262.4 256.7 253 250.8 247.9 243.3 237.9 232.1 224.2 208.4 196.1 182.7 175.8 166.7 149.9 134.6 136.2 135.2 136.7
336.6 338.2 338.9 338.2 340.8 344.9 341 341 346.6 350.7 350.7 347.8 347.4 349 347.7 346.5 346.2 342.4 346.4 348.3 347.2 344.4 333.4 345 346.9 352.2 354.1 355.2 356.6 358.1 358.7 358.4 356.6 357.7 357.9 357 354 345.8 336.7 345 352.3 355.6 356.8 355.1 356.9 363 371.2 381.3 392.3 401 410.3 411.1 410 408.8 407.4 407 406.2 405.4 404 400.6 397.4 394 390.8 388.7 386.4 382 378.5 375.9 367.9 356.9 347.8 338 325.8 314.7 307.5 302.5 299.5 289.2 283.9 281.4 283 283.3 284.9 286.5 287.1 290.1 292.4 294 298.4 304.4 313.5 321 327.9 336.2 342.1 343.4 343.4 341.6 341.1 341.7 342.2 343.1 347.1 350.8 356.1 357.5 357.6 356.8 356.3 356.1 355.3 354.7 354 353.3 354.3 354.4 353.9 352 350 347.4 345 342.6 338.9 335.3 331.5 329.2 328.9 328 327.6 326.3 327 326.9 319 317.3 330.3 333.9 337.4 339.3 340.8 341.7 342.2 342 341.5 341.4 340.2 338.8 336.3 332.7 324.5 320.8 314.6 304.2 292.6 285.9 279 269.7 261.7 253.8 248.1 247.3 245.4 243.8 231.5 213.9 219.4 234.9 248.8 265.2 281.3 293.2 297.5 296.1 293.6 291.3 289.1 286.9 284 281.6 278.2 274.9 271 266.2 261.2 257 253.5 249.7 245.1 239.8 234.2 226.9 211.7 197.5 184.2 176.7 166.1 154.8 146 131.5 132 136.5
338.9 340.3 341.6 342.9 344.5 349.2 351.6 351.6 346.5 348 351.1 350.4 350.6 350 352.4 351.7 349.9 347 351.5 351.9 349.6 345.9 343.8 349.4 353.5 357 358.6 360.1 361.3 362.1 362.8 362.6 363.9 364.2 363.2 360.1 354.8 343.3 343.3 348.7 355.1 358.4 358.8 360 362.5 369.7 381.1 395.7 405.2 412.2 413.8 414 412.7 411.6 410.2 409.3 407.3 405.2 401.5 399.1 395.5 392.4 390 387.9 385.3 381.2 380.4 370.5 357.3 345 330.2 325.1 315.5 308.6 302.5 302.5 302.5 301.5 286.9 286 285.8 287 289.2 290.3 292.9 296.1 300.2 302 310.5 317.9 325.2 331.1 337.1 343.4 346.5 347.4 346.7 344.9 344.9 347.2 348.2 350.4 352.4 355.7 357 357.5 356.7 356 355.4 354.5 352.8 352 351.3 351.6 351.1 350.6 348.3 346.3 344.2 342.4 340.2 337.3 334.6 331.6 325.9 323.2 324.8 323.6 325.1 322.6 323.9 317.6 301.9 316.2 324.6 335.2 337.6 339.4 340.5 341.3 341.7 341.6 340.8 339.6 336.7 331.8 323.5 318.9 311.6 305 298.3 290 284.6 276.9 270 263.2 257 248.7 240.2 238.8 237.8 234.7 223.2 205 218.5 234.6 247.3 259.1 271.1 283.5 298.7 297.5 295.7 293.4 291 288.8 286.4 282.9 280.4 277.4 274.3 269 263.3 257.6 254.8 250.9 246 239.7 231.8 222.5 205.5 193.3 184.5 175.9 167.1 157.9 149.4 142.5 129.3 123.4
341.6 344 348.9 350.9 350.7 349.4 349.1 352.9 352.6 350.3 353.2 354.8 355.5 355 355.5 354.6 353.4 352.6 353.1 354.7 353 344.4 349.6 355.8 359.1 360.7 362.8 364.3 364.5 365.4 366.7 369.2 369.7 368.2 365.6 361.2 351.1 349.3 351.1 353.4 357.7 360.9 361.1 363.5 369.6 376.6 388.6 403.4 411.6 417.5 418.1 415.7 414.7 413.8 411.6 409.4 406.1 402.6 400.6 396.7 392.6 389.8 387.5 385.9 382.9 375.2 369 356.4 345.1 334.9 323.9 316.2 309.7 302.5 302.5 302.5 302.5 302.5 302.2 291.2 291.5 293.9 294.4 295.8 298.3 302.6 307.8 315.8 322.9 329.3 334.4 339.4 345.3 347.8 349.8 350 349.1 350 351.4 354.1 353.7 353.5 353.4 356 356.7 356.3 355.9 355.2 354.3 351.1 350.1 349.1 348.6 348.4 348 345.8 343.3 340.8 338.6 337 334.4 331.8 328.6 326.1 321.9 317.4 318.3 321.2 321 316.5 309.5 303 297 307.6 322.9 326.6 331.8 334.7 337.3 338.4 338.8 338 334.5 328.8 323.5 318.3 312.6 307.3 301 293.9 288.2 282 275.5 268.4 263.6 258.7 253 247.4 240.1 223.9 228.7 225.4 212.8 198.7 220.3 232.4 243.7 251.7 263 274 286.2 298.7 297 295 292.8 290.7 287.6 283.8 281 278.6 274.6 269.4 264.8 259.1 255.3 250.8 244.7 236.2 222.9 211.9 199.7 190.3 182.7 174.3 165.3 155.9 146.6 137.6 133 120.7
350.9 350.3 350.2 352.1 353.3 353.1 350.6 352.2 352 353 355.7 357.7 358.4 356.8 357.9 358.6 357.1 356 356.2 357.3 355.1 345.9 353.4 359.7 362 363.2 366.1 367.6 367.9 369.7 373.2 374.4 373.9 369.9 367.5 360 349.7 359 358 359.2 361.1 363.4 364 367.5 371.4 380.7 394.1 409.6 417.7 421.5 420.9 418.5 416.9 414.8 412.9 408.2 404.9 402.4 397.7 393.4 388.9 389.4 386.4 382.1 375.5 364.7 353.8 344.1 335.2 325.9 316.1 310.2 305.4 302.5 302.5 302.5 302.5 302.5 302.5 302.5 299.4 300.5 302.9 303.6 308.7 313.6 322.3 327.3 333.6 338.5 343.7 347 349.1 351.2 352.5 352.3 355.3 355.3 357.6 355.7 355.5 353.9 354.6 355.3 355 354.3 353.8 353.1 351.3 348 344.7 344.3 344.3 343.2 342.6 340.1 337.3 334.8 331.9 329.5 327.6 325.5 321.4 318.6 315.1 309.8 312.5 312.2 306.5 302.3 296.4 287.6 290.6 301.4 307.7 311.7 315.2 319 319 321.2 324.9 323.1 321.7 318.1 314.4 310.2 305.7 297.7 293.5 287.7 281.5 274.1 268.1 263.5 257.4 253.8 248.6 243.3 235.1 216.6 219.1 211 200 197.2 219.9 231.8 241.3 247.4 256.9 266.7 274.6 285.2 296.8 295.7 293.4 290.9 288.2 284.9 282.2 278.5 274.1 268.2 261.7 257.8 251.8 245.2 236.5 225.6 214.8 203.5 194.9 188.9 179 170.9 161 151.5 138.5 136.9 126.8 109.5
352.8 355 353.7 354.5 354.8 355.4 355 355.1 355.6 357.6 359.8 360.5 361.1 360.3 359.3 360.7 360.5 360.2 359.8 360 358.2 354.5 353.7 362.1 364.7 366.7 368.5 370.4 372.9 376.1 377.6 377.1 376.4 373.2 368.8 357.4 359.3 364 363.5 362 364.2 366 367.6 371 375.4 385.6 400.1 413.7 422.7 424.4 422.5 421.3 418.4 416.5 412.6 408.3 403 399.4 395.8 391.8 387.3 384.3 379 370.2 360.9 351.3 342.2 332.1 324.4 314.5 309.1 305.1 302.5 302.5 302.5 302.5 302.5 302.5 302.5 304.3 305.9 309.3 311.5 318.1 325.4 329.8 333.3 338.1 341.7 346.4 349.2 350.9 352.4 354.1 355.1 355.3 359 359.8 361 360.4 357.5 355.9 354 353.2 352.6 352 350.3 348.5 346.3 343.5 340.4 339.7 339.7 338.1 335.4 332.7 329.3 326.5 325.2 322.8 321.3 317.6 315 312.3 309.7 303.3 300.7 298.9 296.7 293.7 289.4 276.9 284.9 293.4 300.5 304.3 306.4 307.6 310.3 313 313.1 313.6 312.3 309.7 306 301.1 296.3 292.5 287.4 279.8 273.9 267.6 262.4 258.6 254.5 248.1 243.6 237.2 224.1 207.8 201.6 196.7 189.4 199.5 219.6 230.2 239 246.1 254.3 258.9 266.1 271.9 276.8 283.3 287.9 281.1 285.2 282 276.8 272.6 269.1 264.3 258.6 250.2 241.5 233.8 224.2 215.5 206.3 198.3 191.1 181.7 172.9 166.1 157.8 138.5 136 125.2 111.8 108.2
353.2 355.7 357.6 357.9 357.4 358.8 358.2 358.3 359.4 362 362.9 363.6 362.9 361.9 361.9 363.1 363.5 363.1 363.1 361.7 361.9 359.9 355.4 362.5 366.3 368.7 370.8 374.9 378.3 380 380 379.5 377.3 375.6 370.1 361.7 365.8 367.9 366.8 365.8 366.9 368.8 370.5 374.2 379.5 391.1 405.8 418.1 425.9 426.3 424.7 422.8 419.2 415.6 410.7 405.8 399.3 394.9 391 386.9 381.9 376.3 368.2 357.7 348.6 340.2 331 320.6 313.4 308.4 303.2 302.5 302.5 303.1 302.8 307.6 306.9 309.4 311.8 316.1 321.8 324.3 330.5 334.5 338.5 341.2 344.1 346.9 349.4 350.6 352.5 354.3 355.2 353.8 354.9 359.4 361.7 362.4 362.4 360.2 358.1 355 352.3 351.4 350.7 349.4 347.8 343.2 341 338.1 334.5 333.3 331.3 330.8 328.3 325.2 324.1 321.7 320.2 318 315.7 314.3 311.6 307.7 306.3 301.8 284.8 286 288.4 286 280.1 268.5 282.1 287.5 291.1 295 296.4 299.5 302.7 304.2 305 303.3 302.5 300.5 297.7 295 290 282.2 278.3 271.5 267.6 262.6 258.8 255 249.9 244.3 238.8 230.6 217 200.9 189.4 186.9 186.3 204.3 220.7 230.4 237.3 242.5 249.2 254.9 257.9 260.5 265.9 270.1 272.1 272.1 272.2 271.1 266.6 264.5 261.5 256 247.6 239.3 230.2 221.7 214.9 207.6 200.6 194.1 186.2 174.3 167 159.6 143.5 129 116.2 111.3 108.9 110.5
358.2 360.3 361.9 361.6 360.4 362 361.7 362.4 363.8 365.3 366 365.6 365 363.9 364.1 365.5 365.8 365.8 365.6 365.4 364.3 363.6 359.6 361.7 367.5 370 374.6 379 381.7 382 382 381.1 379.9 377.6 373.4 369.6 368.6 370.4 369.6 369.1 369.5 371.5 373.8 378.8 385.5 396 411.5 423.7 428.8 428.6 426.3 423.5 420.1 415 411.2 403 395.8 384.4 383.3 376 370.6 362.9 354.8 344.6 335.2 328.2 321.1 312.3 306 302.5 302.5 308.5 308.2 316.3 325 320.3 322.6 326.2 332.7 337.6 340.8 338.9 343.7 346.3 348.4 350.2 351.5 353.2 353.4 354.8 356.4 357 354.6 353 354.9 360.6 363.1 362.8 361 358.7 355.5 353.2 350.8 348.9 347.6 346.4 344.6 339.8 336.4 332.5 329.9 326.8 325.7 323.8 323.1 320.9 319.5 318 316.3 314.5 312.3 310.1 307.2 304.3 301.5 299 288.7 267.9 279.8 278.5 268.6 266.9 279.7 284.8 287.5 289 290.6 292.3 294.6 295.7 296 297.1 296.6 294.8 291.1 286.4 281 276.2 271.5 266.8 261.8 258.4 254 250.9 247.2 242.6 235.7 218.9 203.6 189.7 181 179.1 190.7 205.1 221.3 231.7 235 240.2 244.4 250.1 253.8 255.5 255.6 259.3 261.5 261.8 260.7 259.2 256.8 254.5 249.7 244.4 237.8 228.4 221.7 215.2 208.5 201.5 194.7 185.6 176.4 168.3 161.2 148.2 135.3 117.6 110.6 110.5 109.8 110.2
362.2 364.6 365 364.8 363.4 365.6 365.7 366.6 367.9 368.1 368.2 368.4 368.3 367.4 365.7 366.4 367.3 368.1 368 367.9 367.7 365.8 364.5 361.3 368.9 372.5 377.6 381.5 383.2 383.8 383.4 382.2 380.6 378.7 376 375.2 373 373.7 374 374 372.5 376.9 380.2 384.4 391.4 403 416.2 426.2 431 429 426.7 423.1 418.2 415.4 408.6 400 390.3 378.2 371 364.9 356.9 347.9 339.4 328.4 323.3 318.2 309.7 305.8 304.2 309.1 314.3 316.4 321.7 326.8 326.1 330 343.8 346.1 347.5 350.2 351.4 350.5 353.1 355.7 356.1 356.8 357.1 358 358.7 359.5 357.7 355.6 353.2 351.2 353.6 358.7 360.2 359.6 358.7 356.4 353.5 351 348.5 345.6 343.5 342.7 340.1 336.5 331.9 325.4 324.7 321.2 319.8 319.9 319.8 317.5 315.8 313.5 312.2 309.6 307.4 305.7 302 299.6 297.8 292.8 287.5 273.9 261.8 268 253.7 264.8 275.2 278.6 278.5 280.2 283.3 285.5 286.9 289.9 290.2 290.4 288.8 286.2 282.8 278 272.9 269.5 266.7 262.4 259.4 254.8 251.9 247.1 244 239.8 232 213.7 196.5 180.8 175.1 175.5 191.9 203.7 222.7 230.1 232.8 235.7 238.8 242.9 246 248.2 250 251.7 251.9 251.3 249.9 248.1 246.1 244.4 242.1 236 230.9 223.3 216.7 209.7 202.1 192.3 185.7 177.5 169.5 162.6 152.3 138.5 122.1 111.6 110.9 110.9 110.8 116.2
365 367.4 368.2 367.9 367.3 369.1 368.9 369.2 370.4 370.2 370.4 370.6 370.2 369.3 368 368.7 369 370.3 370.3 370.6 371.1 369.8 368.4 364.4 370.2 375.7 380.5 383.1 384.9 385 384.7 382.9 381.3 379.8 378.8 378.3 376 376 376.2 378 380.9 382.3 386.6 392.4 400.9 411.1 421.8 430.5 431.7 430.2 426.6 422.9 417.5 413.7 406.2 392.5 368.1 360.6 348.8 349.2 342.7 335.3 329.1 322.6 318 311.5 311.5 311.6 306.8 318.5 314.4 327.5 330.9 333.4 337.7 354.7 358.4 358.1 359.3 359.5 359.5 360.4 360.7 362.2 362.5 361.2 360.8 361.9 361.6 359.4 356.8 354.2 351.8 349.8 355 354.8 356.5 356 355 354.2 351.5 348.7 345.3 343.1 340 336.4 334.4 331.4 326.6 321.5 316.9 316 316.2 315.5 314.7 313.2 311.7 309.2 306.6 305.5 302.8 300 297.6 294.6 291.7 288.6 285.3 278.7 255.3 251.1 247.4 259 266.5 267.3 268.7 271.3 273.6 276.6 278.9 281.3 281.1 279.8 278.1 276.5 274.3 270.8 268.2 265.6 263.1 260 256.1 252.8 248.3 243.5 238.7 235.2 226.9 207.1 192.1 177.1 170.8 174.8 190.3 205.5 225 230.6 229.1 231.1 235.1 236.6 239.9 241.9 243.9 245.6 247.1 245.1 243.4 241.4 239.5 237.3 234.6 230.9 224.5 218.1 209.8 200.2 192.7 186.3 178.7 172.6 165.8 154.3 142.1 131.2 118.7 111.9 111.6 111.7 111.4 120.8
367.9 370.2 371.3 370.2 370.8 371.7 371.2 371.3 372.4 373.3 372.6 372.5 372.3 371.6 371.4 371.4 370.8 372.2 372.8 373.3 374 373.8 372.6 370.5 369.1 376.4 382.1 384.9 386.3 386.2 385.9 385.2 383.5 381.8 381.8 379.3 378.5 379.8 381.6 385.3 388.2 390.4 397.6 405.6 414.4 421.1 430.3 433.2 432.9 429.9 426.1 420.7 417.9 412.4 403.1 388 363.4 358.6 343.9 334 331.3 325.5 320.3 319.5 315.2 318.9 318.9 316.8 313 330.8 323.8 337.9 358.6 365.2 367.3 367.4 367.3 366.6 365.9 366.7 367.6 366.5 367.5 367.1 366.4 365 364.8 363.4 361.7 359 356.4 353.7 350.4 347.9 347.1 349.2 351.8 351.4 349.5 350.4 348.4 344.4 341.2 338.8 336.9 331.4 325.5 324.8 321.1 316.8 312.9 312.2 312.7 310.8 311.2 309.4 307.5 305 302 300 296.6 294 292.2 288.9 284.8 282.3 281.2 275.7 265.3 247.5 242 249.9 254.6 256.5 259.5 264.5 266.8 269 270.3 272.2 271.8 271.2 270.7 269.9 268.9 266.6 264.2 261.4 258 255.6 253.6 250.8 246.8 241.4 231.1 223.9 218.9 203.6 188.8 173.3 166.1 172.3 187.6 202.3 219.5 231.4 225 227.8 232.4 235.1 236.7 235.9 236.3 238 238.1 238.7 235.7 233.7 230.7 229.1 226.1 223 216.2 208.6 199.3 192.7 185.5 179.1 172 166 154.7 142.9 132 126 114.8 112.5 112.5 112.6 117.3 128.4
371.8 372.8 373.3 372.1 373.5 373.7 373.6 373.7 374.5 375.8 375.9 375.1 375.2 374.4 374.5 374.2 374.3 375.3 376.1 376.4 377.7 376.8 375.7 375.2 374.7 377.7 382.3 385.9 387.8 387.7 387.4 386.7 385 384.4 383.8 380.5 381.5 385.5 389 392.7 399.8 405.1 414.4 420.4 427.4 432.2 434.1 434.9 432.8 429.8 423.9 420.9 416.8 412.4 402 386.7 364 350.9 336.4 330.4 332.3 330.1 333.9 332 331 331.4 329.2 325.9 318 343.7 344.6 357 369.4 373.7 374.1 373.6 373.7 373.2 371.8 373.4 373.1 371.4 371.1 368.3 369.5 368.2 365.6 363.5 361.3 358.6 355.3 352 348.6 346.1 343.6 341.3 345.6 345.6 344 343.6 341.8 339 336.7 334.2 332.2 328.1 320.4 316.9 314.3 313 310.6 309.6 309.4 306.2 305.8 304.1 300.5 300.6 297.6 294.8 291.3 288.5 286.1 282.5 277.3 274.6 273.5 269.3 263.9 251.4 233.5 242.1 246 252.1 254.9 258.5 261.5 264.4 266.5 267.6 267.2 267.2 267.1 266.2 264.2 261.2 259.1 256.9 253.3 250.8 249.3 247.3 242.5 239.8 231.6 209.8 204.9 199.3 184.8 169.5 163 168 180.8 195.2 209.5 225.6 220.8 221.5 228.9 233.3 233.9 231.7 229.9 229.5 229.2 228.3 223.1 221.3 216.5 213.4 208.7 207.8 203.3 198.5 193.2 186.5 180.3 173.8 167.5 153.2 143.2 131.1 124.9 116.3 114.5 113.3 113.1 112.8 126.7 131.9
374.1 374.6 375.1 374.3 375.7 375.7 375.7 376.5 378 379.4 379.4 378.6 378.6 377.3 377.8 379.1 379.2 379.2 380.9 381.2 381.3 380.9 381.3 379.9 379.2 380.3 384.1 387.6 389.3 389.3 388.9 388.4 387.7 387 386.1 384.5 387.5 393.7 397.3 403.8 413.2 421.8 428.9 433.4 435.6 436.6 436.4 435.2 432.3 427.6 424.4 420.7 415.8 411 399.3 381.3 357.4 344.2 342 353.9 351.2 348.6 339.9 340.9 351.8 351.5 345 334 323.9 351 361.1 367.2 373.6 376.3 377.3 377.8 378.1 378.3 377.9 377.6 376.2 371.9 374.3 373.3 371.2 368.8 366.2 363.6 360.2 356.9 353.5 350.2 346.9 344.3 340.8 339.3 336.5 334.7 335.1 335.6 335 333.1 329.8 325.8 322 319.3 313.8 311.3 310.1 309.7 308.6 306.2 304.7 301.4 299.3 298.7 297.1 295.5 291.8 289.1 285.1 281.4 278.3 274 268.6 264.4 261.3 262.2 259.1 251.6 236 228.5 239.1 245.5 249.1 253.9 257 260.5 262.2 263 262.8 262.6 262.4 261.4 259.9 257.3 254.4 252.3 248.8 245.3 244.9 243 238.5 235.6 230.8 217.6 200.3 183.5 172.6 166 161 162 172.2 188.5 197 205.7 211.3 213.3 225.6 230.5 231.4 229.2 225.4 223.9 223.1 218.3 212.7 208.4 205.6 204.4 197.2 194.5 192.3 188 184.8 180.6 174.7 164.2 151 143.7 132.7 125.8 115.9 113.9 113.7 113.7 113.2 123.6 131.7 135.7
376.3 376.6 378.2 377.9 378.7 377.9 379.7 380.5 381.5 382 381.6 381.8 381.2 380.3 381.9 383.2 384.1 383.1 384.3 384.3 384.3 384.6 385.6 385.7 385.7 385.4 387.9 390.2 391.6 391.6 391.3 390.2 389.6 390.1 388.1 390 395.6 401.2 407 417.2 425.4 437.2 439.5 440 439.1 439.2 437.6 435.7 431.7 427 423.5 419.4 413.3 403.9 387.1 369.2 350.1 352.1 359.6 367.3 368.3 369.3 358.4 361.5 369.6 368.2 352.7 346.1 333.5 348.9 368.4 374.2 376.9 378.7 379.9 379.9 380.1 380.3 380.2 379.7 378.5 377.3 375.4 373.5 371.2 368.6 366 362.7 359.4 355.8 352.2 348.5 345.1 342.3 338.6 336.7 334.1 331.6 329.3 326.9 326.9 324 321.8 317.9 314.5 312.1 309.3 307.7 306.9 305.8 304.6 302 296 295.4 294.3 292.3 291 288.4 286.2 281.3 276.5 272 268.4 265.1 260 257 256.1 253.5 251.2 247.1 239.9 222.7 228 238.1 244.2 249.7 253.5 256.6 256.8 257.3 257.5 257.8 257.1 256.4 254.8 252.1 249.5 247.6 244.5 240.4 238.3 237.6 236.7 235.9 232.7 228.9 217.4 199.2 187 166.2 159.9 157 162.8 176.1 189.3 193.1 194 199.4 213.4 221.1 227.6 223 216 207.9 204.7 202.5 193.5 186.3 187.2 182.6 178.8 176.5 173.1 168.2 165.8 165.3 158.3 145.4 140.9 133 126.3 117.6 115.4 114.5 113.8 114.3 113.6 128.8 134.2 140.3
379.3 379.9 381.1 381.6 382 381.4 382.7 383.5 384.5 384.6 384 384.2 383.7 383.9 385.5 386.8 387.4 386.8 387.4 387.4 387.7 388.9 389.3 389.3 389.3 389.4 391.2 392.9 393.9 393.9 393.7 392.6 391.8 393 394 397.6 402 409.2 417.3 431.1 441.5 442.4 443.1 443.1 442.9 441.5 439.1 436 431.3 428.4 423.1 418 403.2 388.6 373.5 357.9 359.8 372.1 377.2 380.3 388.2 388.8 374.7 383.7 383.9 379.3 362 347.1 345 364.8 374.8 379.5 381.5 382.5 382.3 382.2 382.1 382.3 381.3 381.2 379.7 378 376 373.5 371.1 368.3 364.8 361.6 358.5 355.2 351.6 348 344.5 341.5 337.6 335.4 332.4 329.5 326.8 323.3 318.2 315.4 314.5 312.1 309.8 307.7 305.6 304.6 302.8 301 299.6 296.8 292.4 291.1 289.4 287.4 284.4 280.4 277.4 271.9 267.3 261.7 257.7 255.3 251.7 247.6 244.3 245.9 242.7 239.8 237 223.9 217.7 229.6 237.8 243.8 247.1 247 244.6 247.2 249.9 249 249 249.3 248.7 245.6 241.5 239.3 237 234 231.3 231.4 231 230.3 228.9 225.6 216.4 203.7 190.2 172.2 157.9 154.3 154.6 161.2 175.5 182 179.2 186 194.8 201.3 203.7 201.6 194.5 185.6 189.3 180.1 174.3 168.4 167.2 163.5 166.5 171.4 165.4 152.7 149.1 146.4 142.7 137.1 130.7 120.9 117.7 117.2 116 114.9 114.7 113.4 127.6 132.8 139 145.7
382.8 383.2 384.1 385.4 385.9 385.4 386.3 386.9 387.5 388.1 388.3 388.2 388.1 387.9 388.4 389.7 390.6 390.4 390.5 391 391.9 392.9 392.9 392.9 392.9 393.3 393.8 395.4 396.5 397.3 397.1 395.3 396.3 398.5 398.8 402.4 408.3 420.7 428.4 442.6 445.3 444.4 445.4 444.8 443.3 441.2 438.8 435.6 431.6 426.9 421.8 414.6 392.8 379.8 372.8 373.9 381.4 391 396.2 398.5 399.1 397.2 395.6 395.9 393.5 387.4 376.9 352.3 360.5 374.4 380.3 383.3 385.4 385.5 385.3 385.1 384.9 384.2 383.3 381.8 380.2 378.4 375.8 373.5 370.6 367 363.6 360.3 357.2 354 350.8 347.6 344.1 340.7 337.7 334.7 331.3 328.2 323.5 320.2 315.3 311.7 308.7 308.3 306.9 304.7 302.3 300.3 298.6 296.3 293.5 291.6 288.1 286 283.7 282.6 278.5 271.8 266.6 263.4 258.7 253.9 249.5 245.6 242.7 238.1 234.1 235.9 235 233.7 231.4 224.2 206.6 216.9 229.5 232.3 232.3 231.5 230.5 233.4 239.7 241.2 240.8 240.5 240.1 236.6 232.7 229.2 227.9 223.4 225.2 225.3 224.5 223.8 222.2 218.3 208.3 196.1 188.4 176.8 161.1 152.4 150.9 153.5 157.3 166 166.7 176.3 185.1 189.8 188.7 187.1 180.6 178.2 170.2 167.3 162.4 158.7 156 152.8 150.3 147.4 147.3 143.3 137.6 133.7 131.4 126.2 120.1 117.5 117.2 116.8 116.9 114.8 113.5 126.1 132.4 138 143.8 152.7
387 387.1 387.7 389.3 390.2 390.6 391.5 393.3 393.3 396.2 399.6 398.1 395.6 395.1 393.8 396.1 397.2 394.4 394.3 395.1 396.2 396.7 396.7 396.7 396.7 396.8 397.4 398.1 399.4 401.1 401.5 400.7 403.2 406.3 409.8 415.2 423.9 434 443.9 447.5 446.7 446.3 446.1 444.7 443.4 441.5 438.3 433.2 430.8 426.5 420.3 405.4 393.7 393.1 394.2 392 401.8 404.2 406.2 407 407 403.8 403.1 401.3 398.4 391.5 373.7 363.8 379.4 384.1 385.8 388 388.3 388 388.3 388 386.7 385.8 385 383.4 380.5 378 375.1 372.4 369.3 365.7 362.3 359 355.9 352.6 349.5 346.5 343.4 340.6 337.8 333.8 330.3 326.1 321.9 318.7 314.1 309.9 307.3 304.5 302.4 300 297.8 295.2 292.4 289.7 288.6 287.2 284.6 280.9 278.2 275.3 268 264.4 256.5 253.4 249.7 245.3 239.7 235 233.2 228.4 227.8 228.6 228.7 227 223.9 219.8 204.7 206.1 215.5 217.4 218.6 217.6 216 218.9 228.2 229.8 230.6 229.9 228.7 226.6 223.3 219.1 217.8 212.5 219.6 218.9 214.8 216 213.7 209.6 198.7 190.3 186.2 179.9 168.1 156 147.4 147.6 148.4 151.6 160.1 167.5 176.2 179.4 177.3 174.4 168.3 161.8 157 155.2 151.5 150.1 147.9 144.9 140.4 137.4 131.8 126.2 119.1 117.3 117.3 117.3 117 116 116.2 117.3 118.1 117.6 124 134 137.4 143.4 149.4 156.6
394.6 393.2 393.4 394.5 395.6 397 400.6 402.1 403.6 406.5 408.5 405.7 403.1 405.4 405 405.4 402.6 401.2 399.8 401.5 401.9 402.1 401.5 401.1 401.7 401.1 401.7 402.7 404.3 406.6 407.6 409.3 412.9 419.1 424.3 431 437 445.2 449.3 449.4 449.7 448.8 447.5 445.6 443.7 441.2 436.4 431.7 428.5 421.9 409.1 406.3 410.2 412.1 412.6 410.5 410.9 411.5 411.7 411.7 409.9 407.2 406.2 404.3 401.4 393.9 381.6 384.4 388.8 389.8 390.3 390.7 390.9 390.7 390.4 389.1 388 387.1 386.4 385.1 382.3 378.9 375.7 372 368 364.5 361.1 357.7 354.5 351.3 348.2 345 341.6 338.7 335.9 331.7 327.2 323.1 319.6 316 311.9 308.3 305.5 302 297.8 295.4 293.1 289.6 286.8 285 281.9 281.9 278 269.8 266.5 264.8 260.3 256.5 250.8 244.1 241 236.5 232.3 226.8 223.7 222.6 220.4 220.3 220.1 218.4 214.9 209.6 201.5 198 205.5 206.4 205.2 203.8 205.5 207 211.4 213.5 213.3 215.6 217.4 217.6 213.2 208.3 206.7 202.3 206.5 205.7 201.1 200 202.3 196.5 190.6 187.5 184.5 181.3 173.9 162.9 151.3 144.8 144.1 144.8 149.2 156.3 159.5 162.5 157.3 156.1 153.9 151.2 148.2 144 140 138.4 137.1 134.9 131.5 124 119 118.8 115 116.3 116.4 116 115.1 114.4 116.8 124.3 124.7 126.8 134.8 140.5 142.2 147.4 153.3 159.4
401.9 399.5 400.1 403.7 406.5 408.9 410.1 408.8 408.3 410.4 410 412.8 416.4 419.6 417.9 416.8 412.2 415.2 414.5 411.7 412.7 410.6 409.4 408.6 408.5 408.1 407.6 411.1 414.9 416.7 418 422.5 427.6 433.3 438.7 443.9 448.2 451.9 452.3 452.4 452.2 450.7 449 446.3 443.7 440.6 436.3 431.2 427.9 419.9 421.5 417.7 418.9 419.2 418.2 416.6 416.1 416.1 415.5 414.1 409 410.2 408.5 406.4 402.7 399.4 395.4 394.8 394.3 393.9 393.1 393.1 393.7 392.1 391.6 390.1 388.5 388.1 386.3 384.5 381.9 379.1 376 372.5 368.2 363.8 359.8 356 352.3 349.1 345.6 341.3 338.4 335.3 332.4 327.6 324.8 320.9 316.9 313.7 309.6 306.4 302.6 298 294.2 289.6 287.9 285.7 283 279.2 272.2 267 264.5 258.9 254.2 253.2 251.3 248.1 242.6 234.4 229 224.7 221.8 217.6 216.1 213.7 210.9 208.8 207.7 205.5 203.2 202.3 198.9 191.1 197.5 191.7 189.3 191.6 193.2 198.4 200.8 203 203.9 204.2 204.6 205 202.4 199.2 196.8 193.7 192.6 197.9 196.3 195.6 196.3 194.2 187.3 184.2 181.5 180.5 177 169.6 159.3 147.7 142 142.3 141.5 143.6 153 153.5 148.4 142.9 139.2 134.4 132 134.2 133.2 132.4 132.4 128.6 123.9 120.7 119.9 119.5 118.8 118.3 119.3 119.1 118.3 118.1 119.6 121.6 124.5 133.2 141.5 144.6 147.5 151.8 157 163.8
409.3 408.1 408.9 411.2 415.1 418.8 415.8 415.4 417.2 414.1 417.9 421.1 420.7 421.2 425.4 422.8 424.8 426.1 424.3 424 423.8 423.3 424.8 422.3 422.5 417.9 421.8 422.3 424.7 431.6 426 436.7 441.5 447.2 450.2 452.7 454.7 454.8 454.4 454.1 452.6 450.7 446.6 445.3 442.2 438.6 435.5 430.9 428.4 428.6 426.2 422.3 424.1 423 421.5 420.2 419.2 418.9 417.8 416 414.2 411.5 410.4 407.9 405.3 402.8 400.9 398.6 398.2 397.6 396 395.7 394.5 393.8 393.1 392 389.5 386.9 385.2 383.6 381 378.3 375.4 372.5 369.2 364.9 360.9 357.1 353 348.9 344.4 340.3 336.7 331.2 328.6 325.2 322.5 318.8 313.5 311.2 307.2 303.8 299.6 294.5 290.7 284.9 281.8 279.8 274.3 265.7 260.5 257.3 253.2 248.5 246.2 244.2 240.4 236 232.2 224.6 220.8 214.3 212 209.6 205.5 201.8 202.2 198.3 196.5 195.1 195.3 195.2 190.5 184.8 182.6 181 179.6 176.5 179.5 186.5 194.6 196.4 196 195.9 195.6 194.4 192.8 192.3 190.7 189.6 189.1 189.4 186.2 184.1 183.8 181.1 180.1 180.3 179.1 179 177.5 172.8 164.4 153.4 139.6 139.1 138.4 138.2 136.1 134.1 132.6 132.6 131.8 131.6 131.9 129.9 128.4 126.9 125.6 121.8 120.6 120.8 120.7 120.2 119.6 119.7 119.9 120.1 119.4 119.8 122.2 123.7 126.5 143 146.6 149.3 153.5 157.5 160.9 166.4
420.7 422.7 423 425.1 431.7 433.1 432.2 430.2 431.6 429.7 438 434.3 442.5 445.6 439.5 441.6 447.4 443.6 440.7 440.6 440.5 441.4 439.1 439.1 438.5 435.4 438.9 441.8 444.2 445.3 444 449.1 453 456.5 457.3 455.6 457.4 455.8 454.2 454.4 452.3 450.2 447.6 444.1 441.5 437.9 434.1 434.6 431.6 430.7 427.1 428 426.9 425.7 424.5 422.6 422 419.9 417.7 415.2 416 414.8 411.9 410.4 408.8 406.5 404.7 404.1 401.1 399.4 398 396.3 395.4 394.7 393.6 391 387.9 386 384.1 382.6 380.1 377.5 375.1 372.7 370.1 366.3 363.1 358.7 353.1 347.5 342.5 339.4 335.6 330.7 326.8 323.4 320.5 315.9 310.9 300 297.4 298.6 294.8 292.1 286.8 280.6 270.7 267.3 261.7 257.3 252.3 243.3 241.5 241.1 238.7 234.3 231.4 227.2 221.7 216.9 210.1 209.7 208 204.8 202.7 199.1 196.6 195.3 192.6 191.4 189.2 187.4 188.1 191.4 194.2 193.9 185.5 176.1 169.3 170.2 179.1 185.8 188.6 190.1 190.3 189.6 188.1 187.3 185.8 184.9 184.1 183.7 183.4 182.2 181.4 179.9 178 176.9 177.2 176.2 174 173.4 168.8 157 140.7 137.5 137.4 135.3 133.9 132.2 131.5 131.3 130.6 131.7 131.6 131.6 124.5 125.3 123.1 120.4 121.6 121.4 121.1 120.8 120.2 120.2 120.4 120.5 120.2 124.4 125.9 126.9 126.7 147.6 152.3 152.9 157.7 162.1 166.1 170.8
434 436.2 439.2 440.3 438.2 436.4 436.5 441.4 452.3 455.4 456.9 464.8 467.1 466.7 465.6 464 462.3 459.8 457.6 455.9 455.2 452.8 451 450 450.3 448.6 450 452.1 454.1 454.9 455.1 456.6 458.5 459.3 458.3 457.6 457.5 456.2 454.9 453.3 451.2 449 446.6 443.5 440.9 439.3 438.6 435.8 433.3 431 428.8 429.9 428.6 427.3 424.4 423.6 422.5 420.3 419.3 418.3 416.7 414.2 414.4 412.9 411 408.8 406.6 406.9 405.2 403.1 400 396.6 394.4 393.1 391.7 389.3 386.5 385.6 383.1 381.5 379.6 377.3 374.9 372.8 370.4 367.6 363.8 360.8 360.6 357.9 353.3 348.5 338 332 327.2 320.7 316.7 313.6 313.2 309.1 302.7 286.6 280.7 280.1 275.8 268.8 263 265 263.7 268.1 260 251.9 249.4 242.5 234 226.9 223.2 220.5 216 218.7 220.6 220.5 221.4 220.4 217.2 215.4 210.1 212 211.2 208.4 206 205.9 204.1 203.6 202.6 201.2 197.8 193.5 185.4 170.4 168.3 169.5 174.3 179.6 183.4 183.4 184.6 182.7 180.6 180.1 180.4 179.9 180.3 180 179.5 178.7 176.9 174.9 173.8 172.2 171.3 164 157.3 154.3 137.1 136.1 135.4 133.3 132.4 130.6 129 128.5 130.3 128.7 124.6 125.2 125.5 125.3 124.5 121.9 122.2 121.9 121.6 121.3 120.9 121.1 121.1 121.9 131.2 130.6 127.5 128.6 127 149.4 152.1 153.1 155.3 167.3 172.2 177.2
452.6 455.4 455.8 457.9 456.3 460 460.5 472 474.5 474.7 474 474.4 474.1 473.4 472 471.3 469.3 467.5 466.1 464.3 462.5 459.9 458.8 457.5 456.8 454.3 454.5 457 457.8 458.2 458.5 459.3 460.2 458.6 457.7 457.5 456 456 453.9 452.1 450.1 448 443.4 443.6 442.3 441.1 438.9 436 431.7 432.9 431.9 430.9 429 426.6 425.8 425 423.7 421.7 418.7 419.8 419 417 415.8 415.4 414.9 414.5 413.4 412.6 411 408.1 403.3 397.8 394 391.9 389.9 387.7 385.7 384.8 382 380.5 379.1 377.1 374.8 372.5 370.6 370.1 369.1 368.1 366.5 364.4 361 355.7 341.7 335.4 329.9 324 323.9 321.9 318.3 315 312.8 308.7 300.2 293.8 291.7 290.1 289.1 287.1 287.9 289 285.1 278.6 270 264.4 257.2 246.3 239.7 236.7 237 235.4 234.1 235.8 236.1 236 234.5 231.7 226.7 227.4 226.9 224.7 222.4 222.1 221.4 218.5 215.7 212.5 210.3 207.2 200.7 193.9 180.6 166.8 166.8 166.8 170.2 173 176.1 175 172 171.5 173.3 172.4 174.2 175.7 176.3 176.9 175.9 174 172.4 170.4 161 157.1 148.1 138.3 134.6 134.3 134.1 133.4 131.6 129.7 128.4 127.9 126.5 125.3 125.2 124.6 124.9 124.9 124.9 123.2 121.8 122.4 122.2 121.9 121.7 131 134.5 136.7 138.2 137.4 131.7 129.4 130.5 148.6 152.3 155.6 160 169.9 175.3 180.3
468.5 467.7 469.6 471.6 473.6 476.1 476.8 478.3 478.8 478.5 477.9 476.8 476.4 475.6 474.9 474.1 472.9 471.6 469.9 468.2 465.6 463.7 461.4 460.4 459.3 456.7 456.7 459.2 458.5 459 460.1 460 459.8 460.1 458.5 458.2 456.5 453.6 451.8 450.2 448.6 447.8 446.9 445.1 442.4 441.1 437.9 435 436.2 434.7 433 431.4 429 428.1 426.9 425.5 423.3 422.9 421.9 421.1 420.6 419.6 420.7 420.3 420.2 419.8 418.9 417.1 415.1 410.1 404.9 398.6 393.2 390.2 388.3 387 384.5 384.5 381.1 379.6 378.1 376.6 374.6 373.3 374.1 373.4 373.6 372 370.7 367.7 364.9 360.9 354.8 344 339.2 335.2 330.2 326.3 325.2 322.6 320.4 317.4 315.1 310.3 307.5 305.1 303.8 301.8 300.8 299.7 297.7 294.8 288.4 287.7 281.7 269.8 263.7 263.1 258 254.7 253.2 251 249 247.5 245.1 240.8 237 235.6 233.8 233.8 233.1 231.4 231.2 229.4 227.4 225.1 221.8 216.7 210.9 207.1 194.8 183.5 170.5 166.8 166.8 166.8 166.8 166.8 166.8 166.8 166.8 161.3 162.7 168.5 175.8 178.4 177 174.6 170.1 154.1 157.7 144.1 138.9 135.8 133.8 133.4 132.3 131.4 130.1 128.5 126.8 125.8 126.9 125.6 124.8 124.5 123.7 123.8 124.2 123.1 122.7 122.8 124.7 132.6 136 139.3 144.3 147.1 149.2 143.5 134.6 131.2 134 146.9 151.4 156.7 164.5 170.1 175.9 183
476.6 476.9 477.6 478.4 477.9 479.3 479.5 479.6 478.7 478.6 478.3 477.6 476.8 475.8 474.8 473.7 472.4 471.1 469.1 467.1 465.6 463 461.5 460.3 459.5 459.3 458.7 459.9 460.8 461 461.3 460.6 461 459.8 457.2 457.5 456.3 454.9 452 451.4 450.6 449.2 447.2 445 442.4 440 437.4 438.4 436.7 435.1 433.3 430.8 429.2 427.5 427.5 425.4 424.5 424.1 423.1 422.2 422 422.9 423.7 423.6 423.5 423.6 422.8 420.3 416.2 409.6 403.2 397.5 392.5 389.1 385.9 384.5 384.5 384.5 381.6 378.8 377.1 375.8 376 376.8 376.7 376.5 375.7 374.2 372.2 369.6 367 363.6 358.9 351.5 345.3 340.1 335.4 332.5 329.5 327.9 325.4 322.5 319.6 316.9 314.7 313 310.4 308.9 306.9 305.1 302.7 300.1 296.6 295.3 290.1 283.9 281.5 277.3 270.2 268.4 264.9 260.2 258.3 254.8 252.1 247.7 244.6 240.5 239.6 237.8 238 238.4 237.5 236.3 234.4 231.8 229 224.6 219.5 214.9 207.6 196 187.3 178 170.4 166.8 166.8 166.8 166.8 166.8 168.9 150.4 147.5 152.7 161.9 172.6 169.4 160.8 159.5 150.4 143.7 137.4 135.2 134.6 131.5 132 131.3 130.9 129.1 128.3 127.7 127.8 127.1 126.3 123.7 124.3 123.5 122.9 123 123.7 125.1 133.6 136.4 139.2 144.5 149.9 154.6 155.8 153.5 142.7 136.6 132.9 139.8 144.7 149.7 156 162.7 170.4 178.2 184.2
480.6 480.2 479.9 480.4 479.7 480.4 480.5 479.9 479 478 477.9 476.7 475.8 474.6 473.5 472.5 471.1 469.7 467.8 466 463.9 462.1 460.7 459.3 458.4 458.9 459.1 460.8 461.8 462.3 462.2 461.8 460.7 459.7 458.5 456.2 456.3 455 452.1 451.5 448.6 448.7 446.8 443.9 441.6 441.5 440.5 438.6 437 434.4 432.9 430.5 429.5 428.8 428.2 427.3 426.2 425.2 424.2 423.1 423.3 424.5 426 426.2 426.4 425.3 423.3 420.8 414.7 408.5 402.7 397.4 391.9 387.9 384.7 384.5 384.5 384.5 383.6 379.1 379.8 379.5 379.3 379 378.1 377.3 376.1 374.6 372.7 370.1 367.3 364.3 360.5 355.3 349.2 344.2 339 335.8 334.3 332.1 329.4 326.7 325.8 323.7 320.5 317.4 315.9 313 310.6 308.4 306 303.4 301 298.6 295.8 289.9 288.6 285 280.8 277.2 273.4 269.2 265.8 261.4 258.3 254 252.9 249.7 246.3 243.3 241.8 242.1 241 239.7 237.8 235.4 232.7 228.9 226.2 221.4 216.3 209.7 199.7 191 184.6 179.6 175.3 171.1 166.8 166.8 166.6 153.7 145.9 141.4 146.5 160.7 159.9 154.1 147.9 141.9 136.9 134.7 132.3 131.5 132.2 131.4 130.2 129 128.9 132.4 134.3 130.8 131.1 134.9 137.8 124.9 124.8 123.3 124.2 137.5 141 142.7 144.8 149.6 153.9 158.9 161.7 159.8 152.3 139.8 138.8 137.4 145.7 148 152.6 157.5 163.3 170.1 178.9 186.2
480.7 480.8 480.5 480.6 480.5 480.6 480.1 479.3 477.5 477.3 475.6 474.6 474.1 471.4 471.6 470.5 468.6 466.8 465.5 462.4 460.7 458 458.3 458.2 458.1 459.6 460.4 461.2 461.2 461.6 461.4 460.1 459.7 458.2 457.2 455 455.1 454.3 452.3 451.3 449.4 447.4 446 442.6 440.8 441.5 439.9 438.3 436.9 435.2 433 430.9 430.3 429.5 428.7 428 427.2 426.2 425 423.9 423.5 423.8 424.4 425 425.6 424.1 421.6 417.3 411 405.8 400.7 396.5 391 387.3 384.6 384.5 384.5 384.5 384.6 382 381.9 381.1 380.7 379.1 378.1 376.2 374.9 373.4 371.8 369.6 367.2 364.1 361.1 356.7 351.7 346.4 341.2 338.8 338.4 336.8 334.8 333 330.7 328.5 326.9 323 319.3 316.5 313.5 311.1 308.1 306.3 303.7 300.3 298.9 295.8 292.1 288 284.8 281.3 279.3 276.1 272.2 268.8 264.2 262.5 259.8 257.2 254.8 250.8 248.2 247.1 244.6 241.8 239.1 236 234.4 231.8 230.3 226.8 221.4 215.1 208.1 198 187.4 179.3 179.3 179.4 178.4 176.4 172.5 166.5 154.1 144.2 140.8 141.2 144.7 141.6 139.5 134.6 134.4 132.2 132 131.7 131 131.5 129.5 131.5 138.5 140 140.5 140.4 141 142.7 143.8 143.1 142.2 143.7 144.8 147.9 150.7 154.2 157.9 160.3 163.9 166.8 165.6 161.4 149.4 141.7 142.3 140.5 149.1 152.5 155.7 161 166.5 172.2 179.4 189.4
478.4 480.1 480.4 480.5 480.6 478.5 479.4 478.1 476.4 475.7 474.4 472.3 472.2 470.6 469.3 468 466.3 463.6 462.3 458.3 456.1 453.8 456.4 456.4 458.7 459.6 460.2 460.6 460.6 460.4 459.6 458.1 459 458.2 456 456.6 453.5 452.1 451.8 450.6 448.8 446.9 445.5 442.2 440.9 440.3 439.3 437.5 432 432.6 431.5 430.6 429.9 429 427.8 426.6 425.8 424.8 423.3 421.7 420.7 419.6 419.2 419.2 419.2 418.3 415.7 412.2 407.5 403.5 398.4 394.7 390.5 387.6 385.6 384.5 384.5 384.5 384.5 384.2 383.2 382 380.3 378.8 377.3 374.5 373.7 372.2 370.1 367.9 365.3 362.3 359.9 356.9 352.2 347.1 344.3 342.7 342.1 340.2 336.8 334.7 332.7 331.5 329.4 326.5 323.1 319.2 315.4 312.7 310.3 308.4 306.4 303.9 301 299.1 295.6 293.4 290.8 286.8 283.5 279.7 276.6 274.1 271.4 268.8 268.9 266.7 263.7 259.9 258.1 253.8 249 244.9 239.9 237.4 235.8 234.2 231.5 230.5 226.6 218.4 209.7 198.5 187.7 178.3 177.7 177.7 178 178 174.9 163.2 150.3 141 139.4 136.9 136.5 135.6 134 135.2 131.8 132 131.4 131.6 129.8 129.5 133.9 148.7 145.9 148 148.7 149.5 150.9 152.1 152 150.7 150.8 152 153.9 155.3 160.8 168.1 170.3 171 171.4 169.1 166.8 160.8 149.9 146.4 148.2 143.3 149.8 154.4 163.6 170 173.2 176.3 182.3 189.8
480.3 479.8 479.4 479.4 478.5 477.6 478 477 474.6 473.8 472.5 470.8 469 468.1 466.5 465.4 463.4 459.5 457.5 455.1 450.6 453.2 453.6 456.4 457.4 458.4 458.3 458.6 459 458.6 457.8 458 456.1 456.7 455.7 455.1 453.4 450.9 450.4 449.7 448.1 444.7 443.8 441.8 439.9 439.4 437.9 436.2 434 432.2 429.4 428.4 427.5 427.5 426.3 425.2 424.1 422.8 420.9 419.4 418.6 416.4 414.8 414.6 413.4 411.5 408.9 406.4 403.9 400.6 396.5 393.2 390.5 389 388 386.9 385.6 385.5 385.6 384.7 382.2 380.3 379.1 377.4 375.2 372.8 372.5 370.5 368.5 366.1 363.8 360.9 358.5 355.6 352 347.5 345.6 343.2 341.1 338.5 335.6 333.5 330.7 330.9 330 328.2 325.3 322.2 318.3 316.6 313.7 312.2 310.3 308.4 305.5 302.7 301 299.5 297.8 292.1 288.8 283.8 280.7 277.9 276.1 274.8 274 273.8 272.1 270 264.4 261.2 255.5 250.2 242.1 237.3 235.1 233.1 230.3 228.8 225.6 219.3 209.6 198.3 183.3 177.8 176.1 176 176.1 174.3 163.8 152.6 140.3 139 137.6 137.2 134.8 130.4 132 135.5 132.9 134 135.2 137.2 140.8 152.1 155.9 156.4 156.8 155.4 155.4 157.6 161 161.8 160.7 160.3 160.6 160.8 162.4 167.9 175.2 179.8 178.3 176.5 174.3 170.7 167 161.1 151 150.2 153 150.4 151 164.9 172.4 175.4 177.4 180.3 186.4 194.6
478.9 477 479.2 479.3 477.8 477.8 474.5 475.2 473.5 471.3 468.4 468.7 467.6 465.4 464.5 462.9 458.1 455.5 453.9 451.5 450.7 449.8 453 454.9 455.8 456.6 457.2 456.1 456.5 457.9 457 457.8 455.3 455.2 455 454.4 454 452.9 450.3 448.1 446.1 444.5 443 440 438.6 436.6 434.6 433.4 431.5 429.4 427.5 427.2 426.4 425.4 424.7 423.6 422.1 420.8 419.5 417.5 415.3 413.4 410.8 410.7 409 407.4 405.1 402.9 401.2 398.2 395.2 392.9 391.5 390.5 389.1 387.6 386.2 384.4 383.2 382.2 380 378.6 376.5 375.5 374 372.5 370.7 368.8 366.7 363.7 362.1 359.4 355.6 353.4 350.7 345.3 341.8 339.5 337.1 334.7 331.8 329.5 327.2 328 328.7 328.3 326.3 323.7 320.9 320.5 319.7 317.4 314.8 312.9 310.4 308.4 308.8 309.8 308.6 300.1 293.2 285.4 283.4 281.4 280 278.8 278.5 277.2 277.9 279.6 276.3 270.7 259.7 251.3 241.5 236.8 233.9 231.8 228.2 225.3 220.6 214.3 204.4 190.8 179.1 175.9 174.4 173.6 171.5 165.4 155.3 141 139.8 138.1 138.3 137.8 130.1 135.3 135.2 134.7 135.2 137.7 140.3 148.1 155.3 161.8 165 165.4 162.6 161.2 160.8 164.9 168.8 170.7 171.9 173.1 171.2 174.8 179.3 186.7 189.7 187.4 183.5 180.6 175.2 170.6 166.7 162.4 155.9 156.4 155.4 153.1 153.8 158.2 174.6 178.4 182 185.4 190.7 199.4
478.3 477 477.5 477.8 475.6 475.4 474.3 472.7 472 469.1 467.4 465.8 463.9 463.6 461 457.6 454.4 451.7 451.1 449.5 448.4 445.6 448.7 451.6 453.1 453.7 455.2 455.3 455.9 456.4 456.7 456.3 455.8 454.4 453.6 453.4 454.1 453.1 450.3 447.6 445.7 442.5 440.2 438 437.1 434.4 432.7 430.4 428.5 426.3 424.7 424.7 424.4 422.9 421.9 421 419.9 418.6 417.3 415.8 413.8 411.5 409.2 408 406.4 404.4 402.6 400.9 398.6 396.5 394.6 392.2 391.2 390 388 386.1 384.3 382.4 381 378.9 377.4 376 374.5 373.1 371.8 370.4 368.9 367 364.4 362.6 360.5 357.1 353.4 351.6 349.6 345.1 339.6 335.7 332.7 331.5 328.9 325.9 324.3 325.3 326.1 326.1 326.1 325.6 324.1 322.7 322.3 321.2 319.7 318.1 315.7 315 314.7 314.8 312.2 304.1 295.8 287 283.9 282.6 282 282 281.9 282.9 283.1 280.6 282.4 274.7 262.5 249.1 239.6 235.6 232.8 230.7 227.1 223.1 215.2 205.1 195.5 184.1 176.8 173.4 170.9 166.2 161.9 153.1 143 140 139 137.4 136.4 135.3 133 144.3 144.5 144.7 141.8 141.6 144.9 152.1 161.5 167.3 168.6 169.6 171.1 167.7 168.4 175.9 179.4 182.7 185.8 188.6 190 193 198.2 198.4 195.8 192.5 188.5 184.2 178.3 173.2 168.7 164.6 160.6 158.2 160.1 156.3 155 157.1 177.2 180.7 184.3 188.4 195.8 205.1
475.7 476.4 475.8 475.2 475.4 473.3 473.3 471.6 469.7 466.8 464.1 462.8 461.4 459.3 455.5 453.4 450.2 449.3 446.9 444.9 444.9 442.1 444.4 445.2 448 448.4 452.6 453.3 454.3 454.8 454.4 455.1 454.9 454.4 453.7 452.5 452.4 452.9 451.4 448.4 446.2 444.2 440.1 434.5 432.3 430.9 429.3 426.7 424.9 423.6 421.5 421.1 420.4 418.9 418.5 418.1 416.8 415.5 414.4 412.9 410.7 409.1 408 405.8 404.5 403.4 401.3 398.9 397.7 396.1 393.8 391.7 390.5 388.1 385.8 384 382.1 380.3 378.5 375.8 373.9 372.4 371 369.6 368.2 367 366.1 365 362.8 360.3 358.7 356.5 353.4 350.7 346.4 342.5 337.4 332.6 326.5 324.2 323.6 323 320.7 320.5 322.4 324 324.2 324.2 322.7 320.9 319.9 320.4 319.7 318.3 316.8 317 315.8 314.3 311.8 302.3 293.9 285.1 282.4 281.5 280.5 281 281.3 282.3 283.4 280.6 279.8 272.2 259.4 245 238.5 234.3 231.9 229.7 226 220.9 213.1 202 190.7 179.6 173.7 169.3 165.5 161.2 148.1 139.7 140.4 139.8 136.8 135.8 135.7 147.5 152.1 153 153.5 156.6 154.4 144.5 148.2 155.1 163.3 167 169.8 170.3 171 173.3 178 186.7 192.3 196.1 203.2 205.9 204.8 203.9 203.2 202.7 200.9 198.1 196.2 192.6 185.4 180.1 174.2 170.4 165.6 163.1 163.9 159.8 158.4 162 181.9 183.9 187.2 193.7 198.7 208.9
474 473.9 473.8 473.2 473.2 473 470.8 468.5 467.6 465.6 462.9 459.4 457.2 453.6 451.7 448.3 445.5 444.6 444 441.4 440.9 434.9 438.7 439.1 439.6 445.3 450.1 453.9 453.3 455.3 455 454.8 452.2 453.5 453.9 453.5 451.8 450.5 450.1 450 444.6 443.1 439.8 430.3 427.8 426.1 425.3 422.7 420.2 418.9 418.8 415.7 416.5 413.7 414.3 413.7 413 411.4 409.5 408 408.2 406.7 405.6 404.1 402.2 400.8 399.2 397.2 395.7 394.4 393 391 388.6 386.1 383.7 381.8 379.9 377.8 375.7 373 370.9 369.6 367.7 366.2 364.9 363.4 362.1 360.8 359.4 358.2 356.6 354.8 352.4 349.3 346.3 341.3 334.6 324 321.6 318.7 317.8 317.2 314.2 315 318.4 320.2 320.2 318.5 315.9 314.4 314.3 314.8 314.7 314.8 313.6 313 312.3 310 305.4 298.5 288.3 280.8 279 277.9 276.8 277.8 279.3 280 279 275.4 272 264.9 253.4 242.2 237 233.2 230.8 228.5 224.4 217.5 209.3 196.6 184.6 176.6 170.2 166.8 160.9 148.4 138.9 138.1 136.9 135.5 135.8 151.7 156.7 158.4 159.4 161.7 161.8 162 159.6 145.3 152.8 158.7 165.2 167.4 171 173.8 176.5 179 184.1 196.6 203.2 209.1 211.9 211.6 210.6 209.5 208.6 208.6 210.5 210.1 207.7 204.2 198.7 187.5 180.4 175.9 170.5 165.7 166.7 165.3 162.5 163 185.3 188.6 192.7 197.8 203.1 211.5
472.2 472.6 473 471.5 471.4 470.4 468.9 466 463.3 462.8 460.2 457 453.6 451 447.7 444.7 442.9 442.5 440.6 438.3 434 430.7 430.1 426.2 430.8 436.7 440.7 444.1 448.6 452.3 452.6 452.6 451.2 451.2 452.1 452 452.3 452 450.7 448.6 447.5 443.5 440.9 436.9 432.6 422.2 418.7 419.3 415.6 413.5 414.3 413.7 412.8 410.7 409.6 409.6 409 407.5 405.9 403.7 404.6 402.9 403.2 401.7 399.6 396.7 396.9 396.1 394.8 393 391.3 388.9 386.4 384 381.5 379.5 377.3 375.1 373 370.8 368.3 367.2 365.3 364.2 362.4 360.5 359.1 357.7 356.9 356.2 354.4 352.7 351 348.3 345.4 342 337.6 329.3 322.1 310.4 303.5 307.1 303.3 306.2 307.1 307.3 307.2 306.2 305 304.4 303.1 303.5 304.4 306.7 307.1 304.9 303.8 300.3 294.9 287.6 281 278 274.7 273.1 272.4 272.3 274 274.8 273.5 268.1 262.2 256.7 247.4 238.5 234.2 232.7 230.5 226 219.9 211.7 201.2 188.9 181.2 171.1 166.3 159.5 143.8 139.9 138.2 138.6 142.4 154.5 159.3 162.9 164.8 166.7 167.7 168.9 169.3 166.5 163.3 151.4 156.8 163.7 167.9 170.2 173.9 177.7 181 182.7 189.3 198.3 206 210.8 213.5 214.5 214 215.7 216.8 216.7 218.1 218.7 217.3 213.3 206.3 198.1 191 188.3 177.9 168.2 170.6 167.6 166.4 165.6 186.9 194.5 199.2 203.5 210.2 214.7
472.4 470.7 471.3 468.8 469.5 468.9 465.7 464 461.6 459.6 456.5 453.3 449 446.4 444.7 441.3 438.1 435.8 433.8 428.5 422.5 416.2 412 408.5 409.5 414.7 421.8 422.7 425.4 430.3 435.1 439.7 442.7 443.7 446.9 450.3 451.1 451.3 450.7 448.9 446.9 444.5 441.6 437.5 434 429.2 413.6 413.1 411.9 408.7 407.6 407.2 407.8 406.7 405.2 405.1 404.9 402.8 401.7 399.4 400.7 400.3 399.5 398.9 396.3 394.7 394.3 393.4 392.9 391.3 389.7 387.6 384.1 381.7 379.2 377.2 375.3 373.2 371.2 369.4 367.3 364.7 363.3 361.8 359.9 358 356.1 354.7 353.3 353 352 350.4 348.7 347 344.4 341.6 337.8 332.3 325.7 319.9 313.5 305.8 299.1 290.8 292.3 294.1 294.1 293.3 294.8 293.4 292.4 291.7 293.6 294.5 297.5 294.4 292.5 288.3 283 279.6 276.4 271.9 268.8 268.3 268 268.6 268.7 268 265.4 258.3 251.5 245.1 237.8 233 231.4 230.3 225.2 217.4 208 199.3 189.8 177.9 169.6 162.8 154.9 141.9 139 138.4 138.7 152 162.9 164.7 167.7 170 172 172.7 176.1 177.2 180.2 175.1 168.2 153 160 165 170.4 174.3 178.7 183.3 188.3 190 197.5 203 209.1 212.6 215.2 216.7 219.2 221.1 222.5 223.9 225.7 225.1 221.6 217.6 212.7 207.4 203 197.4 184.8 172.5 175.3 177.7 172.2 178.4 190.9 197.6 203.1 208.1 218.6 219.5
471.1 470.9 468.9 468.5 466.6 465.8 464.8 462.2 458.6 454.9 453.3 449.9 444.9 440.6 438.2 434.8 424.5 421.7 416.6 412.4 406.4 403.4 396 394.3 396.6 398.4 402.2 404.2 407.7 411.2 411.3 414.6 416.7 420.7 428 438.8 444.8 448.4 448.4 447.5 445.9 443.4 440 437.9 434.9 428.2 422.2 405.1 405.5 404.2 402.1 402.3 401.6 401.7 401.5 399.8 399.4 399.6 398.7 395.8 396.7 395.8 395.9 394.5 394.2 393 391.9 391.1 391.2 389.6 388.1 386 382.9 379.5 376.9 374.9 373 371.2 369.1 366.9 365 363.1 361.2 359.3 357.4 355.5 353.6 351.7 349.6 349.2 348.9 347.9 346.8 344.7 342.5 340.3 336.9 332.8 326.3 320.4 314.5 307.1 300.9 293.8 284.1 286.7 288.2 287.9 287.8 287.7 287.6 286.6 286.6 287 288 287.6 284.1 281.4 278.1 274.9 271.1 266.7 265.2 264 263.9 265.3 265.3 260.7 253.1 247.1 237 230.8 229.3 229.2 226.9 221.2 214.5 203.9 195.6 185.4 175.5 168.2 159.3 150.4 141.5 138.8 139.1 151.7 164.3 168.3 170.3 171.9 173.1 174.9 178.7 182.9 187.6 190.3 190.4 183.4 168.9 156.1 161.5 166.2 173.9 178.7 182.2 188.2 196.2 201.7 205.9 209.6 212.2 215.1 218.3 221.1 223.8 226.9 228.2 229.7 230.5 228.1 225.2 222 218.6 214 209.8 205.6 194.9 176.9 178.5 181.2 176.5 183.1 193.9 202.4 207.1 214.3 223.8 224.1
469.5 469.3 467.2 466.8 466.7 462.7 460.9 459.5 455.8 452.3 447.8 444.9 438.9 435.5 426.6 420.2 413.4 405.1 401.8 397.4 394.8 392.4 386.7 381.5 383.8 386.8 389.6 392.3 394.7 396.3 397.2 398.3 398.9 401.7 407 416.3 427.9 439.1 443.3 444.3 442.3 438.1 435.5 433.7 429.4 425.7 419.8 410.9 397.6 398.7 395.8 396 395.8 395.7 395.7 395 394.8 395.2 394.6 393.1 392 391.9 392.1 392.1 391.9 391.2 390 389.3 389.3 388.1 386.5 384.6 381.8 378.6 375.8 372.3 369.2 367.4 365.7 364.4 362.4 360.2 358.1 356.7 354.8 352.9 350.6 348.7 346 345.7 345.3 344.6 343.4 342.3 340 337.6 335.6 332.4 327.4 318.8 311.5 304.5 299.3 292 281.6 282.1 283.1 282.1 281.7 282.1 280.8 280.5 280.2 282.3 284.5 283.9 279.9 277.8 275.9 273.7 269.4 262.1 255.4 255.2 255.5 255.4 252.1 247.6 239.7 227 222.5 220.5 221 218.8 214.6 207.3 197.6 189.3 183.1 171.6 165.5 158.2 146 139.9 143.3 154 161.3 167.2 171.4 174.4 177 179.3 178.6 183.3 189.2 195.6 198.8 201.1 196.3 189.2 172.7 159.2 163 166.9 177 184.9 189.2 196 204.9 208.7 210.2 212.7 216.2 218.9 222.7 225.9 228.8 237 235.8 234.4 232.1 230.4 228.8 227.1 224.9 220.6 215.7 211.5 205.2 189 181.6 185.2 181.5 184.1 195.1 205 210.9 220.6 226.9 226.5
467.9 467 466.5 465.7 463 462.2 458.2 455.4 452.5 449.1 444.5 437.3 432 422.5 412.3 403.5 398.1 394.6 389.9 388.3 386.2 382 378 371.2 374.4 374.9 377.7 380.4 383.1 384.3 383.6 381.9 385.1 388.9 392.9 398.8 405.4 413.9 423.8 432 430.1 424.2 421.3 419.8 408.1 403.3 407.6 400.5 394.7 390.4 389.3 389.5 388.5 388.9 389.6 390.2 390.1 390.4 389.3 388.6 388.4 388.5 389.2 389.1 388.4 388.6 388.2 387.5 387.2 386.1 384.1 382.4 380.3 377.8 374.5 371 367.7 364.8 362.7 360.2 358.8 357 354.9 354 352 349.5 347.7 345.8 343.3 341 339.5 340.4 339.9 338.6 337.2 335.2 331.9 330.4 325.9 318.2 310.3 304.5 296.9 289.1 279.2 279.6 279.2 277.5 276.8 277.4 276 276.2 276.7 278 278.8 280.4 277 275.5 273.7 271.5 267.5 262.2 253.9 235.8 237.8 237.1 237.7 232.3 219.8 214.2 212.4 207.6 206.2 203.2 198.4 192.6 183.3 175.9 168.5 161.3 154.5 141 139.9 151.2 157.5 164.1 168.8 174.4 177.7 180.5 183.9 186.7 186.9 193.1 200.5 206.2 208 206.7 200.2 190.4 178.1 164.5 163.5 169.4 182.1 189.7 197.4 203.1 206.9 212.1 214.2 215.6 219.7 223.3 227.7 232.2 236.7 238.1 237.9 237.3 236.8 236.3 237.5 237.6 235.8 232.2 227.8 218.8 213.2 200.7 186.5 187.9 189 186.7 197.1 207.3 213.8 226.2 230.8 229.1
465.5 465.8 463 463.8 462 459.5 456.3 452.9 449.9 444.9 439 431.8 412.5 405.1 398.4 390.5 386.8 383.3 380.4 379.5 377.4 374.9 371.8 369.3 366.8 370.2 370 371.6 371.7 370.6 371.8 372.5 373 377.5 381.4 385.9 389 393.6 400.1 409.9 409 401.5 399.4 399.5 401.7 395.9 384.6 383.4 385.2 381.5 383.3 383.1 382.8 381.2 382.2 383.2 383.9 384.6 385.3 385 384.9 385.5 386.2 385.6 384.9 385.4 385.2 385.4 384.4 383.8 382.6 381.9 378.6 376.1 373.1 369.9 367.5 364.2 361 356.6 354.3 352.7 351.1 350.1 348.2 347.1 345.3 343.3 339.9 336.2 335.2 335.8 335.5 334.2 333.1 329.9 327.5 327.3 324.3 317.9 309.7 302.2 294.7 285.8 276.7 276.1 275.5 273.9 271.7 272.9 272.8 270.9 271.4 274.1 275.1 275.9 274.8 271.7 270.5 265.5 263.8 258.9 250.7 231.9 219.2 217.1 212 207.8 206.2 204.4 202 193.4 190.5 187.3 182.3 177.6 171.4 164.3 155 143.4 143 147.8 152.7 159.5 165.5 169.9 176.4 181.2 183.9 188.4 193 198.8 202.9 203 211.6 214.2 213.4 210 202.9 192.1 178 167.9 167.3 171.8 185 194.9 203.4 207.8 211.7 214.5 217.2 220.1 224 229.6 233.8 238.6 240.4 242.4 242.8 243.3 245.1 246.9 248.5 249.8 247.6 243 237.1 229.5 218.8 209.2 193.7 191.4 192 190.2 200.8 209.7 220.6 231.3 233.4 231.3
464.7 462.8 461.7 461.3 459.2 457.2 452.6 450.8 446.4 442 434.8 416.5 401.5 390 386.5 380.4 377 375 374.6 372.3 370.7 368 364.9 362.2 359.1 363.6 364.2 364.7 363.9 363.3 364.6 365.8 366.5 367.4 368.9 374.3 375.7 377.2 381.6 388.1 395.5 394.7 392.3 382.1 375.1 381 377.7 374.4 377.3 372.5 377.9 378.7 379.9 377.4 372.9 375.8 378.2 379.6 380 381.4 381.3 382.5 382.8 382 381.4 382.2 383.4 383.4 383.1 382.7 381 380.5 378 375.2 372 369.2 367.3 364.5 360.5 357.1 353.2 349.1 346.2 346.3 345.1 344.3 343.3 340.1 337.3 334.1 330.5 330.1 330.9 326.9 324.4 321.5 320.7 324.3 321 315 305.1 297.4 290.1 282.6 273.5 273.2 273.2 271.3 268.9 266.7 266.1 264.2 266.4 269.5 271.5 271.4 272.2 270.9 266.2 260.9 260.3 254.2 239.8 218.9 207 201.4 199.5 199 196.2 193.5 188.1 183.3 181.2 175.7 172.9 171.1 159 148.8 144.4 149.9 155.2 159.7 163 167.7 173.3 177.6 181.2 185.2 190.6 196.3 204.2 211.5 215.9 212.9 216.4 216.3 214.5 211.5 206.5 198.2 181 171.5 169.5 175.1 187.7 198.4 207.1 211.5 215.1 216.9 221 226.7 231.6 236.8 240.4 243 244 246.4 248.2 250.5 255.2 259.3 260 259.7 256.3 252.3 245 237.4 223 217.6 205.4 196.7 196.6 194.2 204.3 215.5 228.8 235.1 235.3 233.3
463.9 461.6 460.1 459 455.3 454 451 447.6 440.9 437.2 423.4 402.7 392.1 381 374.5 372.6 371.2 369.8 368.3 366.5 363.2 361.1 359.4 357.3 354.9 358.2 358.8 359.2 359.3 358.5 358.5 357.2 358.5 361.4 364.4 363.5 365.6 365.3 368.1 371.9 368.5 367.2 367.4 372.4 371.6 372.7 367.6 366.7 363.2 357.5 372.3 375.4 376 376.1 370.6 369.9 372.3 374 375.2 377 378.1 379 379.6 379.2 379.7 379.1 380.4 381.5 380.9 380.4 379.7 378.6 376.1 373.2 371.9 369.3 367.4 364.5 362.2 359.8 356 351.9 349.9 346 342 339.8 339.3 336.8 334.3 333.6 327.9 323.5 321.3 310.8 297.1 302.5 305.7 306.2 305 300.5 297.4 288.3 282.6 276.8 267.8 271.4 270.6 268.5 268 267.1 263.7 256.6 257.9 264.4 266.6 267.7 268.2 267.4 262.5 253.3 256.2 243.7 222.6 209 196.5 192.7 191.5 191 187 181 178.5 175 172.1 166.9 161.8 152.9 148.1 147 153.4 162 166 169.3 173.6 180.9 182.9 184 187.2 194 200.3 206.6 214.5 223.6 221.1 218.3 219.1 218.1 216 214.2 210.7 201.3 181.5 174.3 172.3 181.7 193.4 204.2 210.6 213.9 218.9 221.2 228.7 236.5 239.1 241.7 244.3 246 248.7 251.3 255.1 262.3 265.6 266.8 265.6 263.9 261.2 257.4 253.2 246.1 227 217.6 212.4 199.6 198.6 197.3 207.9 223.6 234.5 237 236.4 239.3
463.3 461.1 457.9 456 452.7 449 446.7 442.9 438.9 430.8 412.8 392.7 384.3 375 369.3 365.9 364.2 362.8 362.2 361 358 356.9 355.2 353.7 350.5 353.3 354.4 353.7 353.7 353.7 354.3 353 350.6 354.1 356.1 356.1 357.1 357 357.8 359.2 362.2 369.8 366.6 365.6 362.7 358.5 357.1 355.6 350.3 352.2 365.1 368.3 371.8 372.8 369 357 365.8 368.3 369.6 371 373.6 375.1 375.9 375.9 375.6 376.2 378.7 379.3 377.6 377 376.5 376 375.2 373.1 370.8 368.7 366.9 364.9 362.6 360.2 358.2 355.2 352.3 348.5 345.6 341 335.3 330.8 329.1 328.4 324.8 320.9 311.3 317.9 319.3 308.1 289.8 282.9 282 283.8 281 277 273.2 270.9 259.1 267.3 265.7 264.4 265.4 266 264.1 258.1 248.9 259.8 261.6 263.1 265 265.9 261.4 251.9 233.1 222.7 210 197.9 190.3 184 184.5 182.9 177.7 175.7 173.5 170.1 162.5 151.1 148.6 146.5 145.9 156.2 166.1 170.5 173.2 177.9 186 192.3 193.6 195 198.8 205.1 211.7 218.8 227.1 228.9 225.7 223.9 223.8 220.6 218.9 216.8 210.9 202 181.6 175.6 178.8 189.9 201.3 208.7 213.4 216.9 222.1 226.4 237.1 242.5 243.2 244.8 248.4 250.4 254.3 257.9 265.9 271.3 270.8 270.6 269.2 267.3 264.8 262 257.4 253.6 239.1 224.4 213.5 208.5 205.5 202 212 230.6 236.7 238.2 237.5 240
461.5 459.3 456.8 453.4 449.4 445.4 441.6 438.8 431.4 419.7 399.5 387 376.6 380.4 383.6 376 371.4 371.3 362.1 356.7 353.7 352.4 351 349.5 346.9 348.2 347.9 348.5 348.7 347.3 348 347.1 345.8 349.1 350.4 349.9 349.4 349.4 349.6 353.3 354.4 353.1 351.3 349.1 348.1 347 347.7 347.1 343.5 348.4 353.7 359.8 366 368 366.4 359.9 354.6 358.3 360.2 365.3 368 370 372.1 370.9 372 374.8 376.3 376.8 376.1 374.6 373.6 373.2 372.6 372 369.7 367.7 365.7 363.7 362.5 360.5 358.4 356.4 353.1 350.2 346.6 342.6 338.6 334.2 331.2 325.3 322.9 321.8 321.9 323.7 324.7 320.2 309.5 294.5 278.6 265.6 264.5 263.1 260.4 258.1 253.5 262 260.6 260.3 262.3 263.9 262.2 257.5 240.5 243.3 249.2 256.9 262.9 262.7 249.4 231.5 221.1 203.7 195.4 188.9 182 176.6 176.4 175.3 167.1 165.1 165.5 159.5 150.8 149.6 146.4 144.8 157.9 167.6 173.8 177 182.2 189.9 197.3 203.2 205 205.3 209.2 214.7 224.6 231.9 233.3 232.3 229.4 230.1 228.2 225.6 223.2 218.7 213.3 203 183.3 178.6 187.6 197.3 207.6 213 216.7 220.5 225.3 235.5 243.5 245.3 246.3 248.5 252.4 255 258.9 269.8 275.4 275.6 275.4 274.1 271.9 269.3 266.6 264.2 261 257.9 253.7 239.7 223.5 216.2 208.9 207.1 208.9 233.4 237.2 236.7 237.2 238.4
459.3 457.7 455.1 449.7 445.3 441.3 437.4 429.1 420.4 408.3 393.3 383.3 394.9 390.1 394 389.7 387.3 383.5 378.4 371.9 365.3 358.8 349.7 344.9 345.4 344.8 344 344.4 345.2 344.6 343.2 342.9 341.7 343.8 342.9 342 342.7 343.4 343.4 344.9 345.6 345.5 344 340.9 338.2 337.8 337.6 337.4 334.5 340.2 342.3 350.4 360.5 362.8 362.6 358.6 344.7 338.6 352.7 360.2 364.9 367.1 368 366.8 369 372.6 373.6 374.4 373.8 372.5 372.1 370.4 370.8 370.5 368.2 366.2 364 362.1 360.9 359.7 358.4 356.7 353.6 349.7 345.9 342.9 340 336.4 333.6 331.2 327.5 325.5 324.1 325.8 325.2 323.2 319.1 312.1 304.8 296.4 285.4 272.3 263.6 255.9 249.8 242 255.1 254.8 257.2 259.9 260.9 257.8 241 228.5 231.2 237.6 246.1 244.1 230.1 216.5 205.1 193.2 185.3 181.1 178.2 172 164.8 161.2 159.1 157.7 154.3 150.8 149.1 146.1 147.7 158.9 166.9 173.3 177.9 184.6 190.9 199 207.2 212 212.6 213.3 217.7 226.7 234.3 236.7 235.8 233.5 232.4 232.8 233.9 230.8 226.7 220.3 214.7 198.1 183.8 181.8 194.4 206.3 212.5 215.9 220.1 225 231.6 243.1 248.6 249 250.4 252.4 256 259.3 266.3 275.5 278.7 279.4 277.8 275.6 273.1 270.2 267.4 264.5 261.9 259.7 256.9 252.2 244.1 230.3 222.8 213.9 213.1 219.7 229.3 234.7 235.8 238.7
456.9 454.8 452.2 447.2 443.5 437.8 427.2 414.5 398.9 391.9 391.5 396.6 401.4 412.8 417.6 414.5 398 397.5 388.2 376 375.4 372.1 366.7 352.8 345.1 341.8 340.6 341.3 342.1 341.2 339.8 339.2 338.6 339 337.8 337.2 334.6 337.5 338.9 340.4 339 337.8 335.5 332.9 330.9 331 332.2 327.7 331.1 333.2 334.8 339.7 350.2 356.8 355.2 354.8 345.7 325 341.6 355.4 360.5 363 363.9 361.3 365.8 368.9 370.8 371.4 371.6 370.8 370.1 369.2 368.1 368.2 366.3 364.4 362.3 360.4 359.2 358.4 357.7 355.9 353.3 349.4 346.6 343.9 341.1 338.4 335.5 333.2 331.2 328.8 325.2 324.4 324.2 323.6 321.5 318.2 310.7 305.2 300.8 292.3 282.7 272.6 266.3 259.2 229.9 243.7 249.5 255.4 257.7 257.8 242.2 220 218.6 220.9 225.8 222.5 211.3 203.3 196 185.3 180.3 178.1 169 161.2 157 155.2 154.8 150.2 150 148.9 149.7 150 158.5 164.9 170.8 175.9 183.6 191.7 199.8 207.2 213.7 216.7 217.5 220.1 226.7 237.8 239.6 239.8 237.6 234.2 236.3 236.3 236.8 234.3 230.2 222.4 213.3 190.3 186 187.7 201.2 212.6 216 220.5 224.5 229.7 239.3 248.3 252.9 252.7 253.8 255.9 259.4 263.6 273.5 281.1 281.1 280 278.3 276.4 273.6 270.5 267.6 264.6 261.9 259.9 257.7 254.2 249.6 246.1 243.5 237.2 227.7 229.6 234.7 234.3 235.8 236.7
454 452 448.3 444.6 442 437.7 430.1 405.6 410.2 414.5 418.3 425 430.1 439.5 443.7 443.3 421 399.8 392.5 391.1 382.2 372.6 364.5 357.3 348.6 343.9 339.4 335.5 337.8 337.8 336.3 335.5 334.3 332.9 332.9 334.7 332.6 332.7 334.1 334.1 332.9 331.8 330.7 329.8 328.5 325.9 323.9 324 326.2 327.4 329.3 332 336 342.5 346.7 345.2 339.9 325.1 330.3 348.7 356.8 359.5 359.2 356.7 362.7 366.5 367.6 368.3 368.3 367.9 367 365.8 365.6 365.3 363.7 362.1 360.5 358.7 357.9 357.2 356.4 355.1 353 350.2 347.5 343.3 340.1 337.9 334.6 332.8 331.2 329.2 325.2 322.5 321.1 321.4 319.1 316.5 310.7 306.4 302.5 296.4 288.4 278.6 270.1 262.1 241.5 221.3 236.2 249.6 253.4 254.3 242 219.5 205 206.5 205.3 201.1 192.9 189.2 182.5 179.6 173.3 167.3 160.4 156.4 154.6 153.1 149.8 152.7 152.5 153.9 159.4 165.1 168.7 170.4 173.7 179.8 188.8 196.8 206.7 213.6 217.6 220.1 221.7 226.4 239.1 240.4 242.8 242.3 239.6 241.4 244.6 247.3 245.6 238.2 232.6 220.8 208.9 190.5 188.8 196.7 208.1 215.9 220.6 223.9 229.5 235.8 244.5 251.5 255.4 255.8 258.3 260.2 263.6 270.8 279.8 283.6 283.2 280.6 278.2 276.1 274.1 271 267.9 265.7 262.1 260.2 258.2 254.6 252.4 248.7 245.9 244.1 241.5 239.4 238 237.3 238.2 237.2
450.8 448.6 445.7 443 439.5 435.5 426.4 412 424.8 428.1 428.7 431.3 438.4 443.7 446.2 445.6 436.6 422.4 411.5 399.5 389.7 376.7 364.4 355.8 349.6 344.3 340.5 332.9 332.9 332.9 332.9 332.9 332.9 332.9 332.3 330.5 328.7 329.5 330.3 330.2 329.2 328.5 327 326.1 325.4 323.6 322.6 320.4 321.2 321.8 323.3 324.6 327 330.2 332.9 334 330.5 316.6 326.7 343.8 351.9 356 354.6 354.5 360.9 363.8 364.9 365 364.2 364 363.6 362.7 362.5 362.2 360.6 359.2 357.8 356.6 356.2 355.8 355.2 354.1 352.3 350.5 347.1 343.7 339.5 336.3 334.2 332.5 330.7 327.7 325.7 320.7 317.8 317 314 312.9 309.3 305.9 301.5 295.2 287.4 277.1 269.7 261.6 238.6 212 222.2 240.5 246.7 247.2 235.8 216.4 198.3 194.4 192.5 187.7 183.9 181.2 176.7 170.5 166 159.5 153.6 153.4 153.9 152.9 153 155.2 156 160.8 167.2 172.3 175.6 175.6 178.1 183.6 192.7 202.9 212.3 217.4 220.2 222 224.7 230.7 239.1 243.3 245.5 244.3 246.7 250 255.2 256.8 252.7 243.8 235.9 225.1 209.7 194.9 191.7 206.3 214.2 218.6 223.5 227.2 232.1 240.3 248.4 253.9 256.8 258.1 261.6 265.5 269.5 279.9 285.6 285.8 284.9 282.4 280 276.1 274 271.4 268.4 265.7 262.3 260.7 258.2 255.6 253.3 250.4 247.5 245.6 244.4 242.4 243.6 244.5 244.1 245.6
447.6 446.4 443.3 439.1 436.6 431.6 425.4 425.4 429.2 430.6 431.2 432.2 434.7 436.7 438.2 436.7 428.3 416.8 407 396.2 384.6 369.7 362.3 355.1 349.7 343.6 336.8 332.9 332.9 332.9 332.9 332.9 332.9 332.9 327.4 325.7 324.9 324.6 323.8 324.6 324.4 323.3 322.9 322.2 321.5 320.9 319.4 316.5 317.6 317.8 317.6 318.1 320.4 320.5 322.6 322.8 318 307.2 322 339.2 347.7 352.2 348.7 351.5 357.9 361.2 362 362.3 361.6 361.4 360.8 360 359.7 359.5 358.3 356.7 355.3 354.1 353.7 353.4 353 352.5 350.8 348.1 345.3 343.4 341 337.2 333.5 331.8 328.9 326.2 324.5 321.1 315.7 312.5 310.6 309.2 307.1 304.3 299.7 293.3 285.1 275.6 265.8 257.8 237.1 209.5 212.9 232.7 244 242.1 227.6 210.9 196.4 185.2 182.8 181.3 180.7 173.9 168.8 162.8 159.5 154.5 153.8 153.3 153.5 154.1 156.3 159 161.9 165.6 171.3 175.5 179 181.1 186 193 195.3 206.7 215.7 219 222.1 224.6 227.3 233.9 242.1 246.4 251.4 250.5 255.1 262.8 266.1 265.6 258.8 250.7 240.1 229.1 211.9 198.5 200.8 212.6 218.2 223.3 226.9 230.8 236.5 243.8 251 255.2 258.4 261.8 264.2 268.3 279.8 285.3 287.8 287.5 285.7 283.4 280.3 276.6 273.8 271.1 268.4 265.5 261.9 260.3 257.3 256.6 253.9 251.4 252.1 253.7 254 254.3 252.9 252.4 252.4 252.4
445.4 442.3 439.7 436.8 432 428.3 423.5 426.9 430.5 431.4 431.5 430.7 430.8 430 429.8 427.8 422.1 413 402 390.3 374.3 366.8 361 354.6 347.2 343.2 338.8 340.7 335.9 332.9 332.9 332.9 332.9 332.9 323 322.9 321.3 318.8 317.5 317.6 317.1 316.9 317.1 316.6 315.9 316.4 315.4 313.5 314.1 314 313.5 312.6 314.2 314 313.9 313 304.9 309.2 324.1 337.9 346.3 347.1 334 348.2 354.3 358.2 359 359.8 359.4 358.7 358 357.7 356.6 356.5 355.7 354.6 353.3 352 351.4 351.1 350.7 350.2 348.6 345.4 344.2 342.3 340 337.7 333.5 330.2 327.5 325.3 324 320.4 316 311 307.9 306.3 304.4 302.8 298.2 291.1 282.7 274.1 261.8 254.5 231.6 203.9 209.5 224.3 240 235.1 216.8 205.9 194 183.6 176.7 177.2 172.6 167.1 161.9 158 155.5 154.5 154.5 155.2 156.3 157.9 160.2 162.8 163.9 166.1 171.7 176 181.9 187.4 194.9 203 207.8 211.9 215.1 219.4 222.8 226.6 230.7 236.2 243.6 249.5 254.5 256.1 267.2 271.3 270.9 268.4 264 256.2 245.4 230.9 217.2 202.3 209.6 217.1 222.6 226.6 230.2 235 241.4 248.4 255 259.1 263.1 266.6 268.7 275.5 286.2 288.9 289.5 287.6 285.1 283.4 280.8 276.8 273.5 270.8 268.2 265.2 262 259.4 256.9 256.2 253.2 252.4 252.4 252.4 252.4 252.4 252.4 252.4 252.4 252.4
444.2 441.3 436.6 433.6 432.2 432.2 429.5 429.1 431.2 431.6 431.2 430 429.1 427.4 426.1 423.2 416.9 407.7 396.5 387.1 375.5 365.9 359 352.1 345.2 343.3 345.5 345.6 343.9 339.9 335.2 332.9 332.9 330.9 317 316.5 314.1 310.5 307.9 300.3 294 297 301.1 304.1 305.4 311.1 310.8 307.6 310.2 310.4 309.9 308.8 308.8 307.9 307 304.4 295.8 302.1 321.7 335.5 341.1 338.3 332.6 344.6 350.6 355 356.1 357.2 357.2 357.2 356.4 355.4 354 353.4 352.9 351.8 350.7 349.9 349.5 349 348.5 347.8 345.2 343.2 342.8 341.2 338.9 336.8 333.1 330.3 326.1 324.4 322.6 319.8 314.6 310.8 306.4 302.6 301 298.7 294.8 289.1 277.9 269 261.9 250.5 232.3 203.8 202.5 214.9 228.7 224.2 207.5 198 187.3 182.3 175 170.7 167.4 163.3 159.3 157.7 155.3 155 156 158.1 160.5 163.6 164.7 167.5 169.5 171.2 173.1 178.5 184.6 191.7 200.2 208.9 214.2 218.1 220.4 221.8 226.5 229.5 234.5 240 247.5 253.1 258.7 268.8 274.2 274.3 274.5 272.2 267 260.1 247.8 232.8 224.2 205.9 216.5 222.3 226.5 229.7 233.5 239.9 247.6 253.3 257.7 261.8 265.8 269.5 273.1 282.7 290.9 292.2 290.6 288.1 285.5 283.6 280.7 276.9 273.6 270.6 267.9 264.9 262.4 259.7 256.7 254.3 252.4 252.4 252.4 252.4 252.4 252.4 252.4 252.4 252.4 252.4
444.4 440.8 438.3 435.6 437.5 436.9 433.3 432.5 431.3 430.7 430.3 429.4 428.3 426.5 422.4 415.5 409.7 400.1 391.6 379.1 368.8 362 355.7 348 347.3 350 349.7 349.8 348.4 343.2 338.7 334.1 332.9 326.3 316.3 308.7 304.5 307.8 312.1 314.5 312.9 301.4 286.5 281 279.5 291.9 301.6 300.6 305.5 307.7 306.7 307.1 306.6 303.8 300.8 296.2 290.9 293.4 314.9 327.2 330.7 316.2 329.7 341.3 346.5 351 353.5 354.6 354.6 354 352.8 353 351.5 350.8 350.1 349.1 348.2 347.3 346.9 346.8 346.2 345.3 341.8 341.2 340.7 339.7 337.2 335.8 332.9 330.2 327.1 323.5 319.6 316.5 312.3 308.7 304.8 299.9 295 287.3 285.7 278.6 263.8 253.9 250.8 247 231.6 206 189.8 200.8 211 209.3 198.3 184.6 180.8 176 170.7 168.4 165 162.6 159.7 156.4 155.2 155.5 158.4 160.6 163.8 167.1 169.8 172.7 174.3 175.9 176.1 179.5 182.3 193.7 204.6 210 215.4 220.7 223.6 225.8 229.8 234.2 240.4 247.1 252.8 258.4 265.6 276.2 278.8 278.8 277.6 274.3 269.6 262.4 251 237.3 226.2 210.2 221.1 226.4 229.9 234 238.6 247.6 253 257 260.5 264.5 268.3 272 277.6 288.7 294.5 293.3 291.2 288.8 286.1 283.2 280.8 277.7 273.8 270.7 267.7 265 262.3 259.5 256.6 254.1 252.4 252.4 252.4 252.4 252.4 252.4 252.4 252.4 252.4 252.4
446.7 442.5 442.6 442.1 441.9 439.7 434.6 432.6 431.8 430.5 428.6 427.6 426.6 422.8 413.1 399.4 396.2 387.3 380.4 372.2 363.6 358.1 355.2 349.4 355.5 357.1 356.7 355.5 353.2 346.6 343.1 340.5 335.4 332.2 329.5 327.2 324 325.1 325 322.7 320.1 316.6 312.6 308.1 290 271.1 279.6 285.9 303.3 305.8 303.9 304.7 304.8 301.9 295.4 289.3 282.8 288.2 303.5 313.8 313.2 305.6 327.6 338.4 342.9 348.1 349.2 350.3 350.7 350.6 348.9 348.9 347.4 346.5 346.6 346.5 345.7 344.8 344.1 344.2 343.8 341.7 338.4 337.8 337.6 336.9 334.3 333.3 332.1 329.1 326.6 323.4 318.3 315 310.6 307.9 305.2 302.7 299.5 287.6 265.6 262.6 243.9 235.7 231.1 231.6 224 208.5 189.4 189.1 191.2 192.6 185.3 180 175.6 172.3 168.1 166.6 162.7 162 158.9 154.8 155.8 157.2 163.6 165.1 169 172 174.5 177.2 178.8 179.8 181.7 185 191 197.8 207.6 211.8 216.9 222 226.2 230.2 234.6 239.3 248.1 255.8 260.4 264.9 276.2 280.4 283.2 282.5 281.4 276.4 271.7 264.2 253.5 240.9 228.4 214.8 224.4 230.1 233.7 238.2 246.7 252.2 257.3 261.4 264.7 267.4 269.8 277 286.6 293.7 295.7 294.3 291.5 288.7 285.8 283 279.8 276.6 273.5 270.5 267.4 264.9 262.1 259.3 256.5 254 252.4 252.4 252.4 252.4 252.4 252.4 252.4 252.4 252.4 252.4
448.4 446.4 446 445.3 443.9 440.9 436.1 433.4 431.5 429.7 428 426.6 426.6 425.5 419.4 410.8 397.4 384.5 372.4 364.1 360.2 359.3 353 359.4 361.8 361.1 360.1 357.8 355.1 351.8 349 344.9 341.3 336.9 334.1 329.8 329.2 329.1 326.6 323.6 320.6 317 314.1 310.9 307 290.9 267.1 277.1 297.3 303.4 302.4 299.9 302.2 296.7 291.7 282.6 278.3 284.8 293.8 296.8 294.8 313 326.1 336.9 342.5 344.8 345.9 345.5 344.9 344.9 345 344.3 342.6 342.1 343 343.3 342.7 341.3 340 340.5 340.8 337 334.7 334.3 334.4 334.5 333.4 331.3 328.5 326.5 324.2 323.5 319.2 313.9 309.8 308.2 304.8 302.2 299.2 291.2 276.9 253.3 230.2 228.3 219.8 216.6 211.4 205.4 192.6 180.9 180.6 185.9 178.1 175.8 171.2 168.6 166.3 165.3 162.7 161.1 155.4 154.5 160.3 165.1 167.9 171.1 173.6 176.4 179.2 181.6 183.6 186 187.3 192.2 197.8 201.4 208.7 214.3 219 224.3 228.8 234.1 240.3 247.3 253.4 260.6 266.3 273.6 280 284.6 286.8 286.8 284.8 279.6 274 266.8 253.5 240.8 229.6 223.1 225.3 233.2 237.3 244.1 251.3 256.7 261.1 265.2 268.2 270.9 276.1 285.6 293.7 297.1 296.6 294.3 291.2 288.5 285.8 283.1 280.1 276.1 273.1 270 267 264.4 262.1 259.3 256.5 253.9 252.4 252.4 252.4 252.4 252.4 252.4 252.4 252.4 252.4 252.4
450.6 449.2 447.2 445.8 443.2 439.4 436.1 433.1 431.2 429.4 429 426.5 424.1 419.6 409.9 404.4 395.2 381.3 371.4 368.8 365.7 362.2 357.9 364.7 365.3 364.6 361.7 360.2 357.4 354.1 349.7 346 342.3 338.5 335.9 334.3 333.5 331.6 326.7 323.4 319.8 316.4 313.5 310.6 308 301.1 281.3 263 285 300 300.5 298.3 293.6 292.7 287.7 278.5 276.5 284.5 286.6 280.6 300.5 314.2 326.8 334.9 340.2 341.5 342.7 340.8 339.8 338.9 336.7 331.1 335.4 336 336 336.7 335.2 334.6 332.8 332.7 333.6 332.4 331.3 330.3 331.3 331.3 331.3 330 327.6 325.6 324.3 320.4 316.5 312 307.8 304 302.1 299.8 295.4 285.2 271.6 253.3 230.2 217.3 213.4 200 199.8 193.9 188.7 183.1 186.3 173.1 174.1 171.7 169.2 166.9 165.5 163.8 161.3 159.8 156.7 155.3 167.2 169.9 174 176.7 179 181.7 184.1 187.5 190.8 194.7 195.1 196.4 203.9 207.3 213 216.8 221.4 226.8 233.1 239.5 247.3 255.8 259.7 265.3 271.4 280.1 284.9 288 289.3 288.7 285.2 281.5 275.4 268.2 255.2 244.8 229.5 228.3 226.1 231.9 242.3 250.2 255.2 259 263.2 267.8 270.8 275.1 283.9 293.2 298.4 299.6 297.9 294.3 290.8 289.3 286.6 283.4 279.4 275.7 272.6 269.6 266.5 263.9 261.6 259.3 256.5 253.9 252.4 252.4 252.4 252.4 252.4 252.4 252.4 252.4 252.4 252.4
450.9 448.7 446.3 442.3 440.7 437.7 434.8 433.9 431.5 429.8 429.5 428.8 428.3 421.4 406.2 397.4 391.9 384 377.2 372.4 367.9 364.6 361.6 367.7 368.8 366.6 365.7 362.5 359.1 355.5 350.8 346.1 342.9 340.3 337.8 336.2 334.7 330.5 326.8 323 319.6 316.3 313.6 310.7 308.2 303.9 288.2 264.6 273.4 286.3 294.4 295.9 291.5 283.8 275.5 265.9 281.6 286.5 278 276.7 293.2 315.2 325.4 330.9 335.3 336.8 337.3 335.7 333.2 328 321.6 310.3 319.5 323.7 327.1 325.3 325.8 325.2 324 324.9 327.4 327.8 327.5 327.7 328.2 328.2 328.5 326.8 325.7 324.7 323.2 320.5 315.1 311.4 308.4 304.9 298.2 292.7 285.7 275.6 263.3 248.3 247.5 240.1 231.6 215.5 204.2 191.4 181.5 187.7 176.1 171.7 167.6 170 167.9 165.3 163.8 163 160.2 158.9 158.1 161.2 171.6 175.8 178.9 182.8 186.1 187.9 191.2 194.8 198.3 204.1 208.3 207.4 213.5 215.9 219.1 223 227.6 233.6 240.9 248.8 258.5 264.8 266.8 270.7 276.6 285.1 289.5 291.3 289.5 288.6 286.8 283 277.2 270 259 246.1 234.5 233.6 234.8 229.7 247.4 253.1 257.9 262.8 265.6 270.1 273.2 279.4 292.3 298.4 301.4 300.5 298.1 295.6 291.7 289.5 286.4 282.4 278.5 275.2 272.2 269.1 266 263.5 261.1 258.8 256.5 253.7 252.4 252.4 252.4 252.4 252.4 252.4 252.4 252.4 252.4 252.4
450.7 447.3 443.9 439.5 436.9 435.1 433.5 432.4 431.3 430.8 430.7 431.1 429.8 426 417.6 407.2 400.1 387.4 378.1 373.8 370.8 369.6 365.8 371.8 371.6 370.9 368.9 365.5 361.8 357.3 352.6 347.7 344.3 341.9 339.6 337.7 334.8 330.9 328.2 323.3 319.4 316.2 313.5 311 308.4 304.9 302.1 278.9 256.5 267.3 277.1 284.2 290.3 284.2 261.7 277.6 286.8 287.2 275.8 268.4 280.2 298.9 310.9 315.6 321.2 325.3 325.3 320.9 315.6 308.3 303.1 290.6 300.8 305.3 309.7 311.4 313.3 313.7 313.9 317.1 321.1 323.2 324.3 324.9 325.3 325.8 325.7 324.2 323.8 323.4 322 318.1 314.5 312.3 309.7 306.1 300.8 294.9 291 284.5 279.5 272.7 264.7 248 230.6 213 206.6 205 196.5 184.3 167.2 167 167.7 166.5 166.2 164.5 163.1 161.7 158.5 158.8 166.3 172.4 178.8 183.1 186.5 190 193.4 198.7 202 204.7 209 216.1 221.7 224.1 225.6 226.6 230.3 231.6 237.2 241.8 249.1 259.2 266.9 270.2 272 277.2 285.4 290.7 293.4 292.4 289.9 288.2 284.8 283.5 278.3 273.2 263.7 249.1 236.5 239.3 238.9 231.9 251.1 256.3 260.5 264 268.6 272 276.8 285.4 297.1 302.1 302.2 300.4 297.9 295 292.3 288.7 286.4 282.5 278.7 274.9 271.7 268.6 265.6 263 260.8 258.7 256.4 253.5 252.4 252.4 252.4 252.4 252.4 252.4 252.4 252.4 252.4 252.4
448.4 444.8 441.1 436.3 433.7 432.2 431.7 430.9 430.6 430.4 432 432.1 431.6 429.4 423.2 412.1 398.1 388.7 382 378.1 375.1 372.9 370.5 375.6 375.3 374.6 371.5 367.7 364 358.7 353.7 349 345.7 342.8 339.7 336.9 333.2 329.6 327.1 324.7 319.6 317.5 314.6 312.7 310.8 307.4 304.5 296.8 277.4 257.6 256 267.8 276 273.4 257.7 278.2 287 286.3 277.8 260.4 276.3 278.7 290.6 295 297.8 302.7 303.4 300.4 296.7 292.5 288.6 280.5 284.7 287.5 292.8 297.1 299.9 301.3 301.8 306.6 312.5 318.9 320.5 321.1 322.7 323.5 323 322 321.9 321.9 319.5 316.2 313.9 312.7 310.2 307.7 305.2 300.6 298.4 295.8 290.6 277.8 260.6 241 227.8 209.8 198.1 193.5 187.2 173.4 167.2 167.2 164.8 162.9 162.9 162.9 160.6 160.7 158.9 167.9 174.8 182.6 187.7 192.8 199.4 203.5 206.9 211.8 215.9 217.8 221.1 225.8 233.4 236.9 236 237.2 240.4 242.2 246.2 253.1 258.8 267.1 272.4 275.3 279.6 285.5 290.5 293.4 295.8 293.4 289.4 286.3 284 282.8 280 274.1 266.2 252.2 240.8 241.8 239.2 239.2 254.4 257.8 262.9 265.7 270.8 273.8 279.9 292.3 300.3 302.3 302.4 299.9 296.9 294 290.9 288.1 286.2 282.3 278.4 274.9 271.7 268.6 265.6 263.2 261.2 259 256.3 253.5 252.4 252.4 252.4 252.4 252.4 252.4 252.4 252.4 252.4 252.4
444.6 442.3 437.8 432.8 431.3 430.5 430.5 430.5 430.3 430.9 432.1 433.1 432.5 429.4 422.9 411.9 401.3 391.6 385.5 382.2 378.6 374.5 373.4 378.7 379.4 377.8 374.3 370.3 366 360.2 354.7 349.8 343.9 340.5 337.5 334 331.3 328.2 324.5 322.4 319.5 317.4 314.6 312.9 311.3 308.9 305.6 301.9 296.7 282.1 264.6 248.3 258.7 254.5 264 282.4 285.7 286.4 277.9 255.9 264.2 267.9 275.6 278.6 282.3 284.9 284.7 281.7 279.1 278.6 277.4 267 261.3 266.5 276.6 281.9 285.3 287 282.6 292.8 305.1 315.8 317.1 316.5 318.4 320.2 321.6 320.6 321 319.6 317.9 315.5 313.7 311.7 310.3 308.5 306.3 301.1 297 294.3 287.9 271.7 253.4 238.4 224.3 209.7 196.7 186.7 181.6 167.2 167.2 164.7 164 164 160.8 162.1 159.6 159.2 162.3 174.4 183.2 197.9 205 209.7 214.8 217.6 220.3 224.2 228.6 231.3 234.9 239.9 244 245.7 245.3 245.7 248.3 252 257.8 262.4 266.3 273.4 277.4 283.1 288 293.9 297.6 299.7 297.8 294.3 291.2 285.5 282.6 280.8 279 273.5 267.2 254.6 243.6 244.2 236.4 250.3 255.9 260.4 263.7 268.1 272.5 275.2 282.2 295 301.4 302.9 301.5 299.6 297 294.1 291.2 288.5 285.7 282 278.3 275 271.7 268.8 266.5 263.6 261.6 258.9 256.2 254 252.4 252.4 252.4 252.4 252.4 252.4 252.4 252.4 252.4 252.4
