ncols 200
nrows 82
xllcorner 220000
yllcorner 802450
cellsize 50
406.3 415.5 421.7 425.4 428.2 430.3 432.5 434.1 430.3 422.1 417.8 411.6 402.8 398.1 394.4 393 389.8 389.7 391.2 391.5 397.5 401 405.2 410.8 417.8 426.6 433.1 442.4 451.5 458.7 470.2 478.2 483.2 490.9 497.4 507.2 515.3 522.1 530.4 537.6 544.3 559.3 568.5 578 589.3 596.4 604.4 610.2 614.4 626.9 631.5 639.1 643.8 645.5 640.5 632.1 631.9 635.9 639 632.6 621.8 617.1 609.6 606.2 603.5 596 593.1 588.8 584 584.9 583 577.7 575.8 572.9 568.7 571.1 570.4 569.8 569.4 570.1 578.3 588.1 588.5 584.1 575.6 570.5 563 559.5 555.1 550.8 549.2 545.1 540.7 540.1 543.6 549.7 550.9 552.6 554 549.3 541.3 535.2 531.2 532.8 529.8 523.7 524.4 527.3 523 515.9 515.9 517.4 516.1 515.1 513 510.7 508 506.2 507.2 507.2 502.8 500.6 499.4 495.2 496.1 497 493.4 494.3 494.1 493.4 493.3 493 493.3 492.6 491.6 486.4 487.6 488.2 486 483.1 481.6 479.6 477.1 474.4 471.2 466.1 465.7 465.9 464.8 461.3 459.3 457.8 456.6 461.5 457.1 454 452 453.2 452.7 452.8 452 451.4 451.1 451.2 452 451.6 451 449 445.8 441.3 437.8 433.3 429.1 425.7 427.8 422.4 421 414.9 407.8 405.3 403.6 401.2 396.9 391.1 384.8 379.1 378.4 378.6 379.9 379.7 379.4 385.1 383.4 377.5 372.8 372.1 371.6 369.1 368.1 368.5
405.2 413.2 419.3 424.1 428.3 431.9 431 433.3 437.1 428.5 426.7 423.5 413.8 408.8 400.4 397.2 397.1 397.4 395.5 394.3 399.6 402.4 407 412.1 419.1 427.2 435.3 443 451.3 459.5 466.5 476.5 483.1 491.9 501.9 504.9 514.8 524 531.1 537.4 545.2 554.8 563.5 572.5 582.3 591.6 599.3 602.9 607.8 619.2 622.5 630.1 635.4 634.5 633.6 628.1 630.9 630.6 623.8 616.2 615.7 607.7 601.7 596.1 591.7 588.4 585.9 584.4 577.1 574.8 575.4 568.6 565.8 563 558.1 565.9 564.3 561.4 560.5 561.5 568.2 572 573.1 569.9 566.8 561.1 557.1 553.9 550.6 545.4 544.9 538.8 533.5 535.2 541.1 545.6 541.9 541.4 542.2 537.5 532.6 529.1 525.1 526.8 524.3 518.2 521.1 518.9 515.8 511.7 509.1 512.2 511.6 509.9 508.4 506.9 505.7 502.3 500.4 499.4 496.9 495.1 493.4 489 489.4 489.7 485.4 488.1 486.9 486.1 486.3 486.8 486.7 483.7 485.2 480.4 480.6 481.2 477.7 474.5 472.1 467.9 467.3 463.5 461.9 459.7 461.5 459.9 459.2 456.5 455.7 455.5 453.1 452.9 452.5 449.2 450.7 450.7 449.7 450.5 450.1 449.7 449.9 451.3 451.3 450.6 452 450.9 447.5 445.4 438.4 433.3 427.3 424 420.4 418.5 413.8 407.3 407.7 403.5 401.2 398.8 396.2 393.8 385.7 380.3 378.9 378.1 378.1 377.8 376 378.5 378.6 373.4 371.1 370.8 369.1 367.8 365.1 362.2
406.3 410.1 416.1 423.3 431.7 433.8 431.2 432.4 430.7 431.3 431.6 429.2 422.2 419.1 414.4 406.1 401.7 402.3 401.6 398.4 400.5 403.2 409.9 414.8 421.1 428.5 435.4 443.7 450.6 456.7 462.1 471.5 480.1 490.8 503.8 511 511.9 521.9 528.1 535.1 542.8 550.8 560.9 569.7 576.7 587.8 593.4 599.1 602.7 613.6 616.3 619 623.7 628.8 631.9 624.2 623 619 615.5 613.3 610.8 602.7 595.6 588.3 584.3 577.4 577.5 574.2 570.2 567 563.1 558.5 556.9 554.8 551.1 551.6 553.7 552.4 547.5 550.8 558.6 560.7 560.8 565.1 559.4 553.9 546.9 546.3 545.6 540.4 534.4 529.8 526.1 528.5 535.4 538.2 537.4 533 533.2 530.3 526.6 524.3 520 517 515.5 513.5 516.7 516.3 510.4 504.2 505 505.5 505 502.9 502.7 502.4 499.9 495 492.5 494.6 491.2 489.9 487.2 484.4 481.1 479.2 477.5 479.3 480.1 479.5 479 480.6 479.2 479.2 477.7 476.2 475.3 474.1 469.5 468 466.6 463.6 461.2 459.8 455.6 454.1 455.1 455.9 454.5 452.1 450.1 450.3 449.8 450.7 451.1 447.9 448 447.3 447.7 449.1 449.2 448.5 445 449.3 449 450.2 452.1 450 444.2 440.7 435 435.8 432.5 425.3 418.4 410.1 405.9 403.1 401.3 399.2 398.6 397.3 397.3 394.4 387.8 381.7 381.5 379 377.3 376.6 376.3 375 376.8 372.3 369.5 369.8 370.6 366.6 363.3 360.5
405 411.5 418.1 425.7 427.3 425.5 427 429 430.2 431.6 430.7 427.3 424.3 424.1 421.9 416.1 408.5 404.6 403.8 406.2 403.5 404 408.4 415.2 421.6 426.8 434.4 442.1 449 453.7 460.3 470.3 479.5 488.2 499.7 508.3 514.8 519.7 526.1 533.7 540.1 548 557.8 566.8 574.1 583.6 592.4 597.1 599.9 609.2 611.1 613.6 615.7 622.6 620.3 619.9 613.5 612.7 612.1 606.4 604.2 593.8 586.7 580.1 577.4 575.1 570.4 567.1 563.8 561.7 553.9 550.4 549.8 548 545.2 546.4 546.7 546.4 540.9 540 545.5 550 550 550.7 549.7 545.6 539.8 535.8 534.2 533.4 526.9 520 520.7 522.7 529.8 531.3 527.8 526.3 524.8 523.7 523.7 520.3 515.6 509.9 509.2 510 509.6 507.3 504.1 498.1 498.4 500.1 498.7 495.1 494.6 490.7 489.5 489.7 487.8 487.7 486.2 482.7 479.3 476.4 475 471.3 470.8 470.1 472.5 474.5 473.7 473.1 475.5 474.8 474.9 473.1 470.3 468.2 465.2 462.7 461.1 454.5 454.3 454.1 449.4 447.6 451.1 453 449.7 447.4 446 446.7 449.1 450.4 449.2 446.1 444.8 445.6 446.1 448 448.4 445.4 443.4 446.9 448.7 446.9 450.6 449.9 445.9 444.9 439.9 440 433.4 424.7 416.6 411.1 405.1 399.5 399.8 398.3 396.7 396.7 395.5 392.3 386.9 381.5 380 378.7 379.6 381.2 381 380.4 379.8 380.9 375.1 372.6 365.5 363.6 362.2 361.3
407.4 415 418.8 422.3 421.2 419.9 424.8 428.1 430.1 430.5 431.8 430.1 427.6 424.2 423.4 420.1 414.7 411.7 411.8 409.8 406.2 408.8 411.8 415.8 420.1 426.7 431.7 438.3 447 451.6 459.1 468.8 476.9 488 496.9 503 510.3 517.7 527.5 530.3 538.7 546.8 556.5 565.6 570.9 579.4 588.8 593.2 596.3 602.3 607.1 609 613.8 617.9 617.7 615.1 607.7 605.3 604 599.7 595 584.1 579.5 575.2 570.2 567.1 562.2 564.4 558.6 553.4 546.7 541.6 540.6 539.8 536.5 536.3 537.5 535.3 532.8 532.3 539.9 542.6 542.2 539 540.2 536.9 534 528.7 527.6 524 519.5 512.8 514 517.8 520 520.6 518.2 520.6 520.1 515.9 515.7 513.6 508.9 503.9 502.7 505.8 505.7 502.5 498.1 493.4 490.8 494.8 493.3 489.8 487.3 484.3 484.6 483.3 479.7 479 476.9 474.2 471 469.7 467.6 465.1 466.1 465.9 464.1 467.2 468.9 468.9 471.2 473.2 470.6 470.4 467.9 463.9 463.1 460.1 456.1 448.6 447.9 445.9 443.6 444.6 445.7 446.6 443 441.7 441.9 445.7 447.7 447.4 445.3 443.2 441.7 442.2 445.3 449.2 447.3 443.2 443.3 445.8 446.9 446.9 451.2 453.7 450.9 443.8 440.5 439.7 435 424.2 416.7 409.8 403.7 400.5 397.8 394.7 396.5 397.5 395.2 395.4 387.2 379.6 378.3 378.3 380.1 382.8 384.3 389.7 391.1 387.4 381.7 377.3 371.6 369.2 363.3 360.1
408.7 412.9 416.9 419 420.6 425.2 425.5 427.2 429.7 431.4 431.1 429 426.7 423.7 423.7 420.7 417.3 415.2 417.4 416.7 412 409.4 415.7 419.9 422 426.8 433.1 436.3 445.4 449.9 458.8 466.3 475.6 483.7 491.2 497.8 505 512.2 520.7 527.1 536.6 545.3 551.7 563.4 568.2 573.7 580.5 588 593.2 605.6 607.7 609.4 611.1 615 617.8 617.8 605.1 603.8 595.6 592.3 589.7 583.9 577.1 575.9 567.6 562.2 554.3 556.4 555.2 547.2 539.2 536.5 531.6 529.7 527.5 527.5 525.8 526.1 525.2 524.7 530.1 535.7 532.8 531 526.5 527.7 526.5 524.9 520.7 517.8 512.2 509.1 507.7 511 512.4 510 509.9 510.7 510 505.2 501.9 503.2 500.9 499.7 497.8 498.5 497.7 492.5 491.3 487.7 486.6 488.8 485.9 483.8 480 473 478.3 473.9 472 470.3 468.8 466.9 465.4 463.7 463 461.7 458.6 459.9 460.3 465.2 465.7 466.2 468.6 471.6 468.9 465 465.2 462.6 458.6 454 448.4 444.4 441.7 440.6 438.4 440.8 439 438.4 437.7 436.6 438.4 442.3 443.6 442.3 441 439.5 438.5 438 439.7 446.1 442.7 440.2 443.3 447.3 449.4 451.1 453.8 457.1 450.4 444.3 440.7 438.5 431.9 422.7 412.4 408.2 402.5 398.5 390.5 389.5 393.6 393.5 392.6 392.2 387 378.5 376.7 377 379.8 383.5 387 389.2 394.4 394.8 390.1 383.6 374 370.5 363.9 359.1
407.8 411.8 413.5 414.7 419.2 420 423.6 427.1 430.1 431.4 430.8 427.9 426.4 423.2 420.5 419.5 417.5 419.4 422.9 425.9 423.6 417.3 411.8 416.7 420.8 428.2 432.2 436.1 442.9 447.6 453.7 466.2 470.4 472 480.3 493.2 501.5 509.1 518 525.9 534.4 540.7 551.5 559.5 566.1 572.9 578.7 586.2 592.4 591.6 607.3 610.9 611.4 614.3 616.1 617.2 608.4 599 592.1 585.9 587.4 578.7 575 572.2 567.1 557.2 552.9 548.1 546.8 539.9 533.1 527.7 523.9 522.1 519.3 517.3 515.9 515.2 515.5 515.5 519.8 522.9 521.3 517.8 512.1 512.3 515.5 514.1 514 510.3 505.3 504.8 502.1 502.6 504.2 505.1 505.1 505.5 501.2 501.7 496.8 493.5 499.7 497.2 497.6 494.7 490.8 486.3 481.7 479.7 480.1 479.7 478.4 476.1 471.9 469.4 469.1 467.4 465.9 463.7 461.8 458.9 460.2 458.3 454.9 456.2 455.5 451.8 457.8 459.9 464.3 465.1 467.1 470.3 469.7 465.2 459.5 456.9 453.6 449.3 445.6 441.5 439.4 436 435.2 435.9 432.8 432.1 432.2 432.6 434 434.9 435.1 435.3 436.1 436.7 435.9 435.7 434.8 436.2 435.2 437.1 441.8 445 451.1 454.8 455.3 454.1 451.4 449.4 441.2 436.7 426.9 419.2 415.5 410 401.4 394.9 387 380.5 384.9 384.8 386 383.4 376.6 372.8 374 374 379 382.4 386.1 389.6 397.9 398.5 397.8 390.6 379.1 371.8 365.7 360.3
409.1 411.1 412.7 414.2 416.1 418.9 418.4 427.4 428.7 429.2 427.4 426.2 425.4 422.5 421.3 421.8 423.2 425.6 428.8 430.5 430.8 430.2 421.8 423.3 425.4 427.7 430.7 432.6 439 445.9 448.9 452.8 468.5 479 486.3 494.4 502.4 510.2 519.8 526.7 534 543 549.8 557.8 566.3 572 575.3 583.9 588.8 590.6 604.7 612.6 611.5 611.5 612.4 613.5 609.6 605.3 591.1 573.9 573.6 572.4 571.2 566.1 566 553.9 549 545.1 540.7 536.7 530.1 524.9 521.6 518 513.6 508.6 506.4 506.2 506.4 507.4 512.2 514.2 511.4 509 506.6 502.7 503.1 507.1 507.2 504.6 502.1 500 499.2 499.7 501.2 502.9 503.2 500.3 498.9 496.6 490.6 491.2 494.7 491.8 495.4 489.9 487.1 480.9 475.3 477.6 473.9 473.4 473.2 469.7 466.1 465.6 464.9 463.2 460.6 457.5 455.9 450.6 447 451 449.4 451 449 452.9 455 458.7 463 466.4 467.1 467.3 467.1 466.9 463 455 448.6 443.3 441.2 438 435.2 432.2 430.6 430.2 429.5 429 427.8 428.4 428.9 429.1 428.8 430 431 433.3 431.8 431.2 432.5 430.1 430.8 436.2 440.7 444.4 451.6 455.7 456.5 455.1 452.5 447.3 441.2 430 423.2 422.7 417.7 405.9 397.6 390.8 384.4 375.6 380.1 376.8 376.1 375.2 371.1 370.2 372.6 374.7 380.6 383.9 386.7 389.7 396.7 398.1 393.2 387.6 381.9 375.6 368 364.7
409.2 412.6 414.2 414.8 416.8 419.1 417.2 422.3 425.7 428.8 428 426.9 425.3 424.5 426.3 426.7 428 432.4 436.6 434.9 437.2 439.7 434.6 426.2 428.8 430 432.3 436.1 441 448.1 455.3 463.3 471.3 477.7 486.1 495.3 504.3 511.4 519.6 525.3 532.4 541.1 548.8 552.4 561.4 569.4 574.4 583 588.7 598 606 608.9 609 609.7 612.5 610.6 607.7 605.4 597.9 583.5 568.8 563.9 564.7 560.5 558.3 554.3 549.3 544.7 537.4 532.3 526.5 521.6 514.9 511.4 506.5 504.1 500.5 501.4 501.5 497.7 501.4 511.2 507.6 502.8 497 497.4 497.6 496.9 498.9 499.2 498.1 497.5 495.6 496.8 498.4 501.7 499.1 495.5 491.8 491.6 491.3 487.1 486.1 486.6 489.1 485.4 483.1 476.2 471 470.7 466.6 469 466.7 463.5 458.7 462.9 459.5 457.2 455 452.1 455.2 443.7 441.2 442.6 444.1 444.2 449 452.7 453.9 458.2 464.1 467.7 469 467.8 466.8 466.3 463.3 452.9 447 442.3 436.3 430.4 428.8 427.2 426.7 425.3 426.1 425.5 423.8 423.7 423.6 423.2 423.3 423.5 426 428 428.7 427.6 427 427.2 429.1 433.9 439.7 444.9 449.1 456.2 460.8 456.7 449.1 445 433 420.8 421.5 421 407.6 402.4 396.7 389.3 379.7 370.1 377.1 371.4 370.2 369.2 368.7 370.6 372.7 375.9 384 385.3 388.7 392.6 400.4 407.9 398.5 386.5 376.4 372.6 370.3 365.4
407.2 410.6 412.9 414.4 417.3 417.2 417.2 417.2 422.6 428.2 430.1 430 430.5 427.8 429 430.2 432 436.3 442.8 442 446.9 449.3 443.7 436.2 429.8 432 434 436.7 442.8 448.9 457.3 465.8 472.5 481 489.7 498.2 505.9 513.7 523.5 529.9 535.4 542.1 547.9 550.6 557.4 567.7 576.6 583.2 594.9 603.4 606.7 610.6 612.2 612.5 611.6 612.1 606 602.7 600.7 585 573.1 560.7 556.5 555.4 556.4 554.6 547.8 542.5 538.7 534.2 527.3 519.3 511.9 505.6 503 496.6 492.9 493.7 491.8 488.9 488.7 498.2 499.5 495.2 491.3 486.1 486.6 488 491.6 492 492.1 493.6 493.9 492.4 495.4 495.9 495 491.1 490 491.2 489.6 486.2 479.7 481.8 482.3 481.2 475.4 471.6 465.1 463.1 463.6 463.8 461.2 455.8 453.9 456.2 454.7 451.2 447.1 444.8 441.1 439.1 438.8 438.8 441.5 443.2 448.5 451.6 452.8 458.9 464.2 467.5 467.1 466.5 465.4 463.1 459.9 450.4 442.8 436.6 431.5 425.7 418.8 421 421.5 420.8 421.4 420.4 418.8 418.3 417 415.8 415.5 418 420.7 422.1 423.4 422.7 423 425.5 429.4 433.3 437 443.2 446.4 451.1 456.4 452 444.3 439.6 427.8 415.9 413.4 405.7 400.9 397.2 389.8 384 374.1 364 369 367.8 366.7 365.3 368.8 372.1 373.1 376 381.4 383.4 385.7 389.5 396.4 416.1 408.5 386.5 373.9 367.7 364.8 360.4
407.6 412 414.8 416.8 419.1 417.2 417.2 417 423.3 429.2 436 435.3 432.8 428.9 430.4 434.2 437.8 442.8 450.3 455.6 457.1 456.3 450.2 439.6 436.5 435.8 437.3 440.2 442.9 450.6 458.6 465.1 472.8 482.4 491.5 501.5 507.2 515.8 525.7 532 537.7 544.4 548.8 554 559.1 570.1 573.9 587.2 599.8 603.6 608.5 611.9 613.3 611.8 612.8 614.9 608.1 601.4 593 586.1 578.7 567.9 556.1 549.1 550.8 550.8 543.5 542.2 539.6 533 525.2 518.4 510.9 502.7 494.7 489.7 485.8 485 484.3 482.4 485.8 488.9 491 488 486.4 483.6 482.8 481.1 482.7 486 487.6 490.1 489.9 491.2 490 491.9 490.3 487.6 486.6 488.5 486.2 481.7 477.6 476.1 475.5 477.8 471.4 466.2 458.8 456.3 459.2 458.1 451.8 447.8 447.3 447.2 445.2 440.7 438.6 438.7 436.6 432.3 437.5 433.9 437.8 438.6 443.9 450.2 451.2 456.3 464.2 466.1 464.4 464.4 463.9 462.5 458 448.3 439.8 433.6 427.3 420.6 416.2 409.6 414.2 416.2 415.8 416.2 414.5 412.9 411.7 411.5 411.3 413.7 415.8 417.3 417.1 417.1 420 423.4 428.6 432.2 434 436.3 439.7 445.7 449 445.8 440.8 431.8 417.8 414.2 408.8 400.3 395.3 390.2 383.4 379.2 370.1 360.5 361 360.6 362.5 362.9 366.6 369.4 369.9 372.2 376.1 378.8 382.9 387.7 393.3 402.7 407.5 388.5 372.7 365.7 362.1 357.2
413 418.7 419.8 421.7 423.5 421.9 421.8 422.9 427 430.9 436.1 438.4 436.1 433 436.4 441.9 451.2 457.6 463.4 464.1 462.3 458.4 451.3 443.6 439.8 438.2 441.6 445.3 446 452.4 461.2 469.3 478.1 487.9 496.6 504.7 511 519.5 526 533.1 540 546.4 553.2 559.1 566.8 568.5 576.4 594.1 610.2 613.1 609.3 608.3 604.4 604.3 607.5 616.1 609.6 604.5 600.6 595.6 582.8 572.3 559.7 549.3 543.3 543.6 542.9 538.9 534.3 527.5 521 513.3 505.9 497.7 487.7 481.2 477.2 476.2 475.4 481.1 482.8 483.4 483.6 484.8 482.3 479 479.6 478.9 476.8 479.6 484.1 486.2 486.5 485.6 490.5 486.9 486.3 485.3 483.7 486.6 482.2 482.5 479.5 475.2 473.4 475.4 468.9 461.1 456.6 452.8 453.6 449.1 446.4 444.7 441.3 442 438.1 436.5 435.6 434.1 433.1 431.4 432 431.5 438.4 436.2 439.1 447.2 448.2 452.9 461.2 464.8 464 463.5 463.7 463.7 460.2 448.7 439.6 432 423.6 415.6 408.9 406.8 407.3 407.9 410.3 410.3 410.1 408.4 407.7 406.9 406.8 408.5 411.1 411.8 411.5 412.9 416.1 421.4 424.6 427.4 429.3 431.7 434.6 439 440.7 443.4 435.6 422.7 413.6 410.1 402.9 395.6 392.1 383.5 377.8 373.9 367.8 359.2 356.5 355.7 355.8 359.9 364 365.9 366.7 368.9 370.9 373.8 379.7 386.9 394.5 405.9 409.4 386.2 376.9 372.3 368.5 360.9
416.9 424.1 426.4 426.5 427.5 430 430.2 430.9 433.5 434.1 438 441.8 442.6 443.8 447.2 455.7 462 469.3 471 472.1 467 460.9 454.2 449 446 442.9 444.1 450 456.2 458.8 465.4 475.3 484.8 493.2 501.4 511.9 518.4 523.1 529.5 531.6 539.3 550.2 557.7 565.7 579 588.4 592.2 599.6 606.1 611.8 607.4 606.1 604 601.1 601.1 610.5 605.8 601.8 597.4 593.4 582.3 573.4 561.3 554.1 546.3 544.5 538.3 531.7 528.4 520.6 513.4 507 496.9 491 482.9 473.4 469.7 468.1 467.2 475.9 480.2 480.1 479.4 477.3 475.6 475.9 475.4 477.1 476 474.5 478.8 480.1 482.7 483.9 483.6 485.5 484.3 484.9 485 482 481.1 481 480.1 477.3 474.5 472.5 469.9 461.9 452.7 449.2 451.3 446.9 442.3 439.8 439.4 437.7 436.1 433.6 434.1 431.5 428.4 431.6 432 430.1 432.4 433.2 436 441.4 444.2 449.6 459.1 464.3 462.6 462.8 462.9 462.5 458.9 448.8 437.9 427.8 418.4 410.1 403.1 399.5 398.3 399.6 400.9 402.1 405.2 404.1 402.1 401.3 401.1 402.5 404.7 405.2 405.3 406.8 410.3 413.2 417.1 421.5 425.6 428.4 430.1 434.2 436.8 431.5 422.4 410.5 404.6 399.7 394.8 392 386.7 377.3 372.6 365.9 361.6 356.7 351.4 352.5 354.3 358 362.1 364.7 365 365.8 368.3 371.8 375.8 381 386.8 391.4 393.6 383.4 382.7 382.7 377.2 369.4
418.6 426.7 430.1 430.2 432.1 435.4 438.5 436.8 437.2 439.4 444.2 448.5 451.6 453.6 461.3 470.2 472.7 476.7 478.9 474.6 471.4 466.2 460.5 457.4 455.9 456.1 456.8 460.4 465 468 471.4 482.3 490.1 501.4 508.3 516.4 522.8 527.7 529.5 536 544.4 558.9 564.3 569 582.1 593.3 597.9 603.6 604.8 604.5 600.3 602.2 600.7 601.4 595.6 598 601.3 594.2 587.7 583.1 575.7 571.8 562.1 554.7 546.8 545.5 541.7 533.9 523.3 516.5 506.4 495.5 491.2 485.5 477.3 471.8 464.4 462.7 464.9 472.3 475.8 477.2 471.9 470 469.1 470.6 471 470.8 471.2 472.9 474.2 475.5 476 477.6 479.1 482.4 481.4 484.6 483.8 481 479.4 479.8 478.2 476.7 477.7 472.9 467.8 460.3 451.1 448.3 445.9 445.4 442.4 438.3 437.7 436.5 436 431.5 430.2 428.2 425.5 424.9 428.3 427.3 426.4 431.6 433.2 436.2 439.8 443.4 451.8 458.8 463.7 465.9 463 461.4 456.4 446.4 433.2 420.6 412.3 404.3 398.1 394.2 387.3 391.3 392 393.1 395.5 398.2 395.3 395.7 396.2 397.2 398.1 398.9 401.1 402.4 406 408.8 415 418.1 421.5 423.8 425.9 431.9 432 423.1 413.3 402.9 395.3 389.7 385.9 384 379.7 372.5 365 359.4 356 354.9 350.5 350.2 352.5 356.2 359.1 359.7 360.6 363.1 366.3 369.3 372.6 376.3 380.9 384 383.6 382.9 381.8 381.1 380.3 366.5
414.4 425.3 431.1 432.4 436.3 438.6 443.2 443.4 442.5 446.4 453.8 458.1 461.6 466.5 473.5 483.2 490.3 486.8 479.1 475.7 475.9 473 466.9 463.3 461.6 459.4 459.5 463.2 464.1 467.7 477.4 486.4 494.7 503.5 510.5 518.7 527.4 534 539.2 547.6 557.8 563.6 571 575.3 578.4 588.2 599.6 604.2 600.5 599.6 601.7 596.4 595.3 596.7 592.8 593.1 587.1 579.3 574.3 570.2 567.9 561 551 549.6 544.1 543.2 536.6 529.3 522.7 515.1 506.6 496.3 489.8 482.5 474.8 472.3 463.6 460.2 461.4 467.7 473.5 470.8 468.5 463.5 466.7 469.4 471.2 470 470.8 471.9 473.8 474.4 476 476.4 475.6 475.4 479.2 480.8 478.6 476.8 478 479.3 474.8 471 474.3 469.7 464.1 458 451.9 448.2 445 442.6 439.2 436.6 436 434 432.5 429.5 423.7 425.6 425.6 423.2 420.7 420.7 426 428.8 432 433.7 434.4 438.4 447.1 455 460.2 460.8 458.6 455.4 450.7 438.6 426 412.9 405.3 398.2 392.5 388.5 385.6 384.1 384.4 384.9 386.1 388.6 389.9 389.1 391.1 393.3 394.3 394.8 395.6 397 399.9 403.1 410.5 414.7 418.5 419.6 421 429.5 420.4 415.4 405.5 399.6 391.5 384.7 382 378.7 373.8 366.7 358.3 353.1 350.7 349 346 347.5 349.8 352.2 355.7 355.9 357.2 357 358.9 364.3 368.1 375 379.7 377.4 377.5 371.6 373.8 373.9 371.1 357.5
421.4 426.6 434.4 438 442.7 445.1 448.3 447.8 446.7 452.6 461.3 468 475.9 480.4 483.6 490.8 492.2 489.3 484.6 481.2 476.5 476.3 474.8 466.3 464.7 462.1 462.6 462.7 465.4 472.2 481.5 491.3 499 506.1 515.2 523.7 533.4 543 554.1 561.6 569.9 574.5 580.9 581.2 578.5 579.1 588.9 594.3 593 596.1 600.4 596.8 591.5 589.9 586.7 584.7 579.7 568.6 561.1 557.2 553.7 550.8 545.6 539.5 534.1 530.6 529.6 522.8 519.8 510.3 501.4 494.6 486 482.1 478.4 472 464.6 456.9 458.3 464.8 468.4 466 464.4 459.7 459 459.3 463.9 465.7 467.5 470 468.8 471.5 473.4 473.3 473.2 472.9 477.1 478.1 475.7 473.6 473.8 473.1 469.2 467.9 467.7 465.7 463.1 458.8 453.9 448.8 445.1 441.4 439.8 439.1 438.3 434.1 429.2 423.7 420.4 421.1 421.8 417.8 416 416.9 423.9 429.6 430 430 431.4 434.5 442.6 448.3 451.7 454.1 454.9 450.5 447 432.8 418.1 407.6 398.2 391.7 386.2 382.4 379.4 378.2 376.8 377.9 380.1 381.5 382.4 384 386.3 389.6 390.7 392.5 393 391.9 394.3 399.4 408.4 411.6 416.8 413.2 414.8 417.9 408.6 404.6 398.8 394.4 388.2 380.2 375 370.6 368 361.2 354.1 348.2 346.1 346 343.2 342.2 346.6 348.4 351.8 351.9 352.5 353.6 355.2 359.9 363.2 367.1 372.6 369.3 364.4 355.7 357.5 361.2 358.4 345.6
427 430.9 436.7 445.3 448.7 450.3 454.6 455.4 452.3 457.2 464.5 474.2 485.7 493.1 492.4 490.8 492.6 490.9 491.3 484.3 480.3 477.5 473.7 466.8 466.1 464.4 462.3 462.9 469.6 477.2 485.9 495.1 503.7 515.1 524.8 534.6 544.3 553.9 560.7 567.4 576.4 584.9 591.7 589.3 581.1 578.7 578.5 589.4 593.7 599.9 602.1 600.2 593.7 593.5 587.9 583.5 579.3 563.4 560 551.1 548.1 545.6 540.1 534.8 529 522.5 518.4 517.1 511 505.1 499.3 492.7 483.6 479.5 473.9 467.7 461.2 456.7 452.5 460.3 462.2 461.2 456.9 455.2 458.9 457.2 458.7 458.7 462.7 463.5 464.8 466.9 467.4 468.2 470.2 472.1 473.4 474.6 473.6 471.5 470.5 470.9 467.2 465.6 463.9 463.3 465 461.1 455.3 452.1 449.7 446.5 443 440 438.6 432.8 426.2 422.9 419.2 417.2 415.7 413 413.2 419.9 420.9 422.8 424.8 427.5 429 429.9 435.3 439.9 444.4 447.2 448.7 445.6 440.5 426.4 411.4 399 390.9 384.4 379.2 376 372.4 367.9 370.3 371.6 372.6 373.7 374.8 376.3 379.3 381.1 388.9 389.2 389.4 387.2 388.8 396 401 407.5 406.8 404.3 405.1 404.7 399.8 393.9 390.9 388.8 382.8 374.1 367.7 364.9 361.3 354.9 348.6 345.9 344.2 342.4 340.3 338.7 341.3 343.8 345.3 346.4 345.2 347.6 349.9 352.3 352.7 357.6 363.5 360.8 347 341.7 341.4 344.2 343.1 332.6
432.6 434.7 439.7 449.2 456.1 457.2 458.6 458.1 454.7 457.9 466.1 478.8 490.1 491.7 492.1 494.6 490.6 491.3 491.5 486.1 481.6 477.1 472.3 468.6 465 463.1 463.6 467.7 474.8 481.1 490 499.6 508.8 518.1 528.7 540.4 555.3 567.9 576.6 580.9 584.1 590 594.3 593.7 586.4 576.3 580.8 597.1 599.5 601.3 602.2 602 593.3 587.9 584.3 582.1 581.9 569.5 558.8 551.5 538.7 531 532.1 526.7 522.6 513.3 505.7 498.6 500.8 498.1 491.4 492.7 481.1 474.4 470.6 463.4 458.9 452.3 443.7 453.8 454.1 453.8 454.1 454.5 455 456 456.4 456.1 459.9 461.4 462.4 463.1 464.2 464.9 470.1 470.9 472.4 472.2 469.5 468.2 468 467.5 464.7 462.6 461.4 461.9 462.8 461 458.9 455.7 452 448.8 444 436.2 431.3 426.4 423 417.9 414.7 413.4 411.9 409.7 410.5 414.3 417 420.3 422.3 422.9 425.3 426.3 428.9 433.8 437.5 441.3 445.2 444.1 434.1 420.6 404.6 391 383 379.4 373.7 370.7 366.1 361.9 364.2 365.8 367.1 367.6 367.8 370 373.7 372.2 377.9 383.2 384.3 382.4 383.2 386.9 393.2 393.9 394.6 394.3 394.3 398.1 394.7 386 384.1 382.5 375.4 367.8 362.7 358.6 354 348.9 346.4 343.6 341.7 340.7 337.6 329.8 336.2 338 339.7 342.1 341.8 338.7 341.5 344 344.6 353 354.5 345.3 332.6 331.1 331.7 336.5 328.5 319.2
436.8 443.5 448.6 453.7 459.5 464.1 463.5 461.1 458.3 457.6 466.3 478.4 487.8 488.3 490.2 494.5 492.7 491.2 490.4 486.3 486.7 480 474.6 465.2 464.1 463.6 463.4 467.7 475.4 484.2 493.4 502.5 510.4 520.1 534 547.6 560.2 576.1 583.8 588.4 589.1 589.3 592.3 595.6 589.1 576.3 581.5 594.2 597.4 599.2 602.4 601.9 591.5 586.2 580.4 577.4 576.6 566.2 555.7 547 537.9 525.9 515.2 514.1 513.1 504.3 497.3 490.3 488.6 486.6 487.2 483.6 478 470.2 463.8 457.5 451.6 447.9 439.5 449.7 453.1 454 456.9 456.9 460.1 460.8 457.8 455.7 457 459.4 459 458.1 460 463.3 464.8 469.1 470 469.2 467.4 464.7 463.7 464.1 464 462.3 458.7 466.1 470.9 466.6 461.3 459 451.8 447.5 442.6 434.8 426.9 421.5 415.9 412.4 411.9 407.3 408.3 406.3 408.1 410.5 413.4 416.6 418.6 420.2 421.9 422.3 425 429.2 433.7 436.3 435.1 431.5 425 412.7 397.2 383.3 376.7 374 369.4 364.6 359.9 354.4 357.5 360.5 363.8 363.7 362.2 364.2 367.7 364.7 372 373.7 378.3 378.7 376.3 379.7 382 385.8 386.4 386.3 385.2 389 385.7 379.3 377.1 373 367.2 361.1 356.6 351.3 346.8 344.7 343.2 340.7 338.2 335.3 333.3 327.4 329.5 331.1 335.2 336.8 336.6 333.1 334.6 337.1 338.6 342 346 327.5 318.6 318.9 320.7 319.7 316.9 310
446.4 453.3 458.5 465.8 471.3 471 468.9 470.7 466.6 459.9 465.9 475.1 480.5 484.7 487.2 488.3 488.4 490.9 490.9 487.1 483.6 478.5 477.1 475 468.1 464.2 465.5 471.6 478.2 485.4 494.4 503.5 508.7 517.9 537.3 548.2 559.5 573 583.2 590.7 590.8 590.6 589.4 587.4 588.7 578.9 582.7 586.8 590.1 595.2 596.3 594.2 585.6 580.7 570.9 569.3 568.2 563 554.7 545.6 539 531 518.3 508.6 502.2 497.8 491.7 486.6 478 476.1 478 475.3 472.6 466.5 461.4 454.6 448.7 442.1 437.1 448.8 456.8 456.5 456.5 456.1 455.6 455.1 454.4 454.4 454.8 453.4 454.8 454.9 461 461.8 463 467.4 469.6 468.6 467 462.7 461.6 463.4 465.6 464.3 458.7 471.2 479.5 472.7 464.7 458.2 451.5 443.3 436.4 426.4 420.3 412.8 408.8 404.7 403 403.4 404.1 402.5 407.7 406.8 408.8 413.5 414.3 416.1 417.6 418.7 419.7 423.7 428 431.2 429.1 424.8 416.9 402.1 389.2 377.8 372.1 368.4 362.7 356.8 352.4 349.1 351.7 356.3 358.5 359.3 357.8 358.6 358.4 361.4 361.9 363.6 368.8 373.6 372.2 372.5 375 376.7 378.3 377.9 377.4 378.7 375.3 374.3 372.2 367.9 360.4 357 353.5 345.8 340.7 339.4 338 334.6 333.4 332 328.7 322.5 322.9 324.6 327.5 328.1 325.9 327.5 329.9 329.6 331.9 336.2 326.9 309.9 306.9 306.2 305.7 304 299.7 289.4
454 464.8 471.1 477.4 478.5 477.2 475 472.4 471.9 468.6 474.5 478 481.9 483.7 484.6 486.9 486.8 488.3 487.5 484.9 481.3 484.5 482.5 478.9 477.3 471.9 472.1 476.1 480.9 489.5 497.8 506.9 512.1 523 539.1 548.4 553.2 565.9 578.6 584.5 588.6 591.4 591.9 588.7 582.3 581.2 581.1 585.2 583.7 586.4 589.1 590.1 588.7 578.8 566.3 559.7 557 557.3 550.4 543.5 536.1 529.3 518.5 508.4 496.7 489.8 481.6 477.5 475.5 471.9 469.8 468.4 465.3 462.5 456.7 450.8 446.4 439.2 434.3 444.5 453.5 457.4 457.4 457.2 453.6 453.7 453.7 449.5 448.5 448 449.6 455.5 457.2 459.9 462.9 462.6 462.7 463.9 463.7 460.6 460 462.5 468.1 467.1 462.2 462.9 465.2 467.9 466.3 459.9 450 440.5 427.9 418.4 410.9 404.7 396.6 398.2 399.4 399 397.8 396.9 400.3 403.3 406.2 406.4 408.3 409.9 411 412.2 415.1 418 418.5 419.6 423.2 424.7 418.1 401.8 389.2 374.1 366.5 360.9 356.9 349.6 345.7 345.8 345 350.6 351.5 350.8 352.8 355.1 353.3 356.2 355.7 357.4 365.5 365.4 369 369.5 367.6 368 367.5 369.4 370.5 369.9 367.8 368.2 367 363.5 355.4 352.2 347.2 337.1 332.7 332.7 331.5 331.4 330.8 330.1 325.4 322 320 320.7 321 321.1 321.1 322.3 325 325.5 322.9 324.3 310.9 296.9 295.9 296 293.1 289.7 283 275.9
462 476.4 481.4 481.8 483.1 482.4 475.5 472.9 472.6 470.3 476.2 479.8 481.4 482.2 484.8 487.5 487.7 488.2 484.4 484.1 483.4 488 485.5 485 488.5 485.1 488.6 493 498.2 495.7 503 507.1 514.3 523.9 535.4 548.6 552.1 557.1 569.1 579.3 579.9 586.3 588.5 588.9 584.2 575 574.7 577.4 579.3 578 578.8 582.3 583.2 574.1 564.6 551.6 544.6 547.1 545.7 538.2 532.2 526.1 517.6 506.1 496.8 489 477 472.6 468.3 462.8 460.9 462 460.1 456.2 452 449.2 439.8 435.4 428.2 441.7 455 456.8 463 458.3 449.7 447 446.5 443.1 440.4 445.7 450.4 453 456.3 462 465.2 463.7 459.2 457.2 459.3 459.2 456.8 458.8 462.6 463.3 460.6 455.2 454.1 453.6 455.7 454.1 443.9 431.3 420.7 409.9 402.4 398.4 394.5 393.7 392.2 394.1 390.1 390.7 397.6 400.2 401.4 401.9 403.2 405.4 406.7 408.3 407.6 411.1 410.1 409.4 411.1 414.6 416.8 402.5 385.1 373.2 362 357.4 350.4 345.2 342.1 342 341.2 342.7 342.1 344.7 347.4 351.5 350.3 353.2 352.7 356.1 360.7 363.2 365.4 368.6 365.4 358.7 358.5 361.4 362.7 359.8 363 362.5 362.4 356.4 351.6 347.1 340.2 332.5 326.4 329.2 327.5 329.2 325.3 324 324.4 321.7 313.7 318.8 317.3 316.8 318.5 322.8 322.6 323 318.8 313.6 296.7 285.5 282.5 282.6 282.1 276.6 265.9 263.9
464.3 476.2 480.3 483.6 482.6 478.8 476.7 474.5 474.3 476.6 475.7 477.1 480.5 482.1 485.9 488.4 488.4 488.9 489.1 491.1 490 486.4 487.2 489.4 493.7 494.9 499.3 502 502.8 500.8 500.1 505.1 514 524.8 532.7 540 548.6 550.2 562.6 569.5 573.3 581.2 582.9 585.3 584.4 575.2 572 570 572.1 574.7 572.1 569.2 567.9 567.2 558.8 542.9 535.4 534.7 535.2 533.7 527.7 521.1 511.1 501.9 494.2 484.9 476.3 469.7 465.8 454.3 455 453.4 453.6 452.3 443 441.1 434.4 431.9 430.4 442.8 448.5 455.4 457.1 451 445.5 441.7 438.7 440 437.7 445 447.2 452.2 455.5 462.6 462.3 457.3 454.7 451.3 451.8 451.7 449.6 451.1 455.5 460 458.7 452.6 445.7 439.9 436.2 431 425.6 416.8 409.1 402.3 396.4 392.2 390.9 392.7 387.3 387.4 386.2 386.8 393.3 395.4 397.1 398.5 398.7 398.3 399.8 402.7 401.4 402.8 402.2 403.5 405.2 404.3 411.5 396.5 381.9 367.8 358.5 351.5 347.9 343.2 340.1 340.2 338.9 338.4 339 340 340.9 343.1 345.6 350.8 349.9 350.3 353.1 356.6 361 360.2 357.9 355.2 353.5 353.9 351.5 353.2 353.9 356.4 356.8 349.8 346.8 341.3 335.2 328.1 325.4 321.7 321.7 321 319.7 319.3 322.1 320.2 311.5 312 312.3 312.6 318.7 320.9 320 313.6 312.6 302.1 283.4 276.7 274.9 266.3 266.9 264.9 258.8 254.7
464.7 472.6 476.7 479.8 481 476.4 476 474.6 474.6 474.5 478.2 479.4 483.5 483.8 484.7 487.1 491.5 490.9 491 491.9 491.9 491.7 491.5 493.2 498.7 502.1 502.1 504.3 505.3 500.1 500.4 509.9 520.3 525.8 532.3 536.1 538.7 545.9 551.8 559.8 565.8 571.6 574.6 580.2 580.4 577.1 566.7 566.2 562.8 560.9 559.9 558 557.7 553.8 546.1 534.9 527.7 524 524 525.2 524.8 516.1 503.3 492.9 487.6 480.1 471.7 467.8 463.7 457.5 448.6 442.1 447.7 446.7 440.2 432.8 429.6 423.3 428.4 438.3 442.1 444.7 444.2 441.1 438.9 434.3 436.2 435.8 434.2 441.1 446.4 446.5 450.4 450.9 451 449.8 446.5 443.8 443 442.2 445.2 447.8 448.3 451.2 446.3 442.9 435.5 431.3 424.2 417.5 412.6 405.7 401.1 397 392.4 388.3 384.7 386.1 385.5 385.6 381.4 383.5 387 388.4 393.2 392.7 394 394.9 393.8 396.7 397.4 399.2 399.8 400.8 404 399.4 400 391.8 379.9 369.7 362.6 354.3 347.8 343.6 339.8 337.8 337.5 337 337.1 336.9 336.6 338.2 341.7 347 345.1 346.2 348 352 353.4 354 357.2 352.4 346.3 349.9 345.7 346.9 348.1 351.8 351.1 345.6 340 337.3 329.2 323.5 324.7 321.7 319.4 315.8 317.5 315.2 316.9 313.5 308.1 305.4 310 310.9 315.2 313.7 310 305.3 302.5 288.8 277.3 269.5 259.1 255 251.6 251.7 251 242.2
468.5 468.3 474.2 477.7 474.8 474.2 475.7 475 475.2 474.6 475.2 480.3 481.9 482.7 485.4 489.2 490.8 492.9 493.8 492.8 493.7 494.3 494 495 498.9 503.3 501.9 502.8 506 500 506.1 514.5 523.8 529.7 534.7 537.1 535.9 538.6 545.5 545.7 551.9 560.4 568 576.8 577.1 575 569.6 565.5 563.6 556.4 548.4 546 547.4 545.8 538.6 530.1 529.7 520.3 516.8 513.4 511.9 506 494.2 486.8 479 473 465.2 462.8 457.2 451.1 447.9 442.4 435.1 435.6 438.5 435 425.2 421.3 413.2 431.6 439.6 436.8 434.2 430.5 430.5 428.9 431.5 431.1 433 438.5 440.2 441.8 442.9 443.7 444.2 441.7 441.2 441.9 442.3 441.2 440.7 440.2 441 443.7 442.1 437.2 430.3 421.3 415.9 411.2 405.9 402 400.1 393.6 387.9 386.1 382.2 380 380.9 380.7 377.8 380.5 380.3 380.6 383.5 387.3 391.1 392.2 390.9 390.3 396.2 398.5 399.2 400.5 402.8 399.8 398.5 394.4 386.2 378.2 368.3 357.3 351.7 346.1 341.2 338.5 336.7 335.5 334.4 334.6 334.9 338.1 340.1 342 342.3 342.2 342.8 345.9 347.7 346.9 344.8 342.4 343.4 340.8 341.7 341.5 345 346.6 344.5 341.3 335.2 330.7 324.3 319.7 318.2 316.5 318.2 314.5 312.2 309.8 310.4 307.6 304.2 299.4 301.5 303.6 308.1 307.5 305 304.6 294.6 279.1 270.8 259 251.4 245 242 236.4 234.3 226.8
465.3 467.3 468.9 471.3 470.2 469 469 473.4 475.6 475.3 475.1 477 479.2 483.2 487.4 490.4 492.5 496.9 495 494.8 497.4 495 497.1 501.7 502 502.9 502 502.4 502.9 505.4 513.1 520 528.7 535.7 536.9 537.3 536.4 538.5 538.2 541.1 541.1 545.7 555 564.3 569.3 567.3 565.1 561.2 559.4 555.3 547 536.8 535.9 533.4 532.4 529.7 519.4 518.8 514.2 507.8 504 496.8 489.3 478.7 473.1 466.8 461.7 454.8 451.8 446.2 443.3 440.2 432.8 424.7 428.1 427.7 421.4 418.1 415.3 423.9 428.8 429.1 426.6 424 423.1 421.8 425.8 423.8 431.7 434.3 435.1 435.7 436 438 438.9 437.6 436.9 438.9 440.5 440.1 440.5 440.4 438.5 438.4 440.3 431.3 422.2 411.6 407.8 406.4 403.6 401.4 396.9 390.3 385.7 380.3 373.4 376 371.7 373.9 377.9 378.8 378 377.2 377.8 382.2 388.8 389.4 389.4 389.1 391.9 395.3 400.2 408.8 407.5 407.5 410.4 402 393.4 383.1 372.2 361.2 353.5 349 343.9 340.4 338.2 338 334.8 333.7 332.8 337.2 338.2 339.3 339.5 339 339.8 341.5 342.2 342.1 340.2 338.5 338.6 337.6 337.1 336.5 339.9 337.1 335.5 333.8 329.9 325.1 323.7 320 318 314.1 310.7 308.3 306.4 305 304.6 302.3 299.7 295.3 296.2 298.6 299.2 298.5 298.4 288.5 275.5 265.3 263.4 256.5 249 241.9 235.6 226 221.7 218.7
468.6 468.4 468.6 469.4 472.5 478.2 476.7 475.8 474.7 480.3 480.8 480.9 481.3 482.3 487.8 490.1 492.6 497 496.6 497.5 498.4 496.6 500.3 504.6 512.1 513.7 506 502.8 503.2 508.2 515.7 528.3 535.6 541 543.3 545.6 538.4 539.5 539 533.2 533.9 536.2 539.3 542.5 551.7 553.4 555.5 551 550.7 548.7 541.7 532.4 528.5 524.8 521.8 518.7 511.2 507.5 507 502.1 494.7 487.8 481.2 471.7 465.8 459 456.6 449.8 444.1 439.7 437.5 432.4 425.7 421 421.1 415.1 412.2 410.8 413.5 416.8 418.5 417.9 416.4 412.8 415.6 416.7 413.2 417.3 424.3 428.2 429 429.8 431 433 433.3 430.2 435 439.2 440.5 450.7 450.2 443.1 437.5 431.4 429.6 420 412.5 412.7 409.4 406 407.9 404.4 397.6 387.1 381 375 371.4 367.7 375.1 378.9 379.6 378.9 377.7 377.3 376.4 378.6 382.6 384.9 385.3 385.5 387 394.7 402 414.5 413 415.2 418.6 409.6 398.9 391 378.7 362.9 353.4 344.9 342.3 338.4 335.4 334.8 332.8 332.1 331.7 336.4 337.1 338.2 339.1 336.4 338.2 337.8 338 339.8 336.7 332.7 333.6 332.1 336.1 333.3 334.6 332.6 331.9 330.6 327.2 322.6 319.8 317.8 314.8 310.2 306 306.3 304.7 302.3 301.1 297.1 293.6 292.8 288.1 294 292.2 291.2 281.7 273.3 264.8 257.2 251 244.8 241.2 233 224.3 214.2 209.4 210.3
471.3 471.7 473.7 476.3 478.8 478.6 478.8 478.3 476.6 479.7 482.6 483.8 486 483.5 484.1 486.7 490.2 495 500.3 500 506.1 503 501.6 507 511.6 513.7 509.8 508.6 504.2 508.3 518.6 530.4 533.7 535.9 535.9 535.9 535.7 535.7 534.3 527.6 526.3 526.1 528.5 525.1 530.9 535 539.5 539.1 539.2 535.7 531.2 521.8 520.1 516.8 509.8 501.4 498.7 495.7 494.1 491.3 485.1 478 473.8 466.2 458.3 453.2 451 443.9 441 435 432.8 426.1 420.9 419.1 417.5 409.6 407.1 402.7 409.3 406.4 408.7 408.6 408.1 404 408.1 406.6 404.5 413.2 418.2 416.5 420.4 423.9 426.4 430.9 429 426.4 434.2 438 443.6 453.5 440.8 432.4 426.8 424.4 422.4 421.2 418.2 414.9 408.3 406.1 407.9 398.3 390.5 384.7 375.5 370 366.8 374.5 378.8 378.5 378.5 378.3 377.3 376.3 375.3 379.7 382.6 383 382.9 384.5 390.9 396.7 403.6 415.7 422.6 424.7 423.6 416.6 405.3 396.4 380.2 365.9 355.1 346.9 338.7 333 331.1 331.1 330.6 330.9 331.1 332.2 337.2 338.1 338.9 337.5 336.5 336.3 337 338.2 338.1 334.7 331.2 327.9 316.7 324.8 324.6 323.8 324 321.1 319 318 313 312.1 308.4 308.4 305 299.5 297.3 301.3 299.8 295.6 292.1 281.5 280.7 280.9 280.4 274.5 268.5 264.2 249.4 240.9 239 236.7 232.6 219.8 210 206.5 203.1 206.1
475.5 475.8 477 477.7 478.1 479.5 477.9 477.6 484.9 485.3 486.3 487.1 487.3 485.4 485.8 486.4 487.6 493.2 500.7 503.3 506.1 507.4 506.9 509.6 512.1 511.6 513.5 509.8 509.9 510.3 508.6 517.7 527.7 527.6 523.5 526.4 526.1 525.7 525 522 518.7 517.5 516 516.6 517 521 525.1 527.9 528.1 524.5 519.3 513.6 514.2 511.1 503 496 491.4 485.1 481.1 477.5 474.9 469.8 465.7 460.2 454.9 453.2 449.4 442.9 434.2 430.3 425.1 424 421.8 415.7 411.9 405.1 403 401.9 398.2 397.8 399.2 399.6 399.4 396.6 402.1 400.5 396.8 404.6 407.3 411.4 414.9 418.8 423.2 423.7 421.4 423.9 425.7 426.4 428.7 428.3 425.6 422.6 425.1 423.3 425.9 423.7 417.7 411 406 401.4 397.4 392.6 387.4 379 367 353.3 369.3 376.5 376 376 377.7 377.7 376.7 375.2 374.5 375.6 378.3 379.5 381.7 385.2 392.4 399.5 401.5 416.1 428.3 428.5 429.3 424.2 414.7 401.9 382.1 367.2 355.9 346.9 338.5 331.5 329.1 329.7 329.7 330.1 330.8 332.9 336.1 337.6 336.2 335.3 333.5 335.1 336.3 340 341.4 339.1 335.7 329.5 323.7 314.2 313.3 317.1 314.3 313.8 309.7 306.6 302 304.6 304.1 300.3 299.2 293 287.4 289.4 288.7 283.1 281.5 278.6 272.7 273.6 269.2 267 257.5 252.8 241.1 230.5 219.5 218.5 213.4 205.6 198.8 201.1 201.4 195.4
477.1 476.7 478.9 477.7 477.9 480.4 481 481 483.1 486.9 488.5 490.7 493.9 490.2 486.7 487.3 486.8 493.3 498.2 503.3 507.8 509.3 508.6 510.4 511.6 511.9 510.9 507.9 505.7 505.3 503.1 503 509 510.5 508.9 507.9 508.2 512.8 512.7 509.4 509.2 514.4 508.2 503.2 503.1 503.8 505.8 510.3 515.6 515 510 503.2 500.5 501.5 494 487.1 484.6 476.9 470.9 463.9 460.6 460.3 458.3 453.2 451.8 448.5 443.1 435.7 428.3 424.1 419.6 417.9 414.6 410.9 405.5 401.5 397.9 394.8 387.8 392.1 391.8 392.2 391.6 389.9 388.6 389.6 388 394.4 398.1 401.7 404.7 408.6 412.2 413.2 417.9 415.2 417.8 419 418.9 415.6 416 422 424.5 420.6 418.7 417 414.1 407.4 406.7 403.8 397.1 390.4 381.2 372.1 358.2 356.9 364.9 371.9 373.4 374.5 375.7 375.6 375.3 374.3 373.9 373.4 374.7 380.7 386.1 390.5 392.8 397.9 401.9 413.4 430.6 442.3 440 431.2 420.5 406.5 387.5 370.6 362.1 352 343.1 335 328.9 328.9 328.3 328.8 329.7 331.1 332 332.1 332.8 332.1 334.4 334.9 338.6 342.8 345.8 346.7 341.5 330.2 326.1 315.6 301.5 303.5 307.7 306.8 301.8 298.9 297.4 297.1 296.4 289.8 287.3 284.5 282.4 284 281.2 277 276.2 271.6 258.5 260.8 260.8 255.1 252.1 240.2 229.5 218.4 210.2 202.4 195.6 194.2 192.7 192.7 191 190.9
476.4 476.9 478.6 479.9 482.7 485.3 486 485.4 483.9 486.1 489.7 493.1 494.3 494.3 491.4 494.4 497.5 500.4 508 515.7 519.1 521.2 516.8 514.1 516.7 516.2 517 513.3 507.3 502.6 498.9 497.6 497.2 493.5 489 489.7 491.5 493 496.8 498.4 498.1 497.6 496.5 491.4 491.2 492.2 492.6 493.2 496.5 500.4 497.8 488.4 486 486.4 481.7 477.5 471.4 466.1 462.2 455.3 448.4 447.6 448.9 447.1 443.1 438.2 433.4 428.5 421.9 418.4 414.5 412.6 410 408.4 403.5 397.4 394.1 388.2 375.6 382.4 384.1 386.1 386.9 386 382.8 381.7 382.5 385 388.5 394.1 398 401.5 403.9 407.5 409 407.6 407.1 407.8 407.6 407.1 410.4 412.8 414.8 416.7 417.6 417.6 417.7 417.9 413.2 405 397.2 385.7 374.6 362.4 350.8 358.7 364.6 372 375.9 377 376.2 376 375.1 374.1 371.7 370.8 373.7 380.6 391.4 393.5 396.2 400 405.1 413.3 430 450.8 449.2 440.1 428.3 412.6 394.3 375.8 363.2 354.6 344.5 337.6 330.9 328.6 327.1 328.7 322.4 328.7 329.3 330.1 330.9 332.3 334.8 337.5 341.2 345.4 353.4 354.2 345 332.1 322 308.1 298 293.7 295.5 297.9 292.4 290.1 292.4 290.2 289.3 286.3 284.2 276.8 279.9 274.9 271.9 273.3 266.8 260.7 251 248.7 245.1 244.6 240.5 230.8 220 213.3 203.3 197.5 192.5 191 190.6 189.7 189.4 189.1
475.1 475.9 478.3 485.3 490.1 491.4 489.7 488.9 490.1 489.3 494.6 499.7 503.4 503.5 500.7 502.4 508.6 511.3 517.4 523.7 526.5 528.2 526.4 521.5 515.4 515 515.5 512.1 505 505.7 503.4 499.4 494.9 492.6 484.3 475.1 473.4 474.7 480.1 484.8 486.2 485.3 483 481.7 479.1 478.3 480.6 477.7 479.8 481.7 478.8 473.6 469.1 467.7 466 463.5 456.6 451.9 448.2 445.1 439.7 433.9 434.6 435 432.2 429 424.6 421.9 417.3 413 409.4 405.6 404.5 402 397.2 392.6 386 381.4 369.2 374.2 377.1 376.7 377 376.6 375.3 379.7 374.9 379.4 383.1 387.2 388.7 390.4 396.5 403.1 398.4 398.6 404.4 407.4 409.1 411.3 411.4 413.5 415.9 422 431.2 430.8 427.8 423.1 414.9 405.4 394.8 382.7 369.3 352.9 352.3 363.8 372.2 378.2 379.8 379.3 379.1 377.6 374.6 372.2 369.7 369.2 373.7 380.9 388.3 394 396.5 399.8 405.9 411.2 423.2 448.5 458.7 451.8 435 413.1 393.9 376.2 364.1 354.8 344 336.9 330.8 327.8 327.1 328 327.5 322.1 328.2 328.6 330.5 332.2 334.2 338 341 345.1 351.4 356.7 344.8 329.2 313.6 299.1 293.2 282.9 276.9 280.7 282.7 280.8 280.5 281.1 281 276.6 272.9 269.9 269.5 263.5 261.6 260.3 259.5 255.8 250.8 243.4 240.3 233.7 231.2 220.9 210.6 199.3 195.2 193.8 191.3 188.4 188.1 187.6 189 188.4
470.1 476.5 479.1 485.6 491.9 494.6 495.4 496.5 496.9 495 501.7 510.5 516.3 518.1 519.4 519.5 515.9 519.7 525.9 525.5 527.6 529.4 526.8 520.1 509 507.8 503.8 500.4 495.4 499 499.9 493.9 493.5 494.1 485 470.4 467.8 463.2 467 472 476.1 473.3 471.7 472.3 471.7 467.6 462.6 458.9 458.6 458.7 457.7 458.1 459.9 457.8 452.9 448.3 444.6 442.4 438.4 433.8 429.9 424.9 421.9 421.1 421.5 422.2 420.8 416.5 412.5 408.1 404.7 400.1 398.1 396.9 391.3 388.3 383.2 375 370.4 363.6 369.3 369.3 369.6 370.1 369 372.1 367.5 371.4 378.2 381.8 385 386.4 391.9 391.5 390.7 394.2 401.6 406.1 404.6 407.9 414.7 416.9 416.8 424 432.9 433 428.8 422.2 413.2 401.1 387.7 375.7 364.9 342.4 354.8 369.2 380.4 377.7 378.8 379.2 375.1 374.1 372.6 370.7 368 368.6 374.3 380 384.6 393.5 395.9 400.4 403.9 408 419.5 432 454.8 448.2 429.8 410.9 394.4 375.6 362.4 349.3 339 335.7 331.9 329 327 328 324.3 322.1 322.1 322.1 323 331.9 334.5 338.9 342 348.6 351.2 352.8 342.6 322.4 307.5 292.5 287.9 278.9 270.2 265.6 267 270.9 272.5 270.9 268.3 267 265.3 262.7 260.1 258.4 255.1 250 252.7 255.6 245.4 229.1 225.1 221 214.2 203.6 196.4 193.4 192.3 192.3 188.3 184.3 181.7 183.8 185.2 182.8
470.7 479.3 480.5 486.8 494.4 500 504.5 506.2 503.3 503.6 508.2 516.6 524.4 528.2 531.7 531.8 530.5 527.8 526.5 524.8 524.8 525.4 520.4 513 500.2 496 492.7 488 482.1 484.4 485.4 483.5 482.6 482.8 476 466.3 456.2 454.9 456.1 465.3 462.8 460.4 462.6 463.9 464.6 459.6 449.6 445.2 439.6 444.7 443.8 449.6 452.9 452.4 446.6 440.1 432.9 430.1 427 425.6 419.5 417.1 414.9 411.4 413.2 414.2 413.7 412.1 408.6 403.9 399.6 397.4 393.1 390.9 388.8 383.9 378.9 373 366.3 353.6 361.9 362.4 365 363.1 365 366.4 363.1 368.1 371.8 379.7 384.4 386.3 385.4 385.1 387.1 387.4 393.6 396.7 399.5 403.7 408 412.9 418.2 425 421.4 421.6 422.3 415.8 406.7 396.5 383.8 370.8 359 342.4 353.8 365.7 375.2 370.2 371.5 371.6 372.2 373.3 371.4 368.1 365.9 365.4 372.9 377.4 385.3 390.9 394.5 397.9 400.7 403.2 411.5 425.3 442.3 443.2 428 413 396.4 376.1 358.8 345 339.6 335.1 333.4 328.7 324.6 322.1 322.1 322.1 322.1 322.1 325.1 332.7 332.2 336.1 342.7 354 354.5 349.2 340.2 317.9 300 290.8 279.8 271.8 264.6 260 260 259.3 258.2 260 257.4 254.8 254.5 251.5 246.9 247.6 247.2 242.3 240 238.5 227.9 218.8 219.6 210.4 202.2 193.1 189.5 190.6 190.1 188.3 183.7 179.6 176.6 178.8 181.6 178.1
470.9 477 481.6 489.1 496.8 504.6 510.7 512 510.1 514.7 517.7 521.2 526.4 530.6 531.9 533.2 535 532.5 529.8 523.9 518 513.5 509.8 500.3 488.3 484 481.9 473.1 469.9 471 468.8 468.3 466.8 467.8 466.9 458.6 449.4 449.8 447.3 454.8 455.8 452.4 445.2 445.2 447.2 446.3 440.7 435.2 433.6 438.6 436.1 441.5 440.7 441.2 436.1 432.8 429.5 420.5 416 417.2 416.7 410 405.7 404.7 403.4 404.2 404.8 404.6 404.3 402.6 397.8 393 387.7 387.9 385.1 380.7 376.5 371 363.2 351.4 354.1 353 357.2 355.1 353.7 356.5 357.3 363.9 373.1 380.5 382.5 382.1 378.3 374.3 377.7 381.1 386.7 393.9 401.3 403.9 407.2 422 420 417.1 412.8 410.7 407.7 401.4 402.4 395.4 380.3 365.8 355.7 335.9 345.1 358.3 366.3 364.9 364.8 365.5 367.2 368.9 369.3 364.4 362.1 361.6 365.2 372.8 381.8 391.2 392 393 397.3 401.6 407.7 421.4 443 447.4 427.6 411.5 394.2 373.9 358 346.5 339.2 336.1 332.9 328.7 328 322.1 322.1 322.1 322.1 322.1 322.1 322.1 327.6 334.1 344.7 357.3 354.6 348.4 333.3 309.2 290 276.9 268 263.2 257.7 254.1 253.4 254 252.1 253 251.4 251.1 249.9 245.4 240.4 239.5 237.4 233.8 229.8 222.7 219.2 212.6 211.3 198.6 192 184.6 182.3 184.2 184.7 182.4 179.5 176.5 173.7 172.7 176 173.2
468.7 475 482.2 488 495.4 504.7 512.6 516.1 518.3 523 526.5 526.2 526.7 531.1 531.5 533.1 533.3 532.2 529.7 522.3 513.6 502.5 493.1 480.7 467.8 464.4 464.9 460.6 455.6 453.8 453.4 459.2 452 456.7 458.5 451.9 442.9 443.8 437.2 436.8 441.8 440.2 436.5 432.1 432.6 430.5 430 425.2 423.3 427.1 426.7 427.2 426.6 424.7 423.5 423.2 418 413 407.6 405.6 405.6 403 399.4 398.6 399.3 399.2 398.1 398.7 400.1 400.4 396 389.3 383.8 383.1 379.1 378.2 372.2 365.5 358.6 352 331.7 341.9 340 334.2 345.9 348.4 350.4 359.8 368.3 375.5 375.9 372.3 373 366.6 370.3 372.3 380.5 387.5 392.9 396.4 401.2 414.1 418.2 415.5 411.9 407.2 400.9 394.2 390 384.5 374.2 361.8 352.8 340.5 331.7 347.3 356.4 359.8 358 359.1 361.7 363.5 360.3 358.7 357.2 358.3 360.8 363.8 370.6 380.1 385.8 389 394.3 401 410.7 414.1 423.4 439.3 428.9 408.8 391.3 372.1 361.3 351.3 341.5 333.9 331.4 332.7 331 322.1 322.1 322.1 322.1 322.1 322.1 322.1 322.1 335.2 347.8 361.4 358.6 343.3 326.7 301.1 281 265.5 257.4 250.3 248.4 246.7 243.9 245.7 244.9 243.7 247.4 250.2 247.5 239.7 234 233.5 233.1 226.4 220.3 213.7 205.2 199.7 199.7 191.8 186.1 181.8 177.9 176.5 179 179.4 175.7 174.8 172.8 169.2 168.9 170.7
464.8 471.2 477.2 484.9 494.4 504.3 512.2 517.4 526.4 530.8 533 530.2 528.9 530.2 528.5 531.4 532.9 529 526.5 516.6 505.4 492.5 478.8 466.9 454.5 446.8 447.2 445.6 443.2 440.8 439.6 442.6 439.5 444.7 447.4 441.5 436.3 435.3 433.1 428.7 428.9 431.4 426.4 426.1 423.3 420.9 420.9 416 411.7 414 413.4 414 417.2 417.9 414.1 411.4 414.4 410.6 403.8 398.6 399.6 402.2 398.8 395.9 398 396.7 392.5 390.6 390.1 391.1 389.4 385.5 379.6 378 372.7 371.7 369.1 365 357.3 349.7 342.6 324.1 331.7 339.7 340.5 339.2 340.8 351.2 358.3 363.5 367 362.8 360.5 358.3 359.1 364.8 371.4 377.5 384 388.3 387.7 393.8 405.6 409.4 407.5 402.5 397.3 391.7 385.6 373.6 364.8 359.3 350.1 340.1 322.9 338.4 344.3 352.4 354.3 350.1 352.4 351.6 351.3 351.6 351.3 353.6 357 358.7 362.2 371 379.8 387.8 390.7 401.5 417.9 414.1 419.1 425.4 429.9 413.6 395.4 371.6 354.5 347.8 341.1 339.5 336.3 335.8 333.7 331.5 326.1 322.1 322.1 322.1 322.1 322.1 322.6 337.4 352.3 361.2 358.7 344.8 318.4 294 271.4 256.8 248.8 242.2 239.5 238.2 235.9 243.2 240.9 236.6 236.2 241.9 241.3 232.3 226.7 223.1 223.2 220.2 212.9 208.4 196.2 186.1 192.1 189.1 184.3 178.9 175.7 173.2 172.5 173.8 170.5 173.7 170.9 167.7 166.8 167.4
462.7 467.2 472.2 481.2 490.4 502 509.8 519.2 526.9 534.4 537.4 533.4 529.1 525.9 523.9 524 528.1 523.2 517.8 505.5 493.9 479.2 463.9 454.4 443.4 436.5 432.6 432.6 428.3 430.7 431 431.7 428.9 431.9 434 432 428 426.2 422.4 424.1 422.9 423.4 420.8 417.9 416.8 413.7 412.2 407.7 405.7 403.3 405.3 405.3 406 407.7 406.8 404.3 403.6 401.4 395.1 389 395.2 394 395.3 394.8 393 391.2 390.3 385.1 381.7 381 381.5 380.2 377.3 371.4 366.1 365.8 362.1 358.5 351.8 345.8 338.5 327 302.9 325.2 332.6 329.3 329.8 342.8 350.5 355.7 359.9 359.4 356.7 349.4 354.3 356.9 361 366.7 373.5 375.2 373.1 375.7 389.3 391.4 389.5 389.8 386.6 380.1 371.7 360.9 356 354.3 350.2 338.2 318.1 329.9 333.9 341 343.4 345.5 345.6 345.7 345.1 344.2 343.7 347.7 353.5 356.5 359.8 364.1 371.7 382.4 384.7 395 403.5 403.4 406.1 418.5 425.4 417.1 395.1 368.7 350.3 348.4 348.9 346.6 339.1 333.7 331.2 329.7 322.1 322.1 322.1 322.1 322.1 322.1 331.9 342.5 353.6 359.2 358.4 347.5 309.1 282.9 260.7 246.2 242.3 232.7 232 232.5 227.4 234.4 235.6 231.4 227 228.3 225.6 222.7 220.7 210.8 208.6 211.4 207.7 194.9 189.8 178.3 186.5 185.7 178.3 174.3 172.6 173.6 170.7 169.1 167.1 167.5 166.9 166.1 165.5 165.1
457.4 462.7 468.3 477.6 487 498.6 507.9 519.9 523.5 530 532.5 527.6 524.2 524.2 513.7 512.5 514.1 514 506.6 493.2 480.1 466 451.8 442.2 431.4 424.6 422.2 421.1 418.4 418.9 421.2 420.9 419.5 419.7 419.5 419.9 415.6 416.7 412.2 412.7 414.7 411.7 410.2 408 407.6 405.4 402.4 401 399.4 396 395.6 397.4 395.8 393.2 395.2 392.5 392.9 392 386.7 384.2 388 388.5 386.6 384.6 381.6 383.4 380.9 380.8 378.4 374.9 373 372.4 370.1 367.4 361.6 360.5 353.3 349.6 347.7 339.1 335.8 331.5 317 303.2 320.2 316.3 321.5 335.4 342.2 346.6 349.7 352.1 346.7 341 350.4 351 353.3 356.2 361.8 359.4 357.7 361.2 369.5 374.5 372.4 370 361.7 361.3 355.8 351.9 345.4 342.7 338 331.7 311 323.5 332.2 340.2 344 343.7 341.4 339.9 339.8 340.3 340.3 345.7 350.7 353.7 360.5 362.1 364.3 365.3 372.9 378.5 382.3 385.1 395.9 410.1 419.2 411.9 384.7 361.6 349.6 349.6 353.5 347.1 338.7 332.7 329.7 322.1 322.1 322.1 322.1 322.1 322.1 328.7 335.7 343.7 349.5 354.7 347.4 334.3 310.3 282.6 256 237.4 230.2 225.1 225.1 225.3 221.1 223.8 225 227.1 225.3 223 220.6 214.2 212.3 204.8 196.5 196.4 197.4 181.9 177.9 174.5 179.2 180.1 174.7 171.2 169.2 172.5 169.4 168.5 162.8 164 165.4 165.5 164.3 161
451.7 456.8 466 473.8 483.1 494.8 503.6 511 514.5 517.6 524.4 519.7 514.8 508.2 500.5 494.7 498 497.5 491.3 478.1 465.3 451.2 440.1 430.3 422.2 415.4 413.5 408.7 408.7 408.6 409.8 409.5 416.3 411.1 412.2 412.3 410.2 409.3 410.8 408.2 408.4 406.8 402.9 399.8 399.8 397.3 394.3 391.5 390.4 387.5 387.8 388.6 387 381.7 383.5 381.9 380.3 382.7 382.3 381.7 381.5 380.1 378 376.9 372 371.1 371.4 374.3 370.8 364.7 364.3 362.4 362.3 358.5 355.3 351.1 345.5 340.3 337.7 334 331.6 323.7 316.1 297.2 305.3 298.7 316 327.5 335.4 338.9 339.6 340.1 337.5 338.6 342.8 341.7 343.7 350.3 353.8 352.4 351.5 354.9 359.4 357.4 354.7 353.3 351.8 348.2 344.2 340.9 339 332.9 329.9 320.6 310.8 317.8 324.9 335.7 332.8 332.3 334.3 335.8 336.3 338.3 336.3 343.4 350.4 351.4 353.4 359.1 361.7 362.5 361.7 364.5 372.4 373.3 381.6 395.6 399.9 397.1 375.5 363.7 351.2 349 356.9 350.8 340.4 333.5 328.9 327.2 322.1 322.1 322.1 322.1 323.7 331.6 339.7 347.3 349.9 351.4 346.1 338.3 309 281 253 229.7 220 216.2 216.2 216.9 214.4 215.5 216.9 218.4 216.1 215.1 211.4 205.9 201.5 198.4 193 185.1 177.8 176.7 172.5 167.1 172.6 175.6 173.7 168.9 169.3 171.8 167.3 165.3 158.1 157.5 160.8 162.1 160.8 157.2
445 452.5 461.7 470.9 479.9 488.3 497.4 502.7 504 508.4 510.3 508.1 499 489.7 485.3 481.1 473.9 472.6 468.9 460.3 449.2 437.7 427.9 421.6 412.5 406.1 404.6 404.4 405.9 405 403.8 404.6 407 407.8 407.2 407.6 406.7 403.5 402.8 400.5 400.4 400.1 395.9 393.5 393.9 391 387.6 387.1 383.5 382.4 381 379.7 380.7 378 375.3 374.9 375.4 377.6 377.8 374.2 376.2 372.1 371.7 369 363.8 363.3 361.1 360.5 357.7 355.3 355.2 353.2 350.3 349.4 345.3 341.9 337.8 333.5 330.6 327 321.8 317.4 309.4 292.4 294 293.3 311.2 324.9 335.2 339 335 331.6 327.3 335.8 334.9 334.8 335.7 342.7 345.2 345.4 345.2 344.7 352.3 348.5 345.5 344 343.4 340.5 339.4 338.3 332.2 325.5 324.1 315.7 305 310.6 316.5 323.5 322.1 322.9 328.4 331.7 333.7 332.7 333.1 339.2 349 347.5 347 359.5 364.4 363 361.1 358.3 362.5 364 371.3 384.2 394.2 391.2 383.1 364 352.2 349.5 355.1 350.2 345.2 336.2 329 323.9 322.1 322.1 322.1 322.1 330.7 337.8 336.7 350.6 361 357.3 345.8 333 304.5 275.9 249.3 226.6 214.8 210 211.8 212.1 208.3 208.1 209.1 208.8 206.4 203.2 200.1 196.4 194.2 191.3 186.4 180 174.9 167.7 166 164.9 176.3 176.9 166.8 160.3 164.2 168.8 164.9 160.7 156.7 154 153 155.1 159.3 156.1
440.9 450.5 458.9 467.5 478.1 484.6 489.7 493.1 493.9 496.3 497.4 493.2 484.2 471 463.8 461 455.3 449.2 446.5 438 428.6 423.7 417.8 411.1 407.6 406.3 399.5 400.7 402.1 402 400.2 402.2 401 397.1 400.2 399.7 399.2 396.3 391.6 389 387.6 390.4 387.6 386.5 385.6 381.8 381 377.9 376.1 378 375.1 373.1 369.7 373.4 370 370.8 370.7 375.1 374.3 370.4 366.4 366 365.7 362.7 360.4 356.1 354.3 354.8 352.2 347.2 343.8 341.7 338.8 338 338 337.5 331.8 325.5 322 319.1 317.4 312.6 307.8 296.8 271.7 281.3 308.4 321.3 328.8 328.5 324.1 320.8 322.3 325.2 329.5 329.6 331.8 333.8 339.1 341.2 339.7 338.2 341.2 338.8 338.6 335 331.1 334.6 337 336.7 330.3 320.8 315.8 307.7 298.1 306.2 310.6 314.9 316.6 319 322.9 325 329 328.4 333.1 335.6 340 338.5 339.5 349.5 361.6 364.2 359.8 352.5 354.1 357.7 364.4 378.6 390.5 385.2 375.5 358.3 357 353.2 356.3 354 347.6 339.6 330.5 322.1 328 329.5 322.1 328.1 333.3 342.3 341.2 359.4 366 355.4 340.9 325.5 304.1 275.7 245.6 227.1 213.8 204.9 203.1 202.1 202.2 201.9 200.5 199.5 196.8 194.1 192.4 190.6 188.5 183 179.6 175.5 171.8 166.2 157.5 161.2 171 167.6 161.3 157.2 155.7 159.7 163.5 159.2 156.4 153.1 150.8 150.9 157.8 149.5
436.7 442.9 451.3 459.4 467 473.5 476.7 476.4 475.9 481.6 482.4 476.8 469.2 460 449.9 441.4 440.6 435.1 432.3 427.5 422.8 418.3 417.4 411.3 404.5 400.2 396.5 396.5 396.5 393.9 395.5 394.1 395.2 391.7 394.2 395 393.8 390.7 385.6 380.4 379.5 381.1 378.9 376.7 374.9 373.8 372.9 370.9 365.6 367.9 367 365.4 363.2 366.6 365.4 367 365.3 366.6 366.4 364 359.1 360.2 360 358.2 354.8 352.2 344.4 348 347.4 343.7 340.3 331.9 332.7 331.5 330.7 331.4 329.5 324.5 319.4 311.1 308.4 309.3 304 290 260.7 285.1 304.2 317.5 323.1 324 321.2 319 319.4 326.3 327.4 325.4 325.7 327.4 330.3 331.6 329 327.1 328.9 331.3 329.9 324.2 317.6 323.4 327.2 326 318.6 313.5 308 302.2 289.9 299.6 302.5 306.6 312.2 314.6 314.5 318.9 322.2 320.4 324.4 326.4 330.2 331.1 332.1 335.9 347.5 351.4 348.2 339.9 347.8 348.6 356.5 366.4 371.1 372.6 365.9 361 360.2 358.6 362.5 361.7 353.2 343.2 337.1 329.8 322.1 329 331 336.5 341.2 348.5 343.6 358.6 366.7 358 347.2 327.8 306.7 271.7 243.3 228.1 212.7 202.2 197.6 198 197.6 194.1 194.3 194.2 192.5 187.1 186.4 185.3 182.5 181.4 177.9 171.1 165.7 162.7 158.1 152.8 161.5 162.5 159.2 155.4 153.7 152.9 154.6 158.7 156.4 147.7 145 144.6 147.1 146.7
422.8 430.6 438 445.2 452.8 458.4 461.3 462.3 460.4 463.3 463.5 457.7 451 445.4 441.1 439.1 436.6 435.3 431.5 431.2 424 417.7 410.3 405.8 399.4 394.7 390.2 392.6 393.4 389.8 391.5 389 389.2 389.4 383 384.2 384.2 382.5 379.4 375.6 370.7 370.4 368.2 368.6 366 366.3 364.6 361.3 359.7 362.6 361 358.7 357.8 358.8 356.7 362.6 360.5 362 361.2 358.5 354.9 353.4 353 349.4 347.7 345.4 341.7 335.6 338.6 337.8 335.8 333.6 327.7 327.5 324.3 321.3 319.5 319.1 312 305.6 298.7 294.9 286.3 272.5 267.1 292.6 303 317 317.9 316.1 318.6 317.6 319.8 325.6 327.4 325.7 324.8 324.2 324.5 317.8 317.2 319.7 320.6 318.5 318.4 311.5 309.1 311.3 313.4 312.5 308.9 306 303.7 296.5 288.2 291 289.4 294.1 301.2 304 303.7 310.4 315.7 316.5 318 319.6 321.4 325.5 323.5 323.1 328.9 332.6 332.5 329.2 334.4 340.3 351.3 362.6 379 379.2 377.7 381.8 384 372.3 370.6 378.9 368.3 346.3 340.5 332.4 322.1 329.5 337.4 344 348.1 347.5 346.3 364.1 366.2 361.8 346.1 324.9 301.5 270.3 241.3 223.8 211.1 202.6 196.1 192.2 190 188 188.3 187.9 185.5 181.5 182.9 181.9 178 173.8 169.2 165.6 165 156.5 151.2 155.9 157.6 158.2 156 154.3 153.5 150.1 149.2 144.7 145 143.2 143.6 141 141.7 144.6
414.9 423.5 426.5 431.4 435.4 438.2 440.8 444.7 455 455.4 454.9 453.2 445.1 447.4 443.9 438 436.6 433.3 425.6 424.5 420.1 415.6 407.5 399.7 394.1 388.6 385.5 387.1 387.1 382.5 387.6 384.8 383.3 382.2 379 376 376.8 376.4 373.1 368.8 364.6 361.5 360.3 362.1 357.4 356.3 357.4 354.5 356.9 354.4 354.1 352.4 350.6 353.4 354.8 356.8 356.3 356.9 357.1 352.6 351.3 347.9 346.9 345.2 342.5 339.6 337.5 332.5 332.5 331 327.2 326.1 325.8 322 319.8 314.5 311 305.9 303.9 297.7 288.4 279.3 273.6 250.5 281.4 291.4 300.6 301.8 307.1 309.4 317 318.4 323 333.6 334.7 328.7 325 320.5 313.4 309.8 312.4 313.9 315.3 312.5 310 302.9 300.6 300.1 301.7 305.4 299.2 298.5 292.3 290.1 283.6 280.4 279.8 281.4 287.2 291.3 292.9 295.7 309.5 308.5 312.5 316 312.8 315 318.9 315 318.2 316.9 317.1 316.6 323.3 339.3 346.8 360.7 372.7 378.9 380.5 385.6 389.9 382.2 387.5 384.9 373.6 350.9 340.7 337 328.1 328.7 336.7 343 345 346.8 347.5 362.5 363.3 350.5 336.3 318.7 293.2 266.4 238.6 220.5 210.4 201.6 196.6 194.1 190.7 186.2 180.7 180.1 178.3 176 175.4 173.3 171.8 164.9 161.6 159.7 156.2 154.1 150.1 151.1 151.6 155.1 153.2 153 152.2 150 147.9 144.3 141.5 139.9 139 138.1 140.9 143.9
407.6 417.9 425.2 430.3 434.2 434.4 437.9 441.5 445.3 450 449.8 446.4 438.9 438.3 438.5 432.6 428.8 425.4 421.2 418.5 415.4 410.8 403.1 394.8 387.8 385.7 379.2 378.3 379.2 375.2 377.5 378.4 376.5 372.3 369.6 370.5 368 367.4 366.3 364.1 359.8 355.1 354.1 353.4 350.3 349.2 349.9 348.6 350.6 350 348.1 347 347.3 353.1 352.8 354.9 353 350.3 350.1 347 346.6 344.5 343.7 341.8 337.3 335.1 333.7 330.2 324.2 320.2 320.7 319.1 317.8 317.4 312.3 309.7 302.8 302.5 293.9 288.9 284 274.9 250.8 263 279.9 289.3 293.2 294.4 294.1 299.9 310.9 312.6 330.7 338.6 337.7 326.4 318.7 317.8 315.7 308.5 303.4 303.2 305.4 304.3 304 294.7 290.5 288.4 291.8 293.8 293 291.4 287.7 284.1 277.9 271.5 271.7 271.1 273 276 289.2 298.5 303.1 304 304.7 305.8 307.3 304.3 305.9 304.6 304.2 304.4 303.9 307 312.6 330 341.5 355.5 362.4 371.7 379.5 380.3 384.7 387.3 379.9 378.3 369.3 357.5 342.2 334.3 322.1 329.4 335.8 336.4 344.6 350.3 347.1 352.3 344 334.3 323.9 304.4 279 260.9 237.5 213.5 205.9 198.5 192.6 190.8 185.4 179.3 175.9 173 170.2 169.2 168.1 164.8 161.3 160.3 157.8 157.8 154.3 151.1 148.1 147.8 150.2 151.3 150.4 150.7 149.7 148.6 145.6 144.6 141.4 139.4 138 138 141.1 144
404.8 410.8 420 427.3 430.7 430.2 432.8 435.8 440.9 447.2 451.3 447.4 438.9 435 431.5 426.7 423.6 420.5 416.9 412.4 410.9 401.6 397.1 390 382.2 380.6 376.3 372.5 368.4 366.9 370.3 374.2 371.1 366.4 362.9 365.5 362.4 358.3 358.8 356.4 354.6 351.3 347.6 346.1 346.6 345.2 347.1 346.2 345.3 347.2 345.5 344.4 346.3 352.6 352.7 352 353 348 343.1 343.6 341.8 345.3 342 342.1 338.3 329.8 327.2 324.3 320.1 316.5 315.7 316.4 315.9 309.2 307.2 303.3 296.1 287.7 283.4 280.7 273.5 265.7 242 271.8 279.3 281.9 286.6 290.1 286.9 288 297.1 310.5 321.2 325.4 325.3 315.2 308.7 313.2 316.7 311.2 299.6 290.8 291.3 288.8 285.5 280.7 282 278.7 281.8 281.4 284.9 282 278.7 277 274.5 270.2 262.9 260.6 269.6 277 299.9 306.6 305.8 304.9 298.5 297.6 297.6 295.9 295 293.2 293.1 297.8 298.6 299.4 309.4 318.5 337.9 349.4 354.3 361.1 372.7 377.6 377 376.2 375.7 375.4 371.9 356.3 334.9 331.3 322.1 334 338 333.4 339.1 347 346 337.9 332.7 321.3 306 286.5 270.2 252.4 232.8 213.7 203.8 195.5 185 180.8 179.5 171.6 173.3 170.6 163.7 160.3 158.2 156.3 155.4 161 155.4 150.8 148.6 145.3 146.7 145.6 145.3 146.8 147 147.3 148.8 146.4 144 142.2 140.4 138.7 136.4 139.1 140.8 141.6
399.4 405.9 414.2 416.7 420.6 424.7 429.4 437.3 441.8 445.5 443.9 439 433.2 429.5 428 427.9 424.1 420.3 413.2 408.2 403 397.2 390.8 386.4 384.6 380.8 373.3 369.5 365 363.5 364.5 369.1 364.8 360.9 357.9 357.3 356.4 350.5 352.7 352.1 349.2 346.7 343.2 342.2 343.5 339.8 344.9 344 342.2 345 346.6 343.8 344.5 352.7 352.4 351.5 351.2 349.6 344.5 339.7 338 337.6 340.8 339 338.2 327.3 323.9 320.1 313.2 310.1 311.7 308.1 306.7 304.7 301.7 302.7 293.5 286.3 276.9 271 264.6 252.5 251.4 270.5 277.2 277.4 276.7 280.2 280 271.7 290.9 297.2 303.7 300.2 297.5 294.1 295.2 296.9 301.3 295.9 286.9 281.1 288.6 285.4 278.8 275.3 274.2 271.5 269.3 268.7 270.9 270.8 268.7 272.1 272.3 267.3 260 252.7 262.6 272 290.3 302.9 305 299.6 291.7 283.7 285.2 283.5 286.5 284.5 285.9 288.5 291.2 292.6 303.5 316.4 331.8 339.8 346.9 356 364.9 369.5 367.2 373.1 379.9 376.2 375.2 360.9 331.5 327.5 322.2 336.1 336.7 329.2 331.3 335.6 336.4 331.5 328.5 312.8 294.9 277.6 264.2 246.8 229.5 212.9 200.5 190.2 183.2 177.2 173.2 167.2 165.6 164.5 160.9 157.8 152.9 149.9 149.3 150.2 147.6 146.3 144.7 144.1 144.9 143.5 142.7 142.5 142.7 145.1 143.7 144.4 142.9 139.9 138.1 135.8 136.3 140.2 140.1 140
395.6 403.6 406.7 409.7 414.1 419.8 428.4 433.3 434.7 438.3 438 433.1 426.6 423.9 426.3 427 424.4 419.5 411.4 405.4 399.5 395.5 391 383 382.6 377.8 374.3 372 374 367.2 359.7 360.7 358.8 356.3 353.3 349.6 350.4 346.8 344.7 346.3 344.5 343.6 337.9 338.3 337.3 335.1 339.1 344.1 338.4 340.4 344 344.9 345.3 352.7 354 351.3 349.8 346.7 343.7 338.7 336.8 332 333.1 333.3 329 324.1 320.1 317.1 312.3 303.3 301.5 301.4 301.3 300.5 293 290.6 289 279.2 276.7 269.5 262.1 237.8 251.5 263.2 266 267.4 267.1 267.9 267.3 265 272.5 281.7 290 285.8 281.7 279.6 281.1 282.3 282.1 282.4 276.2 269 276 283.2 277.5 271.7 265.3 260 257.9 259.3 261.1 259.1 259.4 263.7 263.8 260.8 257.9 250.7 254.4 260.1 272.5 279.5 290.7 291.9 283.9 276.8 277.6 272.2 273.8 276 276.7 281.1 284.3 286.5 295.6 305.2 318.8 328.9 337.7 345.4 349.7 351 357.9 366.3 371.9 373 373.4 360.4 334.1 327.8 318.3 330 332.1 326.4 321.9 327.6 322.1 322.2 317.8 301.6 284.3 268.3 255.2 236.5 222.8 210.7 198.8 189.7 183.6 175.9 170 164.9 161.8 160.3 155.7 151.6 151.8 150.9 148.1 145.7 144.3 143.6 142.6 144 143 142.7 141.5 140.3 140.5 140.6 141.5 144.9 142.4 136.5 135.8 135.8 135.8 135.8 137.8 139
388.8 394.6 398.4 400 405.9 411.5 419.5 425.7 426.4 427.5 428.1 425.6 421.5 419 416.4 420.7 416.5 410 405.7 399.1 393.3 391.4 386.5 381.3 380 380.1 379 373.2 371.9 369.5 362.7 355.2 354 352.5 349.5 342.5 343.7 343.4 338.7 340.5 339.4 337.3 334.1 332.7 333.5 332.3 339.1 341.4 337.8 338.6 342 342.5 345 350.4 352.5 350.9 350.4 347.3 345.6 341.6 335.5 333.2 328.1 323.8 323.6 324.2 317.2 313.7 305.4 297.6 291.7 295 294.4 293.8 289.1 283.9 277.2 275 271 266.7 265.6 256.6 238.5 251.5 258.1 261.9 262.8 259.7 259.1 250.5 260.9 266.8 273.3 270.8 265.7 267 265.7 268.1 274.9 274.3 271.6 262.2 268.6 272.2 266.4 264.6 260.4 259 252.2 249.8 250.2 251.1 248.6 249.9 249.2 248.4 247.9 246.6 244.8 247.2 254.5 266.2 275.5 276.1 271.6 269 266.8 263.5 264.1 264.6 266.7 271.4 276.9 281 288.4 296.6 304.9 319.3 325.7 328.6 335.1 339.9 353.7 363.7 372.5 374.3 375.2 357.4 333.5 326.1 308.2 318.4 317.9 315.2 310.4 312.1 307.5 306.8 305.3 295.5 277.7 263.3 248 232.6 216.2 207.5 195.2 189.1 184.4 179.3 171.1 164 156 156.3 153.4 147.6 146.1 145.6 145 144.6 143.5 142 142.2 142.7 142.1 141.4 141.2 139.8 139.3 138.4 138 137.9 139 135.8 135.8 135.8 135.8 135.8 136.4 136.7
380.3 385.4 391.6 393.2 392.1 396.3 404.4 415.9 416.2 417.5 418.3 416.5 412.3 409.2 407.7 411.2 407.2 399.5 395.2 392 390.5 392.5 388.6 384.5 382.8 380.8 377.4 373.8 370.2 366.6 361.5 356.5 354.5 352.5 351.6 345.7 339.4 336.9 335.3 336.8 334.5 330.8 328.6 330.8 330.4 329.8 335.2 336.4 333.9 333.2 340.4 336.3 346.2 350.9 352.4 353.2 353.3 354.4 352.6 346.9 336.8 330.2 327.1 318.9 311.1 319.2 319.9 310.4 305.1 292.8 289.6 284.9 287 285.9 285.4 283.5 278.6 270.3 264.8 264.3 261.1 258.5 232 243.6 249.4 251.8 253.3 252.1 249.2 241.4 248.9 254.8 259.1 255.1 252.1 254.4 255.9 257.5 261.1 259.2 259.9 257.4 259.5 258.5 259.9 257 255.6 254 247.7 243.2 241.8 242.9 239.6 236.5 234.1 233.9 233.5 236.9 234.9 233.6 240.3 248 254.9 255 259.2 260.7 257.1 254.7 255.6 256.7 258.5 262.8 270.6 274.6 279.8 286.9 293.9 301.4 310.8 307 315.9 322.2 341.3 358.4 370.3 374.6 372.6 361.8 336.2 325.8 315.1 294.3 305.2 299.4 297.9 305.6 298.1 296.6 298.2 288 269.7 257.7 242.7 227.2 211.9 203 195.8 191.3 185.2 179 167.9 160.4 152.5 148.1 146.9 146.8 146 143.3 144 143.1 142.8 141.8 139.9 139.9 142.6 140.4 139.7 139.3 138.5 137.6 136.8 136 135.8 135.8 135.8 135.8 136.2 136.4 136.3 136.1
371.8 374.7 382.3 385.6 386.5 386.8 393.9 403.5 407.4 409.2 408.7 406.1 403.9 398.1 399.4 400.9 397.9 392.6 387.2 385.5 386.9 391.2 390.8 388.6 383.9 380.7 375.8 372.7 371.2 366.6 362.8 360.2 358.6 356.6 353.7 346.7 341.6 336.5 330.2 330.6 327.1 326.3 329.9 331.3 329.8 328.2 329.3 331.5 331 331.8 335.4 334.3 342.6 350.8 356.4 353.2 354.2 352.5 353.1 348.4 338.1 325.3 321 318.9 309 313.3 313.8 307.1 307.6 293.8 283.5 283.1 283.9 282.8 279 277.3 273.6 268.7 260.7 254.5 252.6 253.1 248.6 217.5 238.8 246.4 244 244.7 240.1 235.8 234.5 239.3 245.2 240.8 238.5 244.4 245.2 246.1 248.2 248.8 246.7 245.2 250 252.6 251.7 250.3 252.7 247.8 239.2 234.7 228.8 229.3 228.7 226.8 224.8 224.2 223.9 224.8 224.1 220.4 229.5 234.7 238 241.8 246.6 251.1 251.7 250.4 248.9 247.5 251.4 253 261.8 262 270.4 279.1 287.9 292.2 293 292.1 298.6 305.8 324.3 344.4 358.5 361.8 366.9 354.7 333.9 319.4 309.4 298.7 285 273.7 280 289.2 282.1 280.2 279.2 270.1 259.1 253.1 237.3 223.3 213.1 203.5 196.6 190.7 183.3 178.3 165.6 163.8 158.2 149 145 142.8 143.7 142.1 143 142.7 141.4 141.5 140.2 139.2 139.7 138.4 138.3 138.6 138.1 136.9 135.9 135.8 135.8 135.8 137 137.1 136.8 137.1 136 135.8
364 364.9 369.6 376 379.5 378.5 382.8 392.3 398.4 398.2 398.6 395.9 391.5 387.5 386.2 393.1 393.3 387 380.3 379.4 382.2 383.9 385.6 386.6 382.7 379.8 375 374.3 374.6 369.4 367.7 366.3 364 361 355.8 348 341.2 335.6 332.8 327.8 325 327.8 327.4 327.1 325.8 325.5 326.9 331.2 329.8 330.2 331.3 334.8 341.8 346.6 350.1 350.6 350.9 348.1 346 341.5 338.2 326.3 321.9 317.2 307.9 310.8 305.6 302.3 300.1 289.1 279.2 274.1 275.5 276 274 270.8 263.1 263.4 258.7 249.5 245.6 247.6 237.6 231 210 227.8 229.8 234.1 232.6 226.1 226.4 225.8 230.1 228.8 226.6 231 233.5 232.7 238.6 234.3 236.5 234.7 237.5 239.4 240.7 238 232.8 230 231.9 229.3 222.9 219 217.4 215.4 214.4 215.6 215.8 215.4 215.5 216.3 220.7 224.8 229.3 234.5 238.2 243.6 244.5 244.8 241.9 241.4 245.4 246.3 250.8 253.9 258 266.6 276.4 281.1 283.4 284 285.7 289.1 300.5 324 337.9 343.5 344.8 334.6 322 310.9 300.6 290.4 269.6 262.3 268 275.7 269.9 263.9 264.7 259.1 254.8 241.2 232.7 225.9 212 202 196.2 190 182.8 175.9 165.7 165.4 158.6 148.3 145 141.9 141.5 141 140.3 140.3 140.7 140 139.1 139 138.4 137.6 137.8 138.9 138.6 136.8 135.8 135.8 135.8 135.8 135.8 136.2 135.8 135.8 136 139.1
349 350.5 356.4 359.7 359.4 363.5 371.1 375.5 383.2 392 388.1 385.6 379.8 376.4 375.3 384.3 384.6 378.3 377.2 376.8 379.1 379.2 381.7 384.9 383.7 384.3 375.3 373.3 371.2 366.8 363 360.9 357.5 358.4 351.7 344.8 340.6 336.6 331.2 327.4 325.4 322.5 322.9 321.9 323.5 324.8 323.7 327.4 330.9 333 329.1 333.3 338.3 343.7 350 348.5 348.5 344.7 343.8 338.2 337 330.2 329.2 322.2 310.5 298.8 297.6 296.9 292.8 285.2 276.2 270.5 263.6 264.3 262.9 259.3 250.8 251.7 248.8 245.7 239.2 235.1 229.3 223.1 217.7 196.7 212.9 217.5 218.6 216.8 212.6 213.1 214.3 213.8 212.8 214.4 216.9 216.7 220.8 219.7 217.7 221.8 221.6 222.5 221.2 221.4 221.6 218.1 219.1 216.4 211.5 204.5 203 203.6 203.8 204.8 205.1 208 208.4 210.9 215 219 221.8 227.7 227.3 234.1 237.9 236.3 232.8 232.5 238.5 240.6 243.6 244.5 249.4 254.6 263.9 270.9 275.2 275.5 276.9 282.3 284 291.4 310.9 322.8 327 322.8 318.3 305.6 295.4 284.2 273.7 257.7 255.5 264.8 259.7 250.5 249.8 249.8 239.1 234.3 231.3 222.8 205.9 198 193.4 189.4 183.2 173.9 167 162 159.8 156.8 150.3 143.1 142.8 144.3 139.8 140 138.8 141.8 140.1 139.8 139.7 137.2 137.1 137.8 135.9 135.8 135.8 135.8 135.8 135.8 135.8 135.8 135.8 135.8 135.8 135.8
331.6 337.6 341.7 343.9 344.7 350.2 356 360.6 370 376.1 372.7 370.9 368.4 365.8 367.5 373.4 375.5 374 372.9 368.5 369.6 374.8 377.5 380.3 383.1 386 379.3 372.3 367.1 363.5 358.4 352.2 348.6 349.5 343.9 340.1 334.2 328 325.8 324.9 322.4 318.7 315.8 314.1 318.5 323 319.9 322.1 326.5 325.9 324.5 323.7 329.6 333 338.7 339.7 340.2 340.5 340.7 337 334.3 331.7 330.5 327 311.8 298.2 291.6 289.2 283.7 279.9 272.2 264 255.7 253 250.8 251.5 249.4 241.8 236.7 230.6 228.6 224.9 219.3 214.2 209.4 204.6 199 204.3 206.1 206.1 200.7 200.8 202.6 206.7 207.3 203.5 203.4 205.8 207 206.6 207.1 208.3 211.2 210.5 211.3 213.7 211.5 206.1 205.3 204.4 200.1 194.8 195.1 196.3 197.3 199.6 201.4 202 204.1 209.2 210 212.2 214.2 222.3 221.1 222.6 224.5 224.2 220.5 225.2 229.9 232.4 235.3 238.1 241.1 249.7 257.5 261.8 261.1 262.6 267.5 272.4 274.4 276.1 287 300.2 307.1 303.8 301 298.3 288.2 279.2 265.6 251.9 244.1 254.8 252.5 247.9 244.4 238.2 227.7 226.9 218.5 209.9 204.3 196.4 192.3 189.5 185.1 177.2 171 165.5 167.7 164.8 156.5 147.4 144.6 143 141.2 140 140.4 145.9 143.8 140.4 138.8 137.5 136.8 135.8 135.8 135.8 135.8 135.8 135.8 135.8 135.8 135.8 135.8 135.8 135.8 138.1
320.2 322.1 326.2 329.2 331.7 339.5 342.9 347.1 352.9 359.5 358.2 355.7 353.9 354.7 357.2 360.8 364.3 368.9 365.3 362.1 364.6 369.5 373.9 377.5 380.7 381.7 378 372.2 363.3 359.2 352 346.6 340.8 338.2 337.6 334.5 330.2 324.9 321.3 318.4 315.7 312.4 307 307.7 307.1 312.2 317.1 317.9 318.9 318.5 319.4 320.8 327.1 328.5 330 335 333.1 332.7 335.7 332.1 333.8 328.5 324.9 323 309 295.2 286.9 280.8 277.9 268.1 267.1 261.6 251.4 241.5 240.2 241.8 240.1 233.8 227.6 221.9 216.9 213.1 208.9 204.8 201.1 197.1 182.8 191.6 192.9 193.5 191 186.3 190 192 191.3 189.9 189.3 191.6 193 195 195.8 197 197.9 198.2 200.3 199.5 198.9 194.2 194 195.5 193.3 188.1 188.1 189.8 191.4 194.1 196.8 198.7 202.2 209.2 209.6 209.1 207.9 210.5 213.1 211.8 215 215.1 212.7 219 223.5 226.7 230.3 232.9 236.4 239.4 248.6 251.8 251.6 254 256.8 262.2 264.4 267.3 277.9 285.8 297.7 300.9 289.7 284.4 280.7 268.2 251.4 241.9 226.7 234.2 237.1 240.2 238.2 230.2 218.5 220.3 212.3 202.8 197.6 192.4 191.2 189.9 185.4 176.2 173.2 167.7 169.8 167.2 163.3 156.4 153.6 150.4 143.5 141.9 143.2 144.5 144 141.1 140.1 139.3 137.3 135.6 135.8 135.8 135.8 135.8 135.8 135.8 135.8 135.8 135.8 135.8 137.6 138.6
308.3 308.9 312.1 314.6 317.8 321.9 328.1 332.9 338.2 339.7 340 338.1 340.7 346.8 348.3 350.6 354.4 356.8 355.6 357 361.1 366.3 370.7 374.6 378 375.5 371.4 365.3 359.3 352.6 345.9 340 335.6 329.2 328.2 326.2 323.8 321.3 316.8 312.5 309 306.2 303.8 303 300.3 307.3 310 314.6 314.8 313.2 312.4 318.2 321.8 322.3 322.7 323.2 325.1 323.9 323.3 323.7 327.9 324.2 316.5 312.6 304 293.6 283.9 273.4 269.4 260.3 255.4 248.8 241 236.4 226.9 231.6 226.3 220 216.1 212.7 208.1 205.7 203.4 198.9 194.2 188.8 170.5 182 182.9 180.7 177 175.8 179.8 178.9 176.6 177.8 180.7 182.8 184.1 184 189.1 191.8 193.3 191.1 189.7 188.5 189.1 184.7 184.3 188.5 185.2 181.5 182.1 185.1 186.6 189.2 193.4 194 196.5 204.1 206.3 205.9 204.2 202.9 207.1 203.5 205.1 206.3 206.9 212.5 216.1 220.4 222.3 226 228.2 230.8 237.3 243.7 244.6 246.3 249.1 251.9 256.2 256.8 264.1 273.6 276.4 278.9 277.3 276 269.9 256.1 243.3 234.5 227.6 222 223.7 224.5 227.1 219.4 216.4 215.5 205.2 196.1 193.5 191.4 186.9 182.1 181.6 182.4 181.1 177.4 177.8 179 174.2 164.5 157.7 152.2 145 145 145.8 146.3 142.6 141.2 140.7 139.9 139.3 135.8 135.8 135.8 135.8 135.8 135.8 135.8 135.8 135.8 135.8 136.4 138.9 139.4
298.1 295.5 296.6 301.7 305.4 311.1 314.3 317.6 323.2 327.6 327.7 327.9 332.5 337.2 338.4 337.8 341.4 344.5 346.7 351.3 356.7 361.1 364.1 368.2 371.2 370.4 368.9 360.6 362.7 354 344.3 335.3 327.9 322.5 318.5 317.1 317.3 315.7 311.7 306.8 302.9 300.6 296.8 297.9 295.5 300.7 304.1 307.8 307.1 306.1 306.3 312.1 315.3 315.9 316 314.7 314.6 312 313.3 317.2 319.1 315.6 313.6 307.2 299.5 294.6 285.5 277 265.6 255 245.6 234.4 232.5 227.9 225.5 220.7 218.7 211.5 208.2 205.2 202.1 198.9 196.8 192.5 187.6 182.9 176.5 173.6 171.8 168.2 165.9 166.1 167.4 167.6 166.3 167.7 170.9 174 174.7 178 181.3 185.9 189.8 189.5 187 184.5 184.3 180.8 178 180.5 178.5 176.6 178 181.2 183 185.2 189.4 192.2 194.2 199.7 202.6 202.5 201.1 199.9 199.6 198.3 199.3 199.6 203.5 205.4 208.8 211.8 214.3 219.5 224 227.9 228.4 234 237.4 237.2 241.7 245.4 245.5 251.5 255.1 265.6 270.8 276.5 275.6 269.5 259.3 253.1 239.3 229.7 226.1 221.2 217.3 221.6 221.7 216.9 212.1 212.8 209.7 201.9 191.1 184.5 188 188.8 187.4 190.3 188.2 184.6 186.9 187.6 178.1 168.7 161.1 151.3 145.4 145.3 145.3 143 141.9 141.7 140.5 140.4 140.2 138.8 135.8 135.8 135.8 135.8 135.8 135.8 135.8 135.8 135.8 135.9 141 144.2
294.9 293.3 287.5 287.9 292.5 301.3 302.7 309.9 314.1 315 315.1 315.4 323 328.7 328.7 328.8 332.1 334.7 339.8 344.2 347.6 351.8 354.6 358.7 361 361.8 358 355.4 356.8 349.8 338.1 329 321.6 316.7 312.7 307.6 307.9 307.4 304 299.5 296.7 294.2 292.4 291 289 291.7 297 305 301.8 300.7 307.6 305.3 307.1 306.3 304.8 306.4 309.6 307.5 305.8 308.1 312.1 312.1 307.7 305.6 295.8 286.1 280.2 269.8 260.4 253 242.4 230.6 222.9 219.3 215.5 209.7 208.9 205.5 200.4 197.6 195.6 190.9 186.6 181.5 178.2 172 168.9 164.7 161.8 160.3 155.4 155 156.8 155.5 156.2 161 163.7 166.3 169.7 173.7 175.9 181.2 186 187.3 184.7 183.1 179.2 178.1 175.3 175.6 175.9 173.8 176.5 178.5 178.8 184.4 185.5 189.1 192.1 196.1 197.2 195.9 195.6 196.1 195.7 195.9 197.1 195.9 197.3 200.3 203.2 206.9 210.3 211.6 220.9 224.3 224.3 224.9 227.7 230.2 234.6 236.4 242.1 250.3 255.2 253.8 261 270.1 276.2 268.7 257.8 252.7 238.4 229 222.5 215 209.3 213.2 220.4 221.9 226.9 217.2 204.7 196.1 187.5 188.9 191.4 195.6 195.1 193.7 189.2 188.4 194.9 188.1 180.4 173.4 161.8 150.1 142.2 138.9 140 140.3 140 140.2 139.7 139.3 140.3 141.6 140.2 138 135.8 135.8 135.8 135.8 135.8 135.8 135.8 137.4 143.1 146.5
288.5 284.4 281 280.1 282.9 287.9 293.8 294.9 299.7 303.8 304.7 303.2 311.9 317.3 317.7 318.4 322.8 325.5 332.3 336.3 336.3 344 346.1 348.8 351.4 350.4 351 347.2 343.5 336 329 323.2 314.9 306.6 307.4 302.8 297.6 295.5 294.9 292.8 289 286.3 286.2 284.2 282.8 285.9 292.1 297.1 296.2 292.7 297.4 298.4 298.4 302.6 304.4 301.6 299.1 301.6 299.6 298.5 298.8 293.5 296.2 290.6 282.3 281.1 270.6 257.2 248.3 243.9 236.4 227.3 218.9 213.4 208.7 205.2 197.4 196.6 192 191.2 188.7 184.2 180.3 173.4 168.9 160.4 156.3 155.4 143.2 150.7 148.4 148.6 148.3 147.2 147.7 155.8 158.3 160.2 165 166.7 170.5 172.2 176.7 178.8 180.4 178 174.9 173.8 171.9 171.2 171.2 170.6 175.5 176.6 177.3 182.2 183.1 186.2 188.4 190.1 192.4 193.8 192.5 191.5 190.8 192.7 194.9 192.2 193.5 196.7 198.2 203.6 203.7 204.9 213.3 218.7 219.8 221.4 222.9 222.9 225.9 229.6 235.7 244.1 248.7 249.8 252.6 261.8 252.8 252 249.6 246 235.4 226.1 215 208.4 205.4 210.2 213.7 221.2 218.1 209.2 201.9 194 190.4 193.9 194.8 195.6 195.9 190.3 187.3 186.6 196.8 190.6 182.6 175 164.1 153.2 143.8 138.8 138.3 137 137.4 137.7 138.2 137.6 137.8 138.9 138.9 138.7 136.5 135.8 135.8 135.8 135.8 136 135.8 140.2 146.3 148.6
282.2 280.4 276.7 277.2 276.3 274.5 276.8 282.5 286.1 290.9 293.8 296.7 306.8 311.8 310 309.8 312.2 315.8 322 326.5 329.9 335.8 338.9 340 339.5 339.3 341.8 335.8 327.5 322.4 319.5 314 307.2 302.3 298.1 295 290.2 286.3 286.2 285 281.4 277.6 278.7 277 275.1 274.6 277.5 281.2 286.7 286.2 286.8 293.4 289.4 293 297.5 299.6 298.8 290.5 288.4 287.2 289.9 284.1 273.1 271.3 267.9 262 255.1 251.7 250.3 248.1 244.1 232.7 222.8 213.6 207.9 201.7 195.8 187.7 183 180.1 175.8 170.6 164.3 157.8 152 147.6 146 148.5 147.2 141.2 143.5 144.9 144.8 144.2 143.1 143.6 145.9 149.3 151.3 153.6 160.4 163.4 163.5 163.1 166.4 168.7 168.3 168.8 166.1 165 162.8 170.5 171.5 172.3 177.9 180.6 182.5 182.8 184.2 186.3 188.9 190.3 191.4 190.4 189.5 187.5 187.8 189 190.6 192.8 194.5 194.3 193.6 196.2 200.4 206.5 209.2 210.5 212.3 213.2 214.2 221.3 226.6 236.2 239 242.5 246.4 253.6 246.5 241.8 236.4 233.5 224.6 214 207.6 202.1 202.9 208.5 210.2 212.5 209.8 205.3 199.1 197.1 196.8 198.2 194.7 193.1 193.3 189.3 182.9 180.7 191.4 193.3 188.1 176.1 167.3 155.7 147.4 140.5 141.7 137.6 136.2 135.8 135.8 135.8 135.8 135.8 135.8 135.8 135.9 135.8 135.8 135.8 135.8 135.8 135.8 139.7 148.5 151.4
274.9 275 273 268.8 268.9 268.1 267.8 270.5 275.6 281 282.1 287.6 294.4 299.4 300 302.4 304.3 309.1 311.8 317 322.7 328.4 331 331.5 331.1 332.1 333.3 327.2 318.8 314.5 312.8 306.9 301.8 297.5 289 286.1 284.9 279.7 277.7 275.1 272.2 268.2 264.9 270.9 268.7 266 268.7 271.4 274.4 278.9 281.5 285.7 281.5 283.7 286.3 288.8 286.5 284.7 281.5 278.9 275.5 271.2 266.9 264.5 263.8 258.5 252.2 247.9 245.5 241.2 240 230.8 220.9 207.6 206.3 202.3 195.2 187.6 178.9 169.7 163.1 158.2 151.6 150.6 145.5 141.4 141.5 143.2 138.3 135.1 143.2 144.1 142.9 142.3 141.1 142.2 141.7 144.9 146.8 147.8 148.2 151.7 153.9 153.7 154.8 153.4 150.2 155 160.1 161.4 165.2 170.7 174.7 176.2 179 180.9 181 181 181.3 183.7 186.3 189 192.2 191.9 191.3 187.9 186.1 189.8 191.2 191 188.4 186.2 185 188.7 191.2 194.9 196.9 202.9 204.3 203 204.8 212.3 218.7 227.5 233 234.1 236.5 241.8 241.7 238.2 230.8 223.3 214.8 208.3 202.3 194.9 193 200.2 206 204.2 201.5 199.1 197.7 194.6 195.1 195.5 189.6 186 185 181.8 179.4 177.2 183.1 190.3 187.6 176.5 165.8 155.9 150.6 143.5 140.8 137.5 136.8 135.8 135.8 135.8 135.8 135.8 135.8 135.8 135.8 135.8 135.8 135.8 135.8 135.8 135.8 144.5 151.1 153.6
271.5 266.3 264.9 263.3 259.9 263.4 264.1 263.8 266.3 269.4 272.4 277.7 282.9 287.9 291.2 294.2 296.1 299.6 303.6 309.2 315 322.6 325.1 325.3 327.5 332.4 329.7 322.4 313.6 309.2 305 298.8 293.8 291 283.2 275 273.1 270.2 266 262.9 260.1 259 259.1 260.9 260.3 261.1 263.2 262.5 268.4 273.1 272 274.6 274.7 274.4 278.7 280.7 278.9 275.4 277.1 273.1 267.3 263.1 264 258.7 256 254.8 252.7 244 238.6 234.6 233.4 229.3 216.6 205.5 199.9 196.7 191.5 181.4 170.3 157.3 153.5 149.2 145.2 140.5 138.8 137 136.4 134.5 132.7 132.9 145.1 146.8 140.4 136.1 136 138 136.7 140.3 140.3 139.5 139.5 146.2 146.4 146.4 145.2 152.4 158.8 163.3 165.8 164.7 167.8 170.7 173.3 176.5 179 180.3 179.9 179.2 179.2 182.3 184.6 186.2 191.2 192.1 191.9 187.4 188.2 194.7 195.6 194.8 191.9 188.9 184.4 181.4 184.1 185.6 190.5 194.3 194.7 194 197.4 201.3 206.8 218 224.4 226.3 224.7 231 242.1 238.1 226.2 213.2 203 200.8 195.7 193 192 195.9 197 196 195.7 194.5 192.6 191.9 186.5 182.2 182.6 179.2 178.5 175.9 175.9 175 178.6 182.3 186 173.8 164.3 156.7 153 148.6 148.4 146.2 143.4 140.2 135.8 135.8 135.8 135.8 135.8 135.8 135.8 135.8 135.8 135.8 135.8 135.8 140.5 144.6 151.5 156.7
272.9 264.7 264.2 261.9 259.5 256.3 255.6 255.9 260.1 264.2 265.7 268.9 273.3 280 285.2 287.3 290 293.4 296.9 299.8 306.2 314.7 318.3 318.2 324.5 327.5 320.9 312 307.9 302.5 297.7 290.6 284.5 280.7 274.6 267.6 266.2 265.3 261.9 257.5 254.1 252.5 250.3 254.5 251.4 254.7 257.2 255.7 259.4 259.2 266.2 266.8 269.3 270 271.4 273.1 272.1 270.8 271.8 273.6 269.2 266.3 259.8 255.7 251.8 252.1 249.8 245 230.8 221.6 217 217.2 205.3 192.4 183.7 179.3 175.9 169.8 163 155.3 145.3 141.3 142.6 137.6 132.2 132.6 131.7 132.9 128.6 128 133.6 136.4 133.9 130.5 132.7 135.5 134.1 134.9 133.6 140.9 144 144.2 143.5 151.1 152.9 156.9 165 171.5 169.3 167.6 169.2 170.3 172 174.1 177.8 176.5 177.1 178.4 178.8 180.9 183.8 185 187.1 189.3 190.9 186 185.8 199 198.6 196.9 194.4 190.7 187.2 183.1 177.6 179.2 180.6 183.1 181.8 181 187.5 191.9 197.4 205 210.5 212.3 215.7 220.7 227.1 223.1 214.2 202.8 197.4 193.1 191.7 190.6 181.7 190.7 189.1 190 189.4 185.9 186.4 182.2 177.8 177 176.9 172.4 172.7 173 172.7 173 174.9 176.8 181.5 178.1 169.3 164.7 158.3 155.2 151.6 152.4 149.3 148 140.9 137.5 135.8 135.8 135.8 135.8 135.8 135.8 135.8 135.8 135.8 135.8 142.9 150.4 157.6 160.2
265.7 259.7 260.2 257.3 255.7 253.4 250.9 249.9 254.6 256.8 261.2 264.3 271.7 276 281 282.8 283.1 285.8 289.9 293.3 298.6 307.6 314.1 316.7 320.7 325.2 318.1 309.7 303.2 297.1 292.1 282.9 276.4 270.4 268.6 262.1 257.2 257.7 254.5 251 247.1 244.9 244.5 244.2 242.2 245.1 245 247 249.8 253.1 253.8 258 264.8 267 268.4 265.3 265 268.2 262.6 259.3 257.4 255 250.7 252.9 248.8 245.8 244 237.3 224.2 212.7 204.3 196.9 189.8 181.1 175.2 170.1 166.2 162.1 155.6 148.7 142 137.1 134.3 132.7 129.7 126.9 127.2 125.4 123.9 123.2 129.4 130.2 126.2 120.5 125.8 128 129.1 128.5 132 142.4 145.7 154.5 162.5 166.5 169 177.7 181.3 182 175.8 171.3 170.7 169.9 169.2 171.3 174.6 172.9 176 181.7 185.5 187.8 184.9 183 183.1 187.5 187.8 185.4 180.8 195.1 200.9 197.9 193.3 189.1 186.3 183.4 179.2 175.5 177.6 175.2 174.1 172.3 175.2 181.1 188 196.9 202.2 201.9 205.6 211.6 216.4 213.8 207.5 198.7 193.4 189.1 187.5 181.5 176.8 183 181 185.5 183 179.2 177.1 172.2 169.6 171.8 169.8 168.3 167.3 169.2 171.7 173 174.5 176.2 184.7 192.4 179.9 172 165 158.3 154.9 154.6 155.7 151.5 144.1 138.6 135.8 136.2 135.8 135.8 135.8 135.8 135.8 135.8 135.8 139.3 146.9 155.3 160.4 163.7
258.6 250.8 250.2 251.2 249.2 247.6 246.4 243.7 250.4 254.5 257.7 260.5 268.5 276.5 279.8 281.6 280.7 284.6 289 292.3 297.2 305.3 312 319.3 328.1 328.7 323.5 313.1 303.2 295.7 288.9 279.4 269.8 262 263.1 258 252.2 245.6 244.6 242.5 239.2 237.2 236.5 234.7 235.2 234.5 237 240.4 243.8 248.2 250.4 253.8 258.5 264.5 261.9 259 261 261.1 256.7 249 244.9 243.7 243 237.9 232.6 225.9 222.6 217.9 210.8 203.6 196.6 189 181.8 172.9 169.6 166.2 161.8 156.9 149.9 140.4 139.4 130 123.8 122.7 121.6 121.5 121.7 121.5 120.1 115.5 121.5 122.3 115.2 120.3 121.6 127.3 134.3 136.1 138 144.6 155.4 162.7 166.1 170.4 179.9 188 186.1 183.3 179.1 173.5 171.9 169.8 167.6 169.2 172.6 173 170.6 176.8 186.3 188.5 184 181.6 179.4 180.8 185.1 186.8 179.3 182.8 194.1 194.4 190.6 186.5 184.3 181.7 176.5 173.8 177.1 174.8 171.8 169.2 166.9 172.5 177.8 187.6 191.6 197.1 200 198.9 205.3 204.6 201.3 195.3 192.2 188.9 183.8 178.5 170.5 176 175.8 178.2 175.8 175 173.4 171.2 166.2 162.8 165 168.2 166.1 168.1 168.9 170.3 173 176.2 184.7 194.7 190.3 178.7 170.1 159.5 157.4 156.4 156.4 156.9 146.7 138.5 136.5 136.5 135.8 135.8 135.8 135.8 135.8 135.8 135.8 144.2 151.1 155.8 162 165.2
240.7 241.1 235.9 232.6 233.7 236.9 238 239.3 244.7 249.5 249.4 256.5 265.2 274.2 277.5 277.1 275.1 280.9 286.3 291.7 297.9 307.3 311.4 316.6 326.4 333.1 324.3 313.8 304 294.8 287.7 277.9 266 259.7 260.9 258.1 251.2 243.6 238.1 234.8 231.9 230.1 229.9 228.7 227 227.5 234.8 240.2 237.4 237.8 250.4 250.1 249.8 255.5 255.2 253.5 251.7 256.6 257.7 249.9 241.2 236.5 236.1 233.3 226.9 216.1 208.4 202.1 197.1 191.8 187.2 180.8 173.3 164.6 163.9 160.2 154.9 148.8 138.8 130.2 125.5 122.4 116.5 113.6 113.7 117.1 117.3 118.8 116.1 115 119.1 115.6 118 122.8 126.6 131.2 135.8 138.8 144.5 150.8 154.9 161.4 164 169.6 175.6 181.4 187.5 186.5 182.9 179.5 174.6 169.9 165.4 165.1 169.9 167.9 168.9 168.7 179.3 183.1 183 182.3 180.2 178.4 179.2 182 176.1 173.7 182.6 192.8 189.3 185.4 181.2 175.5 172.1 173.5 177.2 176.6 172.6 169.1 165 164.4 169.4 174.3 178.2 183.6 185.9 189.6 185.7 188.3 193.9 190.7 188.4 184.7 180.2 176.2 169.1 169.5 169.8 171.3 172.6 172.3 170.9 167.7 165.1 162.1 163.3 164.4 166.8 166 167.4 168.4 172 177.2 183.6 196.2 196.6 182.5 170.2 159.7 160.7 159.7 154.3 149.3 142.5 138.5 135.8 135.8 136 135.8 135.8 135.8 135.8 135.8 140.7 147.6 154.5 156.1 164 167
228 227.6 227.2 225.8 227.9 231.9 234.6 232 234.9 239.5 246.7 251.7 258.5 265.5 270.2 270.1 269.6 276.6 286.1 293.6 299.9 307.2 310 314.3 319.5 326.9 320.1 308.4 297.1 291 281.3 271 259.4 250.2 252.7 255.5 249.7 240.7 235.5 232.6 227.4 223.9 222.6 222.1 221 226.8 234 236.1 230.5 236.5 243.6 241.7 239.1 240.7 241.6 245.4 247 248.5 243.6 242.7 233.3 229.9 230.8 224.9 222.7 210 198 190.2 188 183.9 178.4 177.5 173.1 167.2 158.4 149.1 143.6 137.3 132.7 127.3 122.2 118.8 114.6 111.3 110 112 113.4 113.1 109.9 116.9 117.4 113.3 120.9 125.3 125.6 129.8 135.6 138.6 142.6 148.6 153.5 155.8 160.9 169.8 174.7 178.9 188.2 190.2 184.4 182.6 177.7 169.3 162.3 161.3 167.2 165.2 166.1 168.4 170.9 179.3 183.9 186.8 182.2 178.1 172.7 172 169.2 169.7 183.8 194.3 190 185 179.4 172.3 166.1 172 174.5 175.7 171.5 167.1 162 158.5 158.3 161.8 166.5 169.7 173.5 177.6 179.3 178.9 177.2 178.4 179.7 173.2 170.7 166.4 165 165 167.8 170.9 170.7 169 168.2 167.9 165.7 163 162.3 162.6 162.8 163.9 165.8 167 169.2 173.2 178.1 189.7 193.9 180.7 169.6 159.1 158.6 155.8 152.5 146.6 140.4 138.5 135.8 135.8 135.8 135.8 135.8 135.8 135.8 138.6 141.5 152.1 158.6 159.8 160.8 163.6
221.9 222.1 220.9 220.7 221.6 222.9 224.3 226.1 228.9 234.8 240.1 246.4 247.7 256 258.6 259.5 267.9 276.3 282.4 290.9 299.4 304.8 307.6 309.4 312.2 314.8 306.7 294 283.2 277.4 268.6 262.3 252.5 244.6 241.7 241.5 239.7 238.2 236.1 232.5 228.3 223.4 219.1 217.8 215 224.7 232.8 228 222.5 229 232 231.4 226.7 225.6 232.9 233.8 238 236.1 231.5 227.5 221.5 218.9 214.8 209.6 204.4 197.4 189.8 181.5 177.2 174.7 171.9 168.3 164.2 154.6 148.4 142.9 139.3 131.3 127.3 121.4 118.6 115.6 111.9 109.2 106.2 108 108.1 104.9 111 113.6 114.9 112.5 115 119.2 122 127.3 134.8 138.2 143.2 153.3 153.2 153.3 162.5 168.7 178.4 180.6 180.6 183.1 182.9 183.4 184 171.3 161.8 156.2 163.9 162.8 160.3 159.7 165.4 172.7 179.1 182.4 178.6 173 164.9 161.7 159.8 158.5 175.4 189.2 184.6 181.4 174 163.8 164.4 167.6 172.1 176.2 172.9 165.4 158.1 158.3 155.1 163.7 165.6 167.9 173.6 175.8 175.3 176.1 173 168.6 166.7 165.2 165.5 167.8 163.9 161.6 161.4 162.5 162.9 166.5 166.6 168.5 167.6 163.8 162.7 164.5 166.7 168.3 167.9 166.4 166.9 169.3 174.9 182.8 181 177.3 165.2 156.5 154.3 151.9 150.5 149.4 146.2 137.9 135.8 135.8 135.8 135.8 135.8 135.8 135.8 140.2 144.6 150.5 162.1 164.1 161.8 161.5
213.4 216.1 217.4 216.8 216.6 216.2 216.9 218.2 221.1 226.3 234.1 240.5 239.8 243.7 250.2 253.2 262.3 266 271.9 279.4 288.4 296.5 300 301.4 303.8 302.7 287.3 278.6 270.6 263.5 259.9 251.9 246.1 241.3 237.9 238.3 237.4 235.8 234.6 233.6 230.7 226.4 219.4 213 203.9 215.4 222.6 217.8 213.4 213 214.8 215.9 217.6 222 223 221.6 225.6 227.4 219.4 213.1 210 207.3 202.9 199.9 196.8 194.5 191.1 181.6 170.6 164.8 162.2 160.4 160.2 155.8 146.8 138.2 131.9 127.1 122.9 118.6 114.9 112.2 109 106.9 104.8 103 101.7 106.5 110.5 109.6 108.5 104.8 107.7 110.5 117.1 123.9 130.7 138.2 139.4 148.1 150.3 150.4 157.9 164.1 174.7 175.4 176.5 177.9 183.5 184.6 180.8 172.3 163.3 158.2 156.8 150.9 155.4 156.6 160.1 165.4 170.7 173.2 171.9 163.3 152.8 155.1 152.3 154.3 163.1 180.9 178.9 171.8 168.3 154.8 157.2 162.2 172.3 174.3 173.2 164.3 155.5 153.7 153.8 158.3 165.5 167.1 164.1 168.4 169.4 171.9 171.3 167.8 165.4 164.5 164.4 161.9 160 159.3 159.8 160.9 159.5 162.1 163.1 165.9 166.2 164.7 162.4 162.9 165.2 166.5 165.6 165.9 167.2 168.9 171.5 172.6 175.8 172.9 160.9 155.2 152 149.8 149.7 149.7 145.6 138.1 136.2 135.8 135.8 135.8 135.8 135.8 135.8 140.6 149.8 155.6 165.2 166 160.9 158.8
209.8 206.8 209.7 209.4 210.3 210.9 211.2 209.4 213.4 217.5 225.3 229.6 232 238.6 238 239 247.2 250.8 260 269.7 277.4 284.3 282.9 284.6 288.6 282 272.2 266.6 259.1 253.9 250.8 246.1 243.4 241 233.9 233.2 233.5 232 230.5 227.7 226.2 221.9 214.3 210.2 201.5 203.7 207.2 203.9 203.3 198.6 201.7 204 210.9 212.1 210.5 209.4 212 212.6 206.9 199.9 195.3 197.7 198.4 200.8 196.7 188.1 182.7 173.4 163.9 152.6 145.7 143.3 144.8 140.1 139.7 133.8 127.8 123.2 119.9 116.3 112.9 110.1 108.2 106.6 104.2 98.4 101.7 106.4 108.5 107.3 106.1 103.9 99.9 106.1 112.8 118.2 129.1 131.9 135.2 139.1 140.7 143.4 150 157 164 167 169.4 177.1 186.4 189 183.4 175.7 164.5 158.1 156.3 149.2 146 149.8 152.1 157 162.2 165 161.5 154.6 147 146.3 144.3 150.1 152.9 163.6 169.8 165.3 157.5 148.6 153.6 153 165.5 167.4 166.2 159.9 153.2 150.8 149.8 151.4 156.8 158.2 159 160.6 161.7 165.8 168.2 168.3 167.3 169 170.2 166.1 161 157.2 157.6 157.4 156.3 154 157.8 161 165 163.7 161.2 160.5 163.3 164.3 167.4 165.6 162.1 162.6 167.9 166.5 166.5 169.1 163.3 157.1 155.8 154.1 152.7 150.6 146 138.7 137.6 135.9 137.9 138.3 142.1 141.2 135.8 140.8 149.3 151.6 156.5 161.3 157.7 161.6
205.8 201.7 200.7 201.9 202.7 204.3 206.5 206.7 203.5 207.7 215.6 217.9 218.4 219.8 223.6 229.8 233.7 238.9 248.6 258.9 263.5 268.9 267.5 268.9 272.6 268.2 260.3 254.6 249.9 247.9 246.1 241.5 240.8 238.4 233.9 230.8 229.4 229.7 226.8 221.9 218.5 214.1 208.7 204.8 196.1 192.8 192.6 190.8 191.4 186.8 190.3 191.6 195.1 196.4 196.3 199.6 203.1 202.5 201.1 196.5 189.8 186.8 187.6 184.2 179.7 175.9 168 161.8 153.7 142.4 134.8 136.6 129.8 130 130.1 127.4 124.4 122 119.3 115.9 112.4 109.8 108.1 106.7 104.4 97.9 103.1 107.1 105.5 102.5 102.1 99.1 94.9 99.8 106.4 115.6 124.4 128.2 131.9 130.4 132.6 138.1 145.2 148.3 156.6 162.5 160.3 157.8 168.2 175.3 171.8 166 158.3 157.4 150.4 145.2 142.5 144 143.3 148.7 155.8 161.5 152.7 151 136.3 136.8 136.8 142.9 145 142 152.5 159.2 156.4 149.6 141 138.2 142.5 150.6 152.1 150.5 142.6 142.5 141.5 143 150 151.8 157.6 159.3 159.3 162 167.5 167.8 170.1 171.9 172.9 170.7 162.5 158.2 156.7 155.1 152.6 153.5 152.7 157.2 158.1 160.2 159.6 161.7 167.6 166 172.2 166.2 158.4 154.2 154.3 159.5 159.1 167 166.6 158.3 157.8 158.3 154.8 151.8 150.3 145 137.5 136.2 144.8 138.7 144.9 145.1 140.6 147.6 155.9 155.7 154.4 156.4 156.1 157.5
197.7 192.5 192.7 194.4 195.1 195.4 196.7 198.3 192 196.7 200.6 202.8 206.6 209.5 211.7 217.5 222.1 229.6 236.5 246.5 249.7 254.8 257.4 257.1 257.1 255.8 247.3 242.1 241.4 242 242.7 236.7 234.8 234.6 233.2 228.1 227.2 221.6 221.1 216.3 211 204 200.3 197.6 190.7 186.4 183.4 181.1 179.2 179.8 179.5 179 181.9 183.1 182.3 184.7 193.5 191.1 190.6 185.5 177.6 175.8 173.2 167.4 160 156.4 153.6 151.5 143.1 134.7 125.8 121.6 120.6 117.5 119.2 121.3 121.8 122.8 120.7 118.8 112.5 109.9 108.5 105.8 101.5 97.6 96.5 97.5 98.7 98 96.8 95.1 91.4 94.1 100.5 107.6 114.4 123.5 123 121.7 126.5 137.8 138 137.2 150.1 158.8 158.5 151 147.9 150.1 153.6 153.1 149.8 155.5 150 143.9 140.3 138 135.7 140.3 144.7 152.4 145.7 142.3 131.4 127.6 125 127.1 133.9 128.3 141.7 155.2 147.1 140.5 137.4 130.6 132 135.6 142.2 137.4 132 130.1 132.3 142.3 144.2 147.3 152.3 154.7 157.7 156 160.6 164.7 169.3 173.4 167.2 164.6 162.7 158.4 156.5 153.9 152.9 152.4 151.9 151.1 155.5 160 157.9 159.2 164.4 164.9 161.9 159.7 157.6 156 153.5 155.2 159.5 162 166.2 165.4 158.4 159.3 158 155.3 154.4 149.5 142.6 136.9 136.2 137.1 141.3 147.3 145.3 152.8 159.2 158.7 161.3 161.9 159 157.1
186.8 183.1 185.4 184.9 186.8 184.8 183 184.1 185.2 186.5 192.4 192.8 194.5 196.4 200.8 205.3 210.4 216.3 225.6 233 236.4 242.2 244.9 247 243.4 242.6 235 234.7 235 235.8 235.4 231.7 226.5 228.6 227.3 223.6 219.8 219 213.7 210.1 205.7 200.2 193.1 188.7 186.9 180.9 174.3 167.5 166.6 170.1 169.6 165.1 171 168.2 168.5 164.8 167.7 172.2 174 169.4 161.3 158.4 157.1 155.7 147.2 140 138.1 136.1 132.1 126.4 122.1 118.1 108.9 108.5 109.9 111.7 118.7 123.2 122.8 120.9 116.9 110.3 110.9 104.2 97.7 97.4 90.2 94.4 95.8 96.5 95.2 93.4 91.1 90.1 92.6 100.5 107.1 113.1 113.5 117.1 121.9 128.6 128.8 126.7 139 146.7 145.4 141.2 140 137.7 139.6 142 145.1 150.2 147.6 141.1 137.3 135.3 133.8 130.4 133.4 140.5 141.9 133.3 126.2 123.4 120.1 114.5 120.8 115.5 121.8 132.7 136.7 130.3 124.1 118.7 120.8 127.9 132.3 131.2 128.9 127.7 129.1 130 138.3 142.8 143.8 147.1 150.1 150.2 155.6 158.6 163.3 156.8 157.2 157.3 160.2 156.4 158.1 156.6 154.4 155 156.4 152.6 150.8 149.5 149.8 153.4 157.9 163 161.6 158.7 152.1 151.2 149.3 150.7 156.3 159.9 166.3 171.3 161.4 158.4 158.1 160.4 154 148.7 144.6 141.6 137.8 136.4 140.7 145.4 146.8 148.4 161.9 160.9 165 165.5 162.7 163.1
182.5 175.7 173.9 174.4 174.9 174.2 171.9 180.3 176.1 176.2 182.2 187.1 185.2 185.8 189.9 193.7 197.4 203.8 211.8 221 221.5 228.2 237.1 233.5 231.2 232.8 228.2 227 226.2 227 228.9 225 220.4 219.8 219.1 219.1 214.5 211.1 209.1 207.3 204.4 196.3 189.8 182.6 179.7 173.1 163.1 153.8 156.3 163.7 160.3 158.2 155.5 159.6 161.8 159.1 158.4 156.8 154.9 151.7 148.8 145.8 142.8 137.8 133.3 127 123.8 126.8 129.5 125.6 120.3 109.6 105.4 102.7 102.2 105.6 113.8 116.9 119.4 123.7 117.5 106.8 109.7 98.5 91.3 91.3 88.9 91.3 92.7 91.9 90.7 91.7 91.7 87.9 91.9 95.6 100.4 103.3 105.8 110.1 114.7 119.2 119 121.1 122.4 129.6 132.1 133.6 131.5 132.9 136.1 139.5 142.5 146.9 144.6 140.8 138.1 133.8 131 127.1 127.7 134 137.6 131.3 123.6 118 113 109 103.6 103.8 108.2 110.3 112.5 117 117.2 113.9 116.1 121.5 122.9 123.7 124.1 124.7 128.1 124.9 129.7 135.9 138.4 141.7 148.6 149.5 146.5 149.4 143.2 138.4 146.5 153.6 155.4 157 166 162 155.9 154.3 154.7 152.9 152.2 150.3 148.9 148.4 152.8 158.9 162.9 156.1 150.4 145.9 145 151 156.2 155.5 161.9 162.5 155.8 157.8 158.1 156.6 153.6 149.4 142.2 140.5 137.7 138.6 139.7 149.1 150.3 148.6 157.6 160.6 165.3 167.2 166.9 165.8
173.9 168.9 164.8 163 164 163.4 163.1 164.3 164.5 163.4 169 174.6 172.6 176.5 180.4 181.2 186.8 191.2 197.6 201.6 206.4 216 219 219.6 217.4 217.3 219 215.3 214.3 216.6 218.8 211.7 206.2 205.6 204.9 200.9 200.7 200.6 203.2 201.2 195.8 186.2 180.3 171.9 166 162.5 155.7 145.3 152.7 159.9 152.5 147.3 146.9 146.9 151.1 150.8 151.2 148.2 142.8 138.4 135.2 133.3 131.8 127.4 127.1 122.6 118.3 117.4 118.3 112.9 103.9 99.7 98.1 99.7 98.4 100.4 103.9 106.2 113.7 111.3 105.3 101.1 93.4 88.7 88.5 86.3 87.9 89.8 90.2 89.5 88.9 89 91.2 88.6 88.9 91.8 94.5 96.9 99.8 99.3 104.4 118.9 114.8 120.5 121 120.2 121.9 127.1 124.7 126.4 130.6 131.8 137.3 142.7 141.8 139.4 136.9 133.6 128.8 124.1 122.6 128.5 132.1 127.7 126.1 117.5 111.3 106.4 102.3 94.5 97.1 95.7 98.8 107.2 110.7 106.4 110.6 114.1 113.6 114.6 115.7 116.7 117 119.5 125.1 130.8 133.9 136.8 145.5 150.8 149.9 137.9 135 136.5 141.9 153.2 155.5 158.9 161.2 159.1 155.6 154.9 155.2 154.7 153.4 150.1 148.3 147.5 150.7 154.3 158.2 154.7 148.9 145 145.1 146.2 147.8 151.7 154 149.4 146.6 159.1 160.2 158.2 148.5 146 141.7 143.8 140.1 137 134.9 137.3 142.7 144.2 154.6 159.1 164.1 165.7 165.8 166.3
168.9 162.6 156.6 152.6 152.7 149.2 150.9 149.1 146.5 147.9 150.7 153.8 156.8 164.8 173.2 172.3 173 176.7 185.6 190.7 198.2 200.6 203.6 208.7 207.4 203.3 206.3 205.8 203.6 207.2 203.6 197 194.5 194.3 191.4 187.2 191 186.8 188.2 183.3 174.6 163.8 162.9 163.2 159.4 159.1 153.6 141.2 141.8 146 146.3 142.3 139.5 129.5 130.5 134.9 137.1 133.7 129.7 124.4 123.9 125.9 126.6 123.4 121.5 119.4 112.4 106.6 104.3 99.4 96.6 95 93.8 93.1 92.5 91.2 89.1 90.7 94.4 95 93.3 89.2 87.2 86 86.4 84.2 85.5 87.3 84.4 86.8 86.7 85.7 85.3 83.4 83.4 86.5 89 90.5 92.8 94 94.2 98.3 100.4 100.7 106.1 115 112.9 117.5 121.5 117.6 118.7 119.9 125 136 138.8 137.2 134.1 130.4 126.4 123.5 120.6 121.9 124.8 121.1 120 114.1 108.1 105 100.2 94.4 92.5 92.5 88.9 96.6 104 102.1 98 109.5 110 104.9 103.2 110.6 114.9 116.5 122.5 126 129.4 131.3 136.9 145.6 141 133.4 131.5 131.2 137.3 149.5 158.6 160.5 161.4 161.1 157.1 157.1 156.8 156.8 154.5 150.8 148.7 148.2 146.1 149.8 149.7 145.1 144.9 144.9 143.2 145.4 146.1 148.4 150.6 149.9 148.2 152.8 155.5 154.8 149 137.7 136.4 140 139.4 142.9 138.7 134.3 135.4 142 150 154.3 159.1 163.6 165.8 166.2
165.6 161.7 150.5 145.1 143.3 143.1 141.9 139.6 138.2 139.8 141.7 142.9 145.8 151.5 158.2 158.6 159.5 164.7 173.8 179.6 183.6 189.9 193.2 198.7 198 193 197.8 197.6 193.2 196.5 192.1 190.2 188.7 185.5 181.4 176.2 180.4 179.7 174.3 169.7 162 158.2 162 163.7 157.7 153 146.5 139.5 136.7 142.7 141.1 134.5 125.9 119.6 115.9 120.6 123.4 124.5 120.7 118 117.6 118.6 118.2 115.4 108.7 102.3 99.3 97.7 95.5 92.6 88.7 87.1 83.4 83.4 83.4 83.4 83.4 83.4 84.3 91.4 88.6 83.4 83.4 83.4 83.4 83.4 83.4 83.4 83.4 83.4 83.4 83.4 83.4 83.4 83.4 83.4 83.4 86 87.6 85 87.2 87.7 87.3 88.3 91.7 96.8 101 105.8 108.3 110.5 115.8 112.6 111.4 122.1 122.7 122 120.4 122 124.7 124.4 120.4 118.4 115.6 113.3 115.2 110 103.5 98.3 95 94.6 89 83.4 83.4 91.3 100 97.8 93.8 102.8 105 101.2 98.6 106 113.5 113.2 115.4 121.1 126.5 127 124.3 126.4 128.8 129.2 130.7 131.6 133.4 141.6 158.7 165.5 164.2 159.3 160.2 162.5 162.9 160.3 157.2 154.5 151.7 149.4 147.1 143.8 145.2 145.9 145.5 145 144.7 145 146.2 148.5 154 150 145.6 149.9 156.7 151 147 138 133.6 137.9 139.1 143.4 143.6 136.8 134 138.9 142.8 151 157.6 164.7 165.6 166
158.6 148.4 142.9 137.6 135.7 135 135.1 134.4 131.8 132.4 132.2 134.3 138.3 142.5 147.1 148.6 151.3 156.4 160.5 168.4 171.9 174.5 182.3 190.2 188.8 180.9 185.9 186 185.3 184.4 181.6 182.2 180.3 176.5 170.1 166.5 166.9 164.8 163 161.7 159.2 156 158.7 161 158.8 152.5 143.1 130.6 123 127.9 130.6 124.1 118.9 115.6 112.1 110.7 116 119.5 111.8 108.2 106.4 105.1 104 102 93.9 91 92.1 91.9 88.7 83.4 83.4 83.4 83.4 83.4 83.4 83.4 83.4 83.4 83.4 83.4 83.4 83.4 83.4 83.4 83.4 83.4 83.4 83.4 83.4 83.4 83.4 83.4 83.4 83.4 83.4 83.4 83.4 83.4 83.4 83.4 83.4 83.4 83.4 83.4 83.4 83.4 83.4 94.4 95.6 99 103.6 103.1 102.8 102.8 104.2 108.8 107.4 110.9 118.9 124.9 115.7 112.8 109.8 106.6 106.6 102.3 94.9 90.9 95.2 95.6 86.6 83.4 83.4 83.4 90.6 93.5 92.5 105.1 105.5 101.2 96.3 104.6 111.1 111.2 111.3 112.6 118.1 120.4 119.7 117.2 120.6 124.2 124.4 131.6 135.6 138.5 144.5 153.7 159 158.8 166.1 171.7 171 167.2 161.6 156.8 156.1 150 146.9 146.1 147.2 148.9 149.8 146.6 144.8 145.3 149.4 152.2 151.9 147 142.7 145.7 153.9 150.4 148.6 138.6 134 132.7 135.7 134.2 131.8 132.2 136 145.6 145.6 149.1 155.6 164.5 166.2 165.5
138.3 137 133.5 129.2 128.2 127.4 128.4 127 125 124.4 125.5 127 127.4 131 136.6 142.6 138.7 142.6 148.1 152.9 158 161 165.6 172.8 168.6 164.8 167.6 168.2 174 169.4 163.5 164.6 160.8 161 157.7 155.9 154.4 155.8 158.9 162.6 157.4 153 143.8 150.1 145.9 136.7 130.4 121.3 116.4 118.8 118.9 113.6 112.7 111.6 110.7 107.5 102.4 100.7 97.1 93.9 95.6 94.8 92.6 89.4 83.9 83.4 83.4 83.4 83.4 83.4 83.4 83.4 83.4 83.4 83.4 83.4 83.4 83.4 83.4 83.4 83.4 83.4 83.4 83.4 83.4 83.4 83.4 83.4 83.4 83.4 83.4 83.4 83.4 83.4 83.4 83.4 83.4 83.4 83.4 83.4 83.4 83.4 83.4 83.4 83.4 83.4 83.4 83.4 83.4 83.4 90.9 93.8 93.4 93.5 92.5 96.8 96.3 94.3 96.9 99 101.8 99 101.4 101.6 97.7 94.6 90.3 84.9 83.5 85.9 83.4 83.4 83.4 83.4 83.4 89.1 89.8 97.7 105 99.8 95.4 95.6 102.8 105 104 104.3 105.9 107.4 108.1 109.5 110.4 113.7 120.8 126 135.6 138.3 139.8 146.9 153.4 156.9 166.7 175.3 176 170.3 162.6 155.9 152.9 149.5 147.4 147.1 153.2 157.2 154.1 150 146.3 145.3 146.6 147.7 151.2 145.2 141.4 142.7 148.6 149.3 147.2 141.3 135.8 133.2 131.5 128.9 131.9 143.2 138.1 145.9 147.6 147 154.3 165.8 168.6 165.3
123.9 122.6 121.7 120.4 117.3 119.3 120.1 119.3 118.6 115.5 117.5 116.7 117.5 121.2 128.1 130.1 130.5 134.5 133.5 137.8 142.5 146.5 150.2 152.4 153.6 154.9 152.5 148.2 147.1 147.4 145.7 145.9 150.1 149.8 150.8 149.6 145.6 150.2 152.8 153.8 142.7 138.9 139 135.5 128.1 122.7 118.1 112.1 109.4 110.1 110.1 103.6 101 104.3 103.8 98.6 93.4 91.8 91 89.2 86.8 83.4 83.4 83.4 83.4 83.4 83.4 83.4 83.4 83.4 83.4 83.4 83.4 83.4 83.4 83.4 83.4 83.4 83.4 83.4 83.4 83.4 83.4 83.4 83.4 83.4 83.4 83.4 83.4 83.4 83.4 83.4 83.4 83.4 83.4 83.4 83.4 83.4 83.4 83.4 83.4 83.4 83.4 83.4 83.4 83.4 83.4 83.4 83.4 83.4 83.4 83.4 83.4 83.4 83.4 83.4 85.3 83.4 85.6 86.6 87.5 89.6 91.1 91.7 92.8 88.2 84.6 83.8 83.4 83.4 83.4 83.4 83.4 83.4 83.4 83.4 86.3 88.3 91.7 95.2 93.1 94 95.6 97 96.1 95.4 94.7 95.5 96.3 99.1 105.4 113.6 119.9 128 134.8 134.7 136.6 141.7 145.3 152.9 159.5 167.5 171.3 166.5 159.3 153.1 151 151.8 150.3 148 149.1 156.9 156.9 150.9 146.8 144 145.1 145.1 143.7 145.2 139.7 142 148.8 153.3 149 142.9 139.1 135 134 129.3 130.3 136.2 136.6 148.1 148.4 148.1 154 161.5 171.6 165.9
106.4 109.8 111.6 110.9 109.2 113.3 114.1 113.3 110.7 108.1 108.6 109.4 111.1 109.4 117.5 119.1 118.4 126.6 123.2 125.7 130.6 137.4 139.7 138.2 134 135.4 136.5 137.8 137.2 134.2 132.9 133.7 137.4 139.3 138.2 133.4 138 138.1 139.7 138.2 128.4 125.5 122.5 120 116.5 116.1 112.3 107.8 104 104.7 103.8 101 94.8 93.2 93.7 87 83.4 83.4 83.4 83.4 83.4 83.4 83.4 83.4 83.4 83.4 83.4 83.4 83.4 83.4 83.4 83.4 83.4 83.4 83.4 83.4 83.4 83.4 83.4 83.4 83.4 83.4 83.4 83.4 83.4 83.4 83.4 83.4 83.4 83.4 83.4 83.4 83.4 83.4 83.4 83.4 83.4 83.4 83.4 83.4 83.4 83.4 83.4 83.4 83.4 83.4 83.4 83.4 83.4 83.4 83.4 83.4 83.4 83.4 83.4 83.4 83.4 83.4 83.4 83.4 83.4 83.4 83.4 83.4 83.7 83.4 83.4 83.4 83.4 83.4 83.4 83.4 83.4 83.4 83.4 83.4 83.4 83.4 87.4 91.9 90.5 91.1 90.7 90.3 89.4 84.5 83.4 85.8 87.9 93.3 99.3 108.7 119.9 127.9 129.6 129.7 132.3 136.7 143.8 148.4 153.2 156.9 159.2 156.7 148.3 147.6 151.8 157 152.7 151.2 153.5 152 151.5 151 150.1 147.5 146.1 145.2 144.2 143.3 139.3 139.4 147.7 155.3 150.9 144 139.3 135.6 133.1 127.4 131.9 135.9 133.1 139.8 146.5 148.3 163.9 164.9 169.3 164.9
