ncols 200
nrows 82
xllcorner 180000
yllcorner 813050
cellsize 50
161.7 167.2 168.8 180.8 176.4 174.4 164.3 156.9 152.9 144 122.6 107.7 115.9 115.2 104 97.2 85.8 78.6 69.9 63.2 58 57.4 45.7 41.4 30 36.6 40.5 38.1 25.9 20.5 12 14.5 11.4 25.6 33.4 33.8 39.3 40.1 28 23.3 26.8 37.8 38.3 46.2 48.8 54.2 45.9 34.5 30.6 26.6 24.9 24.4 22.6 26 27 30.1 27.8 26.5 26.8 26.3 26.8 27 26.4 26.8 27.8 29 27.9 27.7 28.2 31.4 36.5 50.9 64.8 89 114.8 130.2 134.5 131.8 129.2 130.9 139.3 152 153.7 157.1 162.5 169.5 176.3 180 188 194.1 193.4 190.8 189.7 191.6 195.2 196 194 185.6 180.7 175.5 177.9 180.3 186 206.8 219.7 224.7 226.4 234.4 233.2 228.9 221.4 220.9 215.4 215.8 223.5 224.6 229.3 221.4 217.7 216.4 218.4 220.3 224.6 224.5 230.5 233.4 233.4 232.5 232.4 233 234.3 238.3 241.2 242.6 240.6 240.2 239 236.6 233.5 231.3 229.1 226.7 224.1 220.8 214.8 206.2 192.9 184.7 176.4 169.4 161.2 156.1 153.7 151.2 146.3 142.1 145.5 148.3 149.6 149.6 145.2 139 131.6 126.1 121.2 112.3 109.1 109 108.7 109.5 104.6 108.4 111.7 111.3 109 110.6 112.1 112.1 115.3 118.4 110.9 110.3 110.6 112.1 112.5 108.4 108.8 109.6 111 115.6 111.9 128.4 153 155.7 168.2 173.5 179.9 189 200.6 208.9
164.3 168.8 171.7 182.9 180.7 181.2 175.4 163.7 156.5 139.2 120.3 113.8 124.2 122.6 120.9 116.4 114.6 112.5 104.4 87.7 80.6 79.4 76.6 66.4 51.5 46.9 44.3 41.3 38.2 33.9 32.8 35.5 33.7 41.9 43.1 41.5 42.9 45.9 49.5 46.9 30.9 53.6 85.3 87 79.8 78.6 73.1 65.8 55.3 50.3 41.7 37.4 36.9 37.2 41.5 50.4 49 43.8 35.7 33.3 30 27.7 27.4 27.1 27.2 27.3 29 30.6 31.3 31 29.1 31.6 45.3 65.6 88.2 106.7 118.7 128.7 125.2 124.7 136.6 145.5 145.5 147.9 151.3 156.3 156.7 159.3 164.2 168.2 171.3 173.9 177.4 174.7 175.9 176.5 175.1 174.2 171.6 162.3 167.3 167.4 176.1 186.2 201.5 205.6 207.6 210.4 210.6 208.1 207.3 207.6 210.6 204.6 208.2 213.2 213.7 215.1 223.7 222.8 220.9 219.8 225.1 226.7 227 231 231.4 231.6 231.9 232.3 233.1 234.6 237.9 241 240 239.1 237.1 234.8 231.6 230.6 228.8 225.9 223 219.6 214 202.8 189.1 180.6 173.3 167.3 160.7 154.7 151.6 149.5 148.5 150.3 155.6 158.7 160 158.1 151.5 143.9 133.5 121.8 114.6 111.4 114.4 113.9 113.7 112 110 110.4 112 110.5 111.1 110.3 112.4 112.8 117.6 117.8 115.7 114.3 111.8 113.1 113.3 109.7 111.4 116.1 116.8 118.9 115.3 128.4 143.9 147.4 160.6 169.6 178 187.4 194.9 198.1
169.4 174.2 180.7 186.9 187.2 183.7 178.1 170.5 155.1 138.8 122.9 131.8 136 135.6 141.1 144.3 148.2 139.1 126.3 114.6 105.8 103.3 100.6 95.1 75.3 60.5 59.5 56.6 51.1 51 57.7 59.7 55.5 62.3 66.9 66.9 76.2 86.4 89.9 71 73.2 101.1 118 112.7 106.9 99.2 94.5 84.3 77.1 68.1 61.4 64.3 71 69.2 65.3 65.6 72.7 70.3 64.5 57.7 51.4 39.9 34.8 30 29.6 29.4 29.6 29.8 31.1 31 31.4 30.3 32.4 43.9 61.7 78.9 102.1 113.8 113.6 118.9 132.5 140.7 146 148.1 146.5 143.9 141.6 138.9 144.5 152.7 153.4 155.6 161 162.8 160.8 158.7 157.6 154.8 155.6 151.7 153.7 157 162.9 167.8 178.9 186.1 188.5 187.9 184.1 190.7 188.3 197.2 202 210.9 213.3 218.8 226.1 232.6 232.2 231.4 231.9 236.4 246.3 248.1 237.4 229 230.2 230.9 231.3 231.6 232.5 234.2 236.6 239.1 240.3 241.1 237.1 235.6 235.4 234.1 232 229.4 228 224.3 215 203.2 188.5 176.5 167.8 163.3 159.9 156.9 152.9 151.3 153.5 159.2 161.3 162.1 161.8 160.7 153.1 143.5 131.7 119.8 113.7 116.9 119.2 119.3 117.3 115.2 114 111.6 111.4 110.7 110.3 111.1 111.7 112.4 116.3 118.2 118.1 117.5 113.4 117.2 115.7 117.5 117.7 118.3 119.1 120 118.8 121.1 129.1 145.2 150.8 158.5 169.3 177.6 186.1 191
178.2 184 190.7 194.5 191.4 190.7 182.9 171.7 156.5 135.1 137.6 139 139.6 145.5 162.1 167 172.1 163.1 145.1 144.6 135.9 128.7 118.4 110.3 98.8 85.6 81.1 78.8 74.5 89.1 95.1 94.7 90.8 91.4 92.2 94.9 107.3 111.9 112.2 107.7 118.6 137.6 136.5 129.6 124.2 114.3 109.5 105.3 100 89.9 92.4 93.5 103.2 99.3 93.7 95.9 102.7 103 90.2 81 70.1 64.6 57.5 49.5 40.6 45 48.9 41.7 38.5 36.6 32.8 32.8 30.7 33.2 43.5 63.2 75.3 96.8 112.8 124.2 141.2 142.1 133.4 133 133.6 128.7 126.7 118.4 119.5 131.6 135.9 145.7 152.9 154.2 157.1 152.3 147.5 145.7 147.9 148.8 148.7 151.8 152.8 157.5 159.1 166.6 169.5 176.8 187.7 197.4 207.2 216.9 222.9 218.8 219.2 224.2 236.4 242.2 243.7 238.2 237.1 238.3 239.6 239.4 234.3 230.7 229.8 230.8 231.1 232 233.4 234.9 237.5 241 242.4 242.9 240.6 237.2 235.8 234.7 234.4 233.6 233.3 227.9 216.9 201.5 190.1 176.6 166.3 161.7 160.1 161 156.7 157 156.4 157.1 160.8 161.2 159.7 153.8 148.1 142.7 133.2 120.6 120 125.2 128.7 131.3 127.4 126.2 123 119.4 114.9 111.7 111.1 111.6 112.8 113.4 116.2 123 121.1 119.2 117.4 116.3 119.2 122.5 125.2 126.6 125.5 125.9 121.2 122.4 125.3 134.8 141 150.4 159 171.6 178.6 181
177.2 183.4 195.9 195.4 193.2 195.2 185.2 170.4 156 140.7 146.8 143.2 144.7 164.7 181.6 182.8 177.1 166.2 158.1 163.5 157.3 146.9 140.5 134.6 128.1 125 111.3 105 111.8 117.3 117.5 117.6 127 134.7 132.9 133.2 130.2 128.1 126 118 143.8 150.7 147.4 145.2 140.2 134.7 125.9 124.3 122.3 114.1 124.3 124.6 129.9 139.4 137.6 134.2 132.4 132.8 120.9 106.9 94.7 84.1 77.9 71.4 61.7 65.9 71 73.3 72.3 68.5 61.5 52.8 41.5 30.4 31.8 39.3 60.1 71.5 82.6 105.4 127.2 140.2 136.1 131.3 121.5 113.9 108.4 100.8 101.6 110.3 115.6 131.3 142.6 141.8 144.1 143.8 144.9 150.3 153.2 152.8 153.3 154.5 153.9 158.4 157.7 161 168.2 178.9 189.9 200.4 209.7 226.3 226.3 222.5 220.9 226.2 242 250.9 250.6 246.1 245.5 245 240.3 238.9 235.1 231.9 231.5 231.9 231.9 233.2 236.1 238.7 242.4 245.4 245.8 246.8 243 239.1 236.9 235.4 232.5 231 228.7 220.4 208.4 197.1 187.2 172.5 164.3 160.5 159.1 158.6 156.3 153.2 153.1 151.7 151.3 151.1 149.6 146.8 143.9 138.7 131.2 120.2 132.7 139.8 147 148.4 147.2 145.7 140.3 134.7 128.9 121 117 115.9 119 116 118.8 122.6 121.7 121.8 121.9 123.6 121.2 123.7 126.3 128.5 127.7 127.4 128.4 117.4 125.6 130.5 133.8 142.2 153.2 164.2 172.9 173.5
176.2 187 187.6 189 191.7 196 181.7 171.6 157.5 154 153.3 146.9 159.6 185 196.6 186.1 179.5 173.8 175.1 177.2 172.3 172.1 175.6 159.4 150.7 146.1 137.6 132.9 129.7 135.7 136.4 139.3 155.1 165.2 168 163.1 160.8 157 148.7 139.2 150.3 156.1 157 157.7 154.4 153.6 154 151.5 152.1 139.5 147.4 154.1 152.8 162.2 164.9 165.2 164.7 164.4 158.4 142.2 124.4 111.8 93.9 87 80.9 90.5 91.4 91.7 101.6 102.4 89.5 82.6 64.2 44.4 33.9 33.1 33.1 42.9 60.1 89.5 107.5 120 119.6 121.4 109.2 99.2 88.5 83.7 85.9 89.1 95.1 110.6 129.8 128.6 121.4 140 148.5 154.4 159.1 158.4 157.4 156.6 163.2 176.6 166.9 164.8 166.6 175 184.5 193.4 203.6 212.5 218.5 218.6 218.1 222.7 233.7 247.3 248.4 246.8 244.9 247.6 249.5 244.6 241 238 235.7 236.4 236 236.8 239.2 243.9 247.6 249.1 250 249 244.5 238.8 235.3 233.1 230.3 226.8 220 213.2 205.2 188.2 178.9 169.5 162.4 160.9 158.4 156.7 155.7 153.7 149.7 148.1 146.7 143.8 142.6 139.6 137.2 135.9 123.9 135.3 150.3 158.6 166.5 181.8 187.6 175.4 160.9 152.4 145.3 138.6 134.1 135.7 130.4 124.1 124.6 124.1 124.4 124.7 127.1 128.5 126.4 129 132.2 134.5 132.7 132.5 131.4 132.3 123.5 130.6 132.6 136.3 144.5 155.9 161.5 164.7
183.8 195.1 193.6 189.8 188.3 185.7 175.6 166 160.4 161.3 155.1 160.5 189.9 200.9 198.9 190 186.6 187.9 188.7 186.2 185.2 189.9 191.8 180.8 172.1 172.1 166.8 165.3 155.4 145.5 153.2 155.4 158.5 174.6 184 189.7 194.6 195.5 181.1 171.8 155 162.6 168.8 170.8 170.2 173.4 172.9 171.5 172.4 167.8 161.8 168.7 167.6 176.1 179.4 185.9 193.3 195 190.8 172.3 159.8 143.1 124.7 109.8 96.5 102.3 108.3 114.6 125.7 132 122.3 110.5 90.9 66.3 50.7 34.6 33.1 33.7 43.2 59.2 81.3 95.9 99.3 96.6 95.8 89.5 77.6 69.4 66.1 72 73 88.1 100.9 116.9 117.9 132.9 140.2 152.8 156.8 153.1 149.7 152.2 159.5 177.2 172.2 166.3 167.5 172.2 179.3 185.8 193.2 199.9 204.3 207.5 212.5 216.4 222.5 237.5 242.1 241.8 242.4 244.9 252.8 257.3 258.7 256.4 250.1 246.8 247.8 248.6 246.7 249.9 251.7 253.2 253.8 251.6 245.6 240.9 238.6 236.8 233.5 229.6 224.2 215.7 203.2 189.5 178.9 172.7 170.5 168.4 167.4 165.6 160.2 157.5 153.7 147.4 142.1 141.3 142 140.8 136.3 128.8 134 143.3 160.9 170.5 186.8 205.1 201.2 188.2 173.6 161.4 156.2 153.9 153.2 145 132.9 127.6 128.3 128.1 130.3 133.5 132.1 134.4 136.2 140.8 143 154.4 143.6 139 135.4 133.3 129.4 124.3 131.8 134.1 137.4 142.7 148.1 157.7
206.1 201.7 199.4 198.4 191.3 184 171 160.1 163.3 163 169.1 190.2 203.2 207.8 205.2 193.5 193.7 204 203.6 199.5 205 202.9 198 190.2 192 198 193.6 184.1 168.6 160.6 162.1 172.4 175.1 180.5 200.6 216.4 215.8 208.2 191.3 181.3 170.3 181.6 183.7 185.6 190.1 188.3 182.7 181.6 190.4 189.6 178.5 176.7 180.2 186.3 190.1 199.9 208 214 210.4 197.1 176.2 163.4 149.6 134.4 118.9 124.5 125.3 137.5 152 156.3 155.2 137.3 110.8 91.6 67.7 47.4 36.2 32.4 35.1 43 54.7 74.6 84.6 95.4 87.4 75.5 62.8 57.5 56.7 58.4 80.6 92.6 99.9 89.7 108.2 117.4 126.2 142.4 141.5 138.6 138.6 138 149.1 161 164.9 167.5 176.3 173.8 172.6 174.7 180.1 186.6 191 194.9 203.7 211.5 220.2 229.6 237 240.7 241.4 245.6 260.4 271.2 281.4 282.1 269.6 265.1 266.6 270.9 272.4 268 260.9 260.4 260.2 256.3 252.7 249.5 246.8 242.3 239.2 237.2 232.5 226.8 218.1 201 186.9 186.1 184.8 182.2 180 173.4 166 158.7 153.8 148.4 143.2 140.8 140.8 136.4 133.1 141.8 141.1 147.2 163.5 177.4 199.3 215.5 194 185.9 182.7 173.2 172.5 162.8 158 146.5 138.8 136 133 132.8 135.1 136.8 139.2 139.4 146.1 152.1 154.9 157 156.8 151.8 146.2 136.7 133.3 132.9 126.6 133.2 136.2 139.6 143.3 154.1
219.1 209.6 202.3 199.5 193.9 186.6 174.5 164.2 164.4 167 184.5 206.8 206.8 211.6 205.6 202.4 210.7 215.1 212.9 214.4 212.4 211.2 206.1 199.6 204.9 210.6 201.7 202.1 193.8 181.7 179.6 183.1 189.7 190.2 213.5 227.4 219.9 210.3 194.3 181.7 184.5 201.2 201.5 199 202.4 196.9 195.8 196.6 193.9 190.6 192.9 190.5 187.1 189.5 198.3 207.4 218.7 240.6 223.5 214.1 195.7 182.4 167.1 146.1 141 142.4 148 160.8 169 172.8 168.5 156.3 132 112.2 94.4 67.2 46.1 37.3 33.3 36.1 38.9 49.7 61.8 66.2 64 58.2 51.8 49.6 49.6 61.8 77.7 92.1 107.8 107.8 107 112.5 115.1 116.3 119.2 122.5 120.9 124.4 137.7 144.5 151.8 160.3 169.5 171.6 165.5 165 171.6 176.4 175.4 185.2 198.5 211.5 217.7 229.6 244.2 244.4 249.6 264.6 283.5 293.2 301.1 297.3 288.8 281 283.2 291.5 298.2 293.2 282.7 272.7 267.6 265 263.6 262.8 263 264.7 259.7 251.9 245.4 234.1 221.2 206.6 198.7 198.2 196.5 195.4 189 179.1 168.8 161.4 153.8 148.6 145.7 143.3 136.8 138 137.8 142.6 144.4 158.5 168.2 173.3 186 183.7 184 183.2 180.8 176 172.4 167.5 156.8 146.2 140.1 138.8 140.4 142.1 143.9 145.6 147.2 148.9 156.6 162.6 166.3 166.2 164.2 162 158.4 146.6 139.2 136.8 137.3 131.2 135.7 138.2 141.5 149.4
222.5 214.1 206.6 200.4 194.6 182.2 176.7 170.4 166.1 175.1 185 204.9 206.7 208.4 206.3 213.6 222.5 219.2 219.3 225.8 220.8 217.4 211.3 205.1 215.6 215.7 213.8 215.8 211.8 205.8 194.9 195.1 207.7 210.6 214.4 227.7 225.7 208.6 189.9 179.8 204.2 213.2 214.3 211.3 207.4 207.5 208.7 213.7 208.7 203.9 203.7 201.9 193.6 194.7 203.2 213.7 245 255.5 241.4 222.9 214.9 201.3 184 159.5 164 164 163 170.4 182.2 184.2 179.7 165.5 153.9 129.7 110.2 88.3 67.5 48.2 37.2 33.7 37.5 40 41.7 40.4 40.1 42.8 41 42.8 40.7 48.5 57.3 72.1 96.3 98.9 96.9 98.3 101 101.4 105.4 108 103.9 102.7 118.8 128.4 138.8 150 158 166.5 158.7 155.4 160.2 164.8 165.6 178.4 191.6 214.3 221.8 228.5 238.9 243.7 266 305.4 313 311.1 310.2 307.5 300.9 294.1 291.6 296.2 300.9 300.9 293.5 283.3 277.3 273.1 275.3 275.8 280.1 276.1 272.9 263.8 249.3 235.4 220.3 214.1 211.4 210.8 210 206 196.2 182.7 172.2 163.1 155.8 151 145.6 139.7 138 140.6 141.8 146.9 146.8 156 161.8 173.5 179.4 181.2 181.8 180.8 177.3 173.6 167.9 163 154 151.4 147.8 148.9 150.1 151.9 153.5 157.4 158.4 159 163.8 170.9 179.3 182.8 180.1 175.1 168 156.6 146.1 142.9 137.9 136 134.3 137.2 141.1 150
235.6 222.4 210.6 202.3 191.9 181.8 178.9 171 168.3 176.6 182.8 190.6 196.3 200.4 206.8 215.2 225.4 227.4 230.5 231.8 224.8 222.6 219.9 217.4 221.5 223.5 226.8 234.1 223.4 212.4 216.2 213.1 217.6 223.8 222.6 225.5 216.3 201.3 186.1 197.1 212.9 220.4 223.8 219.3 215.8 220 226.4 235.3 223.4 216.6 211.9 212.8 204.9 200 208 222.2 259.4 265 262 238.1 222.6 210.5 194.9 183.1 182.4 179.9 182.1 195.2 200.1 200.7 190.2 175.2 159.8 146.2 125.1 108.3 95.1 67.2 50.7 38.7 34.6 34.8 34 35.1 36.4 37.2 38.2 37.5 41.1 42.5 47.4 48.8 59.6 65.6 69.5 71.7 77 80.4 89.7 90.9 90.4 94.7 109 114.2 125.2 134.3 142.9 146.2 147.2 143.9 147 153.2 160.7 168.8 182.2 202 221 221.2 233.4 247.5 272.7 309.8 321.5 321.2 315.4 311 306.9 304.6 307.9 311.9 314.1 310 298.3 289.8 281 278 278 280.5 283.2 280.2 274.1 266.1 255.8 242.7 231.3 227.7 225.3 223.3 218.5 209.5 198 185.6 175.3 163.4 156.4 150.4 144.1 138.4 136.9 138.5 143.1 147.4 151.5 152.8 165 175.2 183.1 182.5 182.3 179.8 178.1 173 165.3 160.4 157 158.2 163.9 166.6 167 167.7 166.3 168.3 168.6 170.4 172.1 180.9 193 196.6 193.2 189.2 178.9 167.5 156.9 150.4 143.9 139.8 137 137.5 141.7 146.4
227.3 226.1 217.1 204.9 197.2 181.7 178.3 174.3 177.8 179.6 195.3 205.9 208.2 201.1 210.4 221.3 231.7 233.6 238.7 236.5 226.8 228.3 228.4 225.1 228.4 234.9 237.3 241 228.5 221.4 229.4 238.3 232.4 228.8 230.6 227.3 214.2 201.4 197.4 197.6 204 224.9 228.1 224.8 224.2 231 243.1 243.3 234.3 228.5 228.7 228.6 217.7 208.6 216.7 235.8 267.5 274.9 275.3 251.1 235.4 224.2 209.2 207.4 205.4 200.5 202.7 210.8 210.9 211.1 194.8 181 170 158 144.9 127.4 111.9 94.8 74.3 52.8 44.5 36.4 37.3 37.6 38.3 39.2 40.5 41.2 38.5 39.1 40.3 40.9 41.8 49.5 50.3 50.8 53.8 57.7 59.8 71.1 78.7 90.3 101 108.1 116.6 126.6 133.1 135.2 136.7 134.3 136.8 143.6 152.5 159.5 168.1 178.5 197.6 200.4 217.8 241.6 270.1 319 326.7 324.5 321.3 317.7 315.3 318.3 319.4 319.1 313.3 305.8 299.9 290.5 279.1 276.2 276.9 278.9 283.4 287.9 290.6 288 270.1 249 247.6 248.6 244.3 240.4 231.1 212.5 202.1 192.1 176.5 164.6 156.8 150 143.2 137.7 134.9 138.1 141.3 148.6 158.7 167.2 176.9 194 189.7 185.7 182.7 179.7 178.7 176 170.1 166.6 165.9 168.7 174.6 182.9 189.8 189.9 184.2 183.7 184.6 186.7 189.2 194.6 210.8 217 215.2 206 190.4 178.1 168.5 159.6 149.4 144.2 140.6 141.8 148.1 155.8
217.3 214 212.9 208.9 197.7 187.1 181.6 172 182 189.5 208.1 210.3 211.5 216.2 219.8 232.3 240.1 245.1 243.5 240.8 232 235.7 232.2 233.5 239.7 244.4 252.9 255.7 236 227 236.2 248.3 247.5 249.3 237 228.3 214.4 212.9 213.4 217 213.8 227 233.6 236.6 237.3 240.6 249.2 245.6 242.7 240.2 243.3 236.5 227.8 220.6 231.2 262 283.6 285.6 284.9 265.5 253.7 239.7 229.1 227.6 224.7 217 209.1 208.7 199.4 192.2 188.7 184.4 181.8 171.7 160 149.8 135.5 116 99.6 77.3 62.4 55.4 50 43.2 40.7 40.9 41.2 41.4 42.1 41.2 41.7 41.8 41.8 43.7 50.5 51.1 50.9 52.3 54.6 62.8 68.2 81.8 93.2 100.6 110.2 119.9 123.2 124.5 125.8 125.7 128.2 132.5 139.1 148.9 153.6 158.7 170.4 183.1 203.6 229.1 260.6 314 319 320.7 321.8 318 316.7 320.1 325.6 321.6 313.8 309.1 308.6 295.4 283.5 275.8 272.4 276 281.2 284 279.9 267.8 255.5 253.5 255.1 262.8 274.4 265.3 242.8 221 206 191.8 175.6 165.2 157.2 147.4 140.9 134.9 134.9 137.4 141.1 149.5 158.9 165.8 174.3 181.3 182.7 183.3 181.5 180.1 178.3 176.8 176.8 177.1 181.1 192.2 204 213 211 206 201.2 200.3 204.9 208.1 211.5 215.3 222.9 226.2 225.1 219.2 205.6 196.5 176.7 163.2 151.7 143.9 140.3 143.9 153.8 159.6
219 216.8 213.6 200.6 195.1 193.6 185.5 177.2 185 202 218 221.2 225.4 241.1 233.3 232.1 250 253.3 253.5 249.2 239.7 239.1 236.4 238.4 243 248.4 251.8 258.3 241.1 232.2 240.3 256.3 259.2 260.3 252.9 234 236.7 235.3 233.7 228.1 215.7 230.1 239.7 254.6 244.7 245.2 248.6 249.5 251.2 255 251.7 242.6 231.8 228.6 248 267.3 301.4 302.8 299.7 283.6 271.4 256.1 246.9 248.8 236.9 229.4 217.7 211.9 197.9 190 189 187.1 186.3 186.3 170.6 162.1 156.2 146.6 124.5 103.5 98.6 95.6 83.5 67.9 62.5 58.2 55.4 53.4 49.2 47.4 45.8 43.1 43.3 43.1 50.2 51.5 51.5 52.1 53.5 62.7 68.2 77.4 86.8 91.5 101.4 110.4 113.8 114.9 116.2 117.6 126.1 129.6 132.2 135.2 141.5 146.3 151.2 167.1 188.8 213.2 247.7 299.8 319.4 317.5 315.8 313.9 308.8 306.4 309.2 312.9 320.5 315.6 314.7 307.1 289.7 285.2 279.3 267.1 266.7 262.4 261.2 259 257.3 256 253.8 259.1 262.2 263.6 241.1 225.6 205.1 188.1 174.5 165.7 157.6 147.7 139.6 134.9 134.9 136 144.5 149 157.1 165.9 171.5 176.9 181.7 182 181.2 181.4 180.4 182 183.8 189.1 206 220.8 241.7 239.7 231 220.9 222.8 226.9 232.3 244.9 248.8 243.2 258.5 254.7 256.4 236.1 224.5 210 187.9 170.6 156.2 145.9 139.7 145.4 152.2 157.4
226.3 224.3 221.6 204.7 198.1 190 181.7 183.1 193.9 209.6 222.5 231.4 239.5 248.7 247 247.6 249.8 260.3 260.5 251.2 246.8 246.6 241.3 240.4 245.3 249.6 251.1 255.3 245.1 249.4 252.5 262.5 267.4 268 256 258.2 253.8 247.1 242.9 236.3 224.9 235.6 244.9 253.2 249.9 249.6 255.3 253.6 256.8 263.1 259.8 246.4 239.6 244 260.1 280.5 316.4 317.8 311.6 308 283.8 272.6 260.2 265.1 256.3 248.7 230.9 222.4 208.8 196 194.4 192.6 190.9 189.4 184.6 175.9 165.6 158.5 147.5 129.6 123.5 122.4 110.1 95.2 93.5 93.9 91.9 85.5 73.9 57.9 56 49.6 45.1 43.6 48.9 49.8 51 53.5 53.8 56.1 63.4 68.7 82.1 84.2 96.1 101.9 104.2 104.7 102.5 108.7 117 125.9 128.1 126.8 130.5 136.6 142 150.4 173.2 198 233.6 272.5 307.3 310.8 317.8 315.3 306 293.7 283.8 284.7 297.7 302 303.7 303 291.7 284.5 271.1 259.3 257.9 259.9 261.9 266.4 265.7 258.2 251.2 248.1 254.1 253.2 237.6 222.4 203 186 173.8 165.2 155.4 146.7 138.2 134.9 135.3 142.3 148.6 153.5 159.7 164.2 169.5 175.7 179.9 181.9 184.4 185.4 189.8 193.4 198.4 218.4 233.7 238.8 243.2 242.8 240.8 244.5 254.5 259.1 268.2 289.5 275.9 276.9 277.4 269.4 255.3 243.3 230 208.9 190.1 174.5 157.1 147 142.7 146 152.8 156.5
233.4 225.1 216.2 210.1 209.9 197.4 184.2 187 203.7 221.7 220.5 232 242.3 251.3 253.7 261.7 270.1 260.5 256.6 255.9 251.7 251.5 242.9 246.9 250.6 252.6 255.3 254.5 252.5 270.4 270.8 272.6 273.2 272.5 274.8 275.2 264.5 260.8 252.8 233.5 238.2 243.7 251.2 260.7 255.8 252.6 255.4 261.1 266.7 270 263.7 257.8 251.6 252.9 275.2 318.7 317.7 337.7 326.5 327 315.9 292.5 275.8 279.4 282.9 263.3 259.8 233.2 223.3 210.2 203.4 200.3 196.6 193.9 194.5 187.9 180.5 169.1 162.1 153.6 150.6 150.5 146.8 137.3 128.4 122.6 116 108.9 100.9 84.7 72.7 64.8 56.6 49.5 43.6 48.7 50.2 51.6 54.2 56.4 59.8 67.7 71.5 78.6 86.5 91.2 97 93.9 91.1 97.3 102.3 110.8 112.6 116 121.6 128.7 134.7 144.6 160.5 184.9 213.2 252.7 286 297.5 309.1 298.5 294.2 287 277.3 275.8 272.5 274.1 276.6 282.5 276.7 265.1 254.3 254.8 263.3 268.4 268.7 261.8 257.5 250 244 237.5 243.5 248 242.2 223.5 200.9 182.7 171.2 156 143 139 137.1 135.8 139.7 145.7 153.5 157.8 162.9 171.1 176.2 179.6 182.9 188.3 192.5 196.5 203.9 215.6 234.7 251.1 254.2 251.7 251.4 255 264.9 277.8 287.5 288.4 301.6 310 300.9 301.9 293.6 273.2 256 238 227.6 209.9 193 179.7 161.3 148.8 145.2 143 150.1 159.2
239 228.6 214 211.6 207 192 185.5 189.8 214 236.5 237 233.8 242.4 257 263.9 272.8 275.5 270.3 259.5 261.2 258.1 253.4 246.2 254.6 258.1 262 261.8 262.1 265.6 284.8 287.9 289.8 284.5 281.1 281.7 280.5 275.8 274.2 268.5 261.5 245.6 241.2 257 268.2 263.1 261.6 272.7 271.2 270.4 272.2 274.7 269.9 261.6 272.9 297 322.5 320.9 343 335.7 343.3 330.4 317.5 305.9 290.1 305.6 283.9 283.7 255.7 246.3 228.6 219.7 213.6 207.7 204.7 203.9 203.6 195.4 188.4 185.1 181 177.1 172.1 162.9 158 154.3 152.4 135.6 124.9 114.3 105.2 95.1 79.4 71.1 60.3 50.8 45.6 44.1 46.1 48.3 51.9 57.3 59.9 66.7 73.1 76.9 78.7 83.7 88.9 88.4 87.9 92.4 99.1 104.4 110 115.6 121.1 131.6 146.6 162.8 181.2 202.4 228.2 261.6 275.3 286.2 289 286.5 281.4 273.3 276.3 267.2 262.7 260.1 261.5 257.2 250.8 254.6 257.3 253 251.2 249.1 249.8 241.4 239.4 233.2 229 230.2 234.1 227.6 221.3 195.9 178.1 163 151.9 140.7 138.3 137.4 137.2 145.2 155.3 154 159.6 168 172.6 178.7 184.1 194.6 207.1 211.1 216.2 227.4 250 265.2 276.9 281.9 279.7 284.8 289 297.1 301.9 308 305.7 311.4 306.5 302.1 293 283.9 273.9 257.4 239.9 224.7 211.3 192.6 179.2 161.1 151.9 146 144.2 151.3 159
241.6 232.8 225.3 211.7 204.4 194.8 190.1 203 220.5 230 237 252.3 250.3 252.2 268.7 275.9 284.9 274.3 273.7 263.9 261.5 250.3 256.2 259.6 263.4 268.8 273.2 272.8 281.6 291.7 293.9 294.4 292 292.4 288.3 291.1 288.6 287.5 281 278.8 267.5 252.7 259.8 270.3 268.3 272.7 285.3 288.6 287 281.4 285 285.3 280.1 283.4 306.7 320.1 319.3 326 340.6 343.4 341.1 329.2 312.6 303.9 305.5 320.2 304.2 286.1 260 248.1 244.9 243.9 238.9 221.1 217.7 220.4 212 207.3 202.9 202 197.9 187.8 175 165.2 162.1 154.9 139.9 131.6 125.7 116.3 108.9 97.7 87.9 79.2 62.6 59.3 60.5 54.8 53.7 52.2 50.2 57 61.9 63.3 64.2 68.8 73.4 79.6 81.2 80.5 85.6 94 105.8 117.2 128.9 138.7 152 164.6 174.5 188 201.4 219.5 255.3 265.3 276.3 275.9 267.3 259.4 262 266.5 256.9 257 246.9 241.1 244.6 260.7 266.7 264.8 254.4 248.6 241 235.5 232 233.8 228.4 220.4 217 213.4 210.5 207.1 188 168.1 152.7 141.4 138.6 136.4 136.5 141.6 153 156.1 156.8 158.6 165.6 173.6 180.7 190 207.2 224.5 231 238.1 251 264.9 277.2 283.7 311.5 319.5 315.4 316.6 332.5 328.3 332.8 322.9 319.4 312.9 299.1 288.4 276.2 262.7 260 242.2 221.4 207.3 195.1 183.7 173.1 154.5 143.4 146.7 151.9 160.9
248.8 236.8 229.6 214.9 203.3 195 202.3 214.6 236 236.5 240.2 255.8 262.6 261.7 264.2 268 282.4 281.9 286.1 272.1 266.1 258.9 260.8 263.4 267.7 276 278.7 283.1 289.7 293 298.5 297.4 297.4 298.6 297.8 297.2 302.2 298.4 292.9 282.4 271.8 248.2 263.6 271.7 278.4 283.7 288.4 291.3 291.2 294.1 303.4 298 294.7 299 306.9 313 318.1 321.3 327.4 330.1 329 333.6 321.3 311.4 311.9 328.1 317.8 309.2 283.9 274.3 266.6 275 268 253.1 239.9 240.1 233.4 222.6 222.3 221.4 214.9 201.3 189.2 177.9 169.9 157.4 146.8 139.1 134 131.9 122.3 109.6 100.7 92 75.5 73.8 67.8 66.5 63.3 61.3 55.8 49.7 57.6 60.8 61.2 63.1 66.5 71 73.6 82.8 88.7 100.6 120.7 140.2 155.5 173.3 192.5 199.7 204 205.6 209.4 217.6 249.7 254.4 260 257.9 252.2 249.8 241.3 242.3 237.4 236 227.2 233.7 244.6 258.9 255.1 259.7 256.7 247.3 235.4 223.8 226.3 229 224.6 219 211.1 204 196 188.4 174 153.2 142.3 135.9 137.8 137.1 140.9 151.3 161 160.4 159.4 161.3 166.5 174.8 185.3 205.7 225.4 243 255.9 262.9 272.4 282.6 304 329.7 349.4 342.7 348.8 356.1 350.1 339.4 339.7 338.6 330.4 314.6 299.4 288.4 272.3 256.4 245.6 232.1 218 204.4 196.6 187.2 169.8 156.5 145.7 147.9 152 159.9
245.3 241.6 228.4 216.3 200 204.3 214.7 237.5 242.2 239.5 242.1 259.4 268 269.4 282 274.6 279.2 284.1 281.5 271.7 269.3 266.3 261.4 266 270.9 279.2 282.1 289.1 292.1 296 299.4 302.6 302.2 302.6 302.7 308.9 314.8 308.7 303.2 293.2 279.4 260.6 273.8 276.8 288.5 297.4 299.4 300.2 299 309.5 316 316.2 315.5 318.9 325.2 326 325.4 322.9 323.1 328.5 329.1 328.8 329.2 327 325.6 349.3 336.9 325.5 313.4 298.2 280.2 287 289.6 285.7 269.8 252.9 248.8 234.2 230.5 226.8 221.2 207.4 195.8 189.4 174.9 162.8 154.7 148 144.7 139.5 132.4 120.4 113.4 104.4 95.8 90.1 83.8 78.4 73.4 66.1 67.1 49.4 54.3 55.7 57.5 59.9 61.2 68.2 76.4 89.6 101.3 116.4 139.1 172.2 189.2 208.1 212.9 225.3 231 237.2 242.3 233.2 234.5 236.9 238.1 239.8 229.9 231.3 228.3 213.3 204 210.2 218.9 225.8 227.7 241.3 239.5 245.1 239.4 235.6 225.6 214.2 212.5 214.6 218 217.2 211.5 199.9 183.5 171.3 157.2 146.4 135.9 143.8 144.7 143.7 151 163.9 162.5 161.2 163.2 164.1 169.9 181.4 195 213.4 237.2 258.1 275.1 281 294.7 309.3 339.4 361.6 375.7 381 377.5 379.9 369.7 355.5 340.8 334.4 322.5 309.8 296 283.9 266.1 252.2 241.2 225.2 218 205.8 192.7 181.8 170.6 161 146 150.8 153.7 160.8
243.7 237.2 227.1 212.4 208 215.7 232 249.7 246.1 241.8 248.5 268.3 276.1 285.7 296.8 291.4 286.7 283.2 279.1 281.2 280.8 268.3 263.4 266.1 274.7 281.1 284.8 292.4 298.7 303.1 305.3 308.5 306.9 304.1 308.7 316.6 321.6 316.5 310.9 300.8 283 271.5 283.4 287.6 293.9 306.2 311.5 307.6 310 330.6 331.2 332.8 334.8 338.2 345.7 342.2 337.1 332.2 325.5 327.7 329.7 334.3 340.7 348.8 339.8 351.2 363.2 342 335.1 315.4 298 294.1 301.3 305.4 297 268.8 256.3 251.2 247 244.3 239.8 216.9 212.8 209.3 193.8 181.9 167 157.5 151.6 146.7 141.8 130 122.9 116 106.9 101.4 95.2 89 83.8 75.3 67.8 56.4 54.2 59.1 61.3 61.1 67.6 75.6 84.9 96.9 114.5 134.8 161 189.1 207.9 221.2 228.7 228.5 231.4 237.2 238.2 233.5 227.7 217 218.2 220.4 214 206 197.7 180.7 177 191.6 201.2 208.2 205.3 205 209.1 214.4 213.3 219.2 208.7 203 195.2 207.1 210.6 212.7 212 199.3 177.8 155.7 143.2 135 138.1 146.3 146.2 149.9 161.1 163.1 162.7 164.2 167.7 170.5 180.1 191.5 204.1 222.3 246.1 271 286.2 299.5 315.6 332.3 386.3 383.7 409.6 410 408.8 401.4 379.7 361.8 349.3 333.3 321.1 310 295.2 281.8 270.3 258 240.7 228.3 216.5 202.3 190.8 178.8 171.7 165.3 153.9 153.5 160.3 162
235 232.6 223.1 213.4 213.8 231.5 244.1 251.1 249 247.7 255.2 266.8 278.4 293 297.7 294.5 293.4 290.1 281.4 283.2 279.5 270.9 264.8 266.9 272.9 278.8 285.8 291 299.1 306.9 309.4 312.2 312.8 309.7 311.5 322.7 328.1 326 316.9 300.2 276.4 285.4 293.9 304.4 308 310.3 314.9 316.1 322.7 350.7 359.8 371.9 376.5 373 366.6 358.5 347.5 338.8 336.1 327.5 331.9 338.6 347.8 359.5 350.5 349.2 364.6 367 346.1 337 321.2 311.4 298.4 299.4 296.1 291.3 277.7 273.9 272.9 255.3 251.5 242.9 238.1 231.9 214.1 193.1 184.3 175.3 163.7 157.2 150.6 137.5 126.8 123.7 116.4 107.8 102.9 98.2 92 83.9 73.1 55.9 56.2 64 65.3 67.2 71.8 85.7 97.4 113.3 129.8 152.9 179.5 188.1 209.6 211.8 211.5 210.1 213.9 213.7 221.2 212.8 219.7 202.6 186.5 176 176.5 178.6 161 157 161.4 169.8 177.5 181.2 185.9 186.5 186 183.7 186.5 184.4 183.8 180.1 182.5 188.6 193.8 200.5 202.7 189 162.8 143.1 135.5 136.6 145.3 143.9 146.3 150.8 159.4 159.1 163 167.1 174.1 180.7 194.2 206.5 221.5 244.7 261.9 284.8 302.6 322 340.5 391.3 417.1 411.6 422.9 425.9 417.3 406.7 390.1 375.4 355.5 336.8 321.7 305.4 295.8 281.5 267.9 255.7 239 224.8 213.5 200.2 186.6 178.6 172.5 165.3 158.3 150.7 156.1 165.8
243.2 235.5 222.5 214.7 225.7 250.7 255.7 250.8 249.4 258.2 271.8 271.9 285.6 288.8 289.7 293.5 294.5 291.3 295.5 295.9 283.9 271.7 266.3 269.1 271.7 280 285.3 292.3 301.6 306.4 310.3 315.7 313.3 314.6 316.8 327.9 332.6 327.5 315.3 297.9 292.6 300.6 309.9 321.5 320.2 319.3 327.2 329.4 342.6 389 409.4 412.4 411.6 392.9 373.2 364 355 348.6 342.6 338 341.7 347.7 352 355.2 357 349.3 358.4 367.9 359.9 344.3 330.5 320.3 315.6 309.6 317.1 311.3 302.6 300.3 294.8 273.1 262.8 270.1 267.3 264.7 253.1 234 219.2 201.7 184.6 169.7 160.3 153.7 139.9 132.6 127.5 119.3 113.6 108.3 102.6 92.1 80.1 55.2 57.4 71.3 71.9 74.8 84 101.1 117.2 139.1 152.2 175.4 175.5 182.8 198.8 203.9 201.9 195.8 189.6 187.6 192.9 189.7 186.6 177.7 160.3 144.1 134.1 129.2 143.7 150.5 155.5 155.1 157.5 153.7 157.2 159.8 157.4 156.9 155.1 157.8 160.3 166.3 172.8 175.2 177.1 177.7 181.2 177.3 152.3 136.1 136 136.9 156.9 156.8 149 149.3 150.2 157.5 167.9 179.2 191.3 197.1 210.3 224.5 244.7 271 287.4 311.6 333.7 348.7 371.5 419.1 437.4 434.1 436.4 429.7 420 410.9 394.1 373.8 357.7 341.1 326.3 310.9 297.8 276.8 265 251.9 238.5 227 215.6 201.7 191.6 181.3 177.3 162.8 161.6 151.5 153.8 164.3
249.7 240 227 222.5 236.6 256.6 255.3 251.5 251 258.8 271.1 285.4 291.9 297.2 296.3 293.7 294.9 297.2 304.8 302.7 291.3 278.8 270.8 269.2 274.1 282.1 287.1 293 299.9 305.6 314.5 317.4 319.1 319.2 328 334.2 335.9 326.8 313.8 296.4 302.2 313.5 325 328.9 329.6 333.8 337.9 347.2 380.2 430.6 445.9 449.6 427.3 397 382.8 373 362.1 357.6 347.4 350.9 364.2 373.3 363.7 358.5 354.3 354.1 355.8 365 368.6 356.3 348.6 336.9 332 325.6 333.9 339.7 322.7 317.1 308.3 290.3 275 271.9 279 279.7 272.6 257.9 251 241.9 222.5 194.8 176.8 164 162.4 151.8 134.5 130.5 125.8 119 112.8 105.8 91.3 60.4 60 82.6 84.4 89.7 103.3 117.4 135.5 159.4 165 165.1 164.5 169.1 176.2 179.5 185.2 174.7 172 169.6 164.7 159.9 156.3 142.2 132.5 116 125.1 142.2 161.3 152.7 152.2 142.9 135.3 133.9 132.8 132.4 131.8 132 132.5 130.6 142.3 160 159.5 162.9 163.1 155.4 154.1 149 134 132.7 134.6 136.5 139.6 143.9 143.3 146.4 156.6 159.1 177.3 192.4 200.8 212.4 224.6 241.3 274.5 292.3 329.4 345.2 355.9 376.9 397.2 444.1 450.6 448.8 441.6 432.9 430.2 420.8 397.8 383.1 362.4 346.4 329.2 313 297.3 278.8 263.1 250.3 237.5 225.2 213.9 203 194.4 184.8 176.2 166.6 160.2 153.9 152.9 160.6
247.3 239.3 228.4 228.4 233.9 248.1 250.4 252.4 255.8 271.3 277.3 289 298.9 307.6 300.4 296.5 297 303.6 308.8 304.3 294.4 285.7 280.7 275.6 274.3 281.1 289 294.8 301.6 310.9 317.7 320.1 321.1 330.6 334 335.4 337.6 321.6 305.3 303 318.8 330.9 336 338.7 340.5 345.9 353.9 376.9 430.3 464.9 478.3 464.2 436 406.8 394.8 385 374.1 366.6 362.6 364.4 386.6 400.6 379.7 363.7 356.7 366.3 364.8 362.4 379.7 387.2 375 364.8 360.4 354.9 355.7 347.4 346.8 340.6 321.5 309.7 290.2 277.4 278.6 279.9 275.8 268 252.4 245.7 238 219.1 185.9 183.4 175 167 156.1 141.9 133.1 127.4 122 114.1 104.5 79.4 79.9 85.9 94.2 102.8 112.5 124 145.6 155.4 151.5 154 150.1 149.6 149.8 161.3 159.6 154.6 151.1 143.9 137.6 132.5 123.1 109.5 107.8 107.9 117.6 134.1 144.3 141.6 139.2 136.1 129.4 125.7 119.2 118.1 117 114.1 119.2 122.2 126.7 138.1 144.4 141 139.2 134.9 130.5 129.6 133.6 143.6 156.8 150.8 144.3 143.2 148.8 161 176.5 185.3 194.6 207.9 217.7 226.5 239.6 281.3 300.5 319.2 342.3 364 378.1 398.4 433.1 446.4 451.3 449.3 442.5 437.2 438.5 422.7 408.8 389 368.8 350.5 333 313.7 296.9 279.4 262.1 251.8 240.6 229.3 216.1 202.8 193 185.3 172.7 162.9 157.1 155.9 153.7 154.9
247.2 236.5 227.8 235.4 259.4 256.5 253.2 251.8 259.4 273.4 282.7 299.7 316.4 316.6 302 300.3 302 308.3 306.3 305.8 295.2 295 292.7 287.5 283.5 282 290.3 296.7 303.4 313.9 320.7 322.9 329.7 336.1 341.1 340.7 328.9 319.9 308 312.6 327.6 337.6 340.6 345.9 353.5 360.2 377 434.6 474 510.2 513.8 500.3 463.3 438.9 418.6 401.8 393.2 389.3 384.6 411.3 412.7 399.2 384.7 370 364.8 370.1 380.5 374.9 375.8 395.8 399.7 388 376.8 379.8 370.9 351 335 335.2 328.3 318 307.5 289.8 278.8 275.4 271.3 269.8 255.3 244.3 237.7 223.5 208 200.4 183.8 177.6 169.3 160.3 140.6 136.4 134.1 128.3 115.8 93.8 71.8 91.7 102.5 110.4 117.5 125.9 136.2 138 138.4 137 133 130 128.1 136.4 135.1 132.4 124.8 117.5 116.2 111.6 101.5 102.7 103.9 106.4 108.1 115.1 123 127.3 130.3 127.2 121.7 114.8 114.9 117.3 120.5 121.8 122 120.8 119.1 118.9 125.5 128.7 127.9 127.3 128 132.7 147.4 163.9 167.2 154.9 144.4 151.9 167.3 184.6 197.7 204.7 204.8 218.3 229.3 245.2 268.1 320.1 323.7 343.4 359.5 398.7 422 440.6 456.2 441 449.4 455.3 446.1 442 430.8 424 406.2 387 371.2 352.4 334.5 314.9 299 281.4 265.8 250.6 236.4 225.2 220.2 210.1 197.9 189.9 182.4 167.2 167.4 160.8 154.3 155.7
254.1 234.5 231.6 249.2 267.4 259.2 259.8 270.2 268.7 266.9 283.9 305.1 308.6 306.5 305.4 312.6 311.3 322.5 311 305.9 302.1 304.8 303.9 297.4 291.7 290.5 294.6 296.6 304.9 312.8 320.8 327.6 336 342.3 346.9 335.9 322.8 310.5 314.3 325.5 335.8 344.6 347.2 355.9 364.5 383.3 412 487.1 521.9 546.4 551.4 522.7 489.5 464.5 453.1 436.2 430 424.1 435.7 436.7 420.7 397.4 384.4 377.8 373 377.7 397.1 395.4 382.6 391.1 402.6 397.8 394.5 389.6 379.9 360.6 338.9 328 321.3 312.9 302.9 290.9 279.3 274.2 268.4 260.4 253.1 249.4 244.7 232.6 230.2 215.3 198.7 186.8 179 168.4 157.3 150.5 146.9 139.1 129.2 107.8 80.1 73.3 76.7 96 109.7 108.5 111.8 119.2 118.6 113 108.1 106 104.5 104.5 105.3 108.1 108.1 105.8 103.8 102 104 107.1 107.5 106.9 107.3 107.2 104.4 110.9 114 113.8 108.4 118.7 124 122.9 124.7 126.6 128.6 127.8 126.2 123.6 120.9 124.1 128 134.2 149.2 140.1 147.1 160.9 162.1 160.7 160 174.7 193.9 209.9 217.2 223.6 221.5 242.7 254.9 267.8 305.9 319.5 340.2 354.3 385.6 418.3 463.2 468.7 468 459.4 456.3 448 444.6 441.7 437.2 422.5 404.2 386.5 367.9 353.3 334.3 316.5 299.6 281.9 266.9 254.4 241.6 233.3 220.6 210 199.4 190.9 180.5 176.3 170.9 160.4 156 156.8
248.5 233.8 234.1 258.3 262.4 264.8 271.2 285.7 283.3 278.1 280.1 298.9 304.6 305.4 308.2 314.1 320.7 324.3 315.5 309.6 309.8 312.7 309.2 307.5 301 301 302.9 304.8 305.9 314.1 320.3 333.7 339.4 341.3 344.4 333.3 325.9 326.2 326.7 337.6 351.1 356.7 359 368.5 382.8 421.4 461.5 513.3 546.4 583.1 591.5 551 511.6 495 489.6 480.3 475.9 470.4 469.9 437.2 416.2 404.6 393.7 386.5 386.1 397.3 418.9 410.7 394.5 396.7 401.5 400.4 399.5 396.4 385 381.1 359.1 340.4 323.1 311.1 298.2 294 289 277.5 268.2 263.7 262 259.9 252.7 241.5 233.7 221.5 209.8 202.7 194.6 183.2 173.4 162.3 151.6 143.5 136.5 124.2 108.4 97.5 98.1 78.4 93.5 91.5 95.4 92.4 94 94.7 96.3 101.1 102.2 103.2 104.6 101.3 101.9 101.8 100.3 98.4 104 106.9 108.7 110.4 112.3 113.3 113.9 122.7 120.9 118.4 127.6 130.2 135.4 136.6 132.1 131.1 130.9 130.8 130.9 128.3 121.1 123.1 128 141.1 155.5 157.4 145.8 152.3 159.5 161.7 180.4 204.4 219.3 238.4 258.4 264.6 248.5 264.3 269.8 290.7 308.3 328 342.1 366.3 396.4 412 446.4 472.5 472.9 462.4 458.1 454.1 464.8 460.6 440.8 417.9 403.8 390.9 369.8 350.4 332.8 316.1 302 287.4 271.7 261.1 245.9 231.5 221.1 209 200.7 190.2 181 181.1 171.4 159.3 156.5 156.6
244.7 234.1 238.7 256.9 261.5 266.4 279.6 297.2 286.5 291.4 299.3 295.1 296.4 303.9 314.8 322.6 325.4 335.4 323.5 315.7 316.7 322.1 325.1 321.4 312.7 310.2 306.6 309.9 311.2 314 320.1 332.4 336.6 341.7 344.6 334.1 338.1 334.9 338.6 350.3 363.8 369.6 371.1 383.2 424.6 458 508 537.9 590.6 619.5 624 584.3 553.5 539.5 555 547.7 520.7 499.6 463.1 435.4 418.4 410 405.9 396.1 409.4 427.3 436.5 427.2 413.4 406.4 407.6 410.8 406.1 401.3 397.2 385.2 373.8 359.1 337.7 320.2 308.5 301.3 289.9 286 275.2 270.3 268.4 264.9 256.8 247.5 235.9 224 217.6 216.5 211.9 200.3 187.7 177.6 159.9 148.6 140.6 132.8 119.4 109.3 107.1 98.7 91.5 89.5 86.9 89 89.8 90.6 93 91.9 98.2 99.6 94.8 95.4 95.9 101.8 103 106.5 107.5 108.3 112.9 114.1 121 128.5 133.2 140.6 140.7 136.2 138.2 142.1 144.1 144.3 139.2 133.6 130.4 130.7 130.4 130.2 126.7 122 131.8 144.7 156.2 164.9 162 162.6 162.3 175.2 198.6 217.9 249.4 266.1 275.9 280.3 264.8 274.5 283.5 294.3 307.4 329.2 345.3 366 393 411.8 443.1 461.2 472.7 473.3 478.4 479.1 473.5 462.6 440 423.5 405 391.1 378.1 360.1 342.2 323.1 306.2 292 275 258.6 245 233 219.3 208.5 200.2 191.2 186.6 180.9 168.5 164.2 158.5 157.5
246.9 240 247.3 257.4 260.1 269.5 283.5 297.3 296.4 302.9 311.8 313.7 301.4 306.1 322.7 323.1 327.6 335.8 329.4 321.7 325.9 335.9 333.1 330.4 324.9 315.9 311.8 313.4 316.4 316 319.7 327.8 334.5 341.1 344.3 332.2 339.8 340.9 346.4 357.2 369.5 372.6 378.1 401.6 450.1 508.7 548 598.1 619.7 635.1 635.2 632.7 608.7 609.1 619.3 573.4 539.5 495.8 470.5 453.3 431.9 420.2 418.9 426.4 454.1 449.5 457 442.6 431.5 422.7 418.4 404.8 403.4 401.1 389.9 380 372.5 364.6 353 335.6 321.4 310.6 305.4 299.5 289.8 283.5 278.5 274 269.2 263.7 253.2 240.2 232.9 235.5 226.5 214.7 197 182.5 171.3 159.3 147.8 140.1 128.4 118.7 112.5 111.6 109.5 105 98 95.6 94.9 94.6 97.1 95.7 93.2 95.3 98.9 102.1 104.8 107.2 109.9 113.5 127.4 138.7 142.1 140.7 151.1 179.1 188.7 181.4 165.3 150.7 146.3 144.8 144.9 140.6 136 132.6 130.3 130.7 130 130 126 123.4 132.2 144.7 151.5 158.1 163.4 171.1 179.2 196.1 217.1 240.2 266.4 282.7 285.3 289.5 286.6 269.7 291.1 298.2 310.5 330.1 350.6 373.9 401.6 430.3 461.3 492.8 498.7 490 480.5 474.3 466.4 462.5 457.4 448.4 424.2 396.9 386.9 375.4 350.6 328.1 308.2 292.6 271.4 261.5 246.5 231.1 223.2 212.8 202.9 194.7 187.5 179.7 175.5 167.4 161.8 158.6
248 251.8 267 266 265.2 270.1 284.4 297.4 311.5 314.2 321.5 316.8 311.8 311.1 316.8 322.9 329.7 336.9 330.6 327.9 341.3 344.4 341.6 333.4 327.8 321 320.2 321.7 322.9 321.9 327.5 331.6 336.7 341.6 340.8 330.7 340 345.2 351.3 360.5 371 381.6 391.6 428.7 486.8 542.8 581.8 619.8 630.6 641.5 641.5 648.9 643.9 640.2 624.8 576.7 537.2 507.9 490.1 473.4 456.6 450.2 455.3 476.7 485.5 476.6 478.7 466.2 440.8 432.3 422.8 410.9 400.6 395.3 389.9 380.4 370 359.8 352.7 343.4 334.3 322.1 325.6 321.8 314.2 309.9 305.5 306.9 301.1 286.7 274.5 266.9 259 249.6 242.5 226.4 211 192.9 181.9 173.1 163.3 151 142.6 129.4 124.9 118.2 115.1 113.6 111.3 105.4 102.7 102.1 106.6 113.7 114 107.6 108.3 109.5 110.9 111.9 120.1 137.4 176.8 177.8 172.2 169.9 182.3 207.5 209.7 200.3 179.5 168.6 153 146 142.6 141.7 134.7 130.9 130.2 129.9 128.7 128.2 122.9 128.2 142.1 150.2 160 177.4 187.6 188.6 201.9 220.7 254.9 275.3 295.3 297.1 296.8 296.9 297.5 287.5 290 304.9 315 331.9 357.9 383 410.9 444.5 463.7 483.4 487.9 490.8 488.7 481.6 480.8 475.1 469.6 454.9 431.7 406.2 391.1 371.3 350.4 332.7 312.6 297.2 280.3 264.1 250.7 234.3 224.5 213.4 203 193.5 186.3 179.8 175.5 173.8 164.4 160.7
256.3 262.5 269.3 270.9 277.9 284.5 291.6 317.3 322.6 322.5 317.4 319.2 324.6 322.2 322.5 324.9 328.3 332.8 332.7 338.6 350.7 353.1 351.3 340 332.2 326.3 327.8 327.7 328.9 332.3 337.5 341.3 346 347.2 345 334.5 341.2 349.2 355.5 362.6 374.9 384 405.8 456.6 510.3 562.6 590.6 618.2 636.4 644.4 654.7 659.3 659 658.9 654.1 602.8 557.8 530.6 511.6 502.3 503.7 512.9 503.9 509.3 500.6 502.4 489.3 476.9 457.5 447.3 449.3 435.4 413.5 397.5 385.7 377.3 369.3 363.1 351.2 343.4 335.1 334.8 330.6 330.3 330.2 332.6 329.7 329.3 328.1 329.7 320.7 308.2 295.3 282.4 265.9 249 238.1 212.7 197.7 187.1 176.2 166.8 161.6 147.4 137.1 132.9 127.8 126.5 123.5 115.3 118.1 115 110.3 119.4 120.5 120.8 120.6 119.6 128.9 132.2 150 173.8 197.4 206 205.3 213.3 223.3 229 224.6 209.6 186.9 173.8 158.6 145.9 138.7 137.9 131.2 130.2 129.2 129.8 127.4 122.8 130.7 143.6 159.8 181.6 199.2 206.2 210.5 210.3 219.4 245.9 279.2 304.1 306.6 306.9 303.2 302.8 303.3 303 296.2 307.2 316.4 334.9 360.2 393.6 425.6 449.9 474.7 483.4 488.5 493 495.6 496.1 489.3 485.3 473 451.7 429.5 409.8 397.8 379.5 365.1 350.6 326.4 304.4 287.8 268.8 250.8 235.8 224.9 212.6 203.8 193.1 187 180.3 176.1 166.3 171.3 163.2
264.6 267 270.8 279.5 292.5 290.6 302.7 315.1 321.4 319.4 321.9 332.6 334.8 336.1 337.6 338.5 339.6 335.4 337.1 342.1 347.7 351.6 350.8 347.5 337.8 332.9 336.4 335.7 338.3 345 346.9 349.7 350.9 354.9 348.6 333.9 348.5 352.3 358.3 367.1 381.9 395.3 423 476.6 511.5 553.6 596.4 626 640.8 658.3 670.7 673 672.3 667.8 669.3 635.5 600.1 588.3 555.8 549.7 554.3 548.1 536 517.5 503.7 506.2 507.1 492.5 477.2 476.6 480.4 456.7 436.1 416 393.3 376.7 367.3 358.6 350 345.5 343.1 338.8 339 345.3 342.7 347.2 352.1 354.6 352.8 351.7 342.9 330.8 314.6 305.5 294 282.5 263.5 243.1 224.1 210.7 198 187.2 178.6 165.4 157.5 152.2 146.8 144.1 137.1 127.8 124 124.5 120.6 116.7 124.8 135.7 144.3 154.6 166.3 167.6 175.1 220.4 236.4 230.3 221.3 215.2 217.5 214.8 209.4 199.7 181 165.5 153.5 146.4 135.4 126.8 125.8 126 126.5 123.8 129.1 138.4 152.8 171.1 184.2 214.5 220 230.8 229.4 233.9 248.2 281.3 301.4 308.5 311.1 317.4 314.3 311.6 309.9 311.1 308.8 309.9 320.4 333.7 350.7 372 408.9 433.9 450.8 467.5 485.8 498.7 501.7 500.5 498.2 492.6 472.5 451.1 433.4 415.8 401.5 393.5 384.6 370.6 341.7 318.9 293.2 270.6 254.2 239.9 228.4 214.9 204.6 194.2 187.1 181.7 175.6 170.9 169.9 164.6
267.4 270.3 285 293.4 296.1 300.4 305.6 321.6 320.7 320.7 332.3 345.4 347.3 361.8 368.8 362 355.6 346.8 345.3 346.6 352.7 355.4 354.3 352.5 344.7 339.9 341.9 345.3 349.4 353.6 354.4 354.6 357.2 353.2 344.5 344.5 356.3 359.8 362.4 370.5 388 408.9 452.2 486.9 515.6 553.5 599.1 630 646.5 673.9 687 692.2 692.7 686.4 684 676.2 642.3 639 607.6 597 586.4 568.3 548.5 532.8 518.2 513.9 516.2 513.4 492.4 487.2 484.2 480.4 469.2 434.3 414.4 397 381.8 370.6 361.6 355.7 356 354.3 354.4 361.5 362.4 368.5 379.6 397.9 404.6 402.4 376.3 354.8 326.4 317.5 304.4 293.8 279.5 272.9 256.9 243.3 225.6 216.8 207.3 193.2 185.8 179 174.5 165 152.9 147.5 145.8 142.7 139 139.1 151.4 171.5 176.5 187.3 196.4 214.7 227.7 223.9 220.3 218.6 210.2 209.8 201.9 193.6 191.1 184 172.8 160.1 147.2 136.6 128.2 129 127.8 124.7 128.6 143.3 151.1 162.4 187.4 197.5 209.3 225.3 248.5 249.4 254 258.9 280.5 299.9 307.3 315.1 320.2 323.7 323.2 321.5 320.1 319.2 317.6 310.5 320.9 330.9 346.1 364.4 391.7 414.2 432.2 451.9 484 492.7 497.4 492.8 487.4 487.8 475.4 455.8 438.7 420.1 407.2 398.4 389.3 368.5 346.2 323.9 299.7 279.8 260.8 242.2 229.4 218.2 206.6 192.6 189.6 181.2 170.9 176.4 166.4 166.6
264.9 275.8 286.6 299 314.8 323.7 316.2 322.1 325.7 327.4 339.4 353.5 361.5 374.5 380.5 375.7 365.2 355.4 355.1 359 360.9 362 369.8 363 352.3 345.4 350.4 353.6 355.9 356.7 358.5 360.1 358.1 352.5 345.2 349.6 359.7 364.6 370.6 377.4 395.9 440.5 459.7 480.7 514.3 560.5 597.4 615.7 640.8 666.7 681.2 698.1 707.4 706.3 696.9 694.3 691.6 685.3 674.5 641.5 604.4 578.1 560.8 545.2 530.6 527.3 523.5 514.3 508.4 496.3 484.5 481 475.5 471.2 452.8 436.5 424 405.5 401.7 388.6 398.5 412.7 405.9 399.5 411.3 417.2 422.5 441.2 453.3 443.3 417.2 383.2 356.3 347.3 329.5 314.1 297.6 286.5 270.9 261.9 245.2 247.6 242.5 230.1 221.9 220.8 200.1 191.4 187.2 180.2 175.7 173.8 174.1 180.9 190 195.9 215.9 239 234.6 222.7 218.7 212.6 214.5 216.3 210.1 193.7 180.8 175.5 171.6 166.5 159.3 149.3 140.1 134.1 128.6 129.3 126.6 136.8 151 164.6 181.4 206.2 228.3 234.6 227.5 241.1 263.2 273.6 280.6 286.1 310 322 327.6 328.9 332.4 335.8 335.1 331.3 327.6 327 327.2 324.9 321.6 332.4 343.2 355.5 376.7 401.2 420.3 435.8 454.5 467.2 482 495.8 496.7 494.5 482 467.6 442.1 423.7 413.9 403.5 391.8 374.1 351.7 329.9 312.3 288.5 266.9 246 231.3 218 206.2 196.8 184.5 178.2 177.7 168.2 169.3 170.1
261.9 275.9 291.6 302.1 321.2 332.3 323.1 323.6 325.2 334.5 348.5 364.2 378.2 376.7 379.2 381.5 370.6 362.7 364.2 370.4 378.6 375.5 375.1 368.1 356.3 353 355.3 359.3 361.3 364.1 365.6 365.9 361.7 348.7 351.3 358.6 362.9 369.7 374.7 385.9 408.2 437.2 465.9 483.6 516.9 560.5 587.9 597.2 623.7 654.9 672.4 696.5 713.3 712.1 710.9 707 707.5 703 704.7 649.3 617.2 592.7 578.3 557.5 546.4 539.3 527.7 520.3 512.7 504 494.1 492.7 496.3 506.4 505.4 496.3 484.5 457.1 478.3 451.1 466.5 453.4 441.1 446.3 456.2 467.6 468 467.7 484.2 475.3 449 422.7 398.4 390.1 391.8 367 343.1 339.3 316.4 310.3 294.6 283.9 293 295.3 278.3 260.6 232.9 222.3 213.6 212 206.9 203.3 216 238.6 247.3 253.6 248.7 238.9 229 222.7 211.9 204.5 203.2 199.1 191.7 178.8 167.4 158.4 154.5 148.3 145.8 139.8 131.1 130.8 141.3 127.2 143.3 151.1 170 188.2 204.8 233.5 248 259 248 261.1 292.6 319.2 314.3 314.3 339.8 350.5 360.5 359.6 346.7 352.3 347.6 341.9 337.9 335.3 335.4 333.7 329 330.8 343 351.2 365.3 389 409.6 423.7 436.5 453.2 474.9 489.7 500.9 501.1 493 477.9 459 433.1 422.3 412.5 399.9 384.2 365.1 340.8 319.1 295.6 274.4 251.4 235.6 219.4 204.3 193.3 185.3 186.4 181.8 180.2 171.2 165.4
262.7 270.9 288.5 310 319.6 321.9 319.8 318.4 329.5 346.1 354.3 375.6 381.8 376.2 375 375.5 371.2 372.6 382.4 385.4 389.3 387.8 384.5 371.8 358.6 356.3 359 362.7 366.5 369.2 370 370.1 359.7 360.2 363.7 370.1 371.2 370.8 379.2 392.9 399.8 437.8 448.2 479.5 513.1 537.1 566.5 587.5 605.8 642.5 672.8 698.4 715.6 719.1 725 726 724.1 720 716.8 673.6 637.5 618.9 594 580.6 559.4 541.5 534.2 526.9 516.5 510.6 507.9 513 523.2 539 541.7 538.2 536 506.5 517.8 530 528.6 495.2 495.8 494.5 508 523 510.9 511 528.4 518.2 480.3 469.5 466.8 449.3 430.5 429.5 421.6 392 372 349.1 345.3 325.2 344.4 346.5 317.4 288.7 282.4 275.1 274.3 267.4 264.7 253.9 275 282.1 273.8 258.3 246 234.3 222.5 216.7 201.1 198.1 194 186.2 176.5 163.7 152.9 146 133.6 142.9 139.8 150.7 159.7 163.8 153.4 143.8 151.5 158.5 176.4 188.6 208 225.8 241.2 258.8 275.3 294.5 341.9 366.5 373.6 359 380.3 378.9 387.7 381.4 378 368.8 361 354.4 349.9 345.4 344.3 342.6 341.3 336.1 334 348.1 361.1 379.7 395 408.9 423.3 441.4 458.1 470.8 493.4 503.5 496.4 484.9 465.9 446.5 433.3 426 413.8 399.8 372.5 346.4 320.7 296.3 275.6 251.4 237 221.3 202.3 193.7 190.7 183.2 176.8 179.6 173 166.1
265.8 270.9 289.5 320.4 324.8 320.5 318.3 319.4 342.6 353.3 360.2 370.8 374.3 375.9 375.2 376.1 376.2 388.5 396.7 392.5 393.7 397.4 391.5 379.4 364.9 359.9 362.9 367.6 370.1 371.1 371.3 366.8 355.5 366.8 372.9 377.7 379.4 382.8 392.3 415.7 453 475.3 488.5 496.3 513.6 543.7 567 586.3 610.5 645.1 677.5 702.4 709 716.3 727.1 735.4 736.5 740.8 735.3 705.3 669.8 639.2 615.4 595.6 574.6 546.8 536.4 530.3 521.4 524.6 525.7 535.6 549.4 561.1 568.5 566.6 560.8 557.5 546.4 560.6 566.9 555.7 550.6 548.5 564.9 562.6 558.7 548.7 547.4 541.7 531.8 519.2 498.7 485.4 477.6 473.4 457 446.8 410.4 418.1 416.5 385.3 375.4 361.9 349 332 338.6 341.9 325.9 331.1 325.2 323.2 305.6 294.3 275.3 258.4 240.9 230.2 217.7 210.9 193.3 187.1 180.8 170.3 160.2 152.2 142.3 138.7 157.2 165.8 170.3 190 194.3 182 165.9 161.7 157 164.4 187.1 195.4 211.4 225.2 237.3 253 268.1 298.5 334.7 369.8 393.3 400.7 402.3 410.6 408 404.7 402.3 390.7 378.8 369.6 363 357.6 354.7 352.3 349.8 349 348.3 342.5 356.8 368.5 380.8 394.3 411.7 424.4 441.3 457.6 477.2 490.7 501.3 488.2 470.9 458.6 449.4 435.6 422.8 402.6 377.8 352.5 321.1 295.9 276.4 254.2 236.9 218.8 206.4 199.2 187.5 179.3 180.8 178.7 176.1 176.5
281.1 285.6 301.6 301.5 310.2 315.6 317.4 322.3 341.8 352.3 357.6 365.5 377.8 375.3 377 376.5 385.4 398.2 406.8 401.4 400.6 399 394.2 384.1 374.1 365.4 368 372.3 374.9 373.5 372.8 360.8 365.9 371.6 377.5 381.8 385.6 395.3 418.2 457.9 477.4 490.8 506 529.8 528.7 559.6 589.6 606 630.5 652.7 679.7 694.1 704.1 710 724.9 734.2 729.9 731 726.5 719.4 691 653.5 625.7 604.7 582.5 562.7 551 540.5 541.1 546.6 558.4 571 581.3 583 592.2 593.8 593.3 594.4 585.8 601.9 599 585.8 581.5 579.9 587.4 584.2 586.9 573 562 547.1 538.2 522 501.6 491.7 488.9 482.3 473.8 461.1 455.9 440.1 433.3 422.8 399.7 379 377.5 380.9 375.8 372.9 360.2 348.1 337.8 315.1 299.4 285.7 272.7 261.3 248.2 231.1 215.4 196.2 187.4 172.9 166.7 158.7 149.4 145.5 157.7 161.6 168.2 177.3 187.4 196.1 205.5 197.8 174 165.7 156.2 171.8 177.6 195 212.1 230.6 242.4 250.4 262.4 297 324.1 352 371.4 386.1 404.2 412 419 426.3 423.3 413.9 397.3 383.8 377 371.2 366.5 363 360.8 359.1 357.7 353.4 354.4 364.8 375.5 388.4 404.1 414.9 428.7 440.3 462.3 476.4 486.2 484 478.2 473.2 460.4 438.1 421.7 401.7 371.9 343.5 317.7 300.1 277.1 257 239.9 224.6 206.5 198 194.1 186.2 180.6 175.9 176.3 178.5
293.9 299 320.5 325 325.6 316.7 318.5 324.5 334.7 343.6 351.3 357.7 361.5 368.4 374.2 378.7 389.9 399.7 404.7 408.9 402.4 400.3 398.3 388.6 378.5 371.8 374.1 376.4 379 377.5 371.6 367.4 368.4 373 381.5 387 394.1 419.7 464.1 480.7 497.6 514.6 533.7 549.2 564.7 573.5 606.6 625 641.1 658.5 673.9 683.4 697.2 707.5 719.5 723.4 726.4 717.8 723.4 714 703.2 673.1 650.7 628.1 606.2 591.1 572.2 571 570 574 586.4 596.8 603.9 609.9 618 622.5 620.3 618.5 622.7 634.9 636.5 624.9 622.3 622.8 634.3 620.9 611.1 588.4 567.9 551.9 534.6 515.1 494.1 476.5 471.4 464 461.9 451.5 442.1 433.1 422.3 415.6 408.4 398.6 391.7 380.3 373.9 360.2 353.6 336.2 322 305.8 296.7 289.5 279.3 265.5 251.6 229.9 207.7 187.4 173.7 164.9 152.5 149.4 153 160.8 169 173.6 177.2 182.9 197.2 211.5 215.3 201.4 183.7 172.3 166 182.4 181.8 187 205.5 222.2 237.8 254.5 275.5 293.1 318.4 345.9 364.8 385.5 403.8 425.1 462.1 469.4 462.9 440.9 419.6 405.2 390.4 385.8 379.4 373.9 370 367.5 366.7 365.6 358.7 357.6 373.2 382 394.2 408.2 419.1 437.1 453 468.7 482.4 482.3 487.7 474.4 461.2 443.1 426.3 401.8 371.1 346.5 324.9 303.3 283.3 258.7 240.5 222.7 208 197.7 192.3 189.3 185.4 180.7 177.7 178.7
296.1 311.1 322.8 328.5 328 318.9 321.1 333.1 345.3 365.3 377.4 379.2 373.2 379.4 387.2 399.7 409.4 411.7 415.5 413 407.6 402.8 400.1 391.8 384.7 378.8 377.8 381 383.2 382.3 365.4 371.8 375.1 380.8 387.8 396.9 410.8 449.8 486.7 509.4 528.2 542.4 559.7 580.8 594.8 598.3 617 637.2 649.9 665.5 673.8 680.3 691.3 705.3 713.9 710.7 714.9 720.7 726.7 727 727.2 708.7 681.8 655.9 630.8 621.4 614.7 610.5 604.8 617 622.9 633.7 646.6 649.2 657.2 653.2 656.3 662.4 665.3 671.6 673.9 668.6 674.4 670.4 665.6 646.2 615 593.2 572.6 540.7 518.1 504.7 487.9 464.1 454.4 445 436.8 432.4 423.9 418.4 408.5 402.2 394.1 382.7 373.3 363.4 356.6 346.3 335.5 326.2 310.4 300.6 293.5 280.1 270.5 256 236.7 221.1 196.8 182.8 171.3 156.4 154.8 167.1 162.1 171.2 176.7 183.5 186.7 193.3 212.3 225.5 222.2 206.8 195.1 180.3 179 178 186.9 189.9 199 215.8 232.5 251.3 272 294.6 313.1 336.7 361.4 389.3 414.4 438.8 462 481.7 489.5 472 444.1 426.1 411.5 400.8 392.6 387.7 381.7 376.8 375.4 374 373.7 372.7 371.3 379.2 388.7 398.8 412.5 426.1 442.7 473.3 482.9 478.2 481.8 481 478.3 460.6 432.9 400.1 369.6 350 329 306.2 284.5 263.2 243.5 222.6 208.7 201.5 193.4 192.1 187.9 184.1 181.9 174.6
298.7 317.4 332.6 331.8 325.4 321.7 333.3 346.1 358.9 370.6 387.5 391.1 391.3 390.9 406.8 418.2 423.8 423.9 426.7 423.1 415.6 410.1 405.3 396.1 389.8 384.8 383.1 384.6 383.5 381 372.6 376.8 380.1 384.8 393.6 405.9 415.8 470.8 495.1 522.1 539 555.5 584.9 603.4 613.1 621.5 630.7 644.9 658 666.9 670.8 675.1 683 699.1 709 722.7 714.3 720.2 725 723.4 721.9 724.8 725.4 691.8 666.5 665.3 650.8 650.2 644.1 658.8 666.6 677.4 691.2 682.5 691.2 705.2 698.7 700.5 698.2 695.3 691.8 688.9 675.9 661 639.2 612.6 598.6 577.7 550.9 526 505.9 490.2 466.8 450.9 443.6 429.2 421.1 416.5 411.5 401.7 394.2 388.1 378.4 369.1 359.3 349.7 341.7 335 322.2 312.2 300.7 288.2 274.3 265.4 252.9 239.6 227.1 204.8 189.5 182.1 176.2 159.2 169.3 173 171.4 174 180 189.6 196.3 205 226.9 242.7 229.3 230.9 209.8 187.9 183 179.6 180.9 189.4 199.7 213.7 228.7 247.2 267.7 288.3 311.6 334.7 362.9 383.2 407.3 428.9 455.1 478.4 499.8 502.3 472.6 448.1 433.5 422.1 406.3 401.4 395.9 389.5 385.8 384 383.5 384.7 384.3 383.3 392.5 397.1 404.1 415.4 429.1 452.1 458.5 468.4 472.4 484.8 486 468.3 431 397.4 372.5 354 332.2 307.4 285.5 266.3 244.6 227.3 213.4 203 197 192.9 190.7 183.7 183.2 178.3
304 324.2 332.9 333 326.8 328.9 353.7 361.4 383.1 393 397.6 397.9 401.2 402.6 415.2 428.5 431.1 431.6 432.2 428 422.5 417.2 407.5 399.7 393.4 391.3 388.1 387.1 384.6 378.3 374.8 379.7 384.5 389.7 399.1 419.3 450.4 474.4 507.9 524.8 525.1 561.4 583.7 601.1 609.2 618.2 629.3 651.3 665.6 671.9 681.6 694 699.7 702.5 713.9 715.8 711.6 719.9 717.9 718 717.5 726.3 731.1 732.1 718.1 719.1 719.4 706.5 710 711.8 703.1 707.1 712.1 717.5 723.5 719.6 718.2 715.7 713.1 699.1 689.1 672.6 647.3 625.1 607.3 584.6 566.5 549.5 527.7 501.3 483.3 465.2 446.1 431.6 420.8 410.7 407.3 399.7 392.6 385.1 380.1 373.8 365.8 357 348.8 338.2 326.4 317.9 311.5 299.7 290.3 277.3 263.9 255.3 243.6 228.7 211.6 196.7 187.3 182.6 173.6 162.3 178.4 176.7 171.5 176.8 183.4 194.9 205.3 215.8 243.7 247.6 247.8 236.1 221.4 199.4 188.2 183.7 178.8 186.7 199.3 213.9 225.8 247.1 262.5 281.4 304.9 328.5 350.4 376 398.5 419.8 448.1 476.7 493.4 504.5 500.2 473.8 460.7 447.7 428.9 420.9 416.2 406 399.6 396.8 394 394.7 395.4 395 389.5 396.4 404 412.6 425.9 434.3 440.5 453.8 465.2 481.2 485.9 460.5 425.7 397.8 376.1 355.3 335.4 310.7 288.4 266.8 247.2 231 212.9 204.1 196.7 188.7 187.8 182.2 182.5 186.1
314.6 326.5 343.1 333 332 350.2 365.2 385.1 400.6 399.7 405.9 410.9 409.2 416.7 427.8 431.2 432.6 432.9 434.1 434.7 429.8 422.5 411.6 402.7 397.6 395 391.8 391.6 386.5 382.2 379.1 383.7 390.1 399.6 410.5 434.1 489.7 505 523.7 540.5 558.2 575.3 589.7 612.2 631.3 652.4 668.8 679.3 687.6 694.6 695.1 701.5 706.4 709.4 709.9 710.1 715.9 716.1 717.5 711.8 712.6 722.6 730 739 743.6 748.6 749.8 749.9 749.4 737.6 728.6 729.5 728 731.8 726.2 718.8 710.3 702.6 695.1 683.1 659.8 650.1 622.5 592.8 569.8 550.3 531.1 513.5 495.1 477.9 457.2 435.8 420.8 412 400.2 390.3 381.9 377 373.7 366.7 359.9 354.9 351 340.8 336.4 322.6 313.3 307.9 300.4 289.7 273.9 261.4 257.4 257.9 232.1 220.1 202.8 190 177.9 177.8 174.2 170.4 174.6 178.7 173.6 177 185.2 199 216.2 228.9 244.3 251.2 260.4 254.7 232.2 212.3 199 185.5 181.5 188.2 200.5 213.3 226.4 239.7 259.9 282.7 305.7 319.7 340.4 365.7 391 416 436.3 469.5 488.5 496 500.1 501 488.5 468 456.4 446.5 437.8 423.7 421.7 412.4 406.4 405.5 405.1 403.6 402.7 401.7 399.7 410.4 420.4 425 430.5 445.6 460.1 472.5 476.3 450.5 424.1 399.4 377.7 357 336.9 313.5 291.1 267.4 248.9 231.2 217.6 206.3 195.4 197.1 190 189.9 191 186.4
321.1 343.2 337.2 335 350.8 365.3 381.2 402.3 407 408 412.7 415.4 418.1 427 440.2 442.5 441.3 435.2 435.5 437.1 435.2 424.4 413.3 407.1 402.9 401.6 396.3 392.1 388.8 378 385.1 390 398.5 408.2 427.9 461.9 496.6 528.1 533.7 547.1 568.7 583.7 603.4 624.7 648.6 659.5 675.9 692 708.1 714.1 715.3 714.6 719.1 716.8 712.4 709.9 709.9 709.9 710.1 710.3 708.8 716.2 722.1 734.6 747.2 753.7 754.7 746.5 746.5 749.9 744 740.5 734.6 725.1 718.7 705.7 688.4 671.5 655.9 645.6 633.6 605.7 589.2 557.7 533.9 510.4 488.5 471.6 457.3 441 427 414.6 402.8 391.3 378.4 368 360.7 359.1 357 351.3 346.1 340 334.8 328.6 320.8 312.4 302.5 293.8 282.3 268.7 260.6 254.4 250.6 245 228.8 211.9 197 186.6 183.6 180.8 178.6 179 178.7 176.4 176.7 182 190.1 204.9 222.5 233.3 241.4 251.9 252.8 255.5 241 224 208.9 189.6 181.2 186 198.1 210.3 220.3 234 252.7 278.7 297.3 312.5 329.9 353.4 380.5 401.6 423.6 443.3 463 478 489.6 500.7 507.2 498.1 484.1 469.9 453.7 442.6 438.2 428 421.3 417.2 415.8 413.3 412.3 410 406 407.1 411.9 416.8 422.9 434.9 453.5 473.7 475.3 454.8 428.2 402.8 380.1 359.9 339.9 318.8 291.2 269.9 255.7 237.3 219 202.7 198.5 195.1 191.7 190.4 189 188.2
334.1 342.4 337.6 347.5 364.5 374 388.7 405 413 414.1 415 416.8 431.6 439.7 439.4 447.3 448.4 437.8 435 436.1 432.7 422.7 416.2 409.8 408.9 404.6 401.3 394.5 391.1 383.9 388.9 395.6 405.5 417.8 441.3 471.5 496.5 524.8 537.4 557.4 574.3 578.2 596.5 623.6 644 661.3 673.5 688.4 701.3 703.3 705.5 717.3 721.6 717.9 713.7 710.4 711.8 713.5 710.9 710.6 708.8 711.7 713.9 728.5 740.7 747.8 753.3 748.2 747.6 753.4 749.1 747.4 732.7 719.3 689.8 671.5 656.7 645.1 627.7 613.5 593.2 567.9 552.7 524.3 495.9 478.2 457.6 437.4 425 412.5 401.6 390.3 376.8 370.6 357.7 350.1 346.2 346.6 340 336.2 329.1 324.7 315.7 308 302.1 298.6 291.3 277.8 267.3 259.8 255.2 249.2 244.5 234.3 226.8 216.8 205.3 192.1 196.2 191.7 186.1 183.6 181.2 180.4 182.7 189.6 195.1 211.2 226.2 232.2 240.2 254.5 252.2 247.4 236.3 223 208 190.5 182 185.8 194 204.4 213.9 227 252.1 267.6 283.7 301 321.7 338.3 360.8 381.8 399 418.6 438.3 461.7 475.3 486.2 496.6 504.7 494.5 482.6 473.1 463 451.1 444.5 439.6 433.6 430 424.2 422.1 419 417 414.3 411.3 417.6 425 429.4 443.4 463 480.8 463.1 434.3 407 383.4 362.4 342.8 319.7 293.6 273.9 259.1 242.4 220.5 208.4 206.1 199 197.3 193.7 194.8 192.4
335.5 337.1 340.3 353.3 369.4 382.2 397.5 408.9 411.7 411.9 414.2 427.7 443.5 452.3 450.5 446.5 443 439.7 435.2 432.9 429.4 421.7 416.4 412.8 412 408.7 403.4 399.9 396.3 386.3 392.8 398.2 411.4 429 452.1 484.4 498.1 520 533.6 552.3 561.6 570 591 616.3 637 659.4 671.7 681.9 685.6 691.8 697.9 707.7 719.9 726.2 728.6 722.7 718.3 720.9 711 708.8 708.8 714.3 723.3 728.8 735.9 738.7 748 749 742.3 744 752.9 746.5 708.8 687.5 662.4 644.3 623.5 605.7 597 577.5 558.7 538.3 509.8 485.2 463.1 446.3 426 409.7 397.2 385.9 374.2 368.9 357.9 346.6 334.9 324.5 330.5 326.8 322.2 318.1 313 306.6 295.8 290.9 285.6 278.2 270.4 262 254.7 246.6 242.3 236.8 230.8 223.6 217.3 212.7 209 198.7 210.1 211.5 209.1 194.7 188.8 188.6 191.4 199.7 206.3 216.7 229.7 234.7 241.1 249.2 249.7 245.4 230.2 219.3 204.6 188.6 184.4 185.5 189.7 197.7 207.3 220.4 235.5 249.3 265.1 283.8 297.1 316.8 335.2 349.6 371 394 417.2 438.8 451.3 465.9 482.7 501.7 511.9 502.6 490.1 484.2 472.5 471.2 468.1 459.5 449.9 440.2 434.4 430.5 427.1 422.5 418.4 420.1 428.3 437 443.1 447 463.5 457.5 437 411.1 386.1 366.1 346.3 325.7 301.9 277.3 257.4 239.6 223 211.5 210.2 205.8 198.1 197.3 194.3 192.6
329.2 334.4 346.5 361.7 376.2 385.5 400.2 405.6 415.2 413.3 415.6 436.3 451.2 455 455.7 455.6 449.1 441.1 436.3 431.4 428.9 424.3 416.2 414.1 413 407.9 406.9 405.8 400.7 390.5 398.8 406.1 418 431.6 456.8 491.1 504.7 517.7 527.5 535.1 547.8 556.2 577.9 599.5 626.4 641.8 657.5 674.3 672.5 677.9 692.3 700.2 710.4 726.8 731.3 737.5 734.7 728.2 722.6 720.7 728 726.1 730.7 734.2 736 742 748 746.4 738.6 736.6 727.7 714.7 692.6 654.4 628.7 609.9 590.9 569.4 553 546.8 519.8 497.2 472.4 448.5 430.3 411.6 396.7 382 372.2 361.6 354.8 348.2 334.2 321.6 317.4 316.7 312.4 307.1 304.8 304.3 296.1 292.8 285.6 278.9 276.4 267.3 258.6 252.9 246.2 239.2 230.8 229.8 224.2 213.1 202.7 202.2 206.1 217.6 218.6 223.4 228 221.5 212.2 208.9 207 214.2 224.9 229.5 236.7 241.4 244.5 251.2 251.9 247.1 233.1 215.4 201.3 188 184.4 184.7 188.8 189.9 199.5 210.2 222.1 236.1 251.2 261.1 278.7 293.6 314.9 332.4 342.4 361.8 387.7 408.7 429.8 450.1 473.2 491 504 512.2 500.8 495.4 500.1 493.1 488.6 478.6 470.8 461.8 450.5 440.5 435.1 428.9 424.3 426 430.1 441.9 456 461.2 457.1 451.4 431.7 412.5 391.5 370.7 350.1 329.3 303 281.4 265.1 244.8 227 216.1 211.9 204.7 200 197.9 193.9 186.4
332.7 341.2 360.5 373.4 382 394.4 404.7 411 412.9 416.2 426.9 444.2 453.8 458.5 457.7 458 455.2 444.5 441.7 435.6 426.6 421.7 416.1 414 412.1 411.6 410.4 408.1 402.7 397.5 403.6 410.5 421.1 434.3 456.8 489.9 500.3 514.5 517.7 522 539.2 549.8 558 577.5 605.3 617.2 635.7 658.4 657 668.3 681.8 689 698.1 712.8 735.1 736.9 744.7 741.6 731.9 729.8 725.6 734.8 735.2 734.6 737.8 734.9 738 744.6 742.6 735.5 709.6 683.3 656.2 641.2 599.8 567.4 551.5 530.1 525.2 499.6 485.4 457.7 438.4 418.8 401.7 382.8 370.9 357.8 348.4 339.3 335.2 323.6 307.7 305.1 300.6 300.2 292.8 290.8 290.4 284.5 280.9 276.1 271.2 268.1 263.7 257.9 251.3 243.6 235.6 231.8 228.9 219.7 215 207.3 204.4 204.4 208.3 220.5 229.7 245.8 254.4 241.5 233.1 235.6 227.8 223.4 239.1 245.9 250.1 257.6 254.6 252.4 253.2 246.1 233.5 216.7 200.3 186.9 185 184.2 184.7 186.2 193.4 202.2 212.7 223.7 233.9 243.6 258 272.7 297.1 313.3 325.7 338.7 359.6 380.5 403 427.5 455.9 476 493.4 504.1 508.2 513.5 519.7 517.7 508.9 502 495.5 483 468.2 455.3 446.5 438.6 433.6 431.8 432.3 441.4 459.7 474.5 465.8 448.7 430.3 412.2 393.8 373.3 353 330.9 310.5 289.8 270.7 247.2 232.4 218.6 209.5 204.2 200.1 199.4 193.2 182
337.3 348.9 363.3 390.6 401.8 405.1 409.4 413 415.8 422.2 439.7 455.6 463 464.4 464.2 462.4 452.5 447.2 441.6 433.4 424 418.3 415.9 415.8 417 414.1 413.2 409.7 402.4 397.4 405.7 413.8 423.4 436.5 457.5 486.1 492.7 499.1 504.3 511.4 531.5 539.6 548.1 556 574.6 591.3 606.3 628.8 640.2 653.8 668.4 672.4 681.5 698.1 713 723.7 734.7 745 748.6 741.3 739 738.2 743.9 745.2 742.3 732.9 734.4 731.5 731.8 717.1 678.6 650.2 630 599.2 577.8 536.8 510.8 488.4 477.1 469.7 445.8 428.8 408 392.4 376.1 357.1 347.4 337.9 325.6 315.9 312.2 307.5 302.2 289.6 290.4 286.7 282.2 274.1 273.4 271 265.9 264.3 260.7 257.4 251.1 244.6 240.5 233.2 230.5 227.5 223.9 225.2 223.8 207.4 205.5 206.9 211.7 218 227.8 243.2 256.8 260.5 264.6 267.8 251 242.1 254.2 268.8 268.2 270.7 268.4 260.9 252.9 244.3 231.6 216.7 202.8 192.1 185.4 185.1 185.8 186.3 188.7 195.6 203.8 211.6 224.3 237.1 247.7 261.1 281.8 294.6 312.8 326.1 344.1 362 381.2 400.6 424.6 447.8 473.1 488.6 502.2 511.2 520.7 528.5 532.1 525.5 516.2 502.9 483.8 470.4 462.7 451.3 445.3 438.4 438.8 443.5 461.7 482.9 479.2 458.4 440.8 415.1 394.5 374.8 355.7 335.7 315.2 292.2 270.2 250.5 234 220 212.2 203.4 196.3 191 186.8 182.6
344.4 357.6 373.7 399.8 409.1 416.6 417.7 421.4 421.1 432 455.3 470.4 474.9 474.8 472.3 466.3 459.8 456.2 440.2 429.5 422 419.3 418.1 417.5 418.2 416 415.2 411.6 404.1 397.2 407.2 413.8 421.9 435.2 463.3 479.7 484.5 483.2 488.3 497.5 511.6 526.7 539.1 545.1 554.6 571.8 580.2 596.8 616.2 625.4 645.5 656.1 661.6 671.5 687.9 699 714.7 733.2 740.2 747 753.5 746.8 747.2 747.3 746.2 736.9 734 721.7 718.4 704.1 672.3 632.3 600.2 562.9 527.7 509.1 478.2 464.4 443.7 430.8 417.8 397.1 381.5 367.5 349.4 334.3 329.1 316.3 306 295.6 291.6 283.3 279.9 277.1 277.5 267.4 266.3 265.1 258.6 254.7 252.8 249.5 246.8 241.7 238.2 235.9 231.5 230.2 226.9 225.1 218.9 224.3 216.8 207.9 206.7 208.2 212.1 216.7 230.3 241.6 250.7 262 279.2 284 282.5 269.4 274.6 286 280.1 278.3 286.2 285.6 263.3 248 233 218.7 205.8 194.6 190.8 188.9 186.8 186.9 188.4 189.4 191.8 201.4 211.8 222.3 233.6 246.5 262.4 278.3 295.1 301.1 321.4 341.4 367.3 390 408.3 426.6 447.4 465.4 476.8 487.8 500.6 515.3 535.8 543.3 529.7 514.3 507.8 493 476.3 466.3 458.3 450.6 454.1 451.5 470.8 491.8 495.8 473.2 447.2 421.4 395.6 380 359.7 340.2 320.8 297.1 273.5 255 236.3 226.6 217.7 210.3 192.9 196 194.3 185.3
348.2 362.4 385.6 401.9 408.8 418 421 419.7 426.6 442.8 467.9 479.5 483 479.8 474.5 474.4 470 462.9 442.5 428.9 422.2 419.8 420.5 422.6 417.7 418.4 417.7 413.9 406.8 399.1 408.9 415.5 424.2 436.8 452.2 466.2 470.7 473.2 475.3 480.8 497.9 510.5 521.2 532.5 537.3 551.2 563.2 572.3 588.6 606.2 618.8 632.5 643.9 653.3 670.4 689.5 699.1 712.6 721.7 727.1 742.8 748.5 747.5 747.1 737.8 732.5 732.3 725.7 714.5 684.5 637.8 603.7 569.6 536.1 498.7 472.4 453.4 435.2 419.5 401.5 390.8 374.4 357.9 343.2 326.8 315.5 307.3 298 289.8 285.2 281.9 272.6 267.7 260.6 255.6 251.3 247.4 246.9 244.1 236.1 234.2 231 228.3 230 228.8 227.6 227.8 224.9 221.9 218.2 216 214.5 208.6 209.4 208.7 209.9 214.5 224.1 236.5 245.2 256.7 256.2 261.2 267.5 272 274.4 279.6 289.4 287.3 291.5 289.4 285.1 272.5 255 237.6 221.6 209.1 200.9 197 197.3 190.4 188.8 189.6 189.2 190.2 193.8 199.6 209 222.1 231.6 243.5 257.4 274.7 290.2 311.1 334.4 373.8 401.3 409.7 417.8 432.5 450.4 462.2 470.5 477.1 494.1 514.5 534.2 538.7 540.3 533.1 514.3 495.6 482.4 474.8 463 462.3 461.9 479.6 505.8 501.9 481.5 450.9 425.6 399.8 381.5 362.6 343.8 325.9 300.2 278.9 256.4 238.7 228 216.4 203.7 196.7 198.4 197.4 186
349.6 364.4 384.2 397 411.3 418.6 425.2 421.7 432.3 450 470.5 482.2 481.8 478.5 478.3 476.8 472.5 462.5 440.6 426.3 421.5 418.5 418.1 420 417.8 417.3 418.9 415.2 412.3 406.2 405.4 414.3 423.2 431.9 441.7 454.5 458.1 462.3 462.4 471.9 481.8 491.4 499.9 510.5 520.4 535.1 542.1 550.8 557 575.1 589.6 603.6 623.9 633.8 653.4 662.1 677.3 681.5 690 701.7 712.6 720 722.3 728.3 727 722.1 733.3 723.2 701.5 681.9 633.2 575.5 532.8 510.2 487.1 449.2 428.3 411.5 396.9 382.3 367.6 351.5 338.1 325.7 305.9 298.7 293.6 289 278.2 270.5 268.3 262.7 259.6 258.8 254.8 248.6 242.2 242.6 239 237.1 234.3 233.5 232.7 227.4 222.4 222.7 218.4 220.7 217.8 215.1 212.1 211.6 214.5 213 211.4 209.3 215.7 224.1 231 239.9 248.7 256.3 261.3 264.6 272.7 279.8 289.2 298.9 300 302.9 307.4 302.8 284.4 263.3 246.9 227.9 215.1 207.5 203.9 199.7 194.8 193 192.8 191.4 189.9 192.1 196 199.6 208.3 217.3 229.8 245.8 259.5 276.1 294.1 311.5 329.2 355.3 390.7 419.4 426.1 440.8 451.5 460.3 477 491.4 508.7 531.7 563.2 562.9 558 540.4 515.3 502.7 490 477.5 476.4 472.8 489.2 510.5 508.4 492.3 459.7 428.9 404.1 384.4 365.1 346.3 326 302.6 283.5 259.3 241.9 228.3 216.8 207 199.5 198.9 198.1 189.6
355.6 373.7 384.6 397 410.6 416.1 417.5 418.1 433.5 453.8 474.1 484.1 477.3 472.4 473.1 470.9 464.1 456.8 439.6 423.7 417 414.1 416 416.8 416.5 418.9 421.9 419.9 417.1 413.9 405.1 411.2 420.8 428.5 435.5 446.5 449.2 451.8 451.8 457.9 470.8 475 477.3 484.5 496.2 508.7 519 529 541.9 547 563.6 577.5 596.2 619.5 629.2 637.7 649.9 655.4 664.2 677.1 685.1 695.3 699.8 704.3 703.9 707.4 710.2 716.4 695.4 646.2 615 557.2 510 482.4 461.4 433.3 411.3 394.4 378.2 365.1 349.7 336.4 322.7 311.6 304.1 296.8 287.5 280.4 273 274.8 274.1 271.9 270.2 269 263.8 260.4 252 248.6 244.8 244.1 242 239.2 235.5 230.4 226.9 223.2 221.3 216.1 215.6 212.9 212.5 214.3 222.5 216.9 214.8 213.8 213.2 221.9 229 234.9 245.5 255.4 265.7 276.7 276 285.3 295.7 302.6 313.4 315 322.7 321.1 298.5 276.5 259.1 242.5 225.3 218.4 211.7 206.7 203.6 198 197.6 194.7 195.4 193.5 196 200.1 204.5 210.9 219.1 231.2 250.6 259.2 273.4 287.5 310.1 329.4 350.1 376.8 406.1 425.2 441 454.7 473.5 490.6 510.1 545 587.4 582.8 584.5 569.8 538.4 520 506.2 496.9 494.5 486.3 497.2 513.5 519.4 501.3 471.2 434.5 408.6 387.1 367.7 348.6 328.7 306.8 288.2 262.7 245.7 233.1 217.9 209.3 204.5 200.4 196.7 188.6
367.5 369.9 380.7 390.8 405.2 409 406.4 413.1 424.5 447.4 459.6 472.1 464.9 461.6 460.1 458.8 452.3 445.7 434.5 420 412.4 410.2 410.6 413.1 416.9 422.1 424.8 422.6 422.8 420.1 418.6 421 413.9 424.3 429.7 440.2 440.6 441.2 439.7 444.3 455.9 463.6 465.9 472.2 481.5 490.5 502.7 513.3 525.3 536.1 543 560.4 573.3 586.8 605.3 613.8 632.1 638.2 637.7 648.5 654.6 658.7 667.3 675.8 679.2 681.2 682.9 690.6 684.1 622.1 573.2 535.8 497.1 466.2 438.6 413.7 396.1 379 361.7 347.9 339.1 330.6 317.7 308.1 298.2 286.2 289.2 286.1 289.3 287.1 285.6 282.8 287.1 282.7 275.5 269.6 265 259.6 253.9 253.2 254 247.2 242.5 236.9 230.3 224.8 221.3 217.9 216.4 217.9 219.3 218.3 223.9 220 217.2 217.5 214.1 223.7 227 236.6 246.5 255.4 266.1 283.2 290.3 290.7 303.3 310 316.4 322.1 329.6 334.3 313.1 301.7 279.5 265.3 246.5 231.6 222.1 217.6 213 208.1 201.8 199.8 197.6 194.7 194.3 198.3 202.2 204.9 210.7 221 232.9 246.8 259.2 270.1 287.1 309.6 334.1 355.8 379.1 406.7 424.2 444.1 465.4 487.4 511 544.5 573.4 600 602.9 589.4 568.2 538.5 523.5 516 523 505.3 503.4 516.2 529.6 507.4 482.6 441.8 411.5 387.3 367.7 347.7 329.6 310.5 289.6 268.6 250.5 235.3 222 215.2 209.5 199.6 194.7 193.5
362.7 365.9 374 383.4 393.6 396.6 397.7 398.4 411.9 434.3 445.2 448.3 443.7 442.3 440.7 441.5 442.3 439.9 428 416.4 405.3 406.8 411.8 415.4 420.8 425.4 430.4 432.4 430.3 423.1 423.7 427.8 425.6 416.4 425.3 430.8 431.7 433.7 435.3 440.8 443.9 449.9 455.8 464 470.3 481.2 487.9 493.7 508.6 518.2 527.9 545.9 568.5 570.1 585.8 599 606.1 614.2 616.5 615 620.7 628.8 636.6 639.8 652.9 655.9 650.8 647.8 646 584.1 542.5 511.8 479.5 451.2 427 405.8 390.3 381.6 367.5 346 334.2 321.5 315.8 308.6 304 303.6 300.9 300.5 301.9 303.8 304.4 303.5 300.4 297.1 290.9 287.4 281.6 278 269.2 267.8 263.1 261.4 253.7 245.2 237.2 230.8 222.8 221.9 223.4 225.1 224.5 222.4 223 220.9 219.2 219.9 215.8 220.4 228.4 233.8 248.7 262.9 278.2 296.8 295.9 298.9 310.5 318.2 327 335.3 344.5 346.2 321.2 306.4 289.9 267.8 249.7 239.2 230.4 223.7 216.2 214.1 210.7 204.3 202.3 199.2 197.6 196.7 198.2 201.7 210.1 214.5 223.6 239.2 250 261.7 277.2 297.6 314.9 336.3 359.7 391.6 415.8 440.1 463.2 483.1 510.2 535.3 564.1 589.4 597.8 589.3 576.3 557.5 543.8 536 535.8 526.4 511.7 524.5 535.2 521.8 481.9 443.3 412.3 388.1 368 348 331.3 313.3 293.8 273.4 253.1 236.1 224.2 219.1 209.2 199.5 196.1 197.8
356.4 358.3 367.8 375.7 379.2 380.2 383.6 386.3 399.3 417.1 431.1 431.8 432.4 427.9 427.8 429 429.4 428.6 423 411.4 400.7 402.5 407.7 413.4 421 424.6 430 433.1 429.1 428.1 430.8 433 432 429.6 429.6 431.3 429.4 430.6 429 432 434.5 439.1 445.2 454.6 463 472.5 481.7 483.9 496.4 504.9 515 533.5 545.3 560.7 581.6 583.3 587.4 591.3 595.3 591 594.9 599.6 607.1 616.4 617.7 621.6 625.8 619 590.9 561 527.4 497.9 465.2 437 414.4 397.1 384.7 370.9 356.5 346 341.7 338 332.2 323.8 320.3 319.2 319.3 319.1 321.1 324.2 326.2 321.2 319.7 316.1 311.2 308.5 302.6 298.5 291.4 282.6 278.6 277.1 268 256 245.9 236.7 227.7 225.1 226.5 230.7 230.8 226.2 227.3 223.8 221.7 222.5 222.6 218 228.9 236.1 251 269.2 286.7 303.6 307.8 309.6 323.5 336.8 347.1 349.6 357.8 359.8 332.2 307.4 289.6 268.4 253 245.7 229.4 223 221.7 216.7 210.3 204.5 203.3 200.4 200.3 200.1 201.2 200.6 205.4 211.4 220.5 233 243.9 256.4 267.9 282.5 303.1 329.8 352.3 378.4 404.8 436.4 460 482.6 517.8 544.4 565.7 577.2 586.9 595.5 598.2 577.2 566.5 554.6 547.3 536.4 520.3 524.1 531.8 519.5 481.2 442.3 410.5 386.5 368.4 348.7 332 315 294.6 276.9 257.6 240.4 229.4 217.7 210.8 204.6 199.7 198.1
343.4 343.6 348.6 360.7 368.4 363.9 367.6 373.2 383.7 401.9 414.5 422 420.7 418.1 418.1 420.9 424.2 423.1 417.7 408.4 398.1 396.4 404.9 409.2 419.8 425.9 430.4 434.2 432.8 434.6 442.7 445.7 442.1 444.7 441.8 439.2 436.5 436.9 437.4 436.1 436.6 437.6 439.9 446.4 452 460.3 471.2 478.8 488.6 494.6 508.2 518.2 529.1 542.6 567.8 563.9 564.4 567.7 578.7 576.2 573.4 577.9 589.2 594 598.9 600.6 602.9 594.1 568.6 545.3 515.5 485.6 451.2 427.6 410.3 394.2 384.1 374.6 370 363.9 357.5 353.5 348.5 344.6 345.8 344.5 346.2 341.4 343.3 348.7 349.9 345.9 349.9 342.3 337.1 338.2 326.1 323.8 316.8 308.3 303.3 294.4 284.2 270.3 257 243.6 233.6 231.1 233.3 237.3 236.5 232.2 231.6 228.1 226.8 226 227.5 223 233.9 241.2 251.1 267.2 287.3 292.3 302.8 313.9 330.2 344.7 356.2 361.9 364.2 365.5 343.6 314.4 291.9 271.3 255.5 243.9 236 228.3 222.6 217.4 218.5 209.7 207.3 207.8 205.4 203.9 204 205.5 204.9 212.2 220.6 225.9 236.8 250.8 263.2 279.4 296.6 315.1 338.7 364.4 391 426.7 447.8 483.9 512.5 547.2 578.6 587.6 593.3 610.6 610.2 599.9 587.8 568.9 556.8 548.7 530.4 521.3 519.6 501.6 471.5 435.1 409.8 387.6 370 352.1 334.2 316.6 295.1 280.7 265.2 246.3 234.8 224.2 213.6 208.5 202.7 201.2
324.1 332.7 335.2 348.1 355.8 353.5 355.9 356.4 364.2 381.3 398 407.8 403.5 404.8 405.6 408.7 414.5 412.7 409.7 405.2 397.9 390.4 395.3 400.6 414.1 421 428.5 433.3 436.1 442.4 452.3 454.2 453.8 451.2 448 445 443.1 443.2 444.5 443.4 443.6 443.2 443.2 442.4 446.5 452.1 459 467.1 474.4 488.9 503.1 512.7 519 531.1 535.5 542.3 551.1 556.1 558.4 561 558 559.2 571.2 584.1 581.5 581.6 578.5 566.6 544 524.6 501 470.8 449.1 434 418.2 407.8 399.5 394 387.2 382.9 378.5 375.5 368.7 368.4 367.8 371 374.5 372.3 376.6 378.1 376.9 371.4 370.8 365.5 362.7 365.4 361.9 353.4 344.2 338.9 330.1 323.5 309.3 291.8 273.9 259.3 245.9 246.2 247.4 246.2 241.8 240.6 237 233.2 230.4 228.7 229.8 229.1 241.2 254.8 268.4 278.4 289.5 292.9 301.9 318.6 333.2 350.1 369.6 385.3 385.6 370.9 349.5 319.5 290.8 272.6 256.5 246 242.6 234.2 229.3 222.3 220.8 215.5 216.7 214.3 213 210.3 205.8 207 204.9 210.2 217.5 222.5 232.6 241.4 257.7 273.2 288.3 306.9 329.8 352 378.5 406.9 436.5 470 515.4 549.7 582.4 588.3 600.9 615.1 616.4 608.2 596.7 582 571.3 555.9 535.3 519 507.6 488.3 462.7 431.9 406.3 388.5 370.5 353 335.5 317 299.3 286.6 270.4 253.2 237.6 225.5 214.5 209.4 204.1 199.8
305.2 315.4 323.5 335.9 339.8 343.6 345.1 345.8 350.4 360.8 373.6 387.7 387.2 386.4 389.6 395 400.6 399.2 397.7 397.4 392.5 385.2 388.8 393.3 405.4 412.7 421.7 430.6 436.5 443.6 456.8 458.1 456.7 456.7 453.9 453.7 450.2 449.6 451 449.6 450.6 450 449.4 450.3 450.6 448.2 455.5 460.1 470 478.4 493.9 506.5 516.7 519.1 516.4 524.8 536.7 547.8 548.3 545.6 545 554.8 568.8 562 558.4 556.6 547.4 530.6 517.6 502.8 494.6 487.9 471.4 452.3 437.4 428 423.5 418.9 413 410.5 409.1 408 401.3 399.7 401.6 399.4 401.1 399.7 407.3 410.3 403.3 408.4 403.2 398 395.1 397.6 391.1 389.6 377.7 372.8 368.5 352.6 336.2 320.5 301.8 277.5 269.3 265.5 262.1 254 248.9 247.7 242.4 238.7 235.6 232.1 227.3 235.8 248.2 264.5 279.7 292.6 296.6 304.1 307.7 321 342.9 364.5 389 408.5 405.6 386.6 358 324.7 297 273.5 263.4 256.5 247.6 242.8 235.3 233.9 231.6 228.8 226.2 225.9 223.2 216.6 212.8 211.5 208.1 210.8 213.4 220.1 228 238.9 252 264 278.9 298.4 321.7 343.3 366 391.3 429.3 458.1 487.4 529.7 574.8 594.7 601.9 617 616.6 615.4 602.2 587.5 569.3 555.8 543.2 511.4 491.3 472.3 453.2 428 408.1 388.9 371 354 335.7 318.3 301.8 288.6 272 257.6 246.3 231.3 221.9 214.8 209.4 205.1
294.6 298.9 305.1 316.7 326.3 327.4 332.8 334.5 342.2 354.5 364.3 371.9 373.3 370.5 370.3 373.9 375.3 378.9 385 391.7 388.4 380.3 384.1 386 394.7 408.4 417 425.4 433.5 441.7 454 462.5 460.8 458.8 459.4 461.1 465.1 464.5 461.1 464 467.7 464.2 457.7 455.7 457.4 455.8 452.4 454.6 461.1 469.1 486.6 491.4 499.2 506.9 503.1 512.6 516.6 523 526.9 527.7 540.2 546.4 550.5 543.7 533.6 523.9 520.7 507.5 502.1 512.2 520.3 509.6 495.7 476.2 461.6 454.9 457.5 449.2 441.3 444.7 448.7 452.5 444.6 443.9 448.3 444.3 438.9 430.3 432.1 428.7 427.6 433.6 437 438.5 436.1 437.8 433.3 422.5 412.3 407 396.4 387.2 366.2 339 314.4 300 287.9 280.1 271.8 260.6 259.9 253.9 247.5 244.2 241.1 238.1 231.2 244.1 254.5 272.1 289 305.7 313.5 317.9 319.8 332.2 352.2 375.4 396.1 410.5 409.1 383.4 352.8 325.3 293 268.1 276.1 267.5 259 250.6 246.9 247.4 248.1 241.1 236.9 236.2 232.5 227 221 218.2 213.8 212.8 213.4 217 227 234.9 247 257.5 272.5 293.4 312.8 333.5 355.5 376 407.3 442.1 482.3 531.4 560.5 591.6 604.9 611.3 619.7 620.3 608.4 593.9 577.8 558.4 541.2 512 483.7 464.6 443.3 423.8 407.1 390.2 372.8 356.1 338.6 321.8 307.7 291.7 276.2 264.9 245.4 237.2 226.1 217.7 212.5 206.9
284.4 286.4 289 296.4 305.2 311 315.9 321.7 331.1 343.5 352.9 361.6 361.4 364.2 364.6 361.1 358.6 359.9 365.5 376.3 381.1 375.5 376 380.3 390 404.8 416.8 421.8 426.3 434.1 449.9 461.2 459.9 459 462.9 472 476.4 477.1 475.6 476.6 477.5 475.9 474 468.5 467 463 462.7 462 458.7 463.7 468.5 478.8 483 486.6 492.4 496.6 501.5 511.5 510.8 515.5 527.4 521.9 520.5 522 516.2 507.8 500.7 495.4 512.7 521.9 527.4 518.5 511.3 498 486.6 491 491.1 485.4 487.5 482.6 490.9 496.3 490.4 493.7 482.9 485.8 474.5 468.2 457.8 447.4 447.5 455.3 461.6 464 465.8 467.8 459.5 458.5 454.2 435.7 421.3 399.3 378.8 354.6 333.4 318.3 302 286.7 272.6 274.2 268.4 263.2 256.8 251.4 246.5 243.3 233.3 250.5 262.1 277.4 295.5 312.1 320.7 326.7 336.8 345.2 360.8 386.4 409.7 416.1 406 381.7 350.6 323.9 292.7 281 289.2 278.4 268.4 262.1 260.4 262.8 263 256.9 255.6 247.3 243.1 237.7 230.8 226.1 220.1 217.7 216.2 215.8 222.6 232.5 240 250.1 263.1 285.2 305.9 325.1 347.2 362 389.2 424.6 463.7 507.6 541.3 574 595.7 602.5 623.8 623.1 609.6 598.1 583.1 567.1 537.8 509.2 480.8 456.3 436.3 418.5 404.2 390.5 374.9 359.1 343 327.3 308.8 295.2 283.1 268.6 257.6 242.4 232.7 225.4 218.6 210.2
269.7 274.4 279.6 287.2 293.6 299.5 304.3 307.6 316.5 332.1 339.1 346.9 350.4 351.8 360 353.9 348.9 350.9 357.4 365.2 372.6 368.9 371.7 379.3 387.5 397.2 408.8 418 420.7 424.7 436.2 452.3 459.6 460.2 463.6 476.3 484.8 488.5 484.7 485.8 488.9 487.9 482.1 480.9 479.8 476.3 474.5 472.9 467.2 460.7 462.5 465 470.4 476.7 480.1 486.6 498.8 504.4 503 506.8 503.1 502.7 513.6 504.7 499.1 493.5 487.1 495.1 510.9 517 521.1 529.5 523.5 514.5 506.4 517.9 521.3 520.5 523.3 526.8 523.1 521.1 518.2 517.7 515.5 507.1 497.7 489.7 484.8 477.7 476.3 488.1 489.6 492.2 492.2 485.1 490.3 479.4 468.6 446.5 438.5 417.7 393.1 367 344.4 328.6 311.9 291.2 286.4 281.9 275.5 273.1 265.3 257.6 252.8 249.6 241.5 259 272.4 287.2 303.7 319.7 326.4 334.7 347.4 358.3 376 400 416.3 422.1 407.9 380.4 352 318.7 289.5 299.4 303.5 291 281.6 274.7 275.2 275.2 276.9 273.9 271.9 263.4 264.1 256.2 247.9 235 227.7 223.1 220.8 217.7 218.5 228.2 236.1 245.9 255.7 275.6 297.3 314.2 335.5 352.5 378.9 411.3 443.1 477.8 512.9 549.5 589.4 599.6 604.5 613.5 608.1 600.9 587.1 564.1 530.7 502.6 478.7 458.7 436.3 417.3 402.6 389.1 375.6 361 345.4 329.8 319 300.5 291.8 279.5 263.1 249.3 242.9 225.3 216.8 214.8
265.6 268.8 275.7 281.1 286.6 291.2 295.8 302.3 305.5 313.7 322.7 328.6 331.6 333.2 341.1 343.3 339.4 339.7 345.1 352.2 357.8 362.3 367.1 377 384.1 391.6 402.6 418 417 418.3 426 440.8 449.4 461 466.6 476 485.9 492.6 495.8 501 500.7 496.8 493.5 492.7 491.3 485.6 483.8 482.5 473.8 469.8 468.6 473.2 472.3 472.3 477.6 482.5 489.1 500.2 493.3 495 493.7 492.8 492.9 492.4 483.8 486 487.9 496.4 502.6 506.3 515.8 525.4 530 523.6 523.2 534.7 550.8 552 564.5 582.7 584 571.8 546.8 536.9 537.5 533 525.9 518.2 506.1 499.6 499.8 506.4 505.8 506.9 500.7 498.3 490.3 481.9 474.8 466.9 448.8 426.4 398.4 371.4 352.4 334.9 317.3 296.8 302 294.9 287.4 281.5 272 268.2 261.5 256.9 252 263.5 280.2 296.6 309.7 321.2 330.2 343.5 355.3 373.6 395.6 431.3 425.6 429.2 410 381.7 353.8 326.5 293.4 317.9 320.6 307.8 296.1 290.6 291 293 294.7 293.5 287.4 278.6 278.2 271 259.8 246.8 238.6 229.2 225.4 223 221.6 223.1 233.6 242.2 249.6 267.1 286.6 305.7 321.5 342.4 365.6 393.2 432.5 478.6 530 558.9 583.7 591.4 594.1 601.7 605 601.5 586.1 559.6 524.4 496.6 479.4 459.5 438.8 420.9 404.9 389.3 376.5 363.7 348.1 333.2 321.9 311.5 298.5 285.1 272.1 256 243.6 233 222.5 216.2
273.4 273.1 273.8 277.2 282.3 286.2 295.3 300.4 304 317.2 320.5 324.3 323.9 326.4 330.9 337.4 331.3 330.1 333.1 339.7 345.4 355.3 361.6 369.9 377.7 388.2 397.4 418.2 417.9 414.3 419.8 428.1 442 456.3 467.3 479.7 486.2 497.5 504.1 511 512.7 512.7 505.6 504.6 500.5 496.1 494.8 491.1 485.2 483 480.3 481.6 483.1 480.9 479.3 478.9 483.4 483.1 483.6 484.8 486.1 486.4 480.5 480.5 481.1 493.9 497 502.7 505.9 508.7 516.8 526.1 531.2 535.4 532.2 537.2 559.6 582.8 587.7 597.8 607.8 601.1 580 564.7 551.1 542.2 536.1 530 521.2 514.7 515.4 520.8 521.3 516.9 511.2 508 505.3 497.3 485.9 473.1 453.3 427.9 400.4 376.5 356.7 336 322.4 310.3 312 301.6 297.8 287.1 284.2 274.4 269.2 263.8 262.1 270.1 287.8 302.2 309.1 321.7 337 351.4 370.4 390.5 410.1 438.9 446.1 425.5 406.2 383.2 360.3 328.5 308.5 332.7 335 325.1 311.7 308.2 308.3 313.4 317.9 313.8 301.7 295.8 292.9 284.4 271.8 260.1 249.2 238.4 233.1 227.9 224.1 220.7 228.8 240.1 243.9 258.8 279.6 297.7 309.4 331.9 354.7 384.2 421.7 470.4 504.2 556.6 595 594 592 592.5 600.1 603.2 587.5 559.8 523.3 495.5 477.2 457.4 440.7 422.4 404.1 389 376.7 364.3 355.3 343.4 331.6 320.8 302.2 288.9 281.2 266.5 254.1 238 226.9 219.3
281 282.5 283.7 285.5 288.3 288.5 287.8 292.2 299.2 310.1 316.9 314.6 316 318.8 323.5 325.9 324.2 323.1 325.2 329.9 337 349.7 356 366.4 376.4 381.4 388.9 402.8 409.5 405.4 414.2 424.2 437 453.3 469.1 476.9 489.7 500.9 503.8 511.9 516.3 520.1 518.4 516 507.4 507.7 500.8 497.7 492.9 493.1 494.4 498.1 498.4 498.7 491 490.1 486.1 483.3 484.9 484.9 480.5 480.5 480.5 480.5 496 505.4 506.9 512.8 513.3 516.6 517.7 522.9 528.5 539.5 541.1 542.7 558.4 576.7 593.7 615.6 639.8 642.9 616.7 596.2 587.8 566.6 556.2 550 539.8 531.6 534.9 539.1 547.3 544.1 543.5 540.3 517.3 505 491.2 474.7 450 424.5 400.2 378.9 357.6 340.9 320.7 323.1 319.9 313.6 304 299.5 292.8 280.9 277.7 273.7 269.3 271.3 284.5 296.9 308.3 323.9 344.3 359.8 380.5 407.3 423 454 462.3 434.8 411 385.5 361.7 330.9 314.4 339 348.5 342.4 331.1 328.6 330 338.6 339.6 331.2 319.5 315.8 309.3 299.1 288.6 274.1 261.2 248.7 243 234.3 229 227.4 225.3 235 241.8 252.2 270.1 288 303.6 322.5 344.8 371.6 403.6 444.6 489.1 529.2 554.7 569.1 589.8 590.4 592 601.4 594.4 563.4 525.4 496.9 477.5 455.9 442.1 423.3 404.2 392.1 377.8 373.7 363.1 349.4 338.3 326 309.2 296.3 285.7 276 258.3 245.8 232.7 223.2
288.8 290.3 292.2 294 296.5 298.2 299.9 294.3 291.7 299 306.8 307.8 309.8 313.1 314.2 316.5 317.8 318.1 320.7 321.5 330.8 340.1 349.1 361.4 376.1 372.4 382.3 390.3 397.5 393.9 404.8 416.8 433.3 448.5 468.2 488.5 494.9 501.2 508.2 509.4 513.7 522.1 525.7 525.5 518.3 515.4 507.1 501.1 501.3 502.1 501.8 505 506.7 503.6 500.5 498.7 497.6 495.1 491.1 486.9 484.2 480.5 487.6 495.8 509.1 513.7 512.6 518 520.2 518.9 519.7 526.1 531 535.2 536.6 541.4 551.5 566.5 584.7 607 637.5 657.6 664.3 636.6 615.7 589 573.8 566 556.4 556.1 560.1 577.2 582.2 584.9 573.2 555.4 534.2 507.4 489.1 468.1 444.8 422.2 399.9 375.9 358 335.7 331.6 334.2 331.5 322.3 314.7 312 297.4 289.5 284.1 275.7 268.3 270.5 282.9 295.9 310.7 330.5 350.6 366.8 388.6 413.6 430.5 465.3 473.2 455 419.6 391.6 367.6 338.2 320.6 343.5 357.7 358.3 352.6 354.1 358.8 367.5 365.1 356.4 338.7 330.3 324.1 317.4 304.8 289.5 271.8 259.7 250 242.1 235.8 231.7 229 230.7 239.9 245.7 262.6 276.2 296.3 315.1 337.8 360 390 430 456.8 498.6 540.4 581.5 590.4 590.4 594.2 604.6 614.3 573 530.6 500.4 477.8 457.4 441.8 422.9 408.9 398.7 389.6 379.5 367.2 354.8 343.8 334.8 321.3 308.9 293.8 281.2 264.7 250.9 242.6 228.5
295.1 298.1 301.5 305.7 308.4 309.8 307.6 305.6 302.8 300.4 298.8 302.4 304.7 307.3 308.9 310.7 316.3 315.7 316.9 320.1 326.9 333.6 341.9 353.2 369.1 370.8 371.5 378.1 382.3 386.7 398.2 412.3 426.1 441.9 458.8 480.3 499.6 506.7 510 513.9 517.3 521.2 526.9 530.3 524.7 519.4 517.4 514 511.1 511 509.1 510.8 510.2 509.9 506.5 505.5 502.6 500.9 501.4 497.6 492 503.5 515.4 516.8 522.5 524.5 524.1 524.3 522.5 523.3 527.7 530.7 536.3 541.4 545.8 557.4 562.4 573.4 577.6 600.4 618.9 654.6 674.2 666.7 637.5 613.7 598.6 594.1 595.9 591.5 599.7 610.9 621.2 613.1 601.9 576.7 544.4 512.8 485.2 461.9 440.7 418.1 393.3 374.2 353.6 340.3 347.4 349.8 351.8 337.6 331.1 320.8 307.7 299.5 289.3 279.7 268.7 274.7 284.1 300.6 313.6 331.1 354.2 372.4 396 421 446.7 469.8 483.7 459.6 430.3 400.6 373.2 347.2 330.8 348.5 367.9 376.5 380.3 384.9 394 385.3 386.2 370.5 361.4 354.5 360.9 353.5 333.4 307.6 289.4 272.7 260 252.6 243.3 235.9 234.6 229.2 239.3 243.6 256.1 271.2 286.8 307.6 327 350.3 378.5 412.4 450.3 486.6 528.2 583.3 597.4 598.8 602.9 613.8 619.1 580 540.6 502.4 482.7 457 440.3 428.2 416.4 408.4 395.7 379.8 369.7 362.8 354.6 342.5 329.6 316.6 303.6 288.4 274.9 256.3 240.8 231.8
305.2 307 310.1 315.6 318.3 322 323.1 318.4 315.3 309.6 308 307.6 308.7 309.7 309.9 308.1 309.5 312.7 314.6 319.7 324.8 330.5 338.7 345.1 363.9 370.2 367.2 368.3 374.5 383.4 394.7 407.6 417.8 433.9 447.8 464.7 484 496.7 501.1 505.9 509.3 512.8 519.6 528 528.9 522.4 518.7 516.5 514.7 513.2 512.3 514.3 516.6 521.3 523.3 519.3 516.1 510.7 505.5 502.3 519.6 532.6 535.2 536.8 535.7 533.4 531.7 531.1 530.4 530.6 532.2 542.8 547 556.7 559.1 575.8 578.7 585.6 596.8 607.2 618.4 642 677.1 699.2 671.1 647.8 632.4 628.1 633.9 636.8 639.9 649 652.5 649.3 620.7 579.7 541 506.8 478.1 455.1 434.9 408.4 390.6 370.2 355.6 356.5 364.4 369.2 358.8 349 339.6 329.4 317.6 305.3 293.7 280.1 270.9 278.3 287.4 301.5 316.2 333.5 357.8 376.7 403.8 427.3 453.5 488 495.3 474.3 441.6 411.9 383.4 362.7 338.3 355.8 375.6 394.1 411.5 418.7 419.6 419 407.9 392.1 385.9 382 381.8 383.7 357.8 329.1 307.6 288 275 261.4 250.3 242.2 238.5 234.9 237.4 241.3 252.3 265.1 282.5 301.6 319.8 342.1 372.9 402.1 437.6 485.8 543.3 597.9 606.8 607.9 618.7 629.8 633.6 590.5 547.7 511.7 489.9 462.9 444.2 433.4 427.9 420.5 402.3 388.6 381.7 378.7 375.9 360.7 347.9 329.8 310.3 296.6 278.2 261.3 248.6 240.3
317.4 317.9 320.6 327.9 328.8 335.4 336 327.4 320 317.9 317.4 316.2 317.8 317 315.7 316 314 312 314.4 317.7 322.3 328.2 335.5 340.3 355.2 363.3 365.2 366.2 372.5 386.6 396.8 408.4 417.8 429 441.6 450.3 472.6 480.8 489.5 495.9 494.2 503.3 511.4 517.5 521.7 520.9 518.3 514.2 516.5 520.9 532.2 532.6 531.8 525.8 525 523.9 518.5 508.6 510.1 531.2 546.9 555.2 559.6 548.3 539.8 537.9 534 531.4 533.4 540.2 549.7 556.8 569 568.8 585.1 607.5 601.9 596.5 607.3 618.5 629 648.6 678.2 706 723.5 689.7 675.3 673.4 669.4 670.1 675.4 685.3 681.3 642.4 607 567.3 530.7 496.4 467.4 444.9 422.2 405.5 388 364.8 370.5 375.5 387 383.1 373.6 362.7 349.7 337.8 321 306.9 293 283.2 275.9 276.9 285.8 304.9 317.7 337.5 360.1 381.1 405.2 430.9 462.5 493.3 511.1 494.3 457 425.7 398.8 375.4 355 369.4 386.9 408.4 428.2 445.8 451.4 447.8 436.3 427.6 421.6 411.8 409 402.7 384.5 359.2 331.8 307.5 289.1 272.9 260.4 249.7 241.5 237.8 233.6 238.1 246.5 260 274.7 293.8 311.8 334.3 361.1 393.5 431.7 473.7 522 577.7 618 621.9 632.7 646.9 643.2 597.2 558.4 525.5 499.5 477.6 456.6 446.2 444.5 432.6 431.6 413.8 412.3 410.7 403.9 398.7 389.2 347.8 325.9 303.7 289.2 268.5 254.9 244.9
336.3 343.1 342.3 348.6 346.6 341.4 342.7 332.3 326 322.5 329.4 332.3 336.9 327.8 321.6 318.1 318.2 317.2 315.1 317.3 320.7 325.7 331 336.3 350.5 358.1 361.4 363.2 369.3 380.3 393.5 416.9 429.1 426.5 432 442.5 447.5 461.9 476.9 484.8 491.5 499.5 501.3 510.5 514.1 514.2 513.9 513.1 514.7 520.2 528.5 535.8 539.8 540.4 535.7 522.2 511.2 509.2 522.2 548.5 557 555.3 544.3 544.5 545.5 543.1 538.3 538.3 550.7 566.7 586.6 609.6 606.1 600.4 614.5 631.2 616.5 608.7 617.2 625.6 639.8 660 685.8 711.1 738 747.1 730.1 723.1 711.8 709.8 706 693.8 660.9 624.9 591 555 517.1 489.2 463 435.6 412.4 396.4 382.3 376.8 385.5 399.4 417.3 405.5 397.3 375.3 359.5 344.7 325.2 312 297.1 287.3 275.8 280.5 288 304.5 322.9 339.9 360.6 381.6 409.3 436.7 474.9 498.6 516.2 504.7 473.7 440.1 414.3 391.2 373 380.1 399 420.4 442.8 467.8 473.4 474.4 467.9 465 452.7 451 440.7 441.7 412.6 382.8 353.3 327 303.6 284.6 269.2 258.5 248.6 241.7 237.8 236 244.5 256.1 267.2 285.3 306.3 327.4 353.3 382.9 426.8 462.8 509.4 587.5 623.2 631 644.9 653.2 645.3 612.3 571 538.8 524.9 502 479.1 471.3 468.2 462.1 448 438.9 446.2 444.7 436.5 430.2 411.5 375.1 341.7 316.7 295.7 278.4 264.4 250.3
370.2 366.8 359.2 363.4 359.8 351.7 346.4 338.9 332 327.4 326.4 336.1 334.8 336.5 329.4 321.1 320.8 320 317.4 321.2 322.8 323 328.4 334.1 342.6 350.9 354.2 357.2 364.6 375.8 388.6 413.3 419.1 422.9 417.8 426.3 432.8 443.6 454.9 472.2 482 487.1 494.8 500 501.8 500 500.7 504.5 514.5 523.9 534 544.8 547.7 536.8 524.6 507.3 511.5 518.4 524.2 536 532.1 539.7 555 553.9 551.1 551 552.5 561.1 580.8 600.8 649 652.5 637.4 638.6 656.5 642.5 630.1 622.8 625.7 634.4 643.3 664 694.6 720.1 746.6 764.6 775.2 776.6 761.9 753.8 738.4 700.1 653 610 575.7 542.8 510.4 484.8 456.3 428.6 406.7 391.7 382.5 388.2 398.6 422.5 432 425.1 407.3 386.5 370.2 350 330.3 314.8 300.3 290.9 280.5 281.3 290 305.8 325.2 341.3 361.1 385 412.9 447.1 476 509.8 525.9 514.2 491.5 457 435.3 411.3 392.6 396 412.3 433.8 457.2 484.2 500.5 506.7 510.2 499.4 488.8 483 497.6 479.1 446.5 404.1 366.9 340.1 319.1 299.4 281.9 270.1 256.5 248.1 243 239.7 237.7 249.7 260.6 279.7 301.4 321.5 346.5 376.4 412.1 452.7 501.1 561.1 615.1 639 647.9 657.9 648.9 638.5 604.2 575 547.8 521.2 502.6 492.1 496.2 486.9 474.2 462.9 472.7 475.9 473.9 470.4 436.8 394.7 359.6 329.5 306.6 288.7 271.5 258.9
392.4 386 386 377 368.6 363.7 357.2 349.1 343.6 331.9 328.9 333 338.6 338.1 334.1 329.6 324.8 323.2 321.5 321.7 325 325.7 328.2 331.5 336.9 345.1 346.5 349.1 357.8 368 381.2 400.5 409.8 401.5 401.6 420.5 431.8 450.7 458.6 461.9 464.7 471.7 481.3 481.6 481.7 487.1 490.3 494.5 504 513.9 525.8 531.4 532.2 518.1 504.2 504.4 514.7 517.5 518 521 538.4 550.6 560.6 567.2 576.5 573.8 580.3 605.5 630.7 661.1 698 712.1 677.1 666.4 678.2 661.1 652.4 645.2 653.9 647 650.9 670.9 700.6 726.2 748.1 765.4 785.7 803.9 798.9 775.6 734.5 690.9 639.7 594 561.8 532.5 507.1 476.7 447.3 422.5 404.8 392.8 398.5 403.1 418 456.8 462.5 442.9 424 396.7 375.9 353.8 333.5 312.8 300.4 292.6 284.9 283.5 292.8 308.7 328.7 343.9 362.3 385.8 416.1 454.5 487.6 525.6 547.7 540.4 507.7 470.9 447.6 424.7 407.6 409.5 429 446.4 469 493.5 521.4 543.3 538.7 547.5 538.4 528.3 517.2 491.4 455.4 416.3 381.9 357.9 334.3 316 297.7 278.5 265.4 252.1 245.1 240.7 239.8 247.8 260 274.1 293.3 315.1 340.5 372.8 405.8 441.9 491.4 547.8 618.4 643.1 646.2 657.1 653.7 645.2 640.8 607.6 568.5 543.6 527.4 513.7 522.9 506 493.4 492.4 500.6 506.6 504.6 489.5 456.7 421.4 377.7 343.9 319.8 298.2 282.9 267.6
416.8 419.6 409 396.9 383.4 374.9 362.3 362.8 354.2 338.9 337 335.3 339.8 338 335.6 333.7 330.1 326.2 324.6 325.1 326.8 327.4 326.7 330 333.2 337.7 344.2 345.9 347.9 356.2 375.9 390.5 396.9 393.6 400.6 416.8 436 453.2 472.5 476.9 477.5 489.6 493 498.5 497.7 486.7 488.1 503.2 505 503.8 514.7 508.7 501.5 504.8 507.8 507.6 516.8 513.7 514 531 551.7 563 583.1 599.3 610.3 609.8 616.4 653.9 687.7 720.1 733.3 747.2 730.8 719.4 695.3 676 663.2 666.1 666 656.1 661.9 686.5 708.5 729.1 752.1 777.1 803.4 816.6 789.5 737.3 707.7 671.4 620.1 585.9 554.9 528.3 498.8 468 440.7 421.3 412.3 409.5 420.6 428 443.6 486.4 486.8 478.3 441.6 408.2 378.2 355.6 333.6 314.3 300.7 291.6 287.9 283.9 294.7 311.3 330.9 347.1 364 387.4 425.3 461.6 502.1 539 560.1 552.1 516 483 459.8 440.5 425.5 420.9 440.7 457.6 478.8 499.8 526.7 558.9 570 571.6 567.5 554 534 495 470.5 430.3 397.4 372.5 353.6 327.3 311.1 294.5 278.9 261 252 245.8 241.7 244.4 260.6 268.5 286.6 309.7 334.9 364.9 403.4 433.9 482 529.3 602.6 638.7 647.8 654.5 654.7 643.5 641.3 634.2 601.2 578.2 547.8 534.8 536.7 535.4 523.8 520 522.8 528.2 517 497.9 467.9 440.9 403.4 365.7 334.2 311.9 292.8 277.7
433.8 435.7 424.6 411.3 395.3 387.7 376.5 369.4 361.8 350.5 351 343.6 346.1 342.7 339 337.1 333.6 327.5 323.3 320.3 325.3 326.9 331.9 332.7 333.3 335.4 340.8 341.8 342.4 352.7 362.1 374.5 387.5 390.2 401 420.9 451.3 461.1 461.6 464.5 467.9 474.4 489.9 489.3 488 489.7 503.7 502 504.8 498.5 496.2 492.5 488 498.1 499.1 499.8 497.8 514.2 531.5 558.1 578.7 590.6 604.1 629.4 645 646.2 671 712.9 735.8 756.5 768 765.5 751.5 728.3 700.9 681.6 674.6 677 669.9 661.7 667.5 692.5 709.2 731.9 761 789.3 813.6 834.9 794.3 728.3 686.2 648.1 614.6 580.2 556.5 526.4 491.8 462.8 440.7 423.8 423.6 423.2 431 445.8 473.6 510.7 518.6 489.4 448.7 411 381.5 358.3 335.3 315.5 305 297.3 290.9 286.9 298.1 311.8 331.4 349.5 368.4 393 433.1 466 508 537.7 565.6 559.4 532.2 499.6 474.3 457.3 441.2 435.7 451.4 469.9 487.3 509.1 530.1 554.4 582.1 597 584.9 571.7 544.8 517.4 486.2 451.8 419.9 390.4 368 349.1 327.7 304.7 287.7 269.9 258.6 252.4 245.9 245.7 255.1 266.9 281.3 304.3 331.3 361.1 391.1 427.3 470.7 522.3 579.1 628.3 645 649.6 644.9 643.5 640.2 634.3 630.8 608.3 584.5 565.5 562.3 569.8 561.8 548.3 552.4 548.7 529.9 512 484.1 453 410.3 376 347.6 324.1 304.4 287.6
450.9 452.2 438.2 426.5 411.2 400.4 386.2 378.5 372.4 362.5 358.8 357.2 351.6 346.1 342.1 339.5 333.3 327.4 322.4 320.3 320.7 323.9 331.5 335 334.8 334.7 336.2 338 340.1 345.7 354.5 360.2 380.6 390.1 395 410.5 436.3 442.5 450.3 459.4 465.6 471.8 480.1 476.8 477.2 485 483.3 491.7 501.1 488.9 483.4 476.9 477.7 485 485 496.2 508 528 550.3 575 598.1 614.7 630.1 657.1 679.6 688.8 742.2 763.6 777.8 797.9 801.9 793.2 773.7 741.8 714.2 693.8 688.5 688.9 678.6 669.5 670.5 682.6 714.8 742.1 770.6 803.4 831 821.8 767.2 724.8 673.6 636.5 603.7 577.1 552.5 522.2 488 462.4 444.1 439.2 434.3 439.9 449.5 466.3 499.5 531.3 524.7 491.5 447.4 415.5 385.4 361.6 339.6 320.3 310.7 301 294.9 288.5 301.2 316.8 334.7 353 370.6 398.2 432.5 467 509.2 552.6 575.2 570.3 553.2 527 503 477.1 458.6 456.4 460.6 476.2 500.5 515.6 537 555.4 581.1 599.3 600.5 592.1 571.6 546.8 511 471.3 430.7 410.3 387.3 367.3 338.9 316.6 299.6 281.1 267.4 256.8 250.7 246.6 252.2 266.3 282 302.7 327 355.9 386.6 427.6 463.7 517.6 564.6 601.8 642.4 639.9 638.5 637.5 639.2 637.9 638.8 645.3 628.8 609 596.7 622.3 605.3 584.8 589.3 566.8 541.7 521.9 495.2 464.3 421.5 387.8 359.7 335.2 315.9 296.8
449.5 457 453.2 445 427.9 414 400 393.9 384.4 371.5 365.8 364.7 359.1 347.7 347.8 342.3 336.8 329 321.2 320.3 324.2 320.3 323.4 333.6 333.5 334.7 335.5 336.7 338.1 342.5 349.3 354.9 368.2 382.5 395.1 402.4 419.2 429.6 437.1 444.6 453.8 463.2 470.1 469.6 467.6 467.4 470.3 473.4 474.3 470.7 467.4 460.5 470.7 483.1 499.6 513 524.3 538.7 556.6 581.9 609.6 636.2 655.5 699.2 720.3 731.6 792.7 814.4 830.7 835 845.3 823.6 797.8 751.6 719.9 709.7 701 695.4 681.8 676.5 673.3 686.6 716.2 748.5 782.4 815.2 842.5 796.1 750.7 706.1 666.6 632.5 600 576.8 548.5 518.1 494 470.8 463.4 460.8 468.9 471.5 486.2 491.9 517.7 545.4 522.6 487.2 447.5 413 385.5 356.1 340.3 324.9 304.4 298.5 297.4 293.8 304.9 321.9 337.1 356.6 378.2 404.8 436.8 469 514.2 554.1 581.6 577 566.3 543.5 516 492.4 476.7 475.5 476.1 487 509.1 525.6 541 559.4 576.2 596.2 601 600.8 587.3 561.8 523.9 487.7 469.1 436.1 404.5 378.3 351.3 328.8 307.9 290.2 274 262.5 255.7 248.3 251.5 265.1 281.5 301.1 324.9 349.5 380 417.1 459.9 511.3 552.3 581.1 620.7 631.2 634.4 635.9 640.4 644.9 652.1 653.1 648.5 647.5 642.3 643.2 638.6 621.2 602.3 580.4 546.5 521.8 500.8 470.8 435.3 405.2 370.4 343.3 321.5 305.5
466.6 469.2 469.5 470 453 431.2 414.7 404.1 396 382.2 373.6 369.6 363.8 353.7 353.4 350.4 342.5 331.1 320.6 322.6 325 323.9 320.3 323.5 328.7 332.4 333.4 333.4 338.7 344.2 346.4 352.2 358.7 368.7 377.7 386.1 399.8 415.9 427.3 434 439.3 444.1 449.8 449.7 448 453.7 454.4 456.2 456.4 451.9 449.5 464.5 479.2 498.4 514.4 528.9 545.7 555.1 571.9 596.6 627.2 658.2 685.1 732.1 783.1 776.4 795 836.9 871.3 887.5 875.2 842.5 798.8 756.9 727.5 712.3 703.9 697.4 689.3 684.1 687.8 701 725.5 764.9 798.6 827.2 832.9 794.6 751.5 703.4 659.8 628.5 601 580.9 549.8 524.2 501.8 497.5 517.6 506.4 517.3 526.1 520.8 527.6 551.2 546.8 516.6 483.3 447.7 414.2 383.9 361.3 341.2 321.6 306.9 302.1 300.5 295.6 307.6 324.2 340.9 362.8 385.2 408.4 440 475 518 560.9 592 586.2 571.5 550.5 526 505.6 496.5 489.7 487.4 503.1 515.3 531.3 546.6 562.7 577.4 602 602.7 600.6 592.4 576.4 542.2 518.1 498.8 458.6 424.5 391.3 363.1 336.4 318.5 301.2 283.2 267 259 251.4 250.6 264.2 282.9 300.3 319.5 342.2 369.6 403.1 446.4 493.1 516.6 571.5 607.6 623.5 629.7 633.6 638.6 652.8 660.9 662 659.2 657.5 658.3 650.7 649.4 640.7 606.5 578.2 551.2 531.4 500.1 467.7 439.5 406.4 378.1 352.3 330.2 313.1
471 479.2 486 487.4 464.5 440.9 429.9 413 400.6 392.9 385.1 375.6 367.7 360.5 356.1 352.7 346.3 335.3 325.9 320.3 320.3 323.7 322.8 320.3 323 325.2 329 330.5 333.3 338.3 344.2 348.4 355.6 360.9 366.7 376.8 383.5 392.2 400.5 409.2 416.2 425.7 429.4 431.3 436.7 436.8 433 432 433.5 448.2 460.5 473.1 486.3 502.5 518.9 536.4 549.9 569.9 593.5 616.9 644.9 676.2 713.8 746.8 780.9 835.3 831.5 848.4 895 903.8 880.3 834.2 799.6 762.7 734.2 716.9 705.3 700.5 695 696.2 705.1 724.1 747.7 785.6 816.5 839.4 812.3 776.1 735.1 696.5 661.8 632.9 608.7 587.6 564.5 545.5 530.6 530.9 564.2 559.5 583.9 586.1 569.6 573.1 573.8 546.5 513.2 477.9 442.2 411.9 386.5 362.6 342.8 323.9 312.4 306 305.6 298.5 310.3 328.2 345.7 367.3 392 416.2 449.7 482.1 521.2 568 601.8 592.1 576.3 557.7 537 520.3 511.9 508.1 505.7 519.5 527.3 537.8 549.1 564 578.9 603.2 609.9 612.8 603.7 578.4 551.1 527.7 498 466.4 430.4 398.7 371 348 329.2 311.1 289.6 273.1 261.2 255.7 251.8 264.3 284.1 301.1 314.2 336.4 362.7 393 428.5 465.5 511.7 562.7 596.5 615.8 623.7 631.5 640.4 653.5 666.2 671 669.9 668 667.9 657.9 647 641.3 612.3 578.6 554.6 534.3 500.3 460.5 435.8 409.8 381.2 355.5 333.7 316.1
467 476 484.1 486.8 476.5 458.1 437.7 419.5 404.2 399.9 393.2 380.3 372.7 365.5 358.6 355.6 347.7 339 328.3 321.3 320.3 320.3 324.8 322.1 321.5 324.4 325.5 326.3 330 334 340 345 348.8 355.7 359.4 368.4 378.4 383.9 390.6 392.6 397.4 402.6 407.5 414.2 418.9 418.8 417.4 426.4 439 450.7 460.7 472 489.3 504.2 521.8 543.9 557.4 579.7 609.6 636.5 665.8 703.1 730.4 770 813.6 851.8 867.4 880.7 897.3 921.8 908.2 876.6 817.6 777.4 751.3 733.6 716 706.5 707.8 715 737.3 758.5 783.8 810.6 830.4 836.8 811.1 764.3 724.6 691.2 656.8 645.8 627.4 609.7 595 586.9 598.1 594.9 608.3 624.3 624.3 612.6 604 592.7 568.6 538.9 508.2 474.5 437.9 410.7 384.8 362.9 344.5 323.6 314.6 311 307.1 303.8 319.5 332.4 348.3 371.8 398.7 423.6 455.3 493.3 531.2 575.3 602.6 593 580.4 565.6 545.2 537 526.1 523.9 523.9 527.7 537 545.6 552.9 566.7 582.6 600.3 615.1 610.6 594.5 574.2 548.1 522.8 490.5 461.8 427.7 402.3 380.2 355.8 334 312.3 296.6 278.5 264.7 258.3 255.9 264.6 280.5 294.5 310.3 333.3 355.3 381.4 416.4 459.4 508.7 557.5 594.2 606.9 620.6 634.6 646.8 661.5 668.6 679.6 677.4 675.4 682.7 669.3 650 636.1 615.6 586.4 561.8 533 488.2 457.6 434.2 410.3 383.6 356.7 335.7 323.7
475.4 474.4 483.3 484.5 477.5 461.5 442.7 427.2 416.5 399.5 393.9 387.2 378.8 372.4 361.6 354.6 346.6 339 328.7 322.9 320.3 320.3 320.3 320.5 320.6 323.1 324.5 326.3 329.3 332 335.9 339.6 347.4 344.2 349.9 354.8 359.8 366.7 374.1 380.4 386.8 390.6 395.4 401.8 405.7 412.1 421.5 430.7 439.2 449.5 458.4 468.5 485.2 502.1 524.3 545.4 565.3 586.1 611.6 641 669.2 704 731.9 765.9 814.1 853.7 874.5 898.2 922.6 927.3 917.7 881.2 839.9 806.7 780.1 758.3 744.9 749.3 737.9 744.3 762.2 787.3 813.8 831.6 831.2 805.4 775.6 741.4 710.4 676.5 662.3 656.6 645.1 628.6 614.2 605.3 604.7 613.4 625.3 638.7 633.4 616.8 602.2 579.3 551.4 525.6 499.4 468.7 436.5 411.1 382.9 362 342.1 325.3 319.3 315.2 308.5 308.9 323.7 337.7 353.7 378.1 401.8 433.5 466.2 503.9 539.5 586.7 603.1 595.9 584.6 573.4 564.9 554.3 544.7 538.7 534.6 536.4 544.5 550.6 559.3 572.5 586.7 600.3 615.1 604.2 585.6 570.1 544.7 517.3 488.5 461.7 431.7 408.8 384.7 358.8 339 316.9 300.8 282.8 271.9 262.4 257.1 266.1 281.9 293 308.6 327.9 347.8 373 407.5 449.7 494.1 536.9 580.3 605.3 616.8 634.6 648.5 658.5 675 678.3 684.4 682.7 683.3 671.9 656.7 631.7 605.3 585.3 566.7 530.4 483.3 453.7 430.9 406 383.6 359.7 342.4 329.8
483.9 492.3 490.5 485.1 476.7 459.8 443.9 427.9 422.3 405.4 396.3 391 383.3 377.1 363.6 354.8 345.1 336 330.3 324.5 320.3 324.5 320.3 320.3 320.7 323.2 326.2 326.8 329.2 330.5 332.3 341.1 347.8 354.9 360.5 367.4 375.1 379.3 387.5 395.6 398.4 394.4 391.4 401.4 411.9 423.5 430.5 441.4 451.8 454 461 469.8 480.8 497.5 515.6 533.3 559.3 581.9 607.3 636.5 668.2 699 727.2 758.6 804.4 844.7 877 904.2 921.9 923.1 919 893.4 860.4 834.6 827.7 810.1 784.2 793.6 792 795.1 801.1 814.4 828.3 832.4 809.1 780.3 752.5 722.8 693.6 675.3 664.7 657.4 643.5 628.2 620.2 611.7 611.6 625.7 631.6 629.3 610.5 583.9 568.3 553.3 531.5 510.2 485.8 459.9 432.5 408.6 385.3 361.4 342.9 330.7 324.7 316.9 310.3 318.9 331.1 343.3 360.6 384.7 412.9 449.4 479.5 521.1 562.2 598 603.3 597.3 587.6 580.9 574.4 568.6 559.6 551.1 545.2 546 551.1 558.2 567.2 579.2 592.4 604.7 610.7 603.4 585.7 568.5 537.2 503 480.3 461.1 435.9 414 386 365.6 345.7 321.9 305.9 291.5 280.9 270.5 260.5 266.1 278.7 293.1 307.8 326.1 344.9 371.7 406.5 443.5 488.4 538.5 578.8 606 613.5 630 646.9 661.9 668.2 675.6 685 686.9 689.3 674.1 653.3 633.4 602.4 565.7 535.7 502.4 469.6 449 425.8 403 382.5 363.4 345 334
