ncols 200
nrows 82
xllcorner 240000
yllcorner 244400
cellsize 50
286.7 286.4 285.4 285.2 285.8 284.9 284.3 282.7 280.5 277.1 273.6 269 262.9 254 247.7 250.8 252.1 251.4 249.3 246.3 242.2 237.9 231.6 225.6 219.9 214.3 211.5 210.2 212.2 214.9 217.3 219 220.5 220.6 219.6 216.6 211.9 203.2 192.5 186 183.3 181.7 180.5 177.4 173.5 171.8 173.3 174.7 184.2 204.4 215.3 225.1 233.6 239.3 243.9 247.7 252.2 254.4 258 261.5 262.5 264.5 265.1 265.9 265.6 265.3 264.1 262.3 260.9 258.9 253.2 250.2 243.5 236.8 227.9 209.6 195.7 200.2 206.7 204.7 185.7 179.7 184 188 196.6 205.4 210.7 216.1 222.5 229.5 236.1 242.8 248.9 255.8 263.1 266.5 269.4 270.3 269.6 266.6 265.8 258.9 248.3 249.9 255.4 263.7 271.5 279.8 287.5 290.8 293.9 295.5 295.3 292.5 294.4 295.9 296.3 296.6 296.8 297.4 298.1 299 300.7 301.5 299.4 295.9 292.4 288.8 285 280.6 276.3 271.4 265.7 260.3 253.6 247.1 240.4 235.9 232 228.2 225.5 221.4 218.4 213.5 209.2 208.5 207.9 209.4 210.1 213.8 215.6 213.5 209.1 207.7 203.7 204.2 207.1 210.1 211.9 212 213.1 214.6 216.7 220.1 221.3 220.9 220.1 218.5 216.7 213.7 211.6 207.6 200.7 180.1 177.1 188.7 209.6 193.9 187.7 188.1 175.6 174.7 177.7 183.8 197.7 204.3 203.8 197.1 185.6 177.3 183.5 187.2 190.5 193.2 196.8 201 208.4 213 216.7 220.4
287 286.7 286.6 286.4 285.9 285.4 284.9 283.8 281.2 278 273.8 268.9 258.2 254.7 258 257.1 257 256.5 253.9 250.5 246.3 240.6 236.1 229.8 224.2 217.3 213.3 212.9 216.4 219.9 222.6 224.5 225.4 225.1 224.2 222 217.8 210.5 199.6 189.4 183.7 182.5 179.7 178.2 175.4 173.4 172.7 175.3 188.1 209.4 223.2 231.5 238 243.9 247.9 251.3 253.6 255.9 259.2 261.8 263.9 265.6 266.6 267 266.4 266 265 264.2 263 260.7 257.4 252.4 250.1 246.2 239.4 218.9 197.5 190.4 195.8 199 182 177.7 181.3 183 188 197.3 204.3 211.1 216.6 224.4 232 237.3 243.9 251.8 260.2 261.6 262.1 261.6 255.2 250.4 248.2 243.5 242.4 248.8 261 270.5 277 269.8 269.7 276.4 284.1 287.4 289.4 292 294.1 294.8 294.4 294.6 295.2 296.1 297 298.3 299.7 299.6 298.1 294.8 291.1 287.7 283.6 279.1 274.7 269.7 263.8 257.4 250.4 242.2 235.2 232.3 229.6 225.4 223.5 220.7 217.9 216.6 213.9 207.4 204.8 205.2 205.3 207.1 207 206.5 203.7 200.6 199.4 201.5 203.9 206.6 208.1 208 208.5 210.2 214.4 217.3 218.5 219.3 218.2 217.1 215.4 213.6 211.2 209 204 181.9 175.9 182.8 187.3 178.5 176.9 175.2 175.6 191.2 220.5 220.3 213.5 205.9 197.5 186.6 175.9 182.4 186.1 189.2 192.4 195.4 198.9 205.7 210.2 213.6 219.1 223.1
287.9 287.9 287.8 287.6 286.8 286.1 284.8 283.7 281.5 278.7 274.7 269.4 265.3 263.5 263.4 262.6 262.4 260.4 257.6 253.9 249.1 243.9 238.8 232.9 226.8 219.9 216.5 217.5 221.3 224.6 227.5 227.7 228.3 227.7 226.2 224.2 220.7 215.3 206.5 197.5 185.8 181.2 177.6 178 174.5 173.8 171.1 177.2 198 218.1 227.4 235.4 242 246.5 250.3 253.3 255.2 257.5 260.4 263 265.2 267.2 268 267.4 267 267 266.7 266.3 264.5 262.5 260.6 258.2 254.9 253.2 246 227 204.3 194.9 184.2 181.4 176.1 179.9 185.9 188.1 189.8 190.2 194.6 197.6 206.4 212.4 220.1 229.8 235.5 242.3 249.6 251.3 248.7 242.7 235.1 233.3 235.1 236.6 242.5 255.5 265.5 268.7 262.1 267.9 282.3 288.7 288.2 292.5 293 293.4 293.3 292.9 292.5 292.6 292.9 293.9 294.9 295.9 296.7 296.7 295.1 292.8 289.7 286.1 282.1 277.5 272.9 267.8 261.6 253.4 244.3 235.8 230.4 228.1 224.8 223.5 221.6 219.1 216.5 215.5 213.2 208.7 203.7 201.1 204.7 203.7 200.6 199.9 198.5 196.9 195 195 200.5 202.8 204.2 203.6 203.4 206.9 210.7 214.3 215.3 215.2 214.6 213.4 212.2 211.4 211.1 210.6 207.1 188.8 173.9 177.6 177.9 179.5 181 176.9 185.2 202.5 208.3 206.4 204.3 196.2 186.5 174.7 177 182.7 187.8 191.8 195.2 199.4 204.4 209.1 212.5 219.5 224.1 227.1
289.5 289.8 289.3 288.2 287.1 286 284.6 283.1 280.8 278.4 275.4 271.9 269.7 268.5 268.1 267.7 265.7 263.5 260.5 256.6 252 246.9 240.8 236 229.6 222.8 219 221.4 226.5 230 230.9 230.6 230.4 229.2 227.5 224.5 221 216.9 210.5 201.7 188.8 178.5 176.4 174.7 171.7 171.8 171.4 185.5 206.1 223.4 232.3 239.7 244.7 248.8 252.2 254.4 256.3 258.7 261.7 264 266.3 267.7 267.9 267.3 267.4 268.1 268.3 267.2 266.6 265.7 264.7 262.4 258.7 254.7 248.4 234.8 214.4 196.1 183.4 175.4 177.7 182.4 189 191.4 193.3 194.4 195.8 197.8 198 204.9 210.1 213.1 217.9 223 227.6 229.5 227.5 226.5 226.6 229 231.7 234.9 249.4 257.6 252 256.8 271.6 278.7 283.7 286 289.3 291.3 291.8 291.8 291.7 291.3 290.6 290.4 290.4 291.1 292 292.7 293.4 293.4 292.1 289.6 287 284 280 275.8 270.5 264.9 258.4 248 239.3 231.3 226.6 222.6 221.7 219.9 219.1 216.5 214.6 212.1 212.4 208.6 205.1 201.7 196.9 197.2 197.3 196 193.3 191.9 192.2 189.1 190.2 195.2 196.7 196.6 196.2 198.6 201.6 206 208.5 208.9 208.5 208.9 209 209.7 210.2 211.5 211.6 200.1 179 173.4 175.9 175.2 174.4 174.1 175 178 180.2 189.6 192.1 182.4 170.8 174.4 180 187 191.5 194.7 197.8 202.1 207.8 212 215.5 221.4 226.4 228.8
289.1 289.4 288.9 287.9 286.8 285.8 284.6 283.2 281.3 279.2 276.9 275.5 274.1 273 271.9 271.1 268.9 266.6 263.4 259.1 254.3 249.3 243.1 237.9 230.9 224.3 222.5 226.8 230.8 233 233.9 233.5 232 230.3 227.4 223.9 220.4 216.9 211.1 201.5 187.4 175.8 172.7 173.5 171.6 170.8 174.7 193.1 213.9 226.8 235.3 242 247.2 251.4 253.7 255.4 257.2 259.8 262 264 265.5 266.2 266.2 267.2 268.2 268.7 268.4 267.9 268 267.6 266.9 264.8 262 257.4 251.2 243.9 229.4 209.7 189.1 173.9 179.1 185.5 191.6 195.4 197.3 198.3 198.8 200.6 203 205.6 208.3 210.9 208.4 215.1 218 218.1 219.5 223.6 227.7 231.5 234.4 235 240.2 243.9 258.3 271.1 277.1 281.8 285.2 287.7 289.4 290.2 290.3 289.6 290.3 289.6 288.8 287.8 287.9 288.6 289.1 289.6 290.1 290.1 289.1 286.8 284.4 281 277.8 273.1 268.2 262.5 253.3 242.3 233.9 228.4 224.3 219.9 217.4 216.4 215.3 212.3 210.7 208.9 209.4 206.3 203.7 200.8 196.2 193.6 192.7 191.9 190.4 190.2 188.1 188.8 184.5 183 182.9 183.7 183 181.1 180.6 190.1 197.9 199.5 201 203.3 205.7 207.6 209.5 210.9 212 208.2 192.5 179.3 175.5 170.5 171.2 168.2 172 170.6 170.8 186 180.9 168.9 171.9 180 186.4 191.6 194.2 197.1 201.3 206.5 211.5 215.5 219.5 223.9 227.9 230.1
288 287.5 287.3 286.9 286.2 285.6 284.6 283.2 282.6 281 279 277.9 276.5 276.1 274.6 272.9 271.1 268.5 265.1 261.5 256.6 250.4 245.2 239.1 233 226.9 228.4 232.8 234.7 236.1 236.2 235.3 233.2 230.8 227.8 223.6 219.4 215.2 208.5 197.6 180.3 172.9 170.1 170.5 169.2 172.2 183.3 201.9 217.2 229.4 237.6 244.8 249.8 253.9 255.4 256.3 257.7 259.4 261.2 262.9 263.9 264.7 266 267.2 268.2 268.5 268.2 268.2 268.3 268.6 267.9 265.9 262.9 258.5 251.6 244.5 237.2 218.2 191.6 174.1 181.9 187 193.9 197.3 199.5 200.7 203.6 205.9 208.6 211.1 213.4 215.2 215 213.4 217 220.4 226.1 231.2 239 243.8 249.5 247.5 244.6 258.5 267.3 275.3 280.2 283.9 286.7 288.9 290.4 290.7 290.8 290.2 288.9 288.2 287 285.6 285.4 286.2 286.3 286.9 287.2 286.7 285.7 283.8 281.2 278.6 275.3 270.5 265.5 258.9 246.8 237.9 231.9 227.2 221.4 216.7 214.6 213 211.2 210.3 208 206 206.1 202.4 201.1 199.5 197 195.8 193.7 192.4 194 194.6 191.5 189 189.7 187.3 180.8 179.9 178 177.7 176.9 175.8 177.1 186.5 191.3 194.6 199.4 203.8 206.5 208.9 211.3 206.1 202.3 197 190.5 183 181 178.1 170.2 167 164.9 177.2 167 169.4 176.7 183.2 188.8 193.7 198.2 202.2 207.1 212.1 215.7 219.6 223.8 226.8 230.3 231.3
286.9 287.5 287.1 286.5 286.2 285.8 285.3 285 284.6 283.3 281.6 280.2 278.3 277.8 276.6 275 272.9 270.5 266.6 262.3 257.6 252 246.8 242 234.9 230.2 235.3 238.3 238.9 238.6 237.9 236.2 233.6 231 227.4 222.5 217.9 211.9 201.7 186.7 175.7 169.6 168.4 170.5 174 185.8 199.2 203.7 222.2 232.9 239.8 246.5 251.5 254.4 255.4 256.5 257.9 259.5 260.9 261.8 262.5 263.7 265.1 266.2 266.6 266.6 267 267.6 268.3 268.9 267 265 262.2 258.4 251.5 244.7 235.9 219 190.5 174.5 182 186.5 193.5 197.8 201.8 204.7 207.8 212.6 215.9 216.2 219.3 220.9 224.5 225.8 228.1 233.8 241.6 249.1 256 262.3 266 267.9 264.3 257.5 270.4 277.7 281.7 285.6 288.5 290.1 291.3 291.4 291 290.2 288.9 287.3 285.6 283.7 282.6 283.1 283.1 283.4 283.7 283.3 282.1 280.8 278.4 276.2 273.1 267.7 261.9 252.1 242.1 235.6 230.7 225.9 221 216.1 212.9 210 207.2 205.3 208 206.7 202.2 200.6 198.9 196.6 199.9 200.6 200.2 198.5 199.1 194.8 194.8 194.8 193.4 192.5 187.1 182.4 181.8 183.8 180.5 175.8 175.5 172.6 174.5 177.9 187.1 191.7 198.3 201 202.2 202.7 202.8 204.4 204.4 208.4 193.5 191.7 184.1 184.1 164.9 161.2 169 173.1 177.5 182.4 189.5 196.2 201.8 207.3 211.7 215.6 218.4 222.6 227.6 231.4 232.3 232.1
286.1 286.9 286.8 286.7 287.1 287.1 286.9 286.6 286.4 285.3 284.1 282.3 280.4 279.3 278.6 277.1 274.7 271.8 267.7 263.1 258.9 254.4 249.6 244.6 239 240.5 242 241.8 241.8 240.5 239 236.5 233.7 230.3 226.4 221 215.6 208.8 192.8 179.3 172.8 169.1 168.1 175.4 188.2 199.1 213.2 223 227.8 235 241.7 247.4 251.3 253.8 255.1 256.4 257.5 258.4 259.7 259.8 260.9 262 263.2 263.7 264.3 264.8 265.3 266.3 266.5 265.8 264.5 262.6 259.9 256.2 250.4 241.6 233.1 211.5 186.3 174.7 181.2 185.5 193.6 197.7 203 208 214.9 220.6 226.2 230.6 233.1 235.1 233.6 243 245.4 252.5 260.5 264.7 269 272.3 274.6 277.4 279.3 277.9 272.7 279.8 284.5 287.4 289.5 291.3 292 292.2 291.7 290.8 289.5 288.1 285.3 282.9 279.9 279.4 279.7 279.9 280.1 279.7 278.6 277.4 275.4 273.4 269.1 262.4 255.1 245 238.7 232 228.8 224.7 219.1 213.8 210.4 208.5 207.2 204.6 203.1 202.8 203.6 203.6 203 204.5 204.5 200.6 202.6 199.4 200 199.1 197.1 196.4 193 194.1 186.3 185.7 189.5 186.3 183.8 181.1 178.5 173.4 171.3 170.3 169.9 171.6 177 183.8 190.4 196.4 200.1 205.4 210.2 215.4 198.1 191.8 186.1 192.2 166.1 162 168.1 172.5 177.6 182.9 192.4 201.2 207.6 213.4 216.2 218.5 221.1 225.1 230.3 233.1 232.5 231.9
284.7 285.9 286.7 287.6 288.2 288.4 288.6 288.4 288 286.9 285.6 283.5 282.3 281.2 280.5 278.9 276.2 272.8 268.9 264.6 260.6 256.6 252.2 248.8 244.7 245.4 245.4 244.9 243.3 241.7 239.4 236.3 232.9 229.5 225.6 219.3 213.8 205.4 185 173.8 167.9 168.2 182.5 199.8 209.6 216.2 223.5 228.4 233.1 238 242.9 246.9 249.8 252.4 254.2 255.2 255.7 256.4 257.1 258.2 259.5 259.8 260.7 261.2 261.7 262.6 263.3 262.9 262 261 259.5 258.6 256.3 252 245.1 236.6 228.1 206 181.1 173.7 181.4 185.6 193.6 197 204.2 211 218 225 231.2 235.3 237.5 240.5 244.9 251.4 258 262.2 266.5 271.1 274.9 276.9 279.4 281.7 282.7 283.2 283.6 284.9 287.1 289.3 290.9 292.2 292.4 292.5 292 291.4 289.9 287.8 284.9 281.8 278.6 274.4 276.4 276.6 277 276.3 275.1 274 271.8 267.9 261.8 254.4 247.2 241.4 234.3 231.3 227.9 224 218.6 213.2 209.2 207.6 204.6 205.5 205.3 205.8 207.3 206.1 206 206.4 204.1 204.9 205 201 199.2 201.9 196.7 195.3 194.9 193 189.7 190.3 189.8 189.2 187.8 182.7 179.8 179.5 175.2 174.4 168 167.7 166.2 167.3 170.1 177.9 183.1 187.6 197.5 210.4 213.3 210.8 199.8 180.2 160.4 164.1 168.2 173.9 180.4 187.6 198.4 205.9 212.5 216.1 219 220.9 224.3 229 231 231.7 230.8 230.2
283.2 285.6 287 288.4 289.2 289.6 289.9 290.1 289.6 288.5 287 285.2 284 282.8 281.7 280.1 277.3 273.9 270.3 266.4 262.4 258.4 254.4 252.2 250.1 249.3 248.5 246.5 244.8 242.5 239.2 236.1 231.4 227.7 222.2 216.9 211.7 197.7 178 166.8 166.4 170.5 192.4 211.7 219.5 223.1 228.1 231.2 235 239 242.9 246.3 249.1 250.9 252.5 253.8 254.8 255.5 255.7 256.1 256.7 257.2 258.1 258.8 259.5 260 260 259.5 257.7 255.4 253.9 252.5 250.1 243.8 238.2 231.6 223.8 199.8 177 174.2 181.7 187.8 194.5 196.7 205.4 212.1 219.8 226.4 232.9 237.3 239.7 243.5 249.3 255.2 261.3 265.4 270.7 274.3 277.9 280.8 284 285.2 285.5 286 286.4 287.9 289.2 290.6 291.8 292.3 292.6 292.2 291.6 291 289.9 287.6 283.8 279.9 276.8 273.2 273 273.4 274 273.1 271.8 269.3 265.9 261.6 255.7 248.1 242.3 236.9 233.3 229.4 226.2 222.3 216.7 212 209.1 206.7 206.6 207.8 206.8 209.2 209.4 207.4 205.9 206 207.7 205.3 204 202.8 201.8 200.2 197.9 198 196.4 190.9 192.7 190.7 190.3 190.8 189 186.2 184.7 181.2 178.7 177.4 174.8 166.9 167.1 165.2 163.6 163.6 164.3 169.5 180.4 194.5 204.7 202.3 184.6 166 157.8 164.6 170.4 176.8 184.5 192.5 202.3 209.5 215.5 218.4 221.4 224.9 227.9 230 230.9 230.2 229 228.3
283 285.4 287.4 289 290 290.8 290.8 290.7 290.4 289.4 288.2 286.8 285.5 284.1 282.8 281 277.9 274.9 271.5 267.9 264.1 260.2 257.2 255.1 253.3 252.1 250.5 248.4 245.8 242.6 239.3 235.5 230.7 225.3 220.4 213 206.1 186.5 171.4 166.5 165.5 174.6 199.7 218.8 223.8 227.7 230.6 233.6 236.7 240.3 243 245.7 248 250 251.9 253.1 254 254.4 253.4 253.4 254.2 254.9 255.6 255.6 256.6 256.9 256.5 255.3 253.4 251.1 248.9 246.3 242.9 237.3 233.2 226.7 217.6 194.9 172.3 174.9 182.1 188.6 193.1 198.3 204.7 212.3 220.1 227.2 234.2 238.8 241.3 245.6 252.1 257.9 263.4 270 273.3 277.4 280.9 284 286.3 287.3 287.9 287.9 288 289 290.2 291.2 292 292.4 292.3 291.7 291.2 290.5 288.8 285.5 281.7 277.6 273.4 269.4 268.1 269.4 270.5 269.8 266.5 263.7 259.7 255.3 249.2 243.2 238.2 234 229.8 226.8 223.4 219.4 213.6 211.5 208.6 207.1 208 209 208.8 211 212.8 212 211.3 210.1 209.5 208.4 206.8 204.7 203.3 201.2 198.6 198 195.7 194.3 193.4 193.9 191.6 190.9 189.7 187.4 184.8 183.1 179.5 179 176.5 175.3 171.8 171.2 169.7 162.8 161.2 158.7 163 169.1 180.7 179 164.8 158.2 157.5 165.9 168.9 177.7 187 195.8 204.8 212 216.4 219.9 223 225.9 228.4 229.6 229.5 228.7 227.3 226.8
281.8 284.3 286.7 289 290.3 291.2 291.3 291.3 290.8 289.8 288.5 287.3 286.2 284.6 283.1 281 278.4 275.4 272.2 268.9 265.4 262.2 259.4 257.5 256 254.1 251.8 249.3 246 242.6 239.1 235 229.5 225 218.1 207.1 191 174.4 165.6 165.3 165.7 181.6 206.8 222.5 226.9 229.7 232.6 235.4 238.5 240.9 243.2 245.6 247.7 249.7 251.2 252.2 252.3 251.8 250.6 250.4 251.2 251.9 252.6 253 253.5 253.8 253.3 252 250 247.8 245.8 242.2 237.1 233 228.6 221.2 212.2 189.5 170.2 173.6 183.2 187.8 192.4 197.9 204.1 212 220.1 227.6 234.3 238.9 242.3 247.2 253.8 260.2 265.9 270.9 275.2 279.4 282.8 284.8 286.9 288.1 288.5 288 288.1 289.4 290.5 291.3 292 292.3 291.7 291.2 290.6 288.7 286.3 283 279.2 274.9 269.7 265.6 264.2 264.8 264.4 263.7 262.3 259.1 254.8 249.5 244.5 238.5 234.5 230.3 226.6 223.5 220.8 215.3 212.8 211.2 208.6 207.9 207.4 209.9 212 212.9 215.8 215.1 214 212.9 214.2 211.5 208.9 206.4 203.6 201.8 198.4 196 197.3 197.3 193.7 195.3 194.2 191.6 190.5 188 185.3 184.3 183.1 182.2 180.6 178.6 176.5 175.4 172.1 169.1 164.6 161.2 158.3 155.8 158.5 158.7 156.7 156 163.3 168 171.3 178.3 189.4 200.7 207.3 212.2 216.7 220.6 223.9 226.3 228 228.6 227.5 226.7 225.8 225.7
280.1 283.3 285.9 288.3 290 291.1 291.1 291 290.6 290 288.9 287.8 286.2 284.4 282.6 280.7 277.7 275.4 272.2 269 266.2 263.9 261.5 259.6 257.7 255.4 252.7 249.8 246.1 242.6 238.4 234.4 228.9 223 214.5 194.9 176.3 165.9 164.6 164.8 165.5 193.1 214.6 225 228.2 230.7 233.2 235.9 238.5 240.7 242.9 245.3 247.4 249.2 250.1 250.2 250.1 248.8 247.7 247.3 248.1 248.8 249.5 250.3 250.7 250.7 249.9 248.5 247.1 244.9 242.9 238.6 234.2 229.7 225.1 217.5 208.1 193 169 174.5 181.7 187.4 191.6 197.3 203.7 211.8 219.4 226.7 232.9 237.9 242 247.2 253.7 259.9 264.8 270.6 276.7 280.9 282.5 284.4 286.1 286.8 286.2 286.4 287.3 288.8 290.2 291.1 291.8 292.2 291.7 290.9 289.1 286.9 284.2 280.9 277.2 272.3 265.8 261 259.5 261.4 261 259.8 258.1 255.2 249.9 244.6 239.1 234.5 230 227.2 223.7 219.6 216.9 211.9 211.1 210 209 207.5 208.9 210.4 212.8 215.4 216.9 218.4 217.2 217.2 217.3 216.4 213.8 209.8 205 201.6 200.8 199.8 198.4 198.2 197.3 196 195.1 192.1 190.6 190.6 189.1 189.5 188.5 188.8 187.2 186.2 183.3 179.5 176.2 171.9 167.9 165.4 161.2 158.3 155.5 155.3 153.5 159.5 165.9 171.2 175.2 180.7 189.6 200.1 206.3 212.2 217.1 221.3 224.8 226.6 227.6 227.9 226.5 225.8 224.8 224.9
278.4 281.5 284.8 287.3 289.4 290.3 290.5 290.2 290.1 289.7 288.9 287.3 285.5 283.6 281.7 279.8 277.6 275.1 272.3 269.6 267 264.8 262.8 260.9 258.2 255.7 253.2 250.1 246.4 242.2 237.7 233.4 228 221.7 209.3 186.5 165.9 163.2 164.4 164.9 178.8 202.4 217.4 224.9 227.9 230 233.1 235.9 238.4 240.6 242.8 245 246.9 247.2 247.3 247.1 246.5 245.9 244.7 244.2 244.8 245.5 246.3 246.9 247.4 247.2 246.5 245.8 244.8 242.7 239.8 235.9 231 226.2 219.6 213.1 204.7 192.3 169.9 173.2 180.7 187 191.8 197 202.7 208.9 216.2 223.2 229.8 234.1 239.3 244.9 251.2 257.5 264.9 270.4 276.4 279.3 280.8 282.1 282.9 282.2 283.3 284.2 286.1 287.9 289.7 291.2 292 291.9 291.3 289.7 287.6 285.1 282.1 278.7 275.2 270.4 263.7 257 253.9 255.9 256.7 255.9 253.7 250.1 244.5 239.8 235.5 231.6 227.3 225 220.5 216.6 213.3 210.8 210.3 209.3 208.8 208.5 211.3 212.8 214.9 216.9 219.9 222 221 220.9 221.1 218.1 217.5 213.2 205.9 203 200.2 200.1 200.8 200 200.3 197.3 196.4 196.4 197.2 196.9 198.2 199.2 200 198.9 198.2 195.2 192.3 188.4 182.1 177.2 172.9 168.3 164.2 160.2 156.4 153.7 155.8 163.8 168.2 173.8 177.8 182.7 190.9 200.3 206.3 212.2 217.2 222 224.7 225.9 226.8 227.1 226.3 225.4 224 223.7
276.3 279.7 283 285.6 287.5 288.6 288.9 289.4 289.7 289.7 288.7 286.8 284.8 282.8 280.8 278.9 277 274.7 272.3 270.1 267.7 265.8 263.6 261 258.1 255.7 253 249.8 246.1 242 237.6 233.1 227 218.8 205.1 182.1 162.7 166.4 168.9 172.5 196.5 208.6 217.1 223.6 226.3 229.3 232.5 235.6 238.4 240.7 243 244.6 244.5 244.2 244.2 244.1 243.3 242.4 241.3 240.8 240.8 242 242.7 243.4 244.3 244.2 243.9 243.6 242.4 239.6 236.7 232.1 226.4 221 214.8 208.1 201.2 193 170.7 171 177.7 184.9 190.1 196.5 201.3 206 212.1 217.6 222.8 228.1 234.2 240.2 247.8 255.6 263 268 273.3 275.9 277.4 277.4 274.3 278.6 280.3 281.7 285.3 287.6 290.1 291.4 292.3 291.8 290.6 289.1 286.4 283.5 280 276.5 272.9 267.8 264 257.2 251.3 248.9 250 250.2 249.1 244.7 239.9 236.6 233.2 229.4 224.8 221.8 217.6 214.5 212.9 211.8 210.3 209.6 211 212.8 214.5 216.4 219.2 222.7 224.8 225.2 224.8 224.3 223.7 221 218.9 213.2 206.2 203 202.5 202.2 201.9 202.2 201.3 200.7 202.1 202.6 203.1 207.2 208.2 210 209.5 208.8 206.8 204.2 201.6 196.1 190 184.4 177.4 171.8 165.6 161.7 157.9 153.6 153 160.4 168.6 174.9 180.4 185.9 193.2 200.9 205.8 211.9 216.6 221.1 223.2 224.5 225.5 226.3 226.7 226 223.9 220.1
273.7 277.5 280.8 283.4 285.3 286.5 287.2 287.8 288.6 288.6 287.9 286.2 284.1 282 279.9 277.8 275.5 273.8 271.6 269.3 267.4 265.5 263.1 260.2 257.4 254.8 251.7 248.6 245.4 241.6 237.2 232.7 225 216.4 202.6 179.9 162.7 164.8 168.9 184 200.7 208.7 215.8 220.6 224.5 227.9 231.1 234.3 237.5 240.9 243.5 243.7 242.9 241.9 241.7 240.7 239.8 238.9 237.9 237.4 237.9 239 240.1 241 241.5 241.7 241.7 241.1 239.3 236 232.1 227.7 221.8 215.9 209.6 204.5 199.7 190.1 172.8 167.7 172.6 178.5 184.6 191.4 198.4 203.6 207.1 212.5 218 225 230.7 234.5 242.8 251.4 258.9 263.9 266.4 268.4 265.5 263.8 265.8 271.3 276.8 281.5 285 288.1 290.5 291.9 292.5 292.2 291 289.1 286.7 283.6 279.9 275.5 270.8 266.1 261.8 259.4 251.1 247.6 243.8 243.5 243 239.6 236.9 233.3 230.1 227.1 222.9 218.5 215.1 213.1 212.6 212 210.6 213 215.4 217.9 220.2 222.9 225.7 227.7 228.3 228.1 227.6 226.9 225.3 222.8 219.3 211.9 206.2 203.6 204.1 204.7 204.6 204.6 206.4 207.3 208.7 209.6 212.8 215.2 216.7 217.4 215.5 215.1 213 210.6 207.9 202.1 195.3 189 184 175.6 165.9 160.5 157.5 152.5 151.6 162 169.5 175.3 181.4 186.5 193.3 200.4 206.6 212.4 216.8 219.8 221.4 222.6 223.7 226.2 227.1 225.6 223 218.8
271.4 275 278.2 280.8 282.6 283.9 285.2 286.1 286.9 286.9 286.1 284.7 282.2 280.2 278.1 275.6 273.8 272.1 270.2 267.8 266.1 264.2 261.7 258.8 255.7 253.2 250.2 247 243.9 239.8 235.6 231.9 225.1 214.9 201.2 178.5 163.4 161.5 162.1 181.7 197.2 205.5 213.6 219.2 223.1 226.5 229.4 232.4 236.1 240.3 242.9 243.1 241 239.8 238.4 237.2 236.3 235.3 234 233.9 234.9 236.2 237.5 238.6 239 239.4 239.3 238 235.9 231.6 227.2 221.5 215.3 208.8 205.1 201.4 196.7 188.1 174.9 165.1 172.2 172.3 176.3 179.5 181.5 188 194.7 202.9 211.6 220 225.7 231.3 233.5 238.2 244 246.7 247.5 246 248.7 255.2 263.6 273.2 278 282.7 286.7 289.1 291.1 292.9 293.2 293.1 292.5 290.6 288.3 285.4 282.5 277.8 272.9 267 261.7 255.3 250.3 245.6 241.2 238.2 235.8 234.6 232.5 229.5 227.1 224.4 220.7 217.3 215.4 215.4 212.8 211.9 213.3 215.7 219 222.9 225.4 228.2 229.6 230.4 230.8 230.1 228.7 227.5 225.5 222.4 217 209.9 207.8 207.5 207.6 208.8 209 209.9 210.9 212.9 215.8 219 220.6 221.3 221.8 222.4 221.6 219.9 218.1 215.1 212.1 205.9 198.2 193 184.6 176.7 165.1 160 157.2 152 149.5 159.4 169.4 174 181.8 186.4 192.6 199.8 206.2 211 214.8 217.6 220 220.1 222 223.3 224.2 224 221.8 218.3
269.1 272.5 275.6 278.2 279.8 281.2 282.5 284.2 284.4 284.6 283.5 282.5 280.3 278.3 276.2 273.8 271.8 269.7 267.2 265.2 263.6 261.4 259.3 256.4 253.4 250.3 247.5 244.4 241.6 237.8 233.4 229.9 221.7 213.3 199.9 179.8 165.2 162.8 161.5 174.9 190 203.3 211.3 218.2 222.8 225.5 226.8 229.2 233.4 238.3 239.5 238.6 237.5 235.5 234.8 233.7 232.7 231.6 230.8 231.2 232.3 233.5 234.9 236.3 236.9 237.4 236.3 234.6 231.3 227.5 221.6 212 197.6 196.8 200.9 198.8 194.3 187.5 176.2 165.6 176.2 182.3 184.7 189.4 192.2 194 195.4 196.2 200.2 209.7 210.1 209.7 214.6 219.4 226 229.2 234.1 241.6 252.7 263.4 269 274.1 279.3 283.8 287.6 290.6 292.8 294.3 294.6 294.2 293.8 292.7 291.3 289.8 285.9 280.1 274.8 269.6 263.5 257.2 251.1 244.4 240.3 235.8 231.9 230.9 228.7 226 224.6 222.5 219.8 217.4 214.5 214.2 212.8 213.2 215.3 218.1 222 226.6 229.6 231.1 232.3 233.2 233 232.1 230 227.9 225.1 221.1 214.7 211.2 209.5 210.4 212.3 214.6 215.1 216 217.4 219.9 223.6 224.6 226.4 226 226.9 228 226.6 224.2 221.6 217.9 213.9 207.2 200.4 193 185.1 174.2 164.6 161.1 157.6 150.3 150.4 153.1 167 173.4 180.3 186.6 193.3 199.8 204.7 208.8 211.9 214.2 215.9 217.7 220 222 222.2 221.8 219.7 216.7
266.8 270.5 273.4 275.8 277.1 278.5 279.9 281.3 281.8 282.1 281.3 280.1 278.4 276.3 274.2 271.5 269.2 267 264.3 262.4 260.5 258.3 255.5 253 250.3 247.7 243.6 241.4 238.5 234.1 230.5 225.8 218.6 211.5 200.1 179.2 165.5 163.6 160.3 164.9 180.1 198.7 208.6 216.3 221.8 222.5 223.7 226 228.3 232.1 233.7 233.1 231.9 231.3 231.1 230.3 229.6 228.3 226.9 228.1 229.4 231.2 233 234.4 235.3 235 233.2 230.8 228.2 223.3 209 192.9 181.6 178 183.5 189.6 188.8 185.7 165.3 167.5 173.4 181.1 185.6 191.7 195.2 197.9 200 201.3 202.7 205.8 209.8 215.2 219.1 223.2 227.2 232.4 240 247.2 255.2 263.5 269.1 274.4 279.9 284.8 288.9 292 294.8 296.1 296.6 296.2 295.1 294.4 293.8 292.2 289.3 284.7 277.8 272 265.5 259.8 254.2 248.2 243.4 238.6 235.3 232.4 229.2 226.4 223.9 220.9 219.5 217.3 215.3 214.5 214.2 214.2 216.8 218.9 224.9 229.3 231.9 233.2 234.2 234.6 234.1 233.2 230.8 227.6 223.8 219.6 215.5 214.2 212.6 215.9 218.7 219.7 219.8 221 224.8 227 228.3 229 230.6 231 231.7 231.5 229.6 227.2 224.7 220.9 214.7 208 201.7 194.3 184.4 172.1 165.2 160.1 156.1 149.6 149.4 157.3 164.1 169.1 178.4 186.8 193.5 198.9 202.9 206 208.6 210.6 213.9 217.2 220.1 221.3 221.4 220.3 217.3 214.6
263.8 267.8 271.1 273.8 275.5 277 278.1 278.8 279.5 279.7 279.2 278 276.3 274.3 272 268.7 266 263.2 261.2 259.7 256.6 254.4 251.8 249.3 246.9 244.4 242.9 239.8 234.7 230.1 226.4 220.7 214.5 205.9 196 180.4 170.4 164.6 161.6 160.2 171.4 188.7 202.9 211 215.8 218.8 219.1 221.1 223.7 225.4 226.9 227.1 227.5 228.7 228.2 228.4 228 226.5 223.1 224.5 227.3 229.4 231.3 232.6 233 232.7 231 228.7 225.8 217.4 201.4 187.1 179.3 172.9 170.3 171.7 181.2 173.7 163.5 174.1 178.1 181.1 186.6 193.7 198.9 203.7 209.1 212.4 211.5 212.7 217.9 225.2 229.1 231.9 235.5 241.3 247.2 253.1 258.7 264.5 269.9 275.7 281.1 286.1 290.2 293.5 296.6 298.1 298.2 297.5 296.3 295.7 294.4 292.8 289.7 285.8 281.3 275 268.3 262.3 256.7 250.5 245.2 241.8 240.6 237.9 233.3 228 223.8 220.6 219 217.3 216.7 215.1 215.7 215.5 219.4 221.2 223.6 230.6 232.8 234.5 235.3 235.6 234.9 233.6 230.7 227.3 223.4 221.2 217.6 216.3 216.5 220.3 222.2 223 225.9 228.7 230.7 232 232.2 232.7 234 235.4 235.1 234.5 231.3 229.4 227 222.7 215.7 209.4 202.2 195.1 181.7 173 166.8 162.2 156.8 149.3 147.8 153.7 161.2 166.7 175.5 182.7 190.1 194.7 197.6 197.5 202.9 211.3 215.1 218.7 221.1 221.2 220.8 219.3 216.7 213.4
258.8 264.8 269.2 272.6 274.3 275.4 276.5 277.2 277.8 277.6 276.7 275.8 274.3 272.5 270.2 267.4 263.6 259 254.2 249.8 252.1 249.8 247.8 245.6 243.3 241.5 237.3 234.1 228.9 225.6 220.8 213.9 208 200.6 190.5 186.4 176.2 167.9 163.1 160.4 159.7 177.3 194.1 204.4 209.6 212.5 214.2 216.8 219.2 220.2 221.4 222.3 224.4 225.4 225.9 226.9 227.1 224.6 219.6 221.2 225.3 227.7 229.5 230.6 230.9 230.5 228.7 227.2 224.5 219.1 209 203.1 196.1 180.2 168.7 167.2 169.4 161.3 166.7 174.1 176.8 180.9 188.4 196.2 204.3 211.3 216.7 220.5 222.3 224.1 226.8 229.7 232.7 236.4 240.8 245.5 250.6 255.8 261.2 266.3 271.5 276.7 282 287.2 291.3 294.8 297.5 299.2 299.2 298.8 297.6 296.2 294.5 292.7 289.8 286.5 281.9 277.4 271.6 265.4 260.9 257.1 252.1 247.3 243.8 238.7 233.7 228.7 226.5 221.3 219.6 217.7 217.6 217.3 218.6 218.7 219.6 220.7 223.9 226.6 232.9 235.3 236.1 236.3 235.8 234.5 232.1 228.7 225.5 222.6 220.7 218.9 220.2 222.1 224.4 228.1 230.9 234.3 236.1 236.2 236.6 237.2 238.2 238.6 238.2 236.1 233.3 231 228 222.8 216.3 210.6 203.4 194.6 179.7 174.3 170.2 166.7 161.3 152.7 147.7 147 152.5 160.1 164.7 172.7 181.6 181.2 188.8 198.8 204.8 210.5 214.5 217.3 218.6 219 219 217.8 216 213.1
258.8 265.2 269.3 271.8 273.6 274.6 275.5 276.3 277 277.5 276.4 275.2 273.2 271.1 268.8 266.3 262.5 258.4 253.2 245.3 244.1 244.4 242 240.5 238.1 233.4 231.8 225.5 222.4 217.8 213.4 207.5 201.6 194.7 189.8 190 185.6 171.3 164.9 162.4 160.1 164.7 180.2 196.7 202.7 207.8 210.9 213.1 214.5 215.1 216.8 218.9 221 222.7 224.7 225.9 224.8 218 213.9 219.5 223.5 225.5 226.8 227.5 228.5 227.5 227.1 226 224.2 222.1 219.4 215.4 208.3 192.3 172 164.8 162.3 162.1 169 172.7 175 180.9 190.4 201.5 210.2 215.6 219.3 220.9 222.3 224.6 227 230.5 234 237.4 241.8 246.4 251.5 256.7 261.9 267.2 272.5 277.5 283.1 288 292.5 295.6 298.2 300.1 300.9 299.7 298.3 296.3 294.4 292.6 290.2 286.9 283.4 279.9 274.9 271.1 266 262.4 258.3 251.9 245.9 239.3 233.9 228.8 223.5 222.1 220.8 220.3 220.8 220.8 222.8 226.3 227.3 224 225.9 228.9 232.4 235.7 237.2 237.7 236.8 236.2 233.5 230.4 227 224.4 223.2 222.5 223.5 224.9 228.7 234.4 237.5 239.4 240.5 240.9 241.1 241 240.9 241.1 240.8 237.7 234.7 232.2 228.5 223.1 216.4 211.4 204.1 193.7 181.2 177 173.9 171.9 169.7 157.7 147.8 146.5 145.8 151.1 158.2 162.6 168.6 179.3 192.7 197.7 202.3 208.1 212.1 214.9 215.6 216.2 216.6 215.6 214.5 211.8
263.9 267.2 268.7 271.4 273.3 274.1 275.5 276.5 277.1 277.2 276.3 274.9 273 271.1 268.1 264.9 261.7 259.1 255.5 250.5 236.6 236.2 233.4 233 225.7 219.7 214.5 210.3 206.5 202.2 197.7 189.9 184.4 181.5 177.8 173.8 170.8 168.3 165.7 163.8 160.4 159.3 165.8 182.1 196.5 202.1 205.4 208.2 210.3 212.2 213.4 215.8 217.5 221.1 223.1 222.4 218.3 205.6 207.6 218.3 220.7 222.9 223.6 224.4 224.9 225 225.8 225.7 225.5 224.4 222.6 218.9 214.1 205.5 186.7 167.1 160.9 163.2 168.3 171.9 175.3 182.6 193.8 205.6 212.6 216.4 217.6 218.6 220.5 222.6 225.6 229.9 233.5 238.4 242.6 247.3 252.8 257.2 263.1 268.4 273.1 278.3 284 288.7 293 296.2 299 300.7 301.1 299.8 298.1 296.2 294.3 292.3 290 287.5 284.3 281.2 277.7 274.1 270.5 267.5 264.5 255.5 246.7 239.1 234.3 227.8 225.8 223.6 224.5 224.3 224.5 226.8 230.5 233.3 234.4 232.4 229.2 231.1 233.9 236.4 238.3 238.8 238.7 238.1 235.2 232.7 230.2 226.5 224.9 224.9 226.2 231.8 235.4 238.9 241.6 243.2 244.2 244.6 245 244 243.8 243.6 242.5 239.2 236.1 232.8 228.3 221.1 216.1 211.3 204.3 195.1 184.7 181.7 179.6 178.1 176.9 170.3 157.2 147.4 145.4 144.8 147.6 156 161.5 170.3 179.5 191.2 198.8 204.8 209.4 211.3 212.6 213.5 213.9 213.3 212.8 211.4
266.3 269.6 271.5 272.6 273.7 274.6 275.8 276.6 276.9 276.7 276 274.5 272.7 270.5 267.4 264.3 261.1 258.4 255.1 251 245.1 236.3 224.2 219.6 217.3 216 215.3 207.2 199.6 194.2 191.5 190.8 188.9 184.4 179.2 176.4 174.1 171 168.8 166 162.3 159.5 157.9 167.5 181 192.2 198.7 203.1 206.7 209.7 211.3 213.1 214.5 216.3 218.7 217.4 213.1 199.6 210.2 214.9 217.4 219.5 219.9 220.6 221.3 222.5 224.7 225.9 226.3 225.6 225.4 222.2 219.6 215.5 197.5 171.6 160.4 164.4 169.6 171.4 175.3 184.2 197.4 208.3 212.1 211.6 209.9 209.2 210.5 213.2 218 228.9 234.2 239.1 243.9 248.8 253.4 258.6 264 269.4 274.5 280 284.9 289.7 293.7 297.1 299 300.5 299.9 298.6 297 295.3 293.7 291.9 289.7 287.4 284.5 281.6 279.2 275.7 273.4 271.3 267.7 256.6 245.8 238.9 233.7 227.9 226.2 227 226.4 228.3 230.9 235.1 237.7 238.7 237.9 235.9 232.5 235.7 237.9 238.7 240.3 241.2 241.2 240.1 237.8 234.9 232.3 229.4 227.8 228.4 232 236.5 239.7 242.5 245 246.6 247.4 248.1 248.5 247.5 245.6 244.8 243.5 240.4 236.7 233.4 227.3 218.6 214 210.2 204 196.3 189.4 186.5 184.3 183.8 183.2 180.4 173.1 155.9 148.6 143.8 141.8 145.4 155.9 159.6 165 180 192.5 200.8 205.6 208.1 208.9 209.4 210.6 211.5 211.2 211
268.7 270.5 271.7 272.5 273.4 274.4 275.4 275.9 276.1 275.9 275 273.2 271.2 269.5 266.7 263.7 260.7 257.6 254.2 251.3 248.1 243.2 236 230.6 229.9 229.8 228.2 224.1 221.6 216.8 215.1 213 209.8 201.9 192.9 188.3 184 179.5 174.8 169.2 164.9 162 160.8 158.2 163.7 176.1 188.8 198.6 204.8 208.6 210 211.4 210.8 210.9 211.7 210.3 207.3 193.3 196.5 210.8 212.5 214.2 215.5 216.6 218.9 222.2 224.5 226.1 227.4 227.5 227.5 225.3 223.2 220.5 195.4 167.6 160.9 164.8 169.4 170.5 175.3 184.6 194.9 200.4 196.1 194.4 188.9 189.4 197.4 206 215.9 227.8 234.2 239.3 244.3 249 254.8 260.1 265.8 271.8 277.4 282.7 287.3 291.9 295.4 298 299.5 299.4 298.8 297.5 295.7 294.1 292.4 290.5 289 287 284.4 281.6 279.1 276.5 274.6 272.6 265.3 255.5 246.2 238.6 230.9 229.6 230.1 229.9 230.8 234.4 238.8 242.3 243.3 243.5 241.4 237.9 236.5 241 241.7 242.7 244 244.7 244 242.5 240 237.5 234.3 231.8 232.6 233.3 236.3 239.3 242 244.7 247.2 249 249.8 250.5 251 250.9 249.4 246.6 244.5 242.1 237.8 233.2 226.4 219.3 213.4 208.9 205.5 199.1 193.4 190.5 189.5 189.2 187.6 184.1 175 158.3 152.9 149.7 144.2 140.8 144.8 154 158.1 163.2 178.9 194 199.9 203.4 204 205.3 206.6 208.6 209.6 209.3
269.2 271 271.7 272.5 273.4 274.3 274.9 275 274.8 274.2 273 271.2 269.5 268.1 265.6 262.5 259.1 255.9 253.3 251.4 248.2 245.5 241.1 238.1 238.1 236.9 236.1 235.6 235.5 235.1 234.2 230.6 225.2 217.7 209.2 202.4 196.1 187.9 180.1 173.6 167 164.3 160.2 159.2 158.4 161.9 170.4 185.7 196.2 208.2 208.8 207.7 207.1 207 206.4 205.3 202.9 190.6 190.8 206.3 206.2 208.8 211.1 214.1 218.3 221.8 224.4 226.7 228.2 228.4 229.1 229.7 228.3 215.7 191.3 163.8 159.1 163.5 168.4 169.8 175.5 182.8 186.1 182.4 179.5 182.2 186.4 191.5 199.7 207.5 217.9 228.8 234.7 240 244.9 250.2 256.9 262.1 268.8 275.2 280.7 285.6 290.3 294.3 297.3 299.2 300 298.5 297.7 296.3 294.5 292.8 290.6 289 287.5 285.6 283.3 281.1 278.5 276.5 274.3 272.2 262.7 252.8 243.3 234.7 232.2 234.1 233.8 234.2 237.3 242.3 246.5 248.3 248.6 247.5 243.7 241.4 245.2 246.9 247.4 247.7 248 248.3 247.4 245.8 243.3 239.4 237.1 236.1 236.8 237.4 239.7 241.4 244.1 246.8 248.7 250.2 251.8 252.6 252.5 252.9 251.1 248.4 244.7 242.5 237.1 232.4 226 220.3 214.1 208.4 205 200.6 195.5 192.8 191.5 189.7 185.8 176.8 169.5 160.4 154 150.1 146.6 143.1 141.5 149.4 153.1 156.4 163.3 176.3 191.8 197.9 198.1 199.6 203.4 206 209.9 211.7
270.1 270.9 271.7 272.5 273 273.2 273.4 273.1 272.6 271.4 270.3 269.1 267.8 266.3 264 259 256.3 254.1 252.2 250.8 248.6 246.2 244.8 243.2 243.2 243.6 245.8 247.2 248 248.6 248.3 245.2 238.9 230.7 223 215.5 208.1 199.2 187.6 175.4 169.6 165.6 161.9 161.2 159.8 156.5 158.3 170.9 186 195.7 199.5 201.1 202.9 202.6 202.3 202.1 200.9 184.7 182 198.6 201.4 203.5 208.3 213.4 217.8 221.5 224.7 226.6 227.4 228.2 230.7 230.6 228.2 212.8 187.7 164.6 157.2 161.8 167.1 170.4 176.6 175.6 173.3 172.7 176.7 181.9 188.9 197.3 207.2 216.7 224.7 229.9 235.7 241 246.5 252.8 259.5 265.4 272.9 279.1 283.8 289.4 294.3 298.3 299.8 300.8 300.1 298 296.7 295.1 293 290.8 288.6 286.9 285.2 283 281.1 279.2 277.4 275.5 272.6 265.1 256.8 247.1 238 234.9 238.2 238.1 239.1 242.5 246.2 250 253.1 254.1 253.5 251.8 247.9 249.6 251.8 252.1 252.7 252.8 252.2 251.6 251.1 249.1 245.6 242.2 239.9 240.5 241.3 241.7 242.4 243.8 246.2 248.2 249.7 251 252.4 252.7 252.5 252.5 250.7 248.8 244.8 240.5 235 231.7 226.1 219.8 213.3 207.5 203.7 200.1 195.7 192.4 186.3 178.1 166.5 159.8 157.1 153.7 148.6 147.2 147.3 145.6 142.4 140.5 146.3 150.1 153.6 160 170.9 188.7 182.4 191.1 200.5 205.7 209.9 212
269.6 270.3 271.1 271.5 271.7 271.4 271.1 270.7 269.3 267.9 266.8 266.1 265.3 263.3 258.3 255.3 252.9 251.8 250.4 249.5 248.7 247.6 247.1 247 248.7 250.6 254 258 259.9 259.6 257.8 254.8 248.1 240.9 233.3 225.2 218.2 210.2 198.5 184 172.4 166.9 164.5 163.2 161.3 159.3 156.7 157.1 167.4 174.3 181 187 191.4 196.5 198.8 199 195.3 180.5 179.3 191.8 195.6 201.6 206.9 212 217 220.9 223.3 225 227.2 229.4 231.7 230.7 225.7 214.8 188.7 164.3 158.4 157.1 165 168.5 165.3 166.7 168.6 172.7 178.1 185.6 192.9 201.9 210.7 218.5 226.3 232.1 238.1 243.7 249.1 256.7 263 270.2 278.8 284.3 289.9 295.2 299.6 303.1 303.2 302.1 300.7 298.6 295.9 293.1 290.8 288.5 286.2 283.8 281.9 279.5 277.7 276.2 274.8 272.6 266.4 257 249.4 240.1 238.1 241.7 243.2 244 246.2 250.1 253.4 255.8 258 258.8 257.9 256.6 251.8 254.9 256.5 257 257.2 256.8 256.1 255 253.9 251.6 248.4 245.4 244.3 245 245.5 245.5 245.8 245.1 247.7 249.2 250 251.1 252.1 251.7 251.2 250.5 248.8 246.4 242.7 237 234.1 229.1 221.5 214.4 208.8 204 200 195.8 185.7 175.7 168.5 163.7 161 157.9 153.8 154.9 153.7 151.4 148.7 146.4 144.8 141.5 139.9 140.5 146.8 151.8 158.9 166.9 170.3 186.8 197.3 204.4 209.2 211.5
268.1 269.2 270 270.3 269.9 269.4 268.7 267.2 265.9 264.4 262.8 261.9 260 256.3 253.4 251.1 249.5 248.3 247.9 248.2 248 248.6 249.9 250.7 255.1 259.8 263.9 266.1 267.3 266.8 263 259.3 253.4 247.4 240.5 234.1 226.7 218.3 208.3 193.1 176.9 170.3 167 165.1 163.3 161.7 157.5 155.6 158.5 165.4 167 169.2 179.9 189.4 196.2 196 190.5 176.7 174.1 182.8 191.5 198.3 204 210.2 214.2 218.3 220.9 224 226.8 229 230.1 229.9 229.6 219.2 194.4 168.7 159.3 156.4 161.1 161.3 163.7 165.6 169.1 175.6 182.2 188.7 196 204.7 212.3 220.7 227.4 234.5 241.4 247.4 254.4 260.6 267.3 274.9 282.9 288.9 295 300.5 304.8 306.9 306.1 303.9 301.2 298.5 294.9 291.6 288.4 285.9 283.5 280.5 278.4 275.8 274.4 272.5 270.6 265.7 257.5 248.9 243.1 242.1 245.5 247.5 249.1 251 252.9 255.8 258.8 261.3 263.1 263.1 262.4 261.6 256.6 259.9 261 261.3 261.2 260.6 259.5 258.3 256.5 253.8 250.8 248.4 248.5 248.8 248.9 248.7 248.5 248.2 246.5 247.3 249.8 250.2 250.2 249.9 249 247.8 245.4 241.3 238.9 233 223.3 212.2 203.5 196 191.1 187.5 183.5 176.8 171.8 168.7 165 162.1 159.8 160.4 159.4 158.4 156.9 154.8 153.1 149.1 146.3 143.2 140.4 139.6 138.5 144.6 150.3 154.9 163.6 178.7 194.4 203.5 208.3 210.9
266.8 267.8 268.4 268.3 267.8 267.1 266.1 264.3 262.5 259.8 257.7 255.7 253.6 250.6 248.8 247 245.2 244.8 245.4 246.3 248.2 250 252.4 258.1 263.1 267.6 270.6 272.5 273.1 271.3 267.7 263 257.2 251.5 245.3 239.4 232.6 225.4 216.5 202.2 182.6 175 171 170 169.4 167.3 161.8 156.7 156.1 158.1 164.8 166.3 169.6 181.9 190.8 190.9 182.5 173 171.6 179.5 188.4 194.9 200.4 205.9 210.5 214.5 218.9 223.6 226.3 228.5 230.4 231.1 229.9 222.2 199.8 174.6 161.7 156.4 157.4 160.2 164.1 167.4 173.3 179.2 184.5 191.9 200.6 207.2 214.2 222.6 229.7 236.8 244.6 250.6 258.2 265.7 272.5 279.1 286.3 292 297.6 303.9 308.9 309.6 308.5 305.1 301.9 298.1 294.2 290.8 286.8 283.5 280.9 278 274.8 273.3 271.1 268.6 265.8 258.1 250.7 245.5 247.2 250.6 252.1 254.2 256.5 257.6 260.1 263.3 265.8 267.2 267.8 267.4 266.8 265.8 262.7 264.7 265 264.9 264.6 263.7 262.6 260.7 258.5 255.9 253.4 251.8 252 251.7 251.4 251.2 250.5 249.8 249.3 247.2 247.1 247.8 247.9 247.2 245.8 243.5 239.8 235.5 232.4 215.9 203.3 196 189.2 185.4 182.1 179.3 175.2 170.1 169 169.4 169.1 167.2 165.4 166.5 165.1 164.8 164.8 165.5 169.8 163.9 151.7 146 141.8 138.9 138.6 137.2 144.6 149 155.2 167.7 190.4 202.5 207.4 210.6
265.5 266.4 266.5 266.1 265.5 264.8 263.1 261.1 258.2 254.3 251.6 249.1 247.1 245.1 243.4 241.2 238 239.5 243 245.5 248.3 252.5 257.9 264.4 269.2 273 275.7 276.5 276.7 274.6 270 265.4 260.2 254.7 248.1 242 236.5 228.3 221.4 210.6 194.8 180 174.7 171.5 169.9 169.9 165.5 160.8 154.4 155.2 157.1 160.1 162.3 169.2 174.5 177.4 173.7 165.9 171.2 178.7 186.1 191.3 196.9 202 207 211.9 217.7 223.1 226.6 229.1 230.3 230.4 229.1 223.2 206.9 180.1 164.2 158.8 154.2 157.1 161.4 168.6 175.1 181.2 189.5 196.6 202.6 210.3 217.9 225 231.9 240.1 247.3 253.9 262.5 269.9 276.5 283 288.7 294 299.6 305.3 310.6 311.9 309.4 305.9 302 298 294.5 290 285.8 281.9 278.9 275.7 272.2 269.8 266.5 264.5 261.4 251.8 251 256 257.7 258.7 260.1 261.6 263.1 265 268.5 270.2 271.3 271.6 271.5 271 270.8 269.9 268.1 268.6 268.4 267.9 267.1 266.1 264.6 262.7 260.5 258.2 256.3 255.3 254.9 254.6 253.9 253.3 252 250.5 249.9 248.1 241.2 244.1 243.7 242.3 240.1 236.7 232.6 228.2 209.4 197.6 192 186.7 183.6 180.8 177.3 176.2 176.9 176.4 175.9 173.9 174 174.4 177.1 177.9 176.3 178.7 181.3 183.5 186.8 184.9 171.2 156 146.3 142.4 138.6 137.9 137 145.1 150.5 159.9 182 199.3 205.6 208.2
263.8 264.5 264.5 264.2 263.5 261.9 260 257 253.3 249.4 245.4 243.8 241.7 239.3 237 228.4 230 237.8 241.3 245.1 249.3 255.4 262.4 268.5 273.6 276.6 278.4 276.9 278.5 275.7 271.6 266.3 261.5 255.4 249.5 243.4 237.5 230.9 223.1 214.1 204.1 193.3 181.6 174.2 168.7 166.3 164.7 160.5 154.8 154 154.3 157.4 159 162 163.6 165.2 165.5 164.7 170.7 176.8 182.2 188.2 193.7 198.7 203.6 208.8 215.9 222 225.7 227.5 228.8 229.3 227.1 221.7 207 185.3 165.8 160.1 155.2 154 158.5 166.9 174.8 184 191.5 198 205 212.1 219.5 227 234.4 243.1 250.1 256.6 264.4 272.7 278.8 284.4 289.8 294.9 300.4 304.2 309.3 312.1 309.4 305.8 301.9 298.2 294.9 291.4 286.3 282.1 278.3 274.3 269.6 264.7 261 259.5 253.8 253.3 260.3 262.8 263.8 264.7 265.9 267.5 270.1 272.5 274.2 274.8 274.8 274.7 274.3 273.6 273.1 272.4 271.8 271.4 271 270.2 269.2 267.8 266 264.4 262.6 260.3 259.5 258.6 257.9 256.9 255.9 254.9 253.6 251.5 248.8 246.7 242 238.9 238.5 236.7 234.8 230.4 224.9 211.7 196.7 190.8 187.6 184.7 180.5 180.4 181.1 180.6 180.8 181 180.9 181.8 186.2 190.4 192.5 194 193.4 196.2 198.9 198.7 197.7 194.4 187.9 177.5 160.3 149.3 142.6 137.3 136.5 134.6 146 154.5 178.5 198.5 203.1 204.3
261.7 262.6 262.9 262.2 260.6 258.9 256.8 252.4 248.6 244.9 240.6 237.9 234.6 232.8 224.7 222.9 230.4 236.7 240.6 245.2 251.1 257.4 265.3 271.3 276.2 279.1 280.9 280.8 279.4 276.4 271.9 266.4 261.6 255 248.2 242.8 237.8 231 222.8 215.1 208.1 200.6 191.8 181.3 169.3 165.3 163.9 164.1 162.7 160.4 154.1 153.1 155.4 157.1 158.8 161 159.8 165.3 170.2 174.3 180.1 185.7 190.5 195.2 200.1 205.8 211.7 217.1 223 226.3 227.1 226.5 224.2 218.2 206.8 190.3 169.6 161.9 157.8 153 155.5 160.4 175.8 185.1 192.2 199.2 205.1 213.6 221.3 228.9 237 244.8 251.7 259.7 267.3 274.9 280.7 285.8 290.9 295.8 300.2 303.8 307.2 310.4 309.1 304.9 301.5 298.6 295.4 292.8 287.8 282.6 278.6 274.5 270.9 266.2 258 255.9 256.9 262.7 266.4 267.4 268.8 269.9 271.4 273.6 275.4 276.6 277.1 277.2 277.2 277.1 276.5 275.7 275.2 274.7 274.3 274 273.2 272.2 271.2 269.1 267.1 265.5 263.6 262.6 261.4 260.2 259.2 258.5 257.4 256.1 254.5 251.7 248.8 245.2 239.1 233.5 233.1 232.7 231.7 225.2 212.3 198.5 191.4 188.8 184.7 185 186.3 186.9 186.1 186.4 187 188.8 189.7 198.6 204.8 208.1 209.4 210 210 212 213 211.9 207.9 202.7 197.8 190.5 178.1 163.5 148.7 141.2 136 135.7 137 150.1 171.6 189.6 198.5 200
259.6 260.4 261 259.6 258.2 255.5 252.6 248.8 244.5 240.8 235.3 231.6 227.3 225 214.2 222.6 230.3 235.9 240.4 245.1 250.8 258.4 266.2 273 277.4 279.8 280.6 280.2 278.5 275.2 270.6 265.9 259.5 253.6 247.2 242 236.8 228.8 222.2 214.9 209.1 203.3 196 174.2 169.5 166.9 167.3 168.8 168.7 165.6 160.4 153.1 152.4 153.1 155.9 156.9 160.2 163.9 167.4 171.9 176 180.6 186.4 191.5 196.8 200.7 206.4 212.7 219.8 221.6 222 222.3 219.8 213.9 203.7 192.5 177 165.5 161 152.8 152.8 159.5 170.4 184 190.9 200.6 207 214.7 223.8 231 239.7 246.5 253.4 262.5 270.5 277.2 282 286.6 291.3 295.5 299.1 301.8 305 307.2 306.8 303.6 300.8 298 295.2 292.5 289.9 285.2 280.2 276.4 271.8 268.6 261.1 261.3 265.4 268.8 270.7 272.1 273.9 275.2 276.7 277.8 278.6 279.4 279.1 279 279.3 278.8 278.3 277.7 277.2 276.5 276.1 275.7 275.2 273.8 272 270.1 268.2 266.2 264.4 263.3 262.2 260.9 260.4 259.7 258.5 256.7 254.6 251.7 248.7 244.1 238.4 231.4 230.8 230 225.5 211.8 199.7 192.6 189.5 187.1 189.9 197 205.9 205.3 203.8 202.3 203.8 200.3 201.6 213.2 219.4 222.7 223.5 221.7 220.1 220.9 221.1 219.6 214.1 211.6 205.6 196.8 186.1 173.1 157.8 144.3 138.1 135.1 134.8 146.3 164.5 186.8 193.8 195
258.4 258.9 258.3 256.9 254.9 252 249.1 245.5 241.5 236.9 232.1 226.8 216.7 207.2 211.3 224.5 230 234.2 238.5 244.3 250.3 258.2 266.1 272.7 276.5 278.4 278.8 277.6 275.3 272 268.6 264.1 258.1 251.9 246.3 241 234.8 227.5 221 214.5 208.3 201.9 185.2 173.9 171.4 173.7 180.4 181.6 179.8 176 168.5 161.5 151.9 152.2 151.5 152.7 156.4 161.7 164.2 167.2 172.5 177 182.4 187.3 193.3 198.1 202.3 206.6 211.6 214.2 216 216.1 214.6 209.1 202.4 195.4 186.3 171.7 163.7 156.5 151.7 156.1 164.8 180.4 190 199.9 207.3 216.7 225.4 232.3 239.4 246.6 254.8 264.6 272.3 278.9 283.2 287.6 291.1 294 297.6 300 301.8 302.9 303 301.5 299.1 296.3 294 291.8 289.7 286.8 283.4 278.7 274.6 271 260.4 266.9 271.4 273.1 274.4 275.8 277.5 279 280.2 281.1 281.6 281.8 281.5 281.1 280.8 280.2 279.8 279.3 278.8 278.2 277.7 277.2 276 274.5 272.6 270.6 268.5 266.4 264.9 263.8 262.3 260.8 260.6 259.9 258.7 256.5 254.1 251.1 246.6 241.9 236.8 230.6 222.2 222.9 210.7 200.2 194.5 191.4 190.1 192.4 201.4 213.5 220.9 223 221.4 219.7 220.3 215.7 215.1 225.4 232.3 233.5 232.4 230.1 227.4 226.5 225.4 224.1 220.7 216.1 210.2 201 190.5 179.5 164.8 147.5 139.4 135.1 133.9 139.5 160.8 177 183.7 186
256.4 256.5 255.7 254.1 251.3 249 246 242 238.1 233.8 229.1 223 204.4 201.1 217.2 222.9 227.9 231.1 236.4 242.5 248.6 255.7 262.1 269.4 273.5 274.5 274.6 273.6 272.4 270 266.3 261.6 255.9 250.6 244.6 239 232.7 225.9 218.9 210.3 195.6 185.5 178.6 173.6 178.7 188.4 190.4 189.8 188.3 184.6 180.3 169.1 159.1 151.3 151.1 151.1 151.1 154.4 159 161.3 168.4 172.9 177.7 184.1 188.8 194.5 198.9 203 206.2 208 209.9 210.6 209.8 206.5 201.7 197.5 191.8 179.6 165.8 160.2 152 154 162.2 174.7 190.9 200.3 209.3 216.7 226 233.2 239.9 247.2 257 266.3 274.2 279.6 284.1 288.5 290.8 293.1 295.7 297.2 298.3 298.9 299.4 298.3 296.4 294.5 292.4 290.2 288.7 287.2 284.2 281.3 277.1 273.2 268.8 272 273.7 275.2 276.1 277.6 279.7 281.3 282.5 283.5 283.7 283.4 283 282.3 281.5 280.8 280.1 279.7 279.2 278.8 278.3 277.7 276.3 274.4 272.3 270.1 267.9 265.7 264.3 263.2 261.9 260.7 260.4 259.3 257.5 255.5 253.1 249.7 245.8 241 232.6 228.3 220.7 208.6 203.2 197.9 193.6 193.9 195.8 204.5 218.7 226.8 232.4 233.6 234.4 232.8 232.8 230 229.9 237.6 240.1 240.2 238.7 235.3 232.4 230.2 228.4 225.5 221.4 216.8 210 201.7 194.3 184.3 170.5 151.8 143.2 137.8 132.9 130.8 147.9 165.5 174.9 177.4
254 253.6 252.6 250.9 248.9 245.9 242.8 239.4 235.8 231.1 226.6 218.7 198.6 198.9 216.9 220.8 224.5 228.6 233.6 239.2 244.7 252 258.4 263.7 267.1 268.9 270.6 271 270 267.4 263.6 259 254 248.6 242.5 237 230.9 223.3 214.1 197.2 185.5 180.8 175.9 176.6 192.9 197.2 198 197.4 196.2 192.9 185.7 174.8 166.1 157.3 153.6 151.2 150.5 150 151.1 155.6 159.9 166.3 173.9 179.7 185 190.6 195.8 199.6 202.5 204.9 206.4 206.9 206 204.3 201.1 198.2 194.8 185.1 166.2 160 150.9 152.8 163.3 176.3 191.6 201.5 210.7 218.9 227.1 235.7 242.5 248.2 256.2 266.1 274.4 279.3 283.7 288.1 290.2 291.7 293 293.8 294.8 295.4 295.5 295 293.5 292.1 289.9 288.3 287.9 286.2 284.1 281.7 279.1 275.2 273.8 274.6 275.8 276.7 277.7 279.5 281.4 282.8 283.9 284.7 284.7 284.2 283.3 282.4 281.2 280.7 280.3 280 279.5 279.2 278.4 277.4 275.8 273.9 272 269.6 267.3 265.9 263.2 262.2 261.1 259.8 259.4 258.2 256.2 254.1 251.4 247.7 243.7 238.1 232.1 225.5 213.5 205.2 201.5 195.5 198.2 199.3 205.2 215.7 231.3 236.4 239.7 241.8 243.4 243.8 243.3 239.5 243.2 246 246.3 243.9 241.7 238.7 235.1 232.2 229.6 226.1 220.2 215.5 208.7 201.6 195.8 183.8 169.1 151.1 144.9 139.9 133.7 131.9 140.3 157.5 165.2 169.1
250.8 250.2 249.3 247.6 245.5 242.9 239.4 235.5 232 228.1 223.8 217.6 195.2 190.6 213.7 217.7 220.6 224.2 228.5 235.9 241 248.9 254.2 259.9 263.6 266.8 268.1 268.8 267.8 264.7 261.2 256.6 251.2 245.7 240.6 235.4 229.8 220.4 205 191.6 190 193.5 194.9 183.1 196.8 202.1 203.9 202.7 202.3 199.1 191.9 185.6 177.9 167.9 158.6 152.4 151 148.8 149.1 148.8 147.1 157.5 165.4 173.1 178.4 184 189 194.6 198.8 201.6 203.7 203.7 202.6 202.2 200.5 198.4 195.3 186.9 164.8 154.8 149.5 152.3 164.2 177.7 191.2 203.3 213.3 221.1 230.5 238.7 244.1 249.5 256.3 263.9 273.4 278.3 282.2 285.8 287.6 288.9 290.1 290.6 291.3 291.8 292.1 291.8 290.5 289.3 287.4 286.7 286.8 285.5 284 281.7 280.1 278.1 276.8 276.3 276.7 277.6 279.2 280.5 282 283.3 284.2 284.3 284.3 283.7 282.5 281.2 280.3 279.8 279.6 279.5 279.3 278.8 277.7 276.5 274.5 272.7 271 268.7 266.6 265.1 262.4 261.3 260.2 258.4 257 256.1 254 251.5 249 246.2 241.7 235.9 230.5 220.3 205.8 202.9 198.4 199.3 200.7 204.4 216.5 229.6 236.8 241.7 245.4 248.5 250.5 250.5 249.5 247.4 249.3 250.1 249.1 247.4 245 242.1 237.5 233.6 230.1 224 217.4 212.3 207.5 200.5 192.3 172.8 158.4 150.3 145.9 141.8 135.6 131.3 132.1 147.8 157.9 163.2
247.1 246.8 245.9 244.4 242.2 239.2 235.5 231.5 228.7 225.1 222.2 216.5 193.9 178.9 205.8 214 216 218.9 224.4 230.4 237.6 244.8 251 257.2 262 265 265.9 265.2 264.2 262.3 258.6 253.4 247.8 242.7 238.7 234.1 229.3 216.3 211.9 212.7 211.1 210.1 206.5 197.8 198.3 205.8 207.3 207.1 205.5 201.9 199 194.4 188.7 182.3 172.2 162.3 154.9 150 150.9 148.6 148.2 147.3 150.5 159.1 165.2 171.8 179 186.5 192 197.1 201.2 200.1 199.7 199.4 199 197 192.8 179.4 161.8 152.7 148.7 150.9 165.4 180.4 193.5 205.4 215.3 225.9 235 241.4 245.8 251.1 255.9 262.5 270.9 276.2 279.5 282.5 284.4 285.2 286.2 287.4 288 288.2 288.6 288.7 287.8 286.6 285.6 285.1 285.2 284.9 283.8 282 280.4 278.8 277.6 277 277.2 278 279.2 280.4 281.5 282.7 283.1 283.2 283.2 282.5 281.2 280.3 279.5 278.8 278.7 278.7 278.4 277.7 276.8 274.9 273.2 271.8 269.9 267.9 265.4 263.8 261.9 260.4 258.3 257 255.1 253.9 251.6 248.5 245.7 242.6 237.5 233.3 226.1 212.1 203.7 202.8 204.5 203.6 204.8 209.8 223.4 233.5 239.9 244.6 249.6 253 255.4 255.4 254.2 253 253.3 252.7 251.5 249.3 246.8 243.7 240 234 228.8 223.1 217.8 210.7 204.1 191.7 174.1 162.6 156.9 151.1 146.2 142.7 137.2 131.2 130.8 143.7 154.6 156
243.2 243.1 242.6 241.3 238.8 235.4 232 228.1 225.1 222 219.4 215.9 191.7 172.6 196.9 208.1 208.2 212.2 218.2 225.1 233.2 243 250.8 256.7 262 263.4 263.3 261.3 260.1 257.4 252.7 248 244.4 240.3 237 233.5 227.1 222.9 221.6 220.3 218 216.2 213.9 208.6 200.7 209.3 210.6 210.4 208.5 206.3 204 201.1 197.5 192 184.3 173 162.2 154.5 153.1 151.4 148.6 148 147.2 146.1 152.7 157.9 165.7 173.4 181.5 185.8 189.5 191.6 193.4 194.4 195.6 194.3 190.7 175.3 158.9 147.8 148.5 152.2 168.7 181.7 194.3 207.3 218.8 230.4 239.5 244.6 247.4 251.7 255.6 260.8 267 272.3 275.9 279.1 280.3 281.7 282.7 283.7 283.9 284.3 285 285.1 284.9 283.8 283.2 282.9 283.5 283.7 282.7 281.6 280.1 279.1 277.2 275.9 276.6 276.9 277.9 279.7 280.7 281.4 281.8 281.7 281.3 280.6 279.8 279 278.2 277.5 277.3 277.4 276.8 276 275.2 273.8 272 270.4 268.6 267 264.5 262.5 260.9 259.7 257.7 254.7 252.5 251.3 249 245.8 242.3 240.8 231.1 226 215.6 209.2 207.4 208.2 210.4 211.2 209.5 212.4 226.3 235 241.1 245.6 250.9 256.5 258 258.1 257.9 256.8 256.2 255.5 253.6 251.3 247.9 244.4 240.2 235.2 228.2 223.2 216.8 208.8 193.4 180.9 170.3 164.5 159.9 154.3 148.4 144.1 138.6 131.7 129.2 139.7 147.8 150.9
240.2 239.9 239.3 238.4 236.2 232.6 228.9 224.3 221.6 218.4 215.9 213.3 193.1 167.3 184 196.8 198.9 200 205.7 219.2 234.5 243.8 252.3 257.7 260.3 260.1 258.9 256.2 254.2 250.3 246.9 243.6 241.2 239 235.9 233.4 229.2 227.8 225.7 224.3 222.7 220.7 218.5 214.4 204.5 212.4 213.8 213 211.4 210.7 209.3 207 202.9 199.1 193.1 182.7 171.9 162.4 156.6 152.4 152.3 150.7 149 147.3 144.3 145.7 150.2 157.1 164 170 176.7 181.2 183.2 187.1 190.8 192.1 190 166.3 155.4 147.4 148.5 154.2 169.6 182.1 196.1 210 221.8 233.1 241.6 243.9 247.2 250.6 254.3 258.6 263.4 269 272.9 275.6 277.6 278.6 279.3 279.8 279.7 280.2 280.8 281.3 280.6 281.1 280.8 280.6 281.5 281.9 281.4 280.5 279.5 278.6 277.5 275.2 275.8 275.9 276.8 277.7 278.8 279.5 279.8 279.3 278.9 278.2 277.6 277.1 276.5 276 275.7 275.3 274.9 274.2 273.4 272.2 270.8 268.9 266.6 265.8 263.7 262 260.4 258.4 255.9 251 246.2 247.5 245.4 243.4 237.6 227 223.7 217.9 213.5 212.5 212.6 215.4 219.1 220.5 217.7 217.5 222.1 234.6 241.1 246.4 252.3 256.1 258.9 260.3 260.3 260 258.7 257.3 255.5 253.1 250 244.7 240.4 235.8 228.2 222.8 215.1 202.3 191.5 183.3 178.8 174.4 167.4 161.1 150.7 143.6 139.6 134.6 129.5 131.4 138.5 143.3
237 237.6 237.4 236.6 234.7 231.7 226 209.6 207.3 213.1 211 208.1 196.1 172.9 168.6 182.1 174.6 190.2 213.6 227.1 235.1 243.8 251.2 255.7 256.6 255.6 253.3 250.5 246.8 243.6 242 240 238.7 236.8 235.1 233.1 231.5 230 228.6 227.5 226.5 224.3 221.4 217.6 211.2 216.4 216.7 215.5 215.2 214.7 213.6 211.8 208.3 203.9 196.8 187.3 179.2 167.1 162.5 157.6 154.6 152.5 150.4 151 147.6 146 145.1 144.1 146.6 153.6 158.9 165.2 171.3 179.3 185.3 189.9 187.1 160.6 150.9 146.3 149.3 156.4 169 181.8 197.7 210.6 221.1 230.4 238.2 242.2 245.4 248.6 252.3 256.2 260.8 265.9 269.2 272.4 274.3 275.3 275.6 274.8 274.3 274.9 275.8 276.5 277.4 277.9 278.2 278.4 279.4 279.8 279.8 279.6 278.8 278 277 274.1 274 274.5 275 275.7 276.5 277.1 277.8 277.2 276.3 275.7 275 274.5 274.2 273.9 273.6 273.3 272.8 272.3 271.6 270.6 269.3 267.6 266.3 265 263.6 260.9 259.4 257 254 250.8 238.1 233.7 235.4 235.6 225.6 223.2 220.4 219.3 217.8 219.5 218.2 221.3 224.7 227.6 224.7 222.1 224.9 231.7 240.6 247 252.9 257.3 260 261.6 262.2 262.1 260.8 259 257.1 254.7 251.3 246.2 241.4 235.7 230.3 223.3 213.5 202.6 195.3 189.8 185.9 181.2 175.5 168.3 157.9 145.9 140 136 128 128.3 129.7 135.5
234.3 235.6 235.8 235.6 234.4 231.2 225.3 207.7 186.8 199.7 205 202 193.1 167.8 160.9 169 186.3 209.8 222.1 228.8 234.5 241.2 246.5 250.1 250.4 248.7 246.2 242.6 239.4 238.2 236.9 236.6 235.9 235 234.1 232.8 233 232.5 231.5 230.2 229.2 226.9 223.8 219.8 216.9 219.8 220.3 219.4 218.7 217.9 216.9 215 212.4 207.8 200.4 191.9 183.2 168.4 165.1 162.3 159.4 155.5 153.5 152 149.8 148.5 146.8 145.6 145.3 143.4 145.4 148.3 161.2 169.7 177.9 184.9 184.6 157.1 146.7 146.4 151.9 160.6 170.3 183.2 197.2 210.2 219.8 227.1 234.9 239.4 242.9 246.2 249.4 253.6 258 261.4 265.1 268.5 269.9 270.3 270.7 267.2 267.2 268.9 271.6 273 274.1 275.2 275.1 276.1 276.9 277.5 278.4 278.3 278.1 277.3 276.1 274.6 272.7 272.5 272.6 273.3 274.1 274.7 274.9 273.9 273.5 272.9 272.3 272.1 271.8 271.5 271.4 270.9 270.7 270.4 269.7 268.9 267.5 266.5 264.7 262.7 261.4 260 258.3 255.7 252.8 249.5 241.6 232.9 228.3 226.9 226.1 227.2 227.2 225.4 221.7 224 223.2 225.7 230.5 232.7 232.7 230.9 237.9 237.8 242 247.5 251.9 257.4 260.5 262.5 263.1 263.1 261.9 260.6 258.6 255.9 252.4 248 243 237.7 231.8 223 214.1 206.9 200.8 195.6 191.5 184.1 180 173.1 165.1 151.1 142 137.1 133.5 128.8 128.2 129.8
232.6 234.4 235.6 236 234.5 231.5 226.3 204.9 179.5 181.3 196.8 195.7 185.2 160.2 164.4 186.7 205.3 214.8 222 228.2 231.6 235.5 240.8 242.9 242.2 240.2 238 235.3 233.9 233.2 232.7 233.2 232.5 233.5 233.7 233.9 234.3 234.4 233.7 233 231.4 228.5 225.6 221.1 222.2 223.2 222.8 222.2 222 221.3 219.8 217.9 214.6 209.3 202.8 194.5 187 175.5 175.1 169.7 165.1 160.4 157 154.8 153.6 151.5 148 149.1 148.3 148.8 145.8 143.3 144.5 154.6 164.8 171.5 175.1 150.8 144.6 147.7 152.3 162 172.1 183.5 195.4 209.8 218.7 225.2 231.2 235.9 240.2 243.8 246.2 249.5 253.4 257.1 259.1 260.9 262.6 261.2 261 260.8 262.2 264.4 266.4 268 270 271.4 272.5 273.8 274.7 275.6 276.5 277 277 276.3 275.2 273.6 271.6 270.3 270 270.7 271.3 271.3 271 270.8 270.5 269.9 269.8 269.7 269.4 268.3 268.1 268.5 268.4 268.2 268 266.9 265.7 264.6 263.4 261.8 260.4 258.9 256.8 253.9 251.2 248.4 241.8 236.6 231.8 231.3 232.7 234.9 233.1 229.7 225.9 226.1 226.2 228.4 234.7 237.8 239 239.2 243.6 247.7 249.7 252.4 255 257.8 260.4 262.6 263.5 263.7 262.7 261.4 259.5 256.6 253.1 249.2 244.2 239 232.7 225.7 218.2 211.6 206.7 200.2 194.7 189.2 181.9 174.6 167.9 153.1 143.9 138.9 135.5 130.5 128.8 125.7
232.4 234.8 236.1 236 234.2 231 224.5 201.8 178.8 168.7 181.1 189.6 176.6 155 166.1 191.4 205.5 213.9 220.6 224.4 227.1 229.6 232.2 233.2 232.3 231.3 230.2 228.8 228.4 228.5 229.1 229.3 231.3 232.1 233 234.4 235.4 235.7 235.6 234.5 232.7 230.3 227.8 225.7 226.1 226.1 226.2 225 224.5 223 222 218.8 215.6 210.6 204.2 197.9 188.2 186.2 181.1 177.1 172.8 167.8 161.3 157.9 155.6 154.3 151.7 152.3 151 149.1 148.1 146.3 142.9 142.3 149 159 162.6 149.3 143.8 148.4 153.3 162.6 172.9 184 196.8 207 216 223.4 228 233.3 237.3 239.8 241.8 245 248.2 251.3 253.9 254.9 255 255.7 255.4 254.8 255.6 259.3 261.3 263.2 265.9 268.6 270.4 271.8 272.7 273.6 274.5 275.3 275.7 276.2 275 273.4 272 270.1 267.5 268.1 268 267.8 267.8 267.7 267.4 266.9 266.6 266 265.6 265.2 265.3 266.1 266.2 266.2 265.8 265.6 264.4 262.8 261.4 260.2 258.6 257.1 255.5 252.1 249.1 246.6 243.8 240.7 239.3 239.1 235.6 236.4 236.3 231.7 231.4 232.6 230.9 231.5 237.3 241.1 243.6 245.9 247.6 251.6 255.9 258.5 259.6 260.9 262.1 263.4 264.5 264.6 263.6 261.9 259.9 257.4 253.6 250.2 245.5 240.6 233.7 228.7 221.4 213.3 209.8 205.4 199.4 192.1 182.4 175.8 169.8 159.1 145.1 139.8 135.9 132.4 129.4 127.8
232.6 234.8 235.6 234.9 233.1 229.8 223 202.3 178.7 163.5 166.1 182 171.5 150.6 166.6 191.4 203.2 209.8 214.7 218.3 221.2 222.7 222.6 223.2 223.3 223 222.4 223 223.4 223.9 225.5 226.5 228.5 231 232.9 234.7 236.5 236.9 236.6 234.8 233.2 232.1 230.3 229.8 229.5 229.2 229.3 227.6 226.4 224.8 222.2 219.9 215.4 211.1 205.4 200.8 195.8 189.9 185.7 182.6 177.8 172.8 167.7 161 157.8 155.5 152.8 155 154.2 152.6 150.6 148.1 143.2 143.2 141.6 145 154.2 144.1 144.5 150.1 155.3 163.1 173.8 185.4 197.4 205.6 216.2 222.6 227 231.2 233.1 235.6 236.5 238.9 240.5 244.3 246.8 248.5 249.3 249.1 249.3 241.1 245.4 252.4 256 258.9 263.4 266.9 268.8 269.9 270.8 271.6 272.5 274.6 275.4 275.5 275.2 273.1 271.3 269.6 267.8 265 264.4 265 264.7 264.5 264.1 263.9 263.4 263 262.7 262.2 262.5 263.4 263.2 263.8 263.3 263.4 262.7 261 259.5 257.9 257 255.5 253.4 250.6 247.5 245.4 242.8 240.7 239.6 236.9 234.2 237.4 235.7 235.8 238.3 238.2 235.6 236.5 238.5 243.6 246.9 249.2 252.7 255.9 259.5 261.5 263 263.4 263.9 264.9 264.8 264.8 263.8 261.5 259.5 256.7 253.4 250.3 246 241.5 235.1 230.2 223.9 216.9 211.1 207.4 200.3 193.5 183.6 176.1 168.5 158.4 145.7 140.5 136.1 133 129.6 127.2
232.2 234.4 234.6 233.3 231.3 227.6 220.1 207.6 181.9 161.9 156.8 172.3 164.7 147.2 169.5 191.9 198.1 203.8 208.2 211.1 212.7 213.9 214.3 214.7 215.1 216 216.6 217.5 218 219.4 222.3 224.4 227.1 230.2 232.6 234.6 236.7 237.6 236.2 235.3 233.8 233.6 233 232.3 232.3 232.1 231.4 229.5 228.4 226.2 223.1 219.5 216.6 212.4 208.7 203.7 198.1 191.6 187.5 184.1 180.3 176.1 171.5 165 160.1 156.6 154.8 156.7 157.8 156 152.7 149.5 147.2 146.4 143.5 141.9 143.1 143.1 145 152.4 157.2 164.8 175.5 188.4 201.6 207.7 216.9 222.9 226.5 228.4 229.8 229.6 230 232.2 233.3 235.5 237.8 239.6 240.9 242 232.8 226.5 235.9 244.8 252.4 258.7 261.7 264.5 266.7 268.1 268.9 271.1 273.5 274.6 275.2 275.5 274.7 273.3 271.9 270 268 265.3 262.5 261.5 261.3 261.1 260.6 260.8 260.4 260.2 259.8 259.7 260.5 261 261.7 261.5 261.7 261.1 260 258.7 257.4 256.2 254.1 252.2 250.4 247.8 245.1 243.5 241.4 239.4 238.3 233.4 232.7 233.9 237.7 241.1 242.7 242.4 241.6 241 241.9 246.2 249.8 253.4 257.6 260.6 262.3 264.3 264.8 265.5 265.7 265.9 265.5 264.8 263.1 260.5 258 255.9 253.2 249.2 245.9 242.1 235.6 229.6 224.4 218.8 211.7 207.1 200.9 194.1 185 177.5 170.5 161.8 147.9 141.5 136.2 132.6 129.8 127.5
231.9 233.8 232.7 231 228.5 223.6 217.5 209.9 190.4 165.3 152.9 156.8 155.5 147.8 169.3 186.5 192.5 197.1 200.4 201.7 203.3 205 206.4 207.3 208.2 209.1 210.6 210.4 210.9 216 219.9 223.2 226.6 229.8 232.4 235.2 236.7 236.7 235.4 235.2 234.8 234.7 234.6 234.2 234.2 234 232.8 231.6 229.5 227.5 224.3 221 218.3 214.8 210.6 204.7 198.4 192.9 186.6 182.9 180.6 178.2 172.9 167.9 162.2 158.9 155.1 156.2 156.6 155.6 153.2 149.9 149.2 147.1 144.5 142.2 141.6 142.5 145.6 155 160.5 171.1 183.5 195.1 204.2 209 217.2 222.9 224.5 225.1 225.4 224.7 224.1 222.2 225.5 228 229 232.6 235.1 235.5 220.9 226 242.4 248.7 252.6 256.6 259.2 262.5 264.9 267.2 269.8 273 274.4 274.7 275.3 275.8 274.8 273.6 272.1 269.6 267.6 265.1 262.3 259.3 257.8 257.8 257.4 257.8 257.3 257.3 256.2 256.6 257.7 258 258 258.1 258.7 258.5 257.3 256 254.8 253.6 251.4 249.2 247.2 245 243.3 242.1 239.7 237.4 229.6 227.5 234.6 238.9 242.2 243.5 245.2 246.5 247.2 247.3 247.4 249.2 252.5 257 260.7 262.5 264.3 266.1 267.2 267.2 267.6 267.5 266.4 264.5 262.6 259.3 256.6 253.6 251.2 248.2 245.5 241.3 233.6 228.1 224.3 218 211.7 207 201.3 193.8 185.2 176.8 170.2 162.7 150.3 142.4 136.7 132.2 130 127.7
230.6 230.9 229.9 226.9 223.9 220.2 215.4 209.8 199.7 177 156.1 148.2 147.4 151.5 172 182 186.3 189.7 191.6 194.4 196.3 198 199.8 200.7 201.4 199.4 198.9 204.8 210.5 215 218.7 222.7 226.2 229.3 232.4 234.5 235.4 235 234.4 234 234.9 235.3 235.3 236.5 236.6 235.7 234.2 232.6 230.9 229.3 226.4 222.3 219.6 215.8 209.9 203.3 195.6 185.1 176.6 171.8 169.5 167.7 166.7 164.9 161.3 158.6 155.9 156.3 157.3 155.7 153.5 152.9 152.1 149 144.3 142.9 141 141.8 144.1 156.7 162.3 170.1 180 187.5 202.9 209.6 216.9 221.1 221.8 221.7 221.5 220.4 216.4 211.1 216.6 218.5 218.1 213.6 213.3 211.3 207.5 229.1 241.7 244.8 247.4 252.1 256.3 261.2 264.8 267.4 270.2 272.4 274.1 274.7 275.5 275.6 274.6 273.2 271.2 268.8 266.9 264.5 262 259.6 256.7 256.1 255 254 253.4 253 251.8 253.1 253.6 254.1 254.9 254.8 255.8 255.5 254.3 253 251.7 250.3 248.3 246.2 244.6 242.8 240.6 240 237 231 226.1 235.4 237.9 241.2 244.5 246.9 247.9 249.4 251.2 252.2 252 253.6 256.6 260.2 262.6 264.1 266 267.9 269 269.2 269.6 269.1 267.5 265.3 261.7 257.3 253.9 251 247.4 245.4 242 237.2 232 227.8 222.4 215.6 210.4 207.3 200.4 192.4 183.5 177.7 170.6 162.3 153.4 141.9 136.5 132.8 129.7 127.1
226.7 226.3 224.2 222.1 220.7 218.3 215 209.5 202.9 189.2 166.2 146.9 141.4 150.1 170.7 176.5 180 182.9 185.9 188.5 191.3 193.6 194 193.8 191.4 193.8 202.4 206.4 210.8 214.5 218.4 222.2 225.8 229 231.6 232.7 233 233.4 233 233 233.8 234.1 235.8 238.2 236.6 235.5 234.2 233.7 232.5 230.9 227.7 223.7 218.1 213 205.9 198 183.4 173.1 171.9 169.2 166.9 164.3 161.4 160.9 158.7 158.2 156.5 156.9 156.8 156.5 155.8 156.1 156.2 153 147 143.3 140.3 140.7 140.7 142.5 156.1 162 169.1 178.1 195.9 208.5 215 217.6 217.4 217.9 216.3 212.9 203.8 196.4 202.6 200.6 195.6 193.1 193.3 197.7 212.6 226.4 228.1 239.9 247.9 253.3 257.3 261.3 264.5 266.3 267.6 270.2 271.6 273.3 274.2 274.8 273.5 271.5 270.4 268.4 266 264.1 262.2 259.4 256.5 253.7 252.4 251.5 251.4 249.8 249.8 250 250.3 251.3 251.5 251.2 252.1 251.9 250.4 248.9 247.6 246.5 244.9 243.8 242.1 240 237.7 236.6 234.8 232.4 226.2 234.9 238.7 242.4 245.9 247.7 250.3 252 254 255.3 257 257.8 259.9 262.4 264.4 265.9 267.4 269.7 270.5 271.3 271.4 270.1 268.3 265.7 262 256.3 252.5 248.4 244.6 241.9 238.5 233.3 229.6 225.6 220.4 214.7 208.5 205.1 198.9 190.7 182.3 175.6 169.7 161.5 153.7 144.8 137.9 132.5 129.5 126.8
220.8 219.9 219.9 219.4 218.7 216.9 213.6 209.7 204.2 195.5 177.4 156.3 140.7 145.5 164.2 170.8 174.8 177.6 180.6 184.1 188.5 188.6 185.7 183.8 187.8 196.4 201 205.3 210.3 214.1 217.9 222 225.2 227.2 229.7 230.2 230.5 230.6 231.4 232.2 232.1 233.6 235.1 235.6 235.8 236 235.6 235.9 234.5 231.8 227.8 221.6 213.4 204 193.9 185.4 177.4 180.8 183 181.8 176.7 170 165.1 161.9 161.2 159.6 159 158 158.7 158 156.9 157 157.8 156.4 154.7 152.1 147.6 140.1 140.2 141 141.7 151.9 159.2 165.8 182.8 198 206.7 208.5 210.6 211.9 210 207.3 196.2 186.5 184.9 183.2 185.6 194.1 206.1 217.9 216.9 216 234 243.8 249 252.7 256.5 260.3 262.7 264.1 267 269.1 270.5 272.3 273.2 273.2 271.5 269.6 268.8 267.3 264.5 262.2 260.1 256.9 254.9 253.5 250.8 249.6 249.3 247.5 246.8 247.3 247.3 248 247.7 247.2 247.6 247.7 246.2 244.8 243.6 243.1 242.1 241 238.8 236.7 232.5 231.5 232.3 222.6 229.8 234.6 240 244.5 247.7 250 252.2 253.8 256.2 258.6 259.9 260.9 261.9 264 265.5 267.1 268.7 270.4 271.5 272.9 272.8 271.1 269.1 265.6 261.8 257 252.1 246.6 242.5 236.4 232.2 229.5 225.8 220.7 216.5 211.6 206.5 202.7 196.9 187.9 178.4 171.7 166.9 158.6 152.6 146.4 137.9 133.3 130 126.5
214.9 216 216.7 216.9 216.2 215.1 212.7 209.8 205.7 197.6 175.9 154.2 137.1 142.7 158 164.3 168 170.9 174.7 176.4 177.1 176.5 177.7 184.1 188.5 194.5 199.7 204.4 210.6 214.4 218.1 221.6 223.6 225.7 227.3 227.6 227.9 229.3 229.5 229.8 230.6 232 233.6 235.1 235.8 236.5 236.9 236.3 234.3 232.7 228.3 219.1 210.6 203.1 193.2 188.1 183.6 190.4 192.8 190.9 184.3 177.5 169.8 167.9 168.6 166.6 164.2 162 161.9 162.3 162.8 160.7 159.9 159.4 158.1 155.1 152.6 149.5 141.5 139.6 139.8 143.5 150.8 155.8 166.6 175.5 184.4 190 194.5 202.5 204.8 197.8 183.3 175.9 176.7 184.6 195.9 212 226.3 230 233.4 236.8 236.7 244 248.8 252.4 255.4 258.6 261.9 263.6 265.7 267.6 269.6 270.3 270 269.9 268.5 268.1 266.7 264.4 262.7 260.4 258.8 255.3 253.6 252 249.9 248.4 246.9 245.2 244 244.3 242.3 244.4 244.4 243 240.4 242.8 241.5 240.5 239.5 239.5 239.1 238.2 236.5 234.2 228.5 230.2 221.3 226.7 231.5 236.4 241.8 245.9 248.9 251.7 254.5 256.6 258.1 260.1 261.9 262.9 263.8 264.9 266.5 267.9 269.7 271.4 272.7 274.6 274 272.3 270.1 266.2 261.6 257.8 252.3 246.4 240.7 234.2 229.7 224.4 219 217 213.4 208.1 203.7 199.4 192.6 183.9 175.4 168.8 162.4 155.6 150.8 144.6 137.9 133.4 130.5 125.6
211.1 213.4 215.1 215.2 214.9 214.3 212.7 210.2 206.7 191.6 165.1 144.6 133.3 140.7 150.2 155.3 158.6 162.3 166.3 169.2 170.3 177.1 186.6 192.8 195.6 197.3 202.3 207.2 211.4 215 218.3 220.9 222.3 223.8 224.6 225.4 225.7 227.8 226.7 224.1 228.2 231.1 232.6 234.8 236.1 237.4 237.4 236.9 235.8 234.2 230.9 226 220.3 214.4 207.8 200 190.2 200.1 200.9 197.3 190.8 182 177.8 179.5 179.6 177.4 172.5 165.9 165 168.6 170.7 172.1 168.2 166.6 164.4 159.5 156.1 153.2 149.6 145.3 139.4 138.9 146.4 151.6 156 160.9 165.9 172.6 178.1 186 197 189.9 171.8 173 184.5 201.6 215 224.9 229.2 231.6 235.5 239.2 242.7 245.6 248.7 252.4 254.9 257.6 261.4 263.6 263.9 265.6 267.3 268.5 267.2 267.1 265.8 264.5 263.7 262.1 260.7 258.8 256.7 253.9 252.1 250 249.4 247.9 246.1 244.2 240.4 240.4 240.4 240.7 238.5 236 232.1 234.4 235.2 234.6 232.6 234.5 235.9 235.2 233.8 231.4 225.9 222.9 220.6 228.2 234.1 239.4 244.4 247.3 251 254.1 256.4 257.7 259.4 261.3 262.7 263.3 264.1 265.1 267.1 268.7 270.5 272 273.2 273.3 274.3 273.4 271.2 268 263.8 257.7 252.4 246.6 240 233.4 228.3 221 215 211.9 208.2 204.2 200.3 195.4 187.9 180.2 171.9 166.1 159.2 152.6 147.8 142.3 137 133.8 130.7 125.9
208.8 211.9 213.7 214.7 214.6 214.7 213.5 210.4 203.6 180.1 155.4 133.3 134.3 141.7 147.1 150.9 156.6 159.5 160.7 168.7 180.7 188.7 194.3 196.9 200.2 203.1 206.2 209.1 212.5 215.4 217.9 219.6 220.7 222.3 222.9 222.2 223.4 226.3 220 220.9 225.7 230.1 232.3 234 235.3 236.6 236.9 236.9 236.7 235.9 233.8 230.3 224.6 218.9 213.7 201.4 203.2 210 209.9 200.9 196.6 191.3 190.3 188.2 186.7 183.2 177.7 170.4 172.6 180.3 181.7 181.4 178 172.7 170.6 167.2 161.6 156.9 153.3 149.1 141.9 138.5 142.9 146.5 151.1 154.2 158.1 163.6 170.6 175 186.6 174.5 168.8 177.4 197.7 217.4 224.1 227 229.3 231.6 234.5 239.6 243.1 247.4 250.4 252.8 254.7 257.3 260.3 262.9 263.5 262.9 267 266.4 266.4 265.2 263.6 262.3 261.1 259.8 258.6 257 254.7 252 250.7 249.4 248.6 247.5 246.5 245.1 243.2 240.4 240.4 240.1 237 233.7 229.5 229.1 223.9 221.3 220 228.3 231.4 230.4 229.3 227.2 220.1 217.4 221.6 231.8 237 242.1 246.5 249.1 252.1 254.7 256.8 258.6 260.3 262 262.7 263.5 264.5 265.5 267 268.5 270 271.9 273.3 273.5 274.7 274.1 271.9 268.8 265.1 258.4 252.5 247.2 240.7 235 228.6 221 213.9 208.9 201.7 199.7 196.5 190.9 184.9 177.4 170.9 163.4 157.4 151.1 145.6 141.5 136.3 132.9 129.9 126.2
206.6 210.4 213.5 215.8 215.3 214.7 212.7 208.3 197.2 169.5 145.5 128.8 135.7 145.5 152.8 151 155.8 166.9 176.3 184.8 191.8 195.4 198 200.7 203.7 206.6 209.5 211.4 213.8 215.4 216.6 217.8 218.9 220.2 219.8 209.8 212.8 204.1 202.8 220 225 227.3 230.4 232.5 234.7 236.2 237.9 238.4 238.3 237.7 236.4 233.7 228.7 223.7 216.2 205.5 212.9 217.4 215.8 210.7 202.6 201.2 199.3 195.6 191 186.8 176.4 172.3 175.4 187.5 184.5 183.2 181.9 178 174.1 172.5 172.5 170.5 167.8 155 147.5 139.3 137.8 143.3 148 151.9 154.9 158.3 161.7 164.6 166.1 162.5 173.9 184.7 199.1 213.4 223.3 226 227.3 229.3 232.7 239 242.3 246.6 250.4 254.3 256.3 258.4 260.5 264 265.4 265.8 266.6 266.7 264.7 262.9 261.2 259.8 258.5 257.2 256.2 255.1 252.8 251.2 250 249.5 249.5 248.6 247.6 246.7 245.4 240.7 241.8 240.1 238.1 236.2 234 230.7 227.6 224.9 221 215.8 221.8 222.9 220.5 216.4 215.6 219.1 229.8 235.6 240.4 244.6 247.9 250.6 253 255 256.9 258.7 260.2 261.4 262 263.1 264.2 265.2 266.5 267.6 269.3 270.9 272.1 272.1 273.9 274.5 272.3 269.2 264.8 258.5 252.7 248.7 242.1 233.6 227.4 220.8 212.9 206.5 197.5 189 192.4 185.2 180 173.5 167.9 161.4 155.7 150.7 145 139.2 135.5 131.1 128.6 125.7
204.8 210 214.4 216.7 215.2 213.1 209.4 202.9 187.1 163.1 138.1 129.5 145.5 161.4 169.2 173.4 178.4 184.3 189.5 192.5 196 198.9 201.4 204.3 207.3 210.5 212.8 214.3 214.4 214.9 215.3 214.8 215.3 215.3 209.1 189.2 190.4 189.7 212.1 217.6 220.6 225.4 229.3 232 234.3 236.8 238.7 239.6 239.8 239.5 238.4 235.5 229.9 223.7 219.4 219.2 221 220.6 218.8 215.8 211.1 208 204.6 200.9 196.1 184.1 175.2 175.9 182.6 191.8 190.1 185.3 182.6 179.9 177.5 175.5 176.1 178.1 178.5 165.2 149.4 140.9 138.2 139.4 144.9 148.5 150 147.6 150.7 156.6 161.9 171.1 181.3 187.6 195.3 203.1 209.4 214.9 220.8 225.4 228.9 235.9 240.7 245.8 250 254.4 257.3 259.9 262.3 266.7 269 269.4 268.1 265.9 262.2 260.2 258.6 257.1 255.6 254.9 254.8 254.3 251.1 251.5 250 250.1 251.1 250.7 249.5 249.8 248 246.2 244.7 242.9 241.2 240.8 237.5 235.3 232.1 228.5 224.1 217.9 213.6 213.2 213.6 216.7 222.9 232.3 237.2 240.2 242.9 245.8 249 251.1 253.5 255.3 256.6 257.9 259.1 260.6 260.8 262.1 263.3 264.1 264.6 265.8 267.6 269.4 270.5 270.7 272 271.6 271.1 269.6 263.3 256.5 252.2 247.7 240.1 233 227.3 219.1 212.1 203.4 195.1 185.4 182.3 178.3 173.6 168.8 162.3 158 154.9 150.5 145.8 139 134.1 130.2 126.4 123.5
203.1 209 213.5 213.7 211.4 207.4 202 195.6 179 157.3 133.4 131.6 148.1 159.9 173 178.8 184.9 189.1 192.8 196 199.1 201.8 204.7 208.3 211.6 213.7 215.8 216.8 216 215.4 214.4 212.6 211 206.1 189.3 176.4 184.2 199 204 214.3 219.6 223.1 227.9 231.9 234 237.4 239.2 240.6 241.1 240.3 237.7 234.6 231.6 229.3 228.5 227.6 226.8 224.9 222.4 219.7 218 213.3 210.3 204.5 198.8 183.5 177.7 186.8 189.5 192.9 193.5 188.7 183.1 181.1 177.7 176.1 176 177.5 176.2 164.5 152 144.1 139 137.4 141.6 142.4 150.1 154.2 156.6 159.2 162.3 165.2 174.4 184.3 189.3 192.9 197.7 201.1 207.5 217.4 226.8 234.3 241.1 245.8 250.9 255.3 258.2 261.1 264.4 268.6 272.5 270.7 268.8 265.1 261.4 258.5 255.9 254.6 253.5 252.8 252.7 253.5 253.3 251 251.7 252.3 252.5 251.2 251.4 252.2 250 249.6 246.4 245.6 246.8 244.4 242 238.9 235.6 231.1 226.8 221 212.1 212.2 218.4 222.7 230.3 235 239.5 242.6 245.2 247.8 249.8 251.7 253.8 254.1 255.4 256.3 258.1 258.9 259.6 260.2 261.5 262.6 263 265.1 266.7 268.2 269.2 269.6 269.9 270.8 270.4 267.1 260.7 253.6 249.5 245.1 239.9 233 226.4 219.3 211.5 201.6 195 183.8 174.7 167.9 163.5 159.9 157.4 155.5 152.8 148 144.1 139.4 132.6 129.5 126.7 124.2
199.7 204.7 207.5 206 203.2 199.8 193.7 185.7 171.5 150.6 129.5 130.2 145.7 166.6 175.2 181.2 186.9 190.9 194 197.7 201 204.3 207.8 211.5 214.3 216.7 218.1 217.7 216.6 212.6 211.9 209.8 198.5 184.2 168.3 168.4 174.8 193.1 201.8 214.3 218.3 223.5 227.9 231.3 234.5 237.2 240.3 241.1 240.8 239.5 237.1 235 234.1 233.8 232.5 231.2 229.6 228 225.7 223.7 221.5 218 213 208.3 198.3 183.8 186.3 195.3 194.8 194.9 194.6 191.4 186.7 182.2 178.4 177 175.2 174.1 170.6 162.3 154.9 146.8 140.8 137 141.8 145.1 150 153.9 157.4 160.9 166 168 171.1 174.7 178.5 184.2 190.8 199.3 208 217.6 225.9 233.2 241.1 246.8 251.8 255.9 259 262.5 265.4 269.6 273.2 270.2 268.5 264.2 259.7 256.8 254.1 252 251.2 251 250.9 252.7 252.7 249.4 251.9 253.1 253.7 253.3 254 255.1 254.8 254 252.7 251.5 250 248.6 246.2 243 237.4 233.2 229 222.6 211 215.2 221.1 227.1 231.5 237.1 241.4 244.2 246.7 248.9 250.2 251.3 252.3 253.2 253.9 254.4 254.9 256.1 256.6 258.3 259.6 260.3 261.8 264 266.2 267.2 268.5 268.9 268.3 268.6 266.8 263.4 256 251.4 247.6 243.5 238.2 232.1 225.5 219.8 210.9 200.7 192.6 183.3 175.1 164.8 157.9 153.1 150.1 148.9 144.4 142.5 141.7 137 131.1 128 127.6 126.1
195.7 197.9 197.6 196.8 195 189.7 183.6 175.3 162.4 144.5 125.9 127.5 142.5 167.3 175.5 181.8 186.7 191.4 194.9 198.9 203 206.4 209.9 213.7 216.8 218.3 218.9 217.7 213.9 211.3 209.8 207.5 185.4 163.8 161.1 171.3 185.5 200.3 206.1 213.4 219 223 228 231.5 235.5 238.4 239.9 239.8 238.8 238 237.1 236.7 236.1 235.6 234.8 233.5 232.3 230.6 229.3 227.3 224.9 221.6 215.8 203.8 191.5 191.9 197.6 201 200.3 198.8 196.6 192.6 189 183.3 178.4 176.6 174.2 172 168.5 163.8 157.9 151.8 140.3 136.5 139.2 142.5 146.6 153.2 157.5 162.9 168.9 173.8 178.2 179.9 182.4 186.2 193 200.6 209.3 218.4 227.8 235.4 242.3 247.5 252.4 256.5 259.9 262.8 266.3 270.3 273.7 270.7 266.7 263 259.1 255.5 251.8 249.6 248.9 248.8 249.2 250.5 249.4 251.2 251.6 251.6 253.6 254 256.2 256.6 256.7 256.6 256.3 254.8 253.4 252.5 250.3 246.9 241.3 236.7 230.5 223.5 207.4 217.2 224.4 229.5 233.4 238 242.4 245 247 249.1 249.7 250.6 251.1 251.1 251.5 251.8 252.3 253.2 254.1 255.5 257.7 258.5 260.8 263.1 265.4 265.8 267.7 267.1 265.8 265.4 264.2 261.1 254 249.9 246.1 241.1 235.8 230.8 225.5 220.4 208 198.5 189.8 180.8 171 161.9 155.6 150.2 146.6 142.7 138.9 136.7 135.7 132.4 129.4 127.3 127.8 125.6
189.8 189.9 189.4 188 184.9 180.2 174.1 166.7 153.2 134.6 122.1 125.9 144.9 166.3 174.2 180.5 185.7 191.1 196.1 200.3 204.2 208.2 212 215.1 217.2 217.8 217.9 214.5 212 209.4 207.7 197.8 172.6 154.1 163.7 184.8 192.6 199.8 207.1 213 218 223 227.7 232 235.6 237.6 237.4 237.5 237.2 237.8 238.1 237.7 237.2 236.8 236.3 235.6 234.6 233.3 232.1 230.7 229 225 214.8 207.5 208.5 207 208.1 208.3 205.9 202.4 198.5 195 191.1 184.7 178.1 174.7 170.8 168.4 165.9 163.1 159.7 153.7 143.7 136.6 137.8 144.4 146.9 152.8 158.3 163.9 169.7 174.4 180.3 184.4 189.1 192.5 197.2 202.4 210.3 220.4 228.6 237.4 242.4 247.6 252.2 256.4 259.7 263.1 266.3 269.4 272.9 268.7 266.6 262.3 257.6 254.1 250.3 247.3 246 245 246.6 245.9 248.5 250.3 251.2 254.1 256.5 256.8 257.9 258.3 258.4 258.5 258.1 256.9 256.5 254.5 252.6 249.3 244.4 238.5 230.9 221.8 206.9 220.4 226.9 230.6 234 238.5 242.4 245.1 247 248.1 248.5 248.5 248.5 248.5 248.9 249.4 250 250.9 251.9 253.3 255.2 258.3 260.7 262.6 264.4 265.8 266 264.5 263.7 262.5 261 257.6 253.7 248.7 244.2 239.1 234.1 228.8 224.8 216.5 204.3 196.4 188.3 181 167.3 160.3 154.4 148.1 143.3 140.7 138 135.3 133 130.7 128.7 126.8 126.1 125.5
181.4 181.1 177.8 175.6 173.4 169.6 164.3 158.4 140.2 124.6 119.8 130.1 148.2 165.2 174.1 181 186.5 192.3 197.2 201.4 204.7 208.3 212.4 215.2 216 215.3 213.5 210.2 208.6 206.9 204.8 190.5 164.1 149.6 165.7 186.1 192.2 198.2 204.5 210.6 217 221.7 226.5 230.6 233 234.3 235.2 235.7 236.7 238 238.4 237.4 236.6 236.7 236.8 237.4 236.3 235.3 234.2 232.5 230.8 228.7 223.9 221.5 220.1 218.1 215.9 213.2 209.8 205.8 202.3 198.7 195 188.4 178.1 170.9 166.8 163.9 162.6 161.3 159 152.8 146.9 136.5 136.6 144.7 147.4 153.1 159.3 164.8 170.2 175.3 180.7 186.7 190.5 196.3 201.3 206.8 213.7 222.5 231.2 237.3 242.4 247.2 252.7 255.8 258.2 262.7 265.4 268.1 271.5 270.8 266.7 261.8 256.8 252.9 249.4 246.1 243.6 242.5 242.9 245.5 247.4 249 251.1 255.7 257.4 258.3 259.1 259.5 260 260.3 260 259.3 258 256.3 253.8 250 245.1 238.6 231.1 214.9 207.2 221.2 227.3 230.1 233.7 238.1 241.4 244 245.8 246.6 246.2 246.3 246.1 246.4 246.8 247.3 247.6 248.5 249.9 251.8 254.6 258.7 261.3 263.4 265.1 266.3 265.7 263.8 261.7 260 258.6 256.4 252.2 247.5 241.3 237.4 232.9 226.3 222.3 213.6 203.9 193.3 186.3 177.7 165.9 160.1 153.6 146.9 142.3 141 138 136.3 135.2 131.1 129.1 127.1 124.5 122.3
166.6 166 164.8 163.3 162.5 159.3 155.3 150.3 129.9 117.2 123.5 134.4 151.9 165.5 173.9 180.8 186.7 193.4 198.3 201.4 204.7 207.9 211.1 212.5 212.7 210.8 208.7 206.9 205.8 204.2 201.9 183.1 156.8 148 162 183.1 190.3 196.3 203.1 209 215.1 219.8 224.6 227.4 229.1 230.8 233.6 235 236 236.8 236.5 235.5 235.9 236.4 236.9 237.3 237.1 236.3 236 234.7 233.1 230.7 228.3 227.3 224.7 222.1 219.8 216.6 212.3 208.2 203.9 201.3 197.9 190.8 178.8 170.1 164.7 161.1 159.7 157.6 155 147.1 137.1 136.1 135.1 140 147.4 154.1 160.4 165.7 170.9 175.8 181.6 187.6 193.6 198.6 203.7 209.3 216 224.3 231.7 237.2 241.5 247.3 251.5 254.7 259 262.5 264.7 266.7 268.8 268.8 263.4 260.9 256 251.3 248.5 245.5 242.8 239.4 241.8 243.8 245.9 247.3 250.2 254.6 256.4 258.1 259.6 260.5 261.2 261.5 261.4 260.7 259.1 256.5 253.5 249.4 244.1 238 227 208.5 207.6 221.2 225.5 228.8 232.6 235.9 239.3 241.7 243.5 244.4 244.7 243.9 244.4 243.9 244.6 245.1 245.2 246.6 249.1 251.6 254.9 258.5 261.3 263.5 265.6 266.5 265.7 263.7 260.9 258.3 256.5 254.1 249.5 244.6 239.8 234.8 229 223.7 217.8 210.8 201.8 192.9 185 176.4 168.2 159.9 152.7 150.3 152.4 151.2 144.8 140.1 136.7 134.2 130.3 126.5 124.4 122.1
152.4 152.8 152.9 152.9 152.3 151 148.3 142.5 123.9 117.5 123.8 137.2 153.4 166 174.3 180.8 187.2 193.3 197.1 200 203.1 205.8 207.2 207.8 207.6 206 204.9 203.9 202.9 201.2 197.7 176 151.4 143.6 159.7 182.2 190.3 195.8 202.5 208.1 213.5 217.8 220.5 222.7 225.8 229.2 232.4 234 234.5 234.9 234.3 234.2 234.9 235.5 236.5 237.2 237.6 237.1 236.6 235.9 235.3 233.6 232.4 230.1 227.4 224.6 221.3 217.6 213.8 208.9 204.6 202.9 199.8 190.7 178.8 170.5 165.3 160.7 155.3 151.7 148.7 136.5 135.1 133.8 134.5 138.6 147.3 154.7 159.8 165.3 170.9 176.9 183.2 188.4 195.4 200.4 205.8 211.9 218.5 225.6 231.1 236.1 240.9 246 250.7 254.6 258.5 261.4 263.3 264.8 265.9 265.5 261.7 258.3 255.6 252.6 248.6 244.2 241.2 238.2 239.5 241.4 240.7 245.6 249.4 252.7 255.6 258 260 261.3 262.4 262.6 262.4 261.4 259.1 256.5 252.8 248.3 242.5 235.2 223 205.1 209.8 218.8 222.8 226.1 230.1 233.2 236.2 238.9 240.9 242.4 242.2 242.7 242.5 241.5 241.9 242.2 244.3 246.3 248.5 251.9 255.7 259.3 261.8 263.6 265.5 266.3 265.9 263.8 260.7 257.3 253.8 251.1 246.6 242.5 236.7 231.3 227 221.2 214.8 208.3 201.1 192.6 185 176.6 168.6 161.4 158 157.8 158.9 157.5 151.5 143.3 138.8 134.7 129.5 125.4 122.4 121.5
140.9 142.1 142.7 143.2 143.3 143.3 142.2 138.6 119.6 116.4 124.2 138.8 154.4 165.3 173.4 180.7 186.4 190.4 194.1 196.8 199.6 201.2 201.8 202.6 202.3 201.3 200.9 200.3 199.3 196.2 190.4 170.7 147.2 141.3 160 181.2 190.2 196.3 201.5 206.2 210.5 213.1 215 219.3 224.4 228.3 230.7 231.8 232.2 232.4 232.4 233.1 233.8 234.5 235.8 236.9 237.3 237.9 237.5 237.2 237 236.2 234.7 232.1 229.1 225.8 221.6 217.6 213.7 208.7 204.1 202.6 198.1 189.7 177 170.2 165.2 159.7 152.7 146.6 137.8 134.4 134.4 133.8 135.8 143.6 149.8 155.5 159.5 165 170.3 177.6 185.2 191.4 195.7 200.5 207.9 214.2 221.5 226.1 229.9 235.1 239.1 244.8 249.7 254.1 257.5 259.5 260.7 262.1 263.2 261.6 261.3 257.4 253.8 252.5 243.4 238.1 236.9 235.7 235.6 237.9 240.4 244.4 248.9 252.1 254.1 256.5 259.4 261.5 262.7 263.4 263.1 261.9 259.4 256.4 251.4 246.1 238.2 230.2 217.4 202.5 208.6 215.4 219.7 222.9 226.6 229.6 232.9 236 238.5 240.1 241 240.5 239.8 239.3 238.6 240.1 242.7 245.8 248.8 253 257.3 260.3 262.2 263.6 264.5 265.2 265.2 263 260 254.1 250.2 247.5 243.1 238.1 231.8 228.1 225.1 217.9 212 206.3 200 192 184.9 177.5 171 166.3 164 163.3 165 162.5 154.5 147.4 138.9 132.8 127.8 123.9 120.6 120.2
130.1 130.7 131.5 132.4 133.8 136.1 135.5 134 118.3 115.7 123.9 135.5 152.5 164.5 172.5 177.6 183.1 186.6 189.3 192 194.6 195.6 196.9 197.3 197.2 197.2 197.2 195.6 192.9 190.2 186.7 167.5 144.9 139.3 158.9 177.2 185.8 192.5 199.2 203.3 204.8 203.9 210.9 217 222.6 226.5 228.4 229.3 229.9 229.8 230.6 231.5 231.5 232.2 235.3 236.8 237.2 237.4 238.4 238.8 238.5 237.5 235.6 232.8 229.5 224.3 220.1 216.7 213 207.9 204.1 203 195 185.3 174.7 167.7 161.2 156.5 149.8 138.8 135.7 133.7 132.6 133.4 141 148.7 153.2 156.6 160.7 166.3 171.5 178.6 187.8 192.9 197.1 202.5 209.6 216.5 222.6 227.3 230.5 233.4 239.4 244.2 248.4 252.5 256.3 257.1 258.2 259.1 259.4 258.9 258.7 257.4 254.2 248 243.6 238.6 234.9 234 233.5 237.1 239.8 244 248.5 251.2 253.9 256.5 259 261.5 262.9 263.8 263.9 262 259.7 256.3 251.1 245.2 234.6 223.9 210 200.9 208.5 211.9 215.4 219.8 223.9 227.6 231 234.3 236.7 237.9 238.3 237.6 235.6 236.2 235.7 238.1 242 246.3 250.3 254.3 257.5 260 262.4 262.4 263.4 264.2 263.7 261.3 257.9 253.1 247.2 243.2 239.1 233.4 228.6 225.3 221.6 216.4 209.5 204.4 198.8 193 186.2 179.9 174.8 169.9 167.6 166.2 166.7 160.9 153.9 145.3 137.2 130.3 125.8 121 118.9 118.5
118.1 118.1 119.8 120.7 123.1 125.9 127.5 127.7 118.2 113.3 122.6 134.8 151.3 161.8 170 175 178.8 181.1 183.9 186.3 188.3 189.7 190.3 190.8 191.8 191.6 191.1 190.3 188.6 186.1 182.3 166.1 143.8 137.1 154.6 170.1 177.6 186 191.9 195.8 191.6 200.9 207.4 213.9 219 222.8 224.7 225.3 226.7 226.5 227.4 226 228.4 228.9 232.8 235.9 237.4 238.4 239.5 239.7 239.1 237.4 235.4 232.9 228.5 222.8 219 216 212.5 207.3 202.7 200.9 193.2 184.5 172.4 162.5 156.4 153.1 145.5 137.4 134.1 132.9 133.2 132.7 144.7 150.2 156.3 159.2 162.8 168.4 174.1 183.7 189.9 194 197.8 205.5 216.5 216.3 224.2 227.4 229.9 233.9 237.9 241.7 246.8 251.1 253.1 254.6 255.6 255.5 255.5 255.6 255.9 255.3 250.6 247.4 242.8 238.7 234.3 232.3 232.7 235.7 239.3 243.9 247.5 250.3 253.4 256.1 258.6 261.1 263.2 264.3 264.5 262.7 260 256.3 251 245.2 233.9 221 206.7 198.7 203.8 207.7 211.7 217 221.3 225.5 229.1 232.6 234.7 235.7 235.3 233.8 232 232.4 234.3 237.2 241.5 246.2 251.2 253.7 255.7 258.2 261 261.9 262.4 261.7 260.3 258.4 254.7 249.8 241.8 238.9 234.9 230.5 225.7 219.3 216.7 214.6 207.9 203 198.4 194.1 187.6 183.3 178.3 175 172.1 168.8 163.8 157.5 150.8 144.5 136.2 127.1 122.6 119.2 117.4 116.6
111.7 112.2 112.8 113.5 114.4 115.4 116.4 117.5 117.3 111.9 121.3 131.6 146.2 158.7 166.7 171.6 173.8 175.6 177.2 179.5 180.8 181.9 183.6 184.5 185.6 186.7 186.5 186.5 185.4 182.5 180.2 168.3 143.2 134.2 148.6 159.5 163.8 168.6 177.4 181.6 189 196.2 203 209.1 214 215.8 217.5 217.6 220 215.8 214.6 210.3 213.7 226.8 232.6 235 237.5 238.9 240.1 239.7 238.6 237.1 234.3 230.3 225.5 220.6 217.2 215 211.9 204.8 202 198.7 190.7 179.6 165.5 152.4 149.8 148.4 143.3 136.9 134.2 131.9 133.3 136.4 144.3 150.3 157.9 166 168.2 170.4 179.4 186.6 192 194.7 200.1 208.1 218.1 226.4 226.7 228 229.9 233.6 238 241.7 245.9 248.3 250.6 252.2 252.8 252.2 251.8 253.2 254 251.6 249.7 246.5 242.6 238.9 233.9 231.1 231.2 234.9 239.4 243 246.4 249.5 252.4 255.3 258 260.6 262.7 264.7 264.9 263.5 260.5 256.5 251.7 246 236.9 224.6 211.5 201.5 196.7 201.3 207.9 215 219.8 225 228.2 231.3 232.5 232.6 231.6 230.1 228.7 229.4 232.8 234.7 240.8 246.3 250.7 252.4 253.8 255.8 258.2 260.1 259.6 258.5 256.8 254.2 251 245.6 239.9 236.7 232.6 228 220.7 215.4 217.3 211.3 207.7 202.7 198.3 194.4 188.8 184.7 181.1 178.5 172.7 168.4 162.3 155.6 147.7 139.5 131.2 123.2 121.2 117.9 116 115.1
110 110.3 110.8 110.5 110.8 110.8 110.3 110.2 110.3 111 120.8 130.4 142.7 155 163.9 167.3 168.1 168.5 170.7 172.2 173.7 176.3 177.6 179.7 180.8 182.3 183 183 181.6 179.6 176.7 167.9 143.2 130.4 140.2 146.9 146 150.8 159.1 176.2 184.4 191.3 197.6 203.5 205.9 207.6 207.8 208.2 208.8 195.5 194.1 194.1 215.5 226.8 230.4 234.4 236.7 238.2 238.6 238.3 237.4 234.4 231.7 226.7 221.4 217.6 215 212.6 209.6 203.1 199.6 189.8 176.9 165.2 151.2 146.2 142.8 141.4 139.1 137.1 135.3 132 132.8 135 141.5 149.2 158.7 167.2 171.9 174.1 179 187.3 192.1 195.7 202 209.9 216.7 223.4 227.2 229.2 231.7 235 237.5 240.2 244.2 246.6 248.4 249.3 249.8 249.7 250.3 251.4 251 250.5 248.1 245.7 242.9 239.4 233.7 229.4 229.9 235.1 238 240 245.3 248.4 251 254 257 259.9 262.4 264.6 265.4 264 261.5 257.5 253.1 245.6 238 229.3 219 211.1 203.1 197.3 206.1 214.2 219.3 223.9 227 228.1 228.8 228.4 227.7 227 226.1 227.8 230.8 234.8 241.2 245.5 248.2 250.5 252.2 253.6 255.5 256.7 256.1 254 252.5 250.9 247.6 242.9 237.9 234.6 230.6 225.6 218.9 213.8 215 211.2 206.7 202.9 197.4 193.9 189.3 185 181.4 177.2 171.5 167.1 161.5 152 139.7 133.5 126.4 122.9 119.4 116.4 114 113.3
113.6 108.9 109.5 108.7 109.1 108.4 108.3 108 107.9 111.1 119 129.4 138.6 149.6 156.5 158.4 158.9 159.5 162.6 165 167.2 170.3 172.5 175.3 176.7 178 179.3 178.2 176.7 175.2 172.1 165.3 142 128.5 133.3 141.1 154.9 165.8 169.6 174.5 180.4 187 192.7 195.1 198 198.9 199.3 200 189.6 179.2 176.5 193.3 217.4 225.9 229.8 233 235.6 236.5 236.5 235.8 233.8 229.7 225.5 221.2 217.5 215.4 213.1 210.4 201.6 195.4 186.8 173 163.1 152.5 147.8 147.7 146.8 147.8 145.3 141.9 136.6 131.7 131.1 132 136 143.9 154.5 164.5 169.2 177.4 182.2 186.6 190.6 195 202.5 209.8 217.5 223.4 226.1 229.1 231.5 234.4 237.1 239.5 242.3 244.8 246.7 247.5 248 247.7 248.5 249.9 249.7 248.6 246.8 245.1 242.2 238.9 234.9 231.1 228.1 233.4 236.4 239.7 244 247.1 250.1 253 256 258.9 261.8 264 265.3 264.8 263 259.2 254.8 248.7 241.5 231.2 221.8 213.9 206.1 194.4 203.2 213.4 218.6 221.8 224.1 224.7 224.9 224.5 223.8 223.3 224.1 226.2 229.9 233.7 239.5 243.3 245.5 247.1 249.5 251.2 252.9 253.9 251.6 250.9 250.1 248.3 244 239.2 235.5 232.3 227.9 223.2 218 214.2 209.3 207.3 204.7 201 196.8 193.6 190.1 184.2 182.5 176.8 170.7 167.9 159.4 149.5 140.3 129.3 125.6 121.8 117.6 114.6 113.1 111.9
123.7 124.4 122.9 116.2 109.8 107.7 108 107.3 107.1 108.5 113.2 125 133.2 141.2 146.1 149.2 151.1 153.5 155.8 158 160.9 164.2 167.6 170.4 172.6 173.6 174 173.7 172.3 170.2 166.9 160.9 136 127.6 134.9 151.6 159.3 164.1 166.9 172.1 178.2 183.4 187.6 190 191.8 189.7 192.2 182.4 169.3 164.5 175 199.4 216.1 224.6 228.6 231.1 232.1 233 232.7 231 227.2 223.3 220 217.1 215.1 213.2 211.2 205.7 196.8 182.9 171.7 158.6 151.2 150.5 151.3 151.9 152.4 151.3 146.8 142.9 139 131 130.7 129.9 129.4 134 144.4 154.7 162.7 172.1 177.1 182.5 188.9 194.2 201.3 209.1 216.3 221.7 225 227.7 230.2 232.7 234.9 238.1 241 243.6 245.3 246 246.5 246.1 247.4 249.3 249 248.3 247.1 245.1 242.7 239.2 235.5 231.4 222.5 230.2 233.8 238.6 243 245.4 248.1 251.7 255.2 258 260.5 263.1 264.9 265.3 264 260.6 256.2 251.4 243.1 234 225 216.4 207.5 192.5 202.8 212.6 217.2 219.6 220.8 221 221.3 220.3 220.2 220 222.5 225.8 228.9 234.3 238 241.3 243 245.2 247.2 248.4 249.5 249.3 248.7 248.2 247.2 243.9 239.5 236 233 229.7 226.5 221 216.7 212.7 208.8 204.3 201.7 198.5 194.9 191.4 187.7 183.9 179.4 174.7 171.5 167.8 156.4 146.2 134.9 127.8 124.7 121.1 115.4 112.6 111.6 111.6
141.1 141.8 141.4 137.6 132.8 125.9 118.2 112.1 106.1 106.3 106.3 116.3 124.5 132.4 136.8 139.4 143.3 146.4 148.9 152.5 155.8 159.6 162.2 165.9 167.9 168.2 168.6 169.9 168.4 166.3 162.2 154 143.2 127.6 128.8 147.9 155.7 160.2 164.8 170.6 175 179.6 182.9 184.3 180.9 179.3 180.3 166.3 157.1 166.2 181.6 204.3 218.5 223.1 226.5 228.4 229.1 228.6 226.5 224.3 221.8 218.8 215.9 214.3 212.8 211.3 209.5 203 190.4 172.8 161.7 155.7 154.7 155.4 156.9 157 153 151.4 146.9 143.7 142 137.8 130.8 129.4 129.9 129.1 128.2 141.6 157.4 167.8 172.9 180 185.1 194 201.5 208.5 215.3 220.1 223.1 224.8 227.3 229.7 232.1 237.2 240.3 242.5 243.9 244.5 244.8 244.9 246.4 248.2 248.2 247.8 246.9 246 244 241 237.1 232.2 226.2 227.3 232.2 238.2 240.9 242.9 246 250.1 254.1 256.8 259.3 261.8 264.3 265.6 264.9 261.5 257 252.2 245.3 237.2 229.1 220.1 209.3 191.4 202.1 211.1 214.6 216.3 217.1 217.4 217 217.2 217.1 218.4 220.1 224.2 228.9 232.5 235.9 238.4 240.7 242.3 243.9 244.9 245.7 245.6 246 245.7 243.3 239.7 235.7 233.1 230.4 227 223.1 219.2 215 210.9 206.6 201.5 198.2 196.4 193.7 188.5 185 182.8 177.2 174 170.9 166.5 156.2 144.1 133.7 127.5 123.7 119.7 114.4 111.4 110 109.9
154.4 156.1 153.8 152 146.5 140.6 133.6 121.7 106.5 105.4 105.1 110.5 118.1 123.6 128.9 132.5 136.4 140.2 143.7 148.5 152.3 155.5 158.5 161 162.1 163.3 164.7 166.2 164.6 163.4 159.1 147.7 136.2 127.8 124 138.5 147.4 155.2 162.5 168.9 171 172 173.4 170.8 163.1 168.2 162.7 154.3 160.4 178 198.1 213.5 218 222 224.1 225.5 226.1 225 222.8 220.1 217.3 214.6 212.6 211 209.2 208.8 206.8 196.9 179 166.8 159.8 158.2 159.3 159.7 159.7 159.2 156.1 154.1 149.6 146.7 147.1 144.7 143.5 139.3 133.1 129.4 128 132.1 146 162.8 172.9 176.3 183.4 192.7 200.3 207.3 212.7 217.3 220.8 221.5 223.7 225.8 231.1 236.5 239.3 241 242 242.2 242.2 242.2 244.2 245.8 246.5 247.3 247.1 246.8 244.7 241.7 237.7 232.9 224.9 222.2 230.4 234.6 237.6 240.6 245.1 248.5 252.2 255.5 258.1 260.7 263.1 264.3 264 261.4 257.3 252.5 246.6 239.9 232.2 224 211.1 189.5 198.3 208.2 211.4 212 212.5 212.8 212.6 213.9 214.6 216.9 219.8 223.3 227.8 230.7 233 235 237.2 238.9 240.6 241.4 241.9 242.1 243 241.5 239.1 236 233 230.4 227.8 224.3 220.7 216.9 212.7 208.6 204.2 198.8 194.6 192.9 190.7 187.3 185.5 181 176.1 172.6 167 157 154 142.3 131.4 126 123.9 120.4 113.6 109.9 109.1 109
161.6 163.1 162.5 159.5 156.5 150.7 145.2 132.9 114.4 105.9 104.7 104.9 109.1 115.6 123.1 127.7 131.7 135.9 140.5 144.2 148.6 151.6 154.2 155.9 158.3 160.4 162.1 162.4 162.6 161.6 158.6 154.7 148.7 130.7 121.9 131.3 138.7 145.5 151.5 156 158.8 156.8 154.5 152.2 155.1 153.9 148.8 153.8 168.1 195.4 210.5 214.6 217.8 220.3 222.1 223.2 223.3 221.6 219.8 217 214 211 209 207.4 205.6 203.3 199.8 191.2 176.3 165.6 159.8 163.3 164 163.1 162.7 162.7 161.8 162.3 162.3 161.7 153.1 149.5 145.6 141.2 134.8 129.8 128.6 127.8 137.3 158.3 168.2 170.6 181.6 189.5 197.4 203.9 210.5 212.6 215.6 217.2 219.3 223.1 230.1 233.7 236.6 237.8 239.5 240.5 240.2 239.3 241.6 244.2 246.5 247.6 247.3 247 245 241.7 237.5 232.8 223.6 217.5 227.2 231.8 234.6 239.4 243.7 247.6 250.6 253.9 256.9 259.2 260.8 262.3 262.2 260 257 253.1 247.8 241.9 234.9 227.1 214.8 190.8 191.9 201.2 205.6 207 207.7 209.5 210.8 211.9 214.1 216.6 219.1 222.6 226 228.9 230.6 232.3 233.8 235.5 237.2 237.8 238.2 238.9 239.2 238.2 235.8 233 230.4 228.1 225.1 221.5 217.7 213.9 209.4 205.8 201.9 196.4 192 189.4 188.3 184.6 182 176.3 174.2 170.8 159.1 154.7 144.8 136.4 130.1 126.2 123.4 118.9 112.1 108.5 108.3 108.4
167.5 168 166.1 164.4 161.4 154.5 147.1 139.1 122.9 112 106.4 104 105.7 110.6 118.8 123.4 128 132.1 135.9 140.8 144.6 146.6 148 151.9 155.2 158 159.8 160 159.8 158.9 158 155.9 152 135.4 122 124.2 130.5 133.7 136.9 139.2 141.5 141 139.8 140.7 141.5 143.4 154.4 169 182.9 200.1 211.7 215.1 217.3 219.4 220.6 221.4 221.3 219.6 216.9 213.6 210.5 207.2 205.4 203.9 203.4 201.6 198.8 187.3 173.2 164.5 164.4 166.7 167.8 169.1 170.2 168.6 169.1 171 176.2 178.3 172.5 165.3 156.4 147.5 138.1 130.9 128.7 128.2 127.3 145 154.9 159.3 172.5 183.4 192 198.6 204.5 208.4 209.2 211.6 215.7 220 225.3 228.4 231.8 233.8 237.7 238.9 238.2 234.8 238.4 242.7 245.9 247.1 247 246.3 244.3 240.7 236.9 231.6 221 213.9 220.7 229 233.6 238.4 242.9 246.9 250.2 252.6 255.5 257.5 259.2 260.8 260.6 258.8 256 252.3 247.1 242.2 236.5 229.4 221.4 197.2 188.1 193.5 198.5 200.7 204.2 206 208 211.8 213.9 216.5 219.2 222.4 224.5 225.7 227.7 229 230.5 232.1 233.8 234.6 234.6 235.8 236.3 234.8 232.7 230.1 227.8 225.5 222.4 218.8 214.9 210.1 205.6 202.5 197.6 193.4 189.4 187.4 183.9 182.4 178.3 175.7 172.9 165.3 155.7 148.4 137.6 133.1 128.6 125.4 122.9 116.8 108.9 107.8 107.4 107.2
175.1 174.3 169.7 165.7 160.9 151.4 145.2 138.7 130.9 117.6 108.6 103.7 104.2 107.1 115.5 121.2 122.6 128.6 134 136.4 138.4 141.4 144.9 150 153.2 156 157.6 158.5 158.2 158.4 158.5 157.9 150.1 131.8 120.7 119 122.1 123.5 124.8 126.8 128.5 130.3 134 137.3 145.6 158.2 173.7 191.3 205.5 210.4 213.4 215.7 217 218.9 219.9 220.3 219.4 216.8 213.7 209.8 205.5 202.8 201.6 201.6 201 199.6 196.6 185.9 171.6 166.6 169.8 171.4 173.4 176.6 175.7 176.3 177.2 183.4 187.3 186.9 184.4 177.8 165.8 153.8 141.9 137.3 136.2 127.7 126.9 128 140.8 149 159.6 170 183.6 190.1 196.6 199.4 201.9 206.2 212.1 217.4 221.6 225.8 228.9 231 233.6 233.1 232 228.9 234.4 238.9 242.4 244.9 245.6 244.9 242.1 239.1 234.2 228.9 214.6 212.6 223.3 228.7 233.4 239.4 243.5 246.8 249.5 251.8 254.1 255.9 257.6 259.1 259.1 257.3 254.3 251 246.8 241.9 237.2 230.9 223.6 207.6 190.4 186.4 190.6 194.8 198.5 205.2 208.8 212 214.2 216.2 218.4 221.1 222.3 223.3 224.1 225.4 227 228.6 230.1 231.1 232.1 233.2 233.4 231.8 229.7 227.5 225.2 222.9 219.9 216.2 211.7 206.1 201.7 197.6 192.3 189.8 184.9 183.2 179.9 180 175.9 175 168.8 158.4 152.2 143.7 135.5 129.8 127.1 124.6 121.3 115.3 108.1 107.3 107.1 107.1
181.2 179.7 172.4 162.2 153.2 145.5 138.6 134.3 125.4 116.4 108.9 103.9 103.6 104.7 112.9 116.7 122.7 126.4 128.5 129.8 128.8 137.6 142.7 147.8 150.7 152.9 155.4 156.6 158.2 159.6 160.5 155.7 141.2 124 118.5 118 120.3 122.8 124.9 126.7 128.3 131.9 136.8 144.5 161.8 176.6 189.2 202.3 208.6 212.9 215.4 216.8 217.8 218.1 218.9 218.5 216.6 213.6 210.5 207.2 202.3 197.9 195.4 197.4 198.1 197.6 194.3 183.7 169.2 170.5 173.2 175.9 179 181.2 182.7 183.1 185.5 189.7 192.6 192.3 190.9 186.7 178.3 166.1 152.6 146 143.1 139.1 131.1 126.7 127.2 142.6 149.5 160.2 170.2 181 187.2 190.1 198.2 202.1 209 213.7 219.4 223 226 228.2 228.1 227.9 225.3 222.9 223.4 235.2 238.9 240.7 240.4 240.7 238.2 235.5 226.4 215.5 203.9 217.3 223.3 229.6 235 240.3 244 247.3 249.8 251.8 254 254.9 256.2 257.1 256.8 254.8 251.9 248.3 244.4 240.9 236.9 231 224.1 212.3 202.4 187.7 183.4 197.6 201.9 205.3 208.4 211.3 213.2 215 217 218.9 219.4 219.7 220.6 221.9 223.1 224.2 225.2 226.8 229 231 230.6 228.9 226.9 224.8 222.7 220.5 217.9 213.7 207.4 201.5 197.1 192.6 188.5 185.6 182.5 180.2 175.9 174.7 171.2 166.9 162.6 153.3 147.5 138.5 131.9 127.9 125 122.8 119.9 116 106.8 106.8 106.4 106.4
186.1 180.7 171.6 157.7 144 133.5 127.8 121.4 115.6 112.1 108.3 102.8 102.7 104.8 108.5 114 117.8 120.3 121.5 123.8 130.1 135.8 139.9 144.6 148.2 151.2 153.7 155.3 159 162.7 157.2 146.3 128.6 117.4 116.7 120.2 124.1 128 130.4 133 134.8 139 148.1 158.7 170.8 185 195.7 205.1 211.1 215 217.6 218.3 218.3 217.9 217.7 216.1 213.5 210.4 207.7 204 199.5 193 187.5 185.5 189.6 193.9 192 179.6 171 177.4 180.4 181.5 183.2 185.6 187.4 189 191.9 196.7 199.9 199.3 197.6 196.1 190.3 177.8 163.8 153.4 147.1 139 133 127.2 125.4 140.3 146.7 153.3 162.9 173.3 180.4 188.7 195.1 198.5 204.6 210.7 217.8 221.3 224.1 225.3 225.5 223.8 217.1 217.8 221.2 229.2 233.3 234.5 235.2 234.4 232.6 222.8 205.4 204.1 213 218.9 227.3 232.5 237.4 241.7 245.1 248.3 250.6 251.9 253.9 255 255.3 255 254.4 251.9 248.6 244.6 241.9 239.2 235.4 230.5 224.1 215.3 204.9 196.2 181.7 194.5 200.6 203.8 206.5 208.8 210.9 211.4 213 215.2 215.6 215.9 216.6 217 218.6 220.2 220.8 224.2 227 228.4 227.9 226.2 224.2 222.3 220.2 218.2 215.9 209.8 203.1 198 194.1 189.9 185.5 184.1 180.1 177 171.1 170.1 164.3 157.6 153.3 149.1 139.8 133 128.9 126.2 123 120.4 117.5 111.6 106.4 106.3 106.3 104.6
188 180.5 168 147.5 135 126.3 120.7 116.5 113.7 110.9 107.8 105.1 102.7 102.7 105.4 110.7 114.3 114.8 120.7 124.3 130.7 136.5 141 145 147.8 149.8 151.8 154.9 159.2 155.7 150.5 132.4 119.9 114.1 117.6 127.4 140.1 147.3 152 153.1 155.1 159.9 168.5 178.9 186 194.9 202.2 207.3 212.1 215.8 218.1 218.5 218.1 216.9 215.7 213.4 210.3 207.8 204.9 201.2 194.6 189.4 184 180.3 181.4 184.3 178.6 171.9 178.5 184.7 185.4 186.1 188 190.3 193 196.7 200.7 204.4 205.5 206 203.7 201.4 195.8 187.1 172.9 160.3 151.4 144.4 135.5 126.7 125.4 138.3 143.2 149.4 157.1 167.4 175 183 189.7 194.9 200.9 208.4 215.7 219.7 221.7 222.8 222.7 221.1 208.9 208 218.5 219.5 228.1 228.8 228.2 227.6 222.5 203.8 198.8 207.8 217.3 225.4 231 235.2 239.7 242.7 246.1 249.1 251.7 253.1 254.8 256.1 255.7 254.1 251.9 248.2 244.3 242.5 240.3 237.1 233.4 228.8 222.8 214.7 206.5 196.2 180 188.6 196.6 200 202.5 204.6 206.5 207.7 209 210.9 212.5 211.9 213 214 216 218 221 224.5 225.8 226 225.2 224 222.3 220.4 218.4 217.1 211.8 206.3 201.2 195.6 191.2 186.8 183.2 179.1 176.1 174.4 171.3 165 151.5 148.7 145.1 138.8 133.2 128.4 125.5 123.6 121.2 118.4 114.7 108.7 105.9 105.5 105.3 105.8
189.3 168.8 154 158.8 156.1 139.7 124.5 117.1 113.3 109.8 107.5 104.3 101.8 102.5 103 108.6 109.1 114.2 120.4 125.2 131.2 136.3 140.2 143.7 145.5 147.4 148.1 151.1 151.3 147.4 135 121.9 113.4 115.3 121.9 138.6 155.2 165.7 171.9 174.8 176.6 184.4 188.6 193.5 197.6 201.1 204.9 208.7 212.3 215.1 217 217.2 216.2 215.6 212.7 209.9 207.3 204.7 201.7 196.8 190.3 183.9 179 177.3 177 175.8 174 173.8 183.7 188.1 188.3 189.6 192.3 195.9 200.9 205.3 208.2 210.3 211.2 211.1 209.3 205.5 201.2 192.7 177.8 167.8 162.8 156.7 147.3 130.1 125.4 131.1 140.5 145.2 153.5 162.8 171.7 177.8 183.8 191.4 198.3 206.3 212.7 216.6 219 220.3 220.1 218.9 206.1 202.4 210.1 219.3 219.9 221.7 221.5 219.8 206.2 190.5 203.4 212.4 222.6 230 234.6 238.3 241.7 244.7 248.1 250.6 252.5 254.6 256.3 257.2 255.8 252.7 249.4 244.8 241.5 240.1 237.1 234.2 229.7 225.1 219.6 214 203.4 197.1 184.9 178.4 190.6 194.3 196.4 198.6 201.9 204 205.2 207.2 207.6 208.8 211.1 214.3 216.9 218.8 220.9 222.1 223.1 223.3 222.8 221.6 220.4 218.7 217 213.9 209.9 205.6 200.5 192.8 188 184.1 179.9 176.2 173.5 171.5 171.2 163.4 154.5 144 135.9 131.4 128.3 124.3 123.6 121.8 119.4 116.7 110.6 105.8 105.6 104.7 104.6 104.8
181.7 180 180.4 177 170.2 159.9 143.3 128.9 121.6 112.2 106.6 103.9 101.7 101 102.4 105.3 110 115.8 120.4 125.6 129.6 133.7 137.6 140.9 141.6 137.1 138.3 140 139.5 132.3 121.7 113.1 113.3 119.6 131.6 151.4 166.9 173.9 178 182.9 187.5 191.1 194.9 198.1 200.8 203.8 206.2 208.9 211.5 213.5 214.7 214.9 213.5 212.1 209.9 207.1 203.8 200.9 197.5 191 183.2 179.2 177.6 176.4 175.3 175.2 174.1 176.3 178.2 184.3 189.7 192.4 197.4 202.2 205.9 209.8 212.5 214.9 215.8 215.4 213.7 210.7 205.5 195.8 185.2 177.7 172.7 165.8 154.4 134.7 124.8 131.2 134.9 140.1 148.3 156.9 166.7 173 180.6 188.5 196.6 202.1 208.4 213.5 216.4 217.4 217.4 215.8 203 195.6 194 204.2 208 210.4 208.6 208.2 191 196.1 206.1 218.3 226.1 232.5 236.8 240.6 245.1 248.1 250.2 252.1 253.7 255.2 256.4 256 254.2 250.9 246.8 241.7 239 236.6 233.5 229.9 226.4 221.4 214.3 208 202.3 195.2 189.2 176.2 185.5 189.3 190.8 194.4 196.7 199.3 200.8 204.4 206.2 208.4 210.8 214.1 216.5 217.9 219.3 219.8 220.6 220.6 220.4 220 219 217.6 215.9 212.9 210 205.8 199.3 190.7 183.8 180.9 176.6 171.9 167.9 170.8 172.2 161.3 154.8 142.6 132.1 126.5 125 123 121.9 119.7 116.4 112 105.6 105.3 105.1 104.8 104.5 104.4
196.7 195 190.6 185 176.6 165.7 152.4 139.1 127.1 112.2 106.7 104.1 101.7 101 101.6 103.4 113.9 118.5 122.4 125.7 127.4 129 130.3 127.4 123 121.2 121.8 123.4 121.5 116.9 114.1 109.9 118 127.5 146.4 164.8 171.8 176.8 182.1 186.3 190.7 194.6 197.5 200.1 202.2 204.4 206.4 208.2 210 211.8 212.1 212 210.9 209.2 206.8 203.4 199.6 196.6 189 183 180.1 177.9 177.7 176.4 176 175.5 176.3 176.8 178.7 182.9 188.7 193.9 200 205.4 209.4 213.3 216.2 218.3 219.9 219.3 218 214.8 209.5 200.1 194.7 190.9 186.3 178.7 164.7 143.3 124.5 126.3 130.9 135.7 142.4 150.1 159.4 169.8 177.3 184.9 192.1 198 205.1 210.3 213.5 215.1 214.7 212.1 206.8 191.8 185.8 185.9 192.6 192.2 197.5 198 182.7 198.1 210 220 228.1 234.2 239.4 244.2 247.4 250 251.8 253.2 254.2 255.3 254.7 253.3 251.1 247.9 244.2 239.2 236 231.9 229 225.4 222.7 216.9 208.7 200.9 195.4 190.8 186.8 174.9 176.8 186.2 189.3 192.6 195.3 198.2 202.7 207.1 209.2 211.6 214.7 214.7 216.1 216.8 216.9 217.7 218.2 218.2 217.8 217.8 217.5 216.1 214.7 212.5 209.4 204.4 197.5 189.6 182.8 177.2 170.8 167.6 161.3 166.4 162.9 159.2 148.5 135.6 126.1 124.2 121.7 120.2 119 116.1 111.7 107.3 105 104.6 104.3 104 103.7 103.3
201.7 199 195.2 189.1 181.1 167.8 151.5 134.5 118.5 111.5 107.4 104.1 102.2 99.3 101 100.9 113.8 119.1 122.9 123.6 122.7 120.2 115.3 111.1 108.8 107.3 108.9 110.5 110.7 110.3 109 117.4 125.8 141.3 160.9 168.9 174.2 179.2 183.8 188.3 192.8 196 198.4 200.4 202.6 204.8 206.6 208.3 208.8 209.3 209.5 209 208.5 206.4 203.6 200.3 196.9 190.4 183.6 180.8 179.9 179.4 179.4 178.7 177.6 176.7 178.8 178.7 176.8 182.1 188.2 194.7 201.4 207 211.9 215.7 219.3 221.8 222.9 223.3 221.7 219.6 215.1 210.4 206.1 200.3 194.9 189.6 175.4 152.2 126.6 124.1 128.9 134.2 138.6 142.8 148.8 162.4 172.1 178.8 186.6 194.7 200.6 206.7 209.8 211.4 211.1 208.3 204.2 194.1 176.4 172.4 175.6 180.9 184.8 182.3 183 204 212.7 222.4 230.5 237.3 242.1 246.1 248.8 251.1 253 254.1 254.9 254.1 252.9 250.5 248.6 245.1 241.5 236.9 232.5 228.5 224.5 221.6 217.1 205.9 196.5 192 186.4 180.7 175.2 173.5 179.9 188.5 194.3 198.8 198.1 200.7 205.6 209 211.5 213.5 215 217.1 218.3 217.3 216.4 216.2 216.1 215.4 215.1 215.3 215.3 214.7 213.3 211.5 208.2 202.9 196.5 188.5 181.5 174.8 168.8 164.1 158.3 157.3 155.6 148.4 136.8 128.8 124.7 123.7 121.9 117.8 114.6 112 107.9 105.6 104.4 104 103.6 103.3 102.7 103.5
