ncols 200
nrows 88
xllcorner 260000
yllcorner 572400
cellsize 50
272.9 270 264.2 258.8 249 247.4 242.6 231.3 222.8 214.9 205.9 196.9 190.9 184.3 179.5 179 186.7 189.8 193.8 197.6 198 200.9 203.8 203.7 204 209.2 204 198.8 194.1 187.9 183.8 179.4 173.1 167.7 162.2 155.7 150.4 147 142 136.9 129.4 117.7 110.5 102.1 97.6 92 84.1 76 70.4 72.6 73.2 62 64.7 70 72.8 82.5 91.7 103.7 109.4 107.1 109.2 113.6 107.8 105.6 97 89.3 77.1 69.5 70.8 56 52 46.6 45.4 45.6 44.6 44.6 46.4 46.4 45.6 45.7 46.6 46.5 44 44 46.7 49.4 56.8 63 70.2 71.3 75.4 77.6 80.1 83.1 85.5 87.4 87.3 87.9 91.5 97.4 101.3 100.3 98.2 93.6 92.3 89.9 88.2 93.6 97 89.7 90 101.1 98.4 90.3 89.5 89.4 91.7 91.6 94.3 94.2 92.2 87.8 86.9 87.6 88 88.6 88.2 89.5 88.6 89.5 88 89.3 89.7 91 92.9 93.7 95.1 96.4 96.5 95 92.1 90.4 99.4 107.3 110.1 104.1 96.4 97.5 104.4 103.6 99.2 101.4 101.2 101.3 112.8 122.1 117.3 110.1 111.9 120.5 119.9 128.3 133.5 138.6 144.3 148.6 149.8 150.3 151.1 151.4 155.1 153 161 168.5 167.4 162.4 159.6 154.8 157.2 151.4 150.2 148.9 148.6 151.1 150.8 147.6 146.2 145 146.4 146.3 144.3 146.6 148.3 148.6 149.9 152.5 148.5 148.3 149.7 153.2
263.1 263.5 259.5 259.7 250.1 241.6 239.1 231.9 220.1 213.8 205 198.4 190.6 184.8 179.9 179.6 186.5 192 195.9 198.4 202.8 204.9 210.1 208.1 205.3 204.4 203.2 198.7 193.6 189.3 185.9 179 174.4 168.4 163 154.5 149.3 144.9 138.9 133.4 129.8 122.7 120 112.5 105 94.7 88.7 83.5 75.7 75.8 81.9 78.3 61 63.5 66.3 70.3 80.8 89.3 101.8 104.4 106.6 110.4 110.4 110.4 100.7 86.8 78.1 66.8 57.4 54.3 46.6 45.4 44.7 44.8 45.9 45.1 46.7 46.6 45.4 45.8 46.2 46 44 44 46.5 51.5 57.5 64.7 68.2 72.5 75.7 76.2 84.3 81.9 86.2 87.4 86.6 86.7 88.2 94.1 98.6 100.3 95.2 92.7 89.2 88.4 87.3 87.7 91.9 92 89.9 94 99.2 90.7 89.1 89.2 90.7 91.9 94.5 91.4 89.1 87.7 86.3 86.3 87.6 87.8 87.6 88.5 89.1 88.3 88.4 88.8 87.5 89 91.8 94.5 92.2 92.8 95.4 93.1 96.2 88.8 96.1 96.1 102 98.6 95 97 97.6 99.3 97.6 98.6 100.6 109.7 116.8 125.6 129.9 115.9 111 120.6 125.2 129.3 137.9 144.4 145 149.4 151.8 153.8 154.9 154 156.4 155.2 159.3 167.6 168.9 165.9 163.8 160.2 158.9 155.3 150.6 149.5 149.6 153 151.2 148.4 148.4 145.1 147.9 146.7 147.1 148.6 153.6 150.8 150 150.2 153.8 156.9 156.3 157.6
255.1 252.9 251.7 246.9 243.2 236 229.7 226 217.7 209.6 202.5 196.3 192.4 186.5 180.6 182.1 187.2 194.5 193.2 199.9 210.6 210.2 213.3 211 208.5 204 200.5 197.1 194.7 188.9 188.6 182.8 178.8 170.5 162.2 154.2 148.3 146 136.4 130.9 124.8 121.7 123.3 119.7 108.8 99.1 91.5 87.2 80.4 76.5 80.2 79.9 69 59.8 62.9 67.5 69.9 82.5 97.5 102.3 106.8 110.5 115.9 116 102.8 85.1 79.5 64.9 54.6 47.9 46.4 45 45.1 44.8 46.6 46.7 46.4 45.9 45.6 44.9 46.5 46.4 44 44 47.6 52 58.1 64.8 68.7 75.1 78.2 75.4 78.7 80.7 81.6 87 86.3 87 90.5 92.3 96.4 99.2 96.4 93.2 89.8 87.6 88.3 86.8 88.3 90.9 89.9 90.2 95.3 91.5 87.2 87.9 91.2 89.4 91.2 91.3 89.8 87.6 85.2 85.5 88.7 87.9 87.1 87.2 88.2 89.5 89.5 87.9 87.3 88.6 90.5 90.9 89.6 90.4 90.6 93.7 94.3 92.1 93.2 92.5 94.3 94.9 95.5 99.7 97.6 97.2 97.2 98.3 101.3 110.4 117.2 123 134.7 127.4 119.3 126.8 134.1 136.9 139.9 142.4 148.3 152.1 155.8 156.2 157.2 162.7 156.7 157.1 159.4 166 167.7 167.3 166.9 160.9 158.9 160.1 152.2 153 150.9 149.7 150.1 150.3 146.9 146.1 146.4 146.8 147.6 150.1 152.6 150.6 151.4 152.4 161.5 163.9 165.4 162.4
250.2 246.5 240 234.8 233.5 226.2 219.4 218.5 213 205.6 198.8 194.5 191.3 186.6 182.1 182.3 186.9 189.6 193 205.3 212.3 212.3 212.3 213.2 212.2 206.2 202.4 198.4 197.5 194.1 192.6 184.7 178.2 169.4 162.5 157 148.8 141.2 137.1 129.5 122.9 120.5 121.8 120.9 113 102.3 97.1 90.3 85.5 81.5 77.1 72.2 65.5 62.8 58.4 60.4 69.5 71.2 83.7 97.9 104.1 108.6 106.8 102.7 94.6 83.6 74.3 61.1 47.7 46.2 45.7 45.5 45.9 46.6 44.6 46 46 45.9 46 45.1 45.9 45.9 44.1 46.2 48.4 52.3 58.6 64.3 71.1 75.8 73.6 77.5 78.1 81.9 82.2 83.8 87.3 89 88.6 93 93.5 97.9 97.9 96.3 88.5 87 87.3 94.6 91.1 89.1 88.6 88.5 87 90.1 86.2 87.9 88.9 88.5 87.8 89.9 96.3 90.2 85.7 86.6 96 97.4 88.7 87.2 85.5 85.1 87.2 87.4 86.9 87.9 87.5 87.2 91.3 94.5 93.7 90.8 91.3 89.6 88.8 96.5 106.4 101.3 95.7 96.6 98.2 97.8 98 98.4 99.2 108.2 115.7 123.3 133.9 130.9 121.2 127.6 137 145.7 144.8 144.1 148.9 154.6 162.7 159.8 161 161.7 160.2 158 159.8 165.4 166.7 165.7 164.7 164.2 162.3 157.1 154.6 158.8 155.5 150.4 149.1 149 147.8 145.9 146.2 146.5 146.5 149.2 150.4 151.6 156 155.1 163.2 171.1 169.4 164.6
247.4 242.5 234.7 228.9 221.6 217.3 213.2 212.7 207.6 201.4 196 192.5 189.9 185.8 182.9 183.1 185.8 188.4 193.3 203.9 210.4 214.7 217.2 217.9 217.3 215 207.2 201.6 199.1 198.6 191.8 185.9 179.8 170.6 163.4 156.5 147.3 141.3 137.3 134.1 124.1 120.1 117.2 118 112.5 104.3 99.8 94.6 87.3 81.5 77.7 70.9 66.6 62.6 59.7 57.1 63.2 66 69.1 85.8 98.9 109.2 103.4 101.1 98.3 87.5 71.4 56.1 47.3 46.5 46.5 45.7 46.1 45.7 44.6 46.5 44.9 46.3 44.9 45.9 46.1 44.7 44.2 46.4 48.7 54.7 60.7 64 71.8 70.2 76.2 77.3 77.8 83.6 82.7 83.4 88.2 89.4 88.3 91.2 91.6 94.3 97.4 96.7 92.2 86.6 92.3 104 100 88.4 87 87.7 86.2 86 85.6 86.6 87 88.1 87.6 87.4 96.2 97.4 87.9 86.7 94.6 101.2 95.2 87.6 85 86.1 85.4 90.7 87.7 85.7 86.2 86.2 89 91.1 92.1 87.5 88 88.8 93.3 101.2 107.1 111.8 102 98.2 99.4 98.8 99.2 99.3 98.9 107 112.9 120 132.4 131.7 121.6 123.6 132.5 143.6 149.9 148.8 152.3 160.2 165.8 161.8 168.7 162.8 168.9 165.5 162.1 166.4 167.1 165.6 163.1 163.2 163 157.8 156.2 156.8 157.6 152.8 150.7 148.7 147.4 146.1 148 147.6 149.3 146.6 150.7 153.7 157.3 157.6 158.9 165.7 171.9 169.7
243.2 239.1 231.7 227.4 220.7 215.4 212.2 210.8 205.8 196.8 192.5 190.9 188.7 185.1 181.8 181.8 183.6 187.1 197.1 205.1 210.6 216.2 222.9 221.5 221.2 220.5 218.1 210.3 202.4 200 196.8 185 179.6 171.7 161.5 154.5 150.8 143.3 136.9 134.1 126.3 118 112.8 109.9 107.1 104.9 100.3 95.6 90.1 84.8 84.9 76.9 71.8 66 60.4 56.5 58.9 62.6 61.3 69.9 79.5 95.7 100.3 99.7 95.3 84 66.2 54.8 51.2 46.4 46 45.7 45.7 45.9 46.4 45.1 45.6 45 44.9 46.5 45.6 45 45.3 46.6 49.2 57 62.4 63.5 65.8 71.2 74.9 79 79 82 83.9 83.4 86 87.3 88.2 88 91.2 92.3 93.6 95.1 91.9 86.4 91.4 103.5 105.9 95.5 86.7 86.7 88.1 85.6 85.3 85.4 85.9 85.8 86.2 86.4 91.5 98.8 91.2 85.7 90 98.3 96 86.2 86.2 83.7 84.8 95.4 91.6 85.2 85.4 86 90.1 86.6 89.6 88.3 88.4 88.4 94.8 101 109.5 118 107.1 99.9 100.3 100.4 99.6 99.5 98.8 104.1 109.9 118.4 128.8 124.9 116.9 122.3 130.8 142 148.6 151.3 158 160.7 161.8 166.4 169.3 169.2 174.3 172.8 166.8 165.7 171.3 169.4 165.1 163.8 161.3 159.1 157.9 157.3 155.1 154.7 151 150.2 147.8 146.9 146.9 152.2 149.5 146.3 149.9 157.2 160.1 160.1 161.4 162.3 170.7 175.9
241.8 239.6 230.2 225.8 221.5 215.4 211.3 208.8 206.2 199.1 195.1 191.2 186.7 184.6 181.9 182.6 182.7 183.8 197.5 201.9 208.2 215.5 224.4 224.5 225.5 225.7 224.9 223 213.9 205 195.4 185.8 178.3 168.7 159.8 154 152.9 143.4 136.2 130.3 125.5 121 114 109.5 106.2 104.8 101.7 97.1 93.4 91.8 86.7 81.6 78.7 73.1 63.8 58.4 56.1 56.9 57.9 64.4 69.4 80.4 93.9 95.9 88.1 77.9 64.8 57 50.2 46.3 48 47.2 45.7 45.8 45.8 44.8 45.7 46.3 46.2 46.3 45 45.3 46.1 47.7 50.5 56.2 59.3 64.5 66.1 70 73.6 78.3 80.1 82.5 83.7 83.5 87.6 86.4 87.4 87.1 88.3 92 93.1 93.5 89.1 86.9 85.6 98.1 104.1 100.4 88.1 87.9 88.3 85.7 85 85 84.7 84.8 85.9 83.3 84.3 94.7 97.9 86.5 84.2 90.6 92 88 83.3 84.6 85 93.4 96.5 85.9 85.3 85.5 91.3 86.4 86.2 86.7 88.2 86.6 95 101.6 110.2 120.7 113.9 100.2 99.5 98.9 99.9 100 98.9 100.3 107 115.5 124 118.8 115 118.8 131.1 139.1 146.9 151.6 155.1 161 161.3 161 169 170.5 172.6 171.9 168.6 167.8 169.1 173.8 169.5 167.3 163.5 161.5 164 161.3 158.4 155.8 153.1 154 151.7 150.8 147.5 149.9 150.1 151.9 151.6 156.9 163.2 168.2 170.9 174.6 181.4 179.1
239.1 237.5 229.4 221.2 217.5 213.3 211.3 206.9 206.1 201.5 195.2 191.6 191.9 185.5 183.2 183.2 183.1 184.4 193.2 199 203.3 214.4 219.9 222.2 224.4 224.2 231.1 226.1 217.1 203.3 191.4 185.6 172.9 166 157.8 152.6 152.5 144.2 137.2 130.3 126 121.4 115.7 109.9 106.9 103.9 103.2 107.6 103.3 94.1 91.6 86.2 84.2 78.6 67.9 65.5 67 60.7 55.1 54.6 63.7 75 87.1 85.8 80.2 74.7 64 57.7 49.8 49 64.1 51.9 46.4 45.5 46.3 46 46 46.4 46.1 45.7 44.6 46.3 47.7 49.6 52.5 60.2 63 64.1 68.4 73.2 76.6 78.5 80.1 81.9 82.4 83.3 89.3 84.8 84.7 87.2 89.4 89.7 95.5 101.9 101.4 93.5 90.5 88.6 98.7 99.1 89.8 95.8 89.2 85.7 85.3 90.1 90.2 84.9 82.3 81.4 85.2 86.6 94.3 89.8 83.8 83.2 85.4 83.8 82.8 85 86.9 89.3 97.2 94.2 85 85 86.6 85.2 85.7 86.1 86.4 87.1 91.4 101.8 110.4 120.6 115.6 102.7 99.8 98.8 99.6 100 98.7 99.4 105.1 110.9 121.5 114.9 114.9 117.8 125.8 138.8 143.5 149.5 153.3 156.6 161.2 167.4 171.3 169.5 170.7 169.8 168.5 169.2 168.7 172.8 175.8 172.5 165.9 171.1 164.7 165.7 165 157 157.1 157.2 154.2 152.4 149 152.4 152.4 155 159.2 163 166.2 177.5 182.7 185.6 186 182.8
238.3 235.7 231.4 220.9 217.6 211.5 210.4 207.8 205.6 201 195 192.8 191.4 189.8 187.1 185.5 183.9 186 189.6 192.9 199.3 206.3 211.1 215.3 218.9 223.2 220.6 216.7 210 201.5 188.5 177.1 168.9 166.4 156.8 150.1 150.7 140.4 135.2 131.1 125.3 119.3 113.5 109.2 113.3 113.3 107.4 110.4 110.5 101.7 92 87.1 82.4 79.1 75 70.3 66.4 62.6 55.6 55.3 52.9 61.2 73 76 72 71.3 67.2 56.6 50.7 49 63.7 48.7 45.8 45.9 44.6 45.8 46.2 46.6 46.3 44.6 44.6 48.4 51.7 51.3 53.8 58.7 62.3 66.2 68.2 76 78.6 79.4 79.9 80.3 82.7 84 87.7 85.9 83.7 87 90 90.7 97.7 102.9 105.2 98.6 93.6 84.4 90.3 93.7 88.1 93 94.4 85.3 83.2 91.9 95.4 92 82.5 80.9 82.8 84.8 86.6 85.1 84.5 83 83 83.9 82.9 89.1 91.5 92.8 93.4 95 86.2 84.4 84.6 84.8 85.1 85.3 85.8 86.5 91.9 98.5 109.7 119.2 112.7 103.8 98.8 98.8 98.9 99.1 98.6 98.4 101.7 108.2 118.8 113.9 114.7 119.1 125.8 140.1 149.2 154.7 153.6 158.1 169.1 170.1 167.1 167.9 169.1 169.5 169.8 169 170.4 173.5 175.7 173.6 170.6 173.2 176.8 173.5 170.9 164.9 164.3 162.4 157.1 150.9 152.1 153.5 153 159.2 163.1 167.1 172.1 183.7 189 189.4 188.8 186.4
236.8 236.9 235.7 226.2 219.9 214.6 210.6 208.2 206.8 202.1 196.4 194.2 193.8 194.1 191.9 189.4 185.6 189.9 188.3 189.4 196.1 203.9 203.8 207.7 211.7 212.5 212.2 207.9 207.8 202 189.1 181.3 173.7 166.8 157.8 149.1 148 140.8 137.4 127.8 125.1 118.3 112.9 111.4 115 120.5 113.8 108.1 112.5 106.6 93.2 89.2 88.4 89.4 81.2 78 78 70.2 59.1 54.6 53 51.9 62.8 60.2 63.2 60.7 58.2 55 50.7 48.9 46.3 45.8 45.7 45.7 45.8 46.1 45.8 46.2 45.6 44.6 45.3 51.3 58.2 52 53.3 56.3 66.4 70.9 70.6 73.4 78.9 80.3 79.1 79.5 81.8 86 87.4 86.9 83.3 82.5 87.5 91.2 98.2 100.1 102.9 99.4 91.7 89.4 81.3 85.5 84.2 82.7 92.1 87.7 81.7 85.8 94.2 93.9 84.4 80.8 82.1 85 86.3 86 84.6 83.8 82.3 83.8 81.4 87.4 91.7 90.6 91 88 84.9 83.3 83.6 84.2 85.1 94.5 91.1 87.4 88.4 96.9 110.4 114.2 109.6 103.8 96.7 96.3 96.8 97 96.4 98.4 100.3 102.3 114.8 114 115.7 121.2 127.4 142.2 155.1 162.7 160.3 161.3 169.4 173.2 166.9 167.5 166.6 171.1 169.4 169.2 170.5 172.6 173.3 173.9 175.6 181.3 182.9 181.4 174.5 166.3 168 167.4 154.1 153.3 155.5 157.1 154.4 155.4 164.3 172.3 177.9 185.2 191.6 193.6 192.4 188.9
236.3 234.1 234 229.2 223.2 218.2 212.4 208.9 207.5 203.2 200.3 200.3 197.9 199.8 198.8 190.1 189.1 188.8 188.2 189.3 195 197.5 198.9 202.6 204.7 201.7 202.4 201.4 201.4 197.1 191.2 181.1 183.1 168.9 158.1 149.9 148.2 144.2 134 127.5 126.5 124.9 114.3 113.2 113.6 119.9 116.7 107.3 108.2 104.4 95.3 89.2 95.3 97.7 93.5 87.8 88.1 79.9 67.8 55.5 52.9 52.4 51 53.6 59.9 64.7 54.2 52.1 49.1 48 46.5 46.3 46.5 44.6 46.1 46.3 45.7 46.5 45.9 44.6 46 55.4 54.9 53.4 52.6 59 66.1 71.9 70.4 70.2 76 81.1 81 79 82.7 85.7 90.1 87.9 85.5 81.3 84.8 88.6 93.4 96 96 94.5 89.2 81.8 82.1 80.1 79.5 79 82.6 87.1 81.2 79.6 86.9 91.9 86.8 80.5 80.2 81.7 87.4 93.9 89 85.1 82.6 82.3 82.5 82.3 89.6 89.8 88.1 87.6 84.4 84 83.2 83.8 84.4 95.5 102.1 97.3 92.5 94.8 105.6 107.9 104.6 100.7 95.5 95.2 95.1 95 95.2 96.5 98.3 101.4 110.6 115.5 116.6 127.4 136.1 148.1 158.6 163.8 163.9 163 166.3 167.5 166.5 165.8 165.3 167.4 168.3 167.7 169.2 174.6 178.5 178 180.5 186.4 187.7 185.3 182.1 176.3 166.8 160.8 155.7 155.8 157.6 157.1 155.3 161.3 165.3 173.6 180.8 187.6 192.6 193 193.6 189.7
235.2 232.9 229.8 226.7 223.7 220.6 214.8 211.3 210.1 205 204.2 204.1 202.4 202.2 198.1 192 190.2 187.9 188.8 187.7 189.9 194.7 195.4 197.5 197.5 196.5 195.3 195.2 191.9 191.5 185.2 179.9 176.9 168.8 159.8 149.4 146.2 143.3 136.5 126.9 125.7 123.9 114.2 112.8 116 115 112.1 105.2 101.4 97.6 90.2 90 100.7 97.6 100.3 96.4 90.3 89.1 73 61.1 54.8 52.3 51.2 48.1 49.4 50.2 53 50.6 48 47.7 47.2 46.2 46.2 45.8 45.6 46.6 45.6 45.9 44.6 44.6 45.7 45.8 48.4 51.4 54.3 61.3 64.5 68.3 70.2 70.6 74.7 80.1 80.9 79.1 78.8 84.9 89.2 88.8 86.4 81.3 79.6 83.7 85.1 85.4 85.7 85.7 83.9 80.8 83.5 79 78.1 77.7 79.3 80.9 79.1 79.2 81.8 86.4 86.1 80.4 79.7 79.7 83.8 93.6 98.7 88.8 82.4 83.6 80.9 81.8 86.4 86.1 86.4 85.4 87.7 84.4 83.2 83.7 84.4 96.1 105.7 100.1 104.1 98.7 98.5 100.8 98.2 96 94.5 96.2 95.5 95.1 95.2 95.4 98.8 102.5 107.6 117.7 116.9 125.2 136.9 149.3 157.2 163.2 165.9 164.3 166.1 167.6 167.8 167 165.9 164 167.7 166 174.5 178.7 184.7 188.7 187.4 189.7 191.6 190.2 186.5 181.4 172.5 161.4 159.9 159 156.7 158.4 160.6 164.2 173.3 178.8 183 187.9 190.8 191.5 192.2 189.1
234.7 232 229.3 225.7 222.7 219.8 216.5 216.3 218.1 215.2 211.8 210.8 211.1 203.5 198.6 194.7 191.6 188.4 187.1 186.9 188.8 188.2 191.4 190.9 191.3 188.1 186.7 188 187 182.1 178.3 173.6 169.3 166.1 158 149.5 145.8 144 136.4 130.1 122.9 118.8 115.6 110.5 109 109.2 105.9 100.7 99.5 100.2 94.9 98.9 101.9 101.3 98.2 93.4 88.9 86.8 78 66.2 60.7 57.1 63.1 59.1 53.1 51 48.8 48.1 47.3 46.3 46.4 46.2 46.3 46 45.3 45.4 45.4 45.8 44.6 44.9 44.5 44.5 46.6 49.5 52.8 55.1 63.5 66 69.2 71.1 74.6 75.7 80.2 79.2 77.3 82.4 87.1 88.7 85.9 82.9 80.3 79.1 78.5 78.1 77.9 79.2 79.9 81.3 82.3 80.5 77.4 77 76.1 76.7 76 81.7 79.9 81.4 82 79.9 78.2 78.2 82.9 89.6 98.5 97.3 84.6 84.9 81.5 80.1 81.4 83.9 84.8 86.4 85.4 85.4 83.8 83.3 84.2 95.9 104.3 102.5 107.4 106 98.4 97.6 98.5 97.6 94.2 95.3 96.2 95.7 94.9 94.4 96.5 99.7 105.8 117.3 116.8 126 137 146.5 153.4 160.2 165.2 164.5 166.8 167.7 168.4 166.6 164.4 163.9 163.6 167.9 174.5 179.3 186 194.2 190.9 195.1 198.4 194.5 190.6 181.7 170.5 161.7 160.7 159.6 159.9 160.8 161.3 167 175.1 178.9 185.6 187.9 187.6 189.6 189.7 187.4
236.3 233.7 229.5 226.4 224.5 223.1 220.1 223.3 223.3 222.8 220.6 211.3 210.1 202.2 198.3 195.7 191.6 190.5 188.7 184.1 185 182.2 184.9 183.1 185.4 182.2 178.8 179.1 181.5 175 168.9 165.9 162.3 158.2 153.8 147.9 143 146.3 140.2 131.3 125.6 117 111.4 108.2 106.6 105.2 104.5 101.4 109.1 106.6 98.4 104.6 102.9 98.9 96.6 92.7 87.1 82 77.5 69.9 65.3 59.6 63.7 65.8 59.1 51.2 48.7 47.5 46.8 46.8 46.5 46.8 46.9 44.6 46 44.9 46.2 45.9 44.6 45.1 44.5 44.5 44.5 49.1 52.1 52.8 58.7 63 68.1 71.9 71.1 72.7 78.2 77.3 76.8 79.1 84.5 87.1 86.3 84.2 83.8 83.9 81.1 78.9 77.5 76.6 77.6 77.7 79.5 81.9 77 76.1 76 76.3 75.7 78.6 79.7 79.8 80.3 78 77.6 78.3 81.5 87.5 94.2 98.9 90.6 86.8 81.8 79.8 80.9 82.8 85.8 84.1 85.2 85.9 84 84.4 86.8 95 101.7 109.7 104.5 109.2 100.4 104.6 104 103.4 94.3 93.5 94.7 95.8 95 92.1 95.7 98.4 104.4 117.2 120.9 123.8 135.5 144.6 148.9 151.2 157.4 162.2 165.1 165.7 166.7 164.9 163.6 162.4 162.9 166.1 173.6 178.4 185.7 194.7 192.7 192.7 200.3 195 190.1 180.5 169.3 165.9 160.9 161.8 162.1 162.1 168.2 168.8 170.1 176.9 185.2 191.3 185 187.1 187.7 187.4
238.8 234.6 231.4 229.6 229.2 226.7 225.1 231.5 228.9 227 223.7 215.3 212.3 204 202.3 197 192.8 191.7 190.8 184.1 183.5 180.8 177.7 180.4 178 174.1 172.7 169.4 169.2 169.4 163.1 159 154.6 149.9 148.9 144.7 141.2 141.6 136.5 131.7 125.7 120.6 114.3 110.4 106.8 105.2 107.6 99.9 110.2 115.9 102.8 102.8 105.2 95.9 93.2 93.2 88.3 81.9 76.2 70.6 67 61.5 65.6 65.5 57.4 50.3 49.7 47.1 47.2 46.2 45.4 46.9 46.6 46.1 45.8 44.8 45 45.9 44.6 45.7 44.5 44.5 44.5 45.9 49.8 51 52 55.6 61.1 66.8 69.7 70.4 72.9 77.5 78.4 77.7 81.2 85.6 85.8 83.2 84.4 86.4 90.1 84.6 77.6 76.5 76.2 75.6 76.6 77.7 75.7 75.5 75 76.8 78.6 79.2 79 80.7 78 77.4 77.4 81.8 80.6 80.7 85.8 96.2 90.9 83.2 80.6 79.7 79.5 82.9 83.3 83.4 83.7 85.8 84.2 83.5 83.9 93.3 99.7 111 106.5 106.5 102 101 106.8 104.8 99 93.4 92.9 92.6 93.9 93 94.8 99.9 105.4 117.5 121.3 122.6 132.7 137.5 144.5 151.2 152.6 158.5 163.6 165.2 163.8 163.7 163.3 161.8 163.2 166.9 171 177.5 182.8 192.2 190.1 189.8 197.3 194.4 186 179 173.8 167.1 165.2 165.7 167.4 170.9 177.5 173.5 171.6 174.8 179.8 186.8 190.8 184.4 183.6 183.7
242.6 235.9 234.6 236.8 235 233.7 233.6 236.5 235.4 230.8 227.9 223 220.9 212 209.4 202 199.4 198.4 193.1 192.7 183.8 179.4 173.7 170 169.1 168 164.9 162.5 159.4 158.8 156.9 153.6 148.2 142.7 141.9 139.8 136.5 133 131.6 127.9 124.4 118.5 119 112.2 111.2 106.2 107.2 102.3 101.4 112 111.4 99.7 103.9 95.7 93.7 94.9 90.4 84.1 77.9 72.8 69.2 71 69 61.4 55.4 49.9 48.9 48.3 47 47.5 45.6 46.5 46.2 46.3 45.6 44.7 45.5 45.6 44.6 45 45.2 44.5 45.4 45.8 46 48.2 52.3 54.9 61.4 66 66.1 67.3 71 76.3 76.1 75.8 77.2 82.3 84.9 82.2 83.9 87.9 91.3 89.4 80.8 77.8 77.7 73.6 74 75.2 78.2 74.9 74.6 75.1 78.8 77.1 77.2 77 77.4 81.7 83.3 80.7 80.4 80.5 80.9 87 84.8 80.1 79.9 79.6 79.6 82.7 82.1 82.6 83.3 85.2 84.4 83.2 83.5 88.2 95.7 107.4 108.2 101.8 101.3 96.4 105.2 104 101.9 94.8 93.5 93 91.1 91.4 94.5 100.4 105.4 113.6 120.7 120.7 127.6 136.5 139.9 145.5 150 155 163.1 163.7 162.5 161.6 162.8 161.4 162.6 164.5 168.9 174.8 180.3 187.1 188.9 185.2 189 189.6 184.9 182.3 180.1 176.4 173.2 169.7 170.7 174.2 179.4 179 171.9 174.4 178.5 182.4 186.3 182.9 180.3 179.5
248.2 241.3 240.6 242.1 241.2 240.6 241.2 242.9 242.6 237.6 238.4 231.8 227.4 222.8 219.1 210.7 207.5 204.6 198.8 195.2 185.5 180.6 174.1 165.2 162.8 160.7 158.3 154.2 151.1 150.1 150.6 148.6 145.1 140.5 137.4 136.8 131.9 128.4 126.5 125.8 122.2 118.9 118.4 113 110.1 104.6 103.7 101.4 101.4 104.8 110.3 99.3 96.8 94.1 91.9 94.1 95.5 97.5 93.1 82.9 75 73.9 74.7 71.5 64 57.1 50 53.8 55.8 47.3 46.6 45.3 45.1 44.6 44.6 44.6 45.3 45.7 44.6 45.2 45.7 44.5 44.5 44.5 45.3 47 51.1 53.1 56.3 63.4 64.5 67.5 70.9 73.3 76.6 76.2 75.3 77.8 81.8 81.3 82.4 86.8 88.7 87.3 82.3 78.6 82 74.6 69.7 69.5 78.9 74.7 75 75.8 76.3 76.8 77.8 80.3 78.9 84.5 85.4 80.8 80 80.3 81.5 80.3 80.1 79.2 80.3 79 80.2 79.4 80.4 81.5 82.4 83.9 85.7 83.1 83.2 83 90.4 100 105.6 102.2 97.3 92.3 99.8 104.6 100.1 93.7 92.3 92.2 90.2 91 95.5 98.9 104.6 111 117.7 121.3 122.2 133.5 144.5 147.7 149.4 152 156 159.7 161.6 160.6 162.6 161 161.2 161.1 166.1 170.4 178.5 188 185.5 182.4 179.7 183 186.1 184.7 181.2 178.4 173.1 174 172.5 173.7 177.2 177 173.2 176.3 175.7 177 180.1 180.9 179.3 175.9
253.3 250.2 247.3 246.8 247.1 248.2 249.1 250.9 248.1 245.8 242.5 240.3 237.7 229.1 227.6 218.8 214.5 210.5 206.1 200.7 192.4 183.4 175.3 165.2 161.8 156.8 153.9 151.1 146.2 144.5 143.8 143.1 141.4 138.8 136.2 134.4 130.2 126.3 123.5 122.3 119.1 117.2 115.2 110.6 108.8 111.8 115 110.6 103.1 106.3 103.5 96 93.9 92.7 91.1 91.5 93.7 98.7 100.5 92 79.3 75.8 75.5 76.3 72.3 66.4 56.1 54.5 60 50.5 46.2 45.5 45 45.4 44.6 44.8 46.1 46.3 44.6 44.6 45.3 45.9 45.5 45.7 45.2 46.6 48.5 55.9 57.9 58.8 63.8 64.7 68.7 69.5 74.5 76.2 72.8 74.5 77.9 79.6 78.4 83 82.8 80.7 77.2 75.4 81.7 77 69.4 69 76 76.4 78.5 76.1 76.6 77.2 86.7 96.4 88.8 82.4 84.1 83 79.6 85.3 81.9 79.2 78.8 79.4 79.7 78.6 78.3 80.9 90.9 86.8 84 85.3 84.7 83.6 82.9 84 84.1 93 97.8 98.9 95.2 90.4 93.5 101.1 97.1 90.3 92.3 90.6 91.2 92 93.6 99.2 102.4 105.8 114.1 120.5 124.2 138.5 151.5 153.6 152.8 151.5 154.1 158.1 158.6 159.4 160 163 160.4 158.5 160.3 170.1 178.6 181.1 181.1 178.3 178.9 178.5 184.6 186.5 180.8 177.6 174.2 173 170.5 170.5 171.1 171.9 173 169.8 173.9 171.5 173.9 172.5 172.7 173.2
258.6 257.1 254.3 253.9 253.4 254.6 255.8 256.1 254.5 252.6 251.1 249.6 245.3 238 234.6 225.5 216.6 218.6 210.7 197.4 190.6 182.9 174.6 169.5 163.9 160.1 157.9 150 144.2 143.8 143.6 141.7 139.9 136.5 132.2 134.4 126.2 124.7 125.8 126 123 121.8 118.5 115.1 115.5 119.2 116.7 113.5 114 114.2 113.2 101.2 94.8 93.5 91.9 91.5 91.1 93.8 98.8 96.4 85.2 78.5 77.2 80.8 73.1 69.4 63.1 55.2 60.3 53.6 47.4 45.8 45.3 45.4 44.8 45 45.8 45.5 44.9 44.6 44.5 45.7 45.5 45.2 45.1 46.3 51.9 58.9 59.1 57.5 59.6 61.8 69.2 67.7 74.3 73.5 72.9 72.5 74.3 76.3 75.6 77.6 76.9 72 69.7 69.9 78.3 77.5 69.1 71.2 72.2 75.6 76 76.3 76.9 78.7 88.8 99.8 97.2 84.1 81.5 82.8 81.1 83 79.9 78.8 79 77.9 77.5 78.3 79.4 84.2 90.9 97.3 87 84.5 84.7 83.4 82.1 83.3 85.5 88.6 91.2 91.5 93.7 90.4 88.7 91 91.8 88.5 90.3 94.3 93.3 93 92.8 97.2 102.8 104.7 107.7 118.3 123.3 136.5 149.3 153.1 150.8 150.2 149.5 154 154.8 156.7 157.2 162.3 159.7 156.8 159.6 168.8 176.3 175.4 172.3 175.7 177.5 176.7 184.9 181.4 179.8 178.6 174 172.5 171.2 168.7 168.9 169.9 169.6 167.8 168.3 169.8 170.1 169.4 171.7 179.2
266.2 260.7 260.7 260.9 260 260 261.9 263 259.9 261.3 259.5 259.2 251.4 247.6 240 227.8 215.8 214.6 209 196.1 186.5 181.6 175.6 169.1 163.7 162.5 159.5 153.5 148.1 143.8 143.9 141.1 141.2 136.6 132.9 128 125.4 125 126.1 128.8 125.8 122.9 120.7 121.5 122.1 121.2 118.6 116.3 117.2 117.7 115.7 111.7 98.4 94.5 93.2 92.3 93.3 90.3 90.5 92.8 83.8 79 76.1 78.3 81.4 70.5 66.7 57.4 57.5 53.3 49.6 47.1 45.8 45.9 45.9 44.6 44.9 45.2 45.7 44.6 44.3 45.7 45.5 44.6 45.5 46.1 56.1 63.9 63.4 60.3 56.8 60.3 64.4 66 69.9 72.1 73.7 73.2 73 74.5 74.5 71.8 72 69.3 68.5 68.3 69.3 69 69 70.8 71.7 73.8 77.8 80.2 76.9 81.5 87.3 96.9 97.7 90.7 79.9 79.5 79.6 79.3 81.9 79.8 78.2 79.6 77.2 76.7 81.2 81.9 90.3 95.7 86.3 83 82.9 84 81.7 83.7 84 90.7 91.5 89 89.7 89.4 91.6 88 87.7 87.8 88.5 91.6 92.4 93.4 93.2 97.2 101.2 104.9 107.2 117.2 120.8 132.7 140.1 146.2 148.4 150.8 149.2 149 152.6 154.4 155.3 160.2 158.5 155.4 158.6 166.7 172.5 169 164.5 167.9 175.3 175.1 174.9 175.6 180.9 178.9 174.1 171.1 170.5 168.9 167.7 167.6 167.7 167.5 167 167.4 169.6 170.1 171.6 176.4
272.5 267.5 266.5 266.3 265.8 267.4 268 267.8 267.1 266.2 264.6 261.5 256.2 250.9 245.8 231 217.6 211.2 202.5 194.7 186.5 182 175.9 169.4 163.9 159.9 156.8 153.3 149.5 146.1 144.7 143.7 140.8 137.3 133.1 130.4 127.3 127.1 126.2 126.9 127.7 125.5 122.5 124.5 126.6 124 120.7 120.3 117.5 117.7 116.5 111.9 104.2 104.2 99 94.2 100.7 96.2 89.9 90.1 86.3 81 75.7 73.7 78.6 71.4 61.7 60.7 58.5 50.2 47 46.2 45.1 45.6 45.4 46.7 44.9 44.6 44.6 44.6 44.4 45 44.3 44.5 45.7 46.8 58.2 65.9 66.5 59.4 55.4 55 60.4 62.2 64.3 67.9 71.3 73.2 71.4 71.8 76.4 76.1 71.1 69.8 70.3 68.7 68.4 68.4 69.5 72.8 80.6 75.3 77.6 77.8 79.2 84.2 80.8 90.6 94.5 88.1 79.4 79.2 79.8 81.1 80.4 80.1 77.9 77.3 76.7 76.4 80.5 83.5 84.6 86.9 91.4 84.5 85.9 85.2 81.5 85.3 83.6 87.8 94.2 90.9 88.7 88.4 91 89.2 87.5 87.6 89.8 90.7 91.4 92.2 93.6 100 103.7 104.3 105.1 109.6 117.1 123.2 130.5 135.6 141.9 147.6 149.5 148.9 150.4 159.7 161.1 156.1 155.6 155.2 155 162.4 166.3 163 153.6 158 165.4 165 170.9 173.1 174.1 180.5 175.8 170.1 168.6 167.8 166.1 166.7 166.9 167.4 167.5 168.6 169.8 171.3 170.7 174.3
278.4 274.1 272.6 272.6 273.4 273.5 273.9 273.3 273.6 270 272.2 261.7 258.4 252.2 249 235.9 221.2 212.5 204.3 191.8 185.1 178.9 174.2 168.9 162.8 158.7 156.9 153.7 150.9 148.2 146.2 146.4 143 139.8 135 131.7 130.9 129.5 128.9 127.6 128.5 127.7 125.6 128.2 128.5 126 123 123.4 121.2 116.2 113.2 110.7 109.9 109.1 103.6 101.6 101.4 104.7 94.5 92.1 89.3 83.4 79.1 74.8 72.2 72.3 65 61.4 58.5 53.1 49.9 46.8 47.4 44.6 45.6 45.5 46.1 44.8 45.4 44.6 44.4 44.3 44.3 44.5 44.5 46.5 57 63.9 65.2 61.4 54.9 53.9 53.6 56.7 63.9 68.3 69.2 70.9 70.9 72.7 75.6 77.8 75.6 70.4 69.1 69 68.2 69.3 76.4 82.7 88.8 84.2 76.6 77.6 76.9 79.4 81.1 82.9 86.3 82.1 79.3 79.9 82.7 79.2 79.7 78.5 76.9 76.2 76.4 76.6 82.7 83.4 81.3 86.9 91.5 89.3 85.9 83.6 81.1 88.6 85.8 83.4 91.3 93.6 88.8 89.3 87.6 88.1 86.8 86.8 87.6 89.4 90.5 91.8 98.7 103.4 104.1 104.4 103.8 107.1 106.5 116.8 122 130.8 135 145.3 145.6 147.6 153.5 160.3 165.6 158.9 155.2 154.7 152.9 155.6 159.4 154.1 150.9 152 158.8 169.3 176.7 177.6 173.6 174.9 178.1 174 170.2 167.4 167.2 166.9 166.8 168.1 168.6 170.3 170.5 170.9 169.9 171.7
283.6 279.9 280.1 279.8 275.8 277.9 276.8 276.9 276.1 273.4 272.2 265.2 258.5 253 251.5 239.5 225.7 217.8 205.8 193.6 182.8 173.3 168.7 166.4 163 158 154.9 153.4 151.5 150.8 151.2 150.4 147.4 143.3 140.2 135.3 135.5 134.5 133.2 130.4 131.1 132 130.8 132.7 132.4 127.8 124.6 122.9 123 118.9 114.5 111.8 110.5 109.3 106.9 106.8 103.6 108.2 102.1 99.2 92.4 87.5 83.1 76.7 72.6 67.8 63.8 61.5 58.4 55.8 50.9 47.7 45.4 44.6 45.5 47 46.9 46.4 44.6 44.7 44.4 44.3 45.4 44.8 44.3 44.8 50.2 60.3 63.5 61 57.6 54.3 53.3 55.6 61.8 66.2 66.7 68.4 72 72 72.7 76.1 77.3 70.8 67.6 70.7 68 68.5 75.3 85.7 89.7 89.7 79.2 74.5 79.1 80.1 85.7 82.6 79.8 80.9 79.4 81.4 80.8 78.8 78.8 78.1 76.9 78.1 77.8 77.6 84.4 82.6 79.5 80.2 87.5 89.1 83.7 81.6 83 81.8 91.3 83.3 85 90 89.6 89.3 88.1 87.2 89.6 91.7 88.8 88.9 89.4 97.9 100.3 101.7 102.6 104.2 104.9 103.8 106.1 113.7 118.7 121 127.5 136.5 143.4 145 150.3 155.4 162.6 163.3 154.5 153.3 150.7 149.7 149.7 149.3 149.5 150.9 159.5 166.4 174.9 183.2 182.8 176.7 180.1 177.5 171.7 167.5 166.8 167.2 167.4 168.5 167.9 169.9 170.5 172.8 169.4 171.9
288.2 285.5 285 283 282.5 282.8 281.5 278.2 274.2 274.4 269.7 264.8 257.7 253.8 246.3 240.7 231.4 216.3 204.9 192.9 183.1 172.4 167.4 164.4 161.2 157.6 159.3 154.8 155.7 154.5 155.3 153.7 151 147.6 144.3 142.6 142.7 139.1 138.8 135.2 135.4 134.7 133.3 137 134.3 130.8 126.4 123.1 122 119.2 117.1 113.8 112.4 111.1 111.4 109.3 112.6 109.4 105.2 105.5 97.3 91.7 86.6 80.7 73.6 69.9 64.2 60.5 56.3 56.9 52.1 48.8 45.5 44.6 44.6 44.6 46.8 46 44.6 45.3 44.4 44.5 44.3 44.3 45.4 44.2 46.6 54.9 60.4 60.2 55.6 52.3 52.3 55.4 63.7 64.8 65.2 67.4 70 70.4 71.1 72.6 74.6 70.9 68.5 69.5 70.6 67.8 68.8 81.3 85.6 85.1 79.6 73.3 73.8 79.1 78.6 77.6 77.6 81.5 80 78.7 78.4 76.5 77.3 75.5 75.5 76.1 77.2 79.5 79.3 80.1 79.7 81.8 83.4 83.7 81.4 80.7 81.3 81.3 90 88.7 82.1 83.8 87.1 86.8 86.6 86.8 88.5 92.5 89.8 89.6 95.6 96.5 99.3 99.4 102.6 102.7 102.9 103.6 105.1 106.8 110.9 123.5 128.3 131.9 140.5 142.7 145.7 150.7 153.6 156.6 153.5 150.9 150.5 149.3 149.3 149.3 149.3 149.3 158.4 165.8 172.1 180.2 184.2 178.9 172.1 173.6 167.2 169.2 170.2 168.5 169.4 167.3 168.2 169.6 173.4 170.7 169.2 169.8
297.5 290 288.8 289 285.4 283.1 282 281.7 269.6 271.8 267.4 263.5 259.5 252 244.3 238 230.4 214.9 203.3 191.9 172.9 171.7 164.4 164.1 162.7 160.8 161.5 159.9 159.8 160.8 159.3 158.2 155 152.9 150.7 149.7 148 144 142 141 138.4 136.7 137.6 139.9 136.5 133.6 130.2 127.8 124.9 124 121.6 118.1 115.8 115.1 114.3 112.3 112.9 111.8 108.6 105.6 103.1 94.5 91.1 80.1 77.4 71.4 64.6 57.5 56.6 57.4 52.1 50 45.4 44.6 44.6 44.6 44.6 44.6 44.6 44.5 44.5 44.5 44.3 44.4 44.3 45.6 46.2 49.3 55.4 53.6 50.9 50.4 50.9 53.7 63.7 62.6 66 67.2 67.1 68.5 69.3 69 69.3 68.1 68.3 68.2 68.6 67.6 69 71 77.5 76.9 74.9 74 72.8 74.9 75.7 78.1 81.3 81.2 81.8 79 75.5 76.2 75.4 75.4 75.4 74 77.2 79.2 77.5 81.9 83.5 81.9 81.1 81.6 81.2 81.5 79.9 81.4 83.4 89.4 80.8 80.2 81.3 84.6 86.3 85.8 87.7 95.4 99.8 96 99.3 97.5 97.8 101.9 99.5 104 103.3 103.7 104.8 108.4 114 120.4 122 126.1 131.4 133.5 140.4 139.4 147.3 149.1 148.8 151.6 148.3 149.5 149.3 149.3 149.3 149.5 155.7 160.6 170.4 176.9 175.8 173.4 165.6 169.3 173 171.8 171.6 169.5 168 168 167.2 171.4 169 168.7 169.3 170.9
302.5 294.6 292.6 291.9 286.7 283.6 280 275 264.7 264.7 261 260 255.8 250 240 234.8 224.7 213.3 202.5 188.8 181.5 170.8 166.5 169.4 170.2 168.6 165.3 165.1 165.1 164.7 163.4 163.2 159.6 157.8 156.3 155.7 153.5 150.2 145.7 144.7 143.5 139.5 140.2 139.8 139.2 137.5 133.2 129.9 128.3 126.3 124.6 122.1 120.2 121 116.5 115.3 114 116.7 111.6 106.1 103.3 97.8 93.2 87.8 81.4 75.2 68.5 59.2 57.5 56.6 54.3 50.1 46 44.6 44.6 44.6 44.6 44.6 44.6 44.6 44.3 44.2 44.3 44.3 44.3 45.3 45.1 46.5 49.7 50.1 49.4 49.6 51 53.1 57.2 60.8 63.3 64.2 65.7 66.7 68.3 67.1 67.6 67 67.5 68.1 67.8 69.4 69 69.4 69.6 71 70.4 71.5 72.3 74.6 74.5 75.5 78 79.4 80.2 77.2 74.7 74.5 74.5 75.3 75.6 74.2 74.9 80.7 77.6 78.6 82.3 84.5 79.5 80.1 77.7 80.5 82.6 81.7 79.5 85.2 81.6 79.5 80 83.4 85.1 86.5 89.5 99 103 98.4 98.5 101.4 99.1 101.4 105.4 104.1 103.4 104.2 105.3 111.1 112.8 114.6 118.5 120.1 125.2 138.2 145.9 151.1 143 144.7 143.2 154.5 158.8 150.6 150.2 150.3 150.2 151.5 151.6 152.3 162 163.1 166.5 164.6 169.1 171.1 170.6 173 171.1 169.6 168.3 168 167.3 169 168.6 169.6 175.2 176
302.1 298.4 294.2 293.4 288.2 282.1 279.2 269.3 262.2 260.8 255.7 252.3 251.6 244.3 237.8 228.8 220.9 210.4 199.1 187.5 179.2 174.3 171.2 172.2 174.9 176.3 176.3 172.1 167.7 167.1 167.4 167.9 166.8 163.3 161.9 161.8 160.2 156.4 153.9 150.4 148.3 144.3 144.6 145.1 143.2 139.6 136.7 133 130.4 131.1 126.4 125.1 130.9 124 119.4 118.3 117.7 119.1 114.7 109.3 105.3 99.4 96 88.3 83.5 79 74.7 62.7 71.5 65.3 59.3 52.7 47.6 45.5 44.6 44.6 44.6 44.6 44.6 44.7 44.4 44.2 44.2 44.7 44.6 45.8 45.8 46.3 48 49.1 50.9 50.1 55.3 54.3 56.1 64.2 62.7 64.7 67.3 65.6 68.7 69.3 73 68.9 67.6 68.2 70.6 71.3 68.6 68.9 69.8 69.9 70 72.1 72 71.6 72.6 76.6 77.5 80.9 78.6 78.2 75.5 74.4 74.6 73.7 75.4 73.8 73.8 80 81.9 77.3 78.6 83.4 80.3 79.4 77 79 82 85 79.3 78.6 80 79 79.5 82.5 84.6 88.4 90.3 92.7 100.8 99.3 100.3 100.2 103 100.7 100.6 101 102.7 102.9 103.8 110 109.9 109.5 109.3 113.2 129 140 148.5 158.9 150.4 143.7 145.9 153.8 162.5 153.8 150.8 150.9 150.8 151.9 151.4 152.8 156.9 163.6 165.9 169.5 171.3 173.7 171 171.4 171 169.5 168.9 167.9 167.7 168.1 168.5 169.4 172.6 173
292.8 299.2 295.8 289.8 287.9 280.9 275.4 261.5 255.8 249.2 249.3 244.7 239.4 237.7 231 223.8 216.2 207.4 196 187.9 181.1 175 174.7 175.9 180.7 182 179 175.7 176.4 173.3 172.5 173.3 172.9 171.2 168.2 167.1 166.1 163.2 160.5 156.4 153.9 150.6 149.5 149.3 146.2 141.6 139.1 137.1 142.5 140.5 129.6 128.4 135.3 128 123.9 125 125.1 120.7 115.7 112.8 110.9 106.5 101.3 93.1 86 83.3 82.4 76.7 69.2 64.8 59.8 55 50.2 46.6 45.6 44.6 44.6 44.6 44.6 47.2 44.5 44.4 44.4 44.3 45.5 45.8 46.1 46.4 48.1 51.3 51.2 54.8 55.9 55.1 55.5 65.3 68.8 64.6 67.3 65.1 66.6 70.8 69.1 68.6 67.8 72 72.6 69.4 68.7 68.6 72.4 70.1 69.4 71.7 71.5 71.6 75.8 75 78.9 79.7 78.9 78.7 75.8 76 73.6 75.9 72.2 72 73.7 74.7 83.4 78.3 77.3 78.4 81.4 78.7 76.8 75.8 77.1 82.1 80.1 78.8 77.5 79.1 80.4 82.6 84.9 88.7 90.5 94.9 93.1 97.7 100.8 98.5 99.8 99.7 99.7 100.3 102.3 103.1 104.1 104.9 105.4 111.3 122.9 129.5 136.5 146.3 156.4 160.9 156 152.5 153 152.5 160.2 159.9 151.2 154.5 155.7 153.2 151.7 152.3 157.1 168.1 166.8 167.3 168.7 170.3 170.1 174.5 170.6 170.9 169.2 168.9 168.5 167.9 168.7 171.2 172.5 170.9
290.2 295.7 289.8 285.6 281.4 277.5 266.5 251.8 245 239.3 242.4 236.5 228.2 225.7 223.1 215.1 212 203.8 194.5 188.1 181 177 180 181.5 182.5 186.5 184.7 181.3 181.4 180.2 179 178.3 179.9 177.6 173.4 170.9 170.7 168.8 166.7 164.8 161.3 155.2 154.6 152.7 149.7 145.3 142.5 138.9 146.1 142.1 135.6 134.2 136.1 130.4 130.1 131 128 124.1 121 118.4 113.2 109.8 104 97.6 91.8 86.4 82.7 81.8 78.5 73.5 63.4 58.6 53.4 50.2 46.3 44.6 44.6 44.6 44.6 46.7 44.4 44.4 44.3 44.3 44.3 46.4 46.1 47 49 53.2 55.7 57.7 53.9 56 55.8 64.6 71.1 66.8 62.7 63.6 69.3 70.5 68.9 67.4 69.6 73.4 70.5 70.6 68.2 68.5 69.4 69.2 69.5 70.2 70.6 71.5 72.8 72.9 75.2 77 77.1 78.8 75.3 75.6 73.3 72.8 71.4 70.9 71 72 79.5 81.5 75.8 77.6 80.3 78.4 73.2 75.8 80.1 80.4 76.7 80.1 79.4 80 79.8 83.4 84.1 86 89.7 90.8 91.4 94 97.9 98.2 98.5 98.8 103.4 101.1 102.1 103 101.6 104.8 106.4 117.2 122.8 131.2 141.6 146 149.3 148.9 152.8 150.6 154.7 152.6 153.6 156.6 155.5 156.4 157.2 154.5 152.9 153.4 160.5 169.2 173.5 171.5 172 171.4 172.1 171.7 170.6 169.9 169.2 169.1 169.4 171.5 170.7 171.5 171.5 171.4
287.2 288.2 283.1 282 272.4 266.8 254.3 240.9 234.8 228.2 230.8 225.8 218.2 212.4 210.1 210.1 204.3 201.5 195.3 188.2 183.8 181.9 184.6 186.4 186.9 188.3 189.5 185.5 184.9 185 184.1 183.1 183.8 181.2 180.2 177 177.4 177.3 173.8 172.2 169.4 164.7 161.9 159.3 154.8 149.6 146.2 143.7 142.4 142.4 139.6 141.1 138.7 138.2 136.1 135 131.9 128.3 124.8 120.2 116.8 112.4 106.2 101 96.9 92.8 84.8 83 79.1 75.2 70.2 66.2 56.9 52.6 47.9 45.2 44.6 45.7 44.6 44.9 44.5 44.4 44.4 44.4 44.3 44.3 45.5 47.7 51.5 55.5 56 56.8 55.1 56.4 57.2 61 70.1 66.7 61.7 63.3 67.5 68.8 67.8 68.2 71 72.1 71.2 68.2 68.6 69.4 69.1 68.6 69.1 69.2 71.7 70.4 74.5 72.1 73.2 73.1 76.5 75.7 77.2 77.1 72.1 73.1 72.2 70.5 69.6 70.1 71.2 81.6 75.4 76.7 78.7 71.8 75.3 76.7 76.4 77 78.1 83.3 80.3 84.3 90.1 92.3 90.7 90 88.8 89.1 92.4 94 95 98.4 97.6 97.6 100.8 101 101.3 102.1 102.2 103.8 107.9 116.1 123 130.2 141.6 142.1 138.3 139 140.1 144.6 148.4 149.9 150.7 152.3 154.7 156.9 158.8 159 157.4 160.1 161.8 169 176.4 174.2 174.1 172.7 172.4 172.2 171.6 170.2 170.9 172.3 173.8 175 173.5 172.1 173 172.6
282.4 285 272 267.2 263.7 253.8 244.5 238.4 230.3 221.6 218 215.8 208.4 205.1 202.7 199.6 201.2 196.6 193.4 189.3 185.8 185.9 187.3 188.6 190.6 191.8 191.1 188.6 190.4 191.1 189.5 187.6 187.3 185.6 186.6 183.4 182.1 182.7 182.3 178.5 176.2 173 170.1 165.5 161.1 157.2 151.1 148.5 146.4 146.7 144.8 144.4 143.1 143.3 144.2 139.8 139.3 136.3 129.7 124.6 118.3 115.9 108.9 104.5 101.5 96.7 92.1 87.2 80.2 75.7 70.4 69.2 59.3 53.7 49.2 46.3 44.7 44.6 44.6 44.6 44.5 44.5 44.5 44.4 44.4 44.3 44.3 48.6 56.9 56 57 55.1 56.4 54.7 58.2 58.4 63.4 65.7 62.9 59.9 64.6 65 65.3 68 70.9 68.6 66.4 68.5 73.5 68.8 68.5 68.4 69.2 70.5 69.7 69.7 71 72.6 71.8 72.7 75 76.3 78.7 75.5 74 76.9 72.8 71.8 68.9 68.3 69.4 76.9 77.7 73.2 73.8 78.2 77 75.4 74.8 77.6 78.9 82.2 81.7 92.2 102.3 103.2 103.9 99.4 92.4 88.7 93 92.6 93.1 95 95.9 96.4 98.8 100.1 99.9 99.4 101.4 102.5 104.3 114.5 120.2 128.5 140.5 135.7 130.3 131.5 140.8 145.4 147.1 151.1 152.6 155.2 156.9 159.5 162.4 163.9 161.3 160.5 167.3 172.4 173.8 174.3 173.7 175.6 174.5 173.3 172 170.8 175.2 176.4 178.7 178.6 177.5 176.9 177.1 174.4
270.9 269.2 265 261.2 252 243.9 238.7 229.4 221.2 212 209.7 209.1 204.2 196.9 196 193.8 194 193.2 190.2 189.4 190 191 191.1 192.3 193.8 194 194.1 191 193.6 195.2 193 192.5 190.6 190.6 190.8 188.7 186.8 188.7 187.5 185.3 182.1 180.4 176.5 174.5 169.4 164.9 158.3 158 156.8 153.6 149.3 149.5 147.2 150.3 149.5 147.8 149 140.6 133.9 127.8 122.1 117.6 113.9 108.4 105.5 102.7 97.2 90.9 84.5 78 71.8 68.3 61.7 56 50 46.7 45.4 44.6 44.6 45.6 44.6 44.5 44.5 44.4 44.4 44.4 44.3 49.8 53.9 55.9 56.1 55.8 54.9 55.2 57 57.8 57.5 64.7 62.2 59.2 61.7 62 66.7 68.7 67.5 67.2 65.6 70.8 74 69.1 68.6 68.9 69 68.4 69.4 68.9 72 70.8 72.8 73.6 73.6 77.7 76.7 74.8 79.2 74 72.8 70 70.4 70.4 67.8 73.3 74 69.6 69.8 75.2 74.1 71 77.6 79.7 78.9 83 84.5 93.3 104.5 108.1 107.2 104.4 97.7 88.5 89.7 90.9 91.5 92.2 92.7 93.9 98.3 99.2 98.8 100.3 100.7 101.3 105.8 109.3 118.8 125.9 133.9 129.4 135 138.8 140.8 146.1 148.2 151.6 154.7 159.7 163.8 166.4 168.3 171 171.7 169.5 175.6 177.1 177.1 177 175.8 177.2 175.9 173.9 174.3 175.4 176.8 180.9 181.7 180.8 179.4 178.8 177.6 178.6
258.5 258.9 261.4 256.3 243.6 237.3 231.4 221 217 207.6 206.2 203.2 198.1 193.5 193 193 192.8 192.4 191.3 191.5 192.2 194.1 195.8 197.1 197.6 196.9 196.8 195.5 195.5 196.3 197 196.7 194.3 194 194 193.1 192.7 194.6 194.3 191.4 188.9 186.3 186.1 182.8 179 173.4 166.9 165.3 162.7 159.5 157.4 157.3 156 154.9 156.3 154.5 150.8 147.2 140.6 134.2 127.7 121.5 117.9 112.9 109.7 106.2 99.3 94 87.7 81.1 75.3 69.5 65.2 59.3 53.5 48.2 45.7 44.6 44.6 44.6 44.6 44.5 44.5 44.4 44.4 44.4 44.3 45.4 52 53.9 54.7 56.8 55.6 55.5 56.1 57.8 58.3 59.7 60.6 59.4 57.7 62.5 65.5 66.4 65.4 65.2 68.2 72.4 72.3 68.2 70.2 72.4 69.2 67.9 68.5 68.8 71.2 69.7 70.8 74.3 73.4 75.2 74 75.7 74 74.1 71 80 79.1 72.4 67.8 69.1 68.4 71.4 70.1 69.8 74.9 79.6 79.1 78.7 79.3 79.5 81.2 90.3 102.1 105.6 106.1 103.3 98 89.2 88.3 90 90.2 90.6 91.9 93.2 94.5 96.2 97.3 99.2 99.2 99.7 105.4 112 114.9 120.8 129.1 129.1 138.4 140.9 142.7 147.2 149.4 155.3 161.3 167 171.8 174.9 176.8 179.2 180 179.9 180.7 181.8 181 182.6 179.7 179.9 181.4 176.8 180 181 176.8 182.2 189.9 185.8 182.2 185 187.2 184.4
251.8 252.8 253.7 248.6 243.2 237.3 225.5 217.9 211.7 205.2 203.4 199.7 195 193 193.4 193.6 195.8 195.1 194.6 194.6 195.8 197.6 199.1 201.2 200.3 199.9 199.4 199.2 200.2 201.5 200.4 200.4 199.9 198.5 197.4 197 198.1 199.8 200.3 198.5 196.1 193.8 191.1 191 185.8 180.3 175.3 172.3 169.1 166.5 164.1 163 164.6 160.4 161.2 160.5 155.4 150.6 147.3 140.5 132.2 130.8 122.8 117.6 113.9 107.5 102 96.4 89.3 82.6 78.3 73.5 67.8 63.4 58.1 50.7 47 44.6 44.6 44.6 44.6 44.5 44.5 44.4 44.4 44.4 44.3 44.4 48.7 53.7 54.6 55.6 57.5 56.6 58.6 59.6 60.2 56.5 57.5 58.3 56.8 60.8 61 63.6 64 66.5 66.5 70.2 67.9 69.7 71.3 77.3 75 68.7 67.7 67.5 68.3 68.9 69.5 72.9 71.4 71.9 74 74.9 72.9 73.8 71.3 82.2 87.7 77.9 68.5 67.4 67.6 69.6 69.3 72.3 75.4 79.6 77.5 77.8 78.4 78.1 78.1 82.4 96.4 101 101 98.4 94.7 89.3 87.3 88.2 88.7 89.7 91.4 94.3 93.1 95.4 95.7 97.1 96.8 102.2 107.5 112.6 117.2 121 126.1 134.8 139.7 144.4 145.8 148.7 151.2 158.4 165.4 176.2 180.7 183.9 186.4 188.4 188.6 187.9 187.7 187.8 184.7 187.4 183.6 183.4 182.9 186 180.4 182.6 182.2 186.2 189.1 187.9 189.6 193.2 187.5 181.9
250.3 246.3 245.3 237.5 239.1 233.8 222.8 216.5 208.1 203.2 202.4 197 193.5 193.4 193.7 195.2 196 196.9 198.9 198.7 198.6 199.3 201.5 202.9 202.6 202.2 202.2 202.3 203.6 204.4 203.9 203.9 204.3 204.3 201.6 203 203.8 205.9 207.4 205.7 202.7 200.6 197.2 196.8 192.5 189.9 183.4 179.8 175.9 173 173.7 173 171.9 169.2 166.9 166.8 161.9 153.7 151.9 146.7 137.5 135.1 128.9 123.8 119.6 112 108 101.6 95.4 89 83.3 79.1 72.5 65.8 60.9 54.8 49 44.8 44.6 44.6 44.6 44.5 44.5 44.4 44.4 44.4 44.3 45.8 47.5 49.9 53.8 55.2 56.2 57 55.6 58.3 60.4 58.2 55.1 54.9 55.9 56.7 59.4 61.3 64.5 66 66.4 63.9 65.9 69.6 68.2 74.5 77.8 71.9 67.2 67.6 68 69.6 69.3 67.9 71.9 73.3 71.3 72.4 71.6 69.5 71.6 80.4 89.7 84.7 68.1 66.9 67.8 67.6 70.2 73.1 77 77.4 77.9 77.7 77.6 77.6 78.5 80.2 87.7 95.1 94.4 91.1 89.9 88.3 86.9 87.6 87.4 89.8 90.3 92.2 93 94.3 93.8 94.1 97.1 103.3 107.5 110.9 112.2 120.8 129.7 134.5 140 145.6 150.6 153.2 156.8 161.5 169.5 179.5 187.3 192.3 196.8 200.2 195.7 193.6 190.8 192.9 189 190.7 192.2 190.5 188.3 191 188.9 188.4 189.6 192.4 193.8 194.8 193.8 191.3 189 186.3
246.5 241.7 236.8 234 234.6 229 221.6 213.3 206.6 203.7 201.8 197.3 194.3 194.8 195.3 197.1 200.5 200.3 201.1 201.5 202.6 204 203.5 204.5 204.8 205.1 205.2 205.4 205.4 206.5 206.3 206.9 207.6 208.1 207.4 208.8 210.4 213.2 214.1 212.8 209 206.9 204.1 201.6 199.1 194.7 192.5 187.9 183.1 179.5 181.3 180 178.1 177.2 173.5 171.3 168 160.3 157.3 154.4 149.3 142.5 134.5 128.7 123.2 117.8 112.9 106.9 100.3 93.7 88.9 83.2 76.8 70.4 64.5 56.6 54 46.6 44.6 44.6 44.6 44.5 44.5 44.4 44.4 44.4 44.3 46.2 47.9 52.5 53.5 54.7 55.5 54.8 54.4 54.3 57.8 57 53.8 52.6 54.8 55.1 59.8 61.8 62.3 64.2 62.9 63.5 66.7 66.9 67.5 69.3 74.1 73.2 67.8 67.6 67.7 67.8 67.2 71.8 74.1 71.7 70.7 70.9 68.5 70.4 71.1 73.9 86.6 84.8 70.2 66.4 66.7 70 69.9 71.3 74.3 74.9 77.2 76.7 79 77.5 77.6 79 84.8 89.6 89 85.3 85.7 86.4 86.2 86.4 87.9 89.4 90.7 91.6 92.8 92.3 92.9 92.6 98.2 105.8 107.9 108.6 116.3 123.1 129.9 140.9 142.4 146 153 156 159.5 164.9 173.8 184.6 192.9 198.4 204.5 207.1 205.6 201.7 198.4 198.7 197.1 197.8 197.9 199.6 194.9 191.8 192 193.7 195.3 198.4 197.5 198.5 193.5 190.9 188.2 189.7
240.7 239.1 230.9 229.4 230.9 223.4 217.6 210.8 207.3 204.6 200.7 197.2 198.6 198.5 199.5 201.6 203.2 203.5 203 203.7 206.2 206.7 206.6 207.3 207.8 209.3 208.2 209.1 207.4 207.3 207.4 209.9 211.6 214.6 215 216.3 217.4 218.9 218.7 217.1 214.5 213.8 211 211 205.8 204.1 199.8 196.3 190.5 188.1 188.6 185.6 186 184 182.6 178.7 171.8 169.9 166.4 158.3 152.4 146.6 140.1 134 127.9 121.6 117 111 105.6 100.1 94.4 85.8 80.4 74.7 69.5 61.7 55.2 51.2 44.6 44.6 44.5 44.5 44.5 44.4 44.3 44.3 44.3 44.5 50 51.1 49.5 51.3 53.7 53.8 51.6 53.1 54.6 53.7 56.4 51.7 54.9 56.1 55.9 60.3 60.9 60.7 61.5 62.4 65.6 67.5 67.7 67 67.9 69.3 67.1 67.6 68.5 66.5 66.5 71.7 71.7 69.4 68.3 68.9 68.1 72.3 69.5 72.8 75.9 80 72.3 65.5 67.5 67.4 70 75.3 73.7 75.9 76.7 77.3 77.2 77.5 77.9 80.1 83.7 86.8 86 84.4 84.4 84.8 85.1 88.5 89.2 88.7 89 90.3 90.7 90.4 90.9 93.6 102.6 105.7 104.6 107.5 116.7 122.6 132 142 144.1 142.5 148.8 153.7 157.7 168.3 178.7 187.8 196 202.8 206.4 211.9 213 210 206.7 205 205.6 205.6 203.8 204 203.3 196.3 190.2 195.6 195.2 201.7 200.8 199.3 196 189.9 191.8 191.3
234.9 232.8 227.3 227.1 225.1 220 214.6 211.2 209.6 206.1 203.2 202.1 202.9 202.3 204 205.1 205.8 205.8 206.9 206.9 209.2 209.1 209 208.8 210.8 211.3 210.9 212.1 210.7 209.3 210.1 213.1 215.3 217.4 218.6 219.2 221.2 223.6 224.7 225.4 223.7 220.5 217.3 213.8 210.9 207.4 206.4 202.7 200.2 196.5 195.6 192.8 191.7 191.6 186.3 181.2 177.5 175.6 172.9 165.5 155.9 150 144.9 139 133.1 127.5 122.4 116.9 111.1 107 98.7 90.8 85.4 81 74 71.1 63.9 58.3 49.2 44.6 44.5 44.4 44.3 44.3 44.3 44.3 44.3 44.3 44.3 44.3 46.9 49 50.2 51.3 50.4 50.1 50.6 52.2 54.7 54.4 55.4 54.7 55.8 57.1 58.1 59.4 59.5 63.3 63.7 64.4 66.8 67.2 67.6 67.3 66.9 66.9 66 65.5 68.3 69.4 69.1 67.9 68.5 67.4 68.5 72.2 69.2 69.1 71.2 76.7 74.6 65.2 66.8 66.6 70.6 73.5 75.5 75.7 75.8 77.1 77.8 77.7 79.2 81.9 83.7 84.4 84.4 83.6 84 84.4 85.2 89.4 87.3 86.8 88.5 89.1 89.1 90.3 91.8 98.1 100.2 102 101.3 109.8 116.2 124.5 132.6 141.3 147.7 139.7 143 150.8 158.3 172.1 180.9 190.1 196.3 205.4 209.9 213.3 215 213.5 211.3 209.9 211.8 211.4 209.9 205.8 200.8 194.6 195.2 196.5 198.5 206.7 202.9 201.8 196 194.9 197.4 195.8
232.4 228.6 223.4 223.1 219.4 215.7 213 211 208.7 207.6 206.4 205.4 207 206.9 208.9 209.6 209.7 210.1 211.3 211.9 209.8 210.3 210.1 210.5 212.5 211.6 210.8 211.9 214.2 213.4 213.1 215.5 218.5 221.5 221.1 222 224.4 226.5 228.6 227.7 227.1 224.6 223.6 221 219.8 218 212.7 206.4 207.3 205.3 203.1 200.5 197.7 194.4 189.1 186.3 184.5 180.8 177.9 170.9 162.2 156.4 148.4 143.4 138 132.7 128.2 122.4 118.5 112.5 106.8 98.6 93.2 88.1 83.6 78.4 72.3 65.1 55.7 44.6 44.3 44.3 44.3 44.3 44.3 44.3 44.3 44.3 44.3 44.3 44.3 44.3 44.3 47.7 48.5 46.9 48.1 51.1 52.6 55.4 55.5 55.4 53.1 52.3 56.8 57.7 60 60.5 62.1 63.2 66.2 74.9 69.1 67.1 68.3 66.6 65.8 66.9 64.6 66.4 67.8 67.6 67.4 69.5 70.5 70.1 71.2 68.2 67.5 66.7 65.1 65.1 65.5 66.2 70.7 78.2 76.1 76.4 75.6 75.8 78 77.2 80.4 81.5 83.1 83.5 83.2 84.2 83.9 83.2 84.3 85.5 86.6 87.1 87.8 87.9 89 89.3 94.2 94.6 95.7 98.6 99.4 105.3 118.8 125.7 131 138.1 148 137 140.5 148.7 158.8 170.5 181.4 191.7 191.8 205.9 212.9 216.6 215.4 212.9 211.3 212.1 215 217.5 212.1 204.2 196.6 193.7 194.9 196.6 202.4 210.1 205.5 203.6 198.2 199.5 203.6 202
231.6 226.2 221.7 221.4 217.2 213.5 213.1 211 209.5 208.5 208.2 209.3 209.6 209.3 212.1 212.4 212.5 213.1 214.8 214.8 213.2 213 214.9 213.8 213.3 212.8 212.3 213.2 215.7 216.6 218 219.9 221.3 221.8 222.4 224.6 227 227.3 230.1 229.7 230.1 228.4 227.4 229.4 226.4 223 223.5 215.1 214.4 211.5 210.1 208.5 205.3 199.9 196.5 194.6 190.8 187.8 181.3 173.3 165.7 162 155.8 147.7 141.6 137.7 133.6 126.8 122.9 118.8 113.2 107.7 100.9 94.3 88 86.4 79 71.5 63.9 52.1 44.3 44.3 44.3 44.3 44.3 44.3 44.3 44.3 44.3 44.3 44.3 44.3 44.3 44.3 44.3 44.4 48.4 49.4 47.9 54.9 55.4 52.6 50.6 52.8 56.2 57.9 57 58.7 60.7 61.2 67.6 75.8 77.6 67.2 67.3 66.4 67.8 66.5 64.6 67.1 68.8 69.9 68.9 68.3 67.7 67.7 69.9 70.7 67.1 67.8 64.6 65 66.1 69.2 71.1 74.2 75.8 75.9 76.6 75.3 75.6 78.9 80.7 81.5 82.8 83.6 84.2 85.5 86.7 83.9 83.9 84.4 84.6 85.8 86.9 87.1 88.8 89.7 91.2 93.4 94.1 96.6 103.7 106.8 116.9 121.1 128 136.1 144 136.8 138.1 146.5 155.5 163.5 180.1 194.1 194.6 207.2 217.3 217.3 214.9 213.1 209.1 213.2 215.9 217.4 213.2 202.2 195.7 193.8 194.8 195.8 200 206.6 205.6 204.3 203.1 203.3 205.8 204.2
224.6 221.4 218.1 218.7 215.6 213.5 212 210.5 210.4 210.2 210.2 210.9 211.7 211.7 214.3 213.2 213.4 213 216.7 217.2 216.4 214.8 214.5 214.3 214.8 215.1 215.1 215.6 217.1 220.9 220.9 221 222.5 222.7 224.2 227.1 227.3 228.3 229.1 231.6 231 231.9 232.9 234.7 233.6 232 226.7 222.2 219.5 220 216.2 216.7 211.8 208.5 202.7 201.8 195.5 193.8 188.2 178.9 170.5 166.2 161.4 154.6 146.5 141.3 137.8 131.1 126.5 122.7 117.2 113.7 107.2 102.2 98.4 94.1 87.8 78.8 69.2 60.2 50.5 44.3 44.3 44.3 44.3 44.3 44.3 44.3 44.3 44.3 44.3 44.3 44.3 44.3 44.3 44.3 44.3 47 49.1 51.6 51.9 52 53.6 54 54.1 54.9 56.7 60.2 60.6 65.9 64.1 72.5 79.4 71.1 66.4 66.5 66.5 71.6 66.2 64.8 66.9 70.6 68.6 65.7 66.6 66.4 68 70.5 65.7 66.7 64 65.2 67.1 70.4 70.2 74.2 76.4 75.4 74.6 73.9 74.5 78.2 80.9 80.6 80.7 82.2 85 86.4 88.8 85.9 82.9 84 84.7 85.7 85.7 88.3 90.3 89.5 96.9 93.6 93.9 98 102.9 105.5 112.8 117.1 123.5 133.8 137 131.7 136.9 144.2 150.5 156.4 172.3 189.3 191.8 202.8 213.1 218.4 217.4 210 211.2 216.7 219.1 215.5 206.4 200.4 195.2 192.5 192.6 191.3 194.4 201.4 199.7 200.2 207.9 205.3 206.9 208.5
218.9 216.3 213.5 213.5 212.8 212.4 211.4 210 210.4 210.2 211.8 211.3 212.2 212.2 212.5 213.6 213.5 214.6 216.4 217.9 219.6 219 216.5 216.6 217.3 218 216.9 216.8 220.4 222.3 223.1 224.9 225.8 225.2 226.6 227.2 227.8 228.7 230.1 231.3 233.2 232.9 235.3 237.2 238.5 238.9 233.4 230.1 228.9 224.3 223.6 222.2 221.5 216.5 210.7 208.1 204.2 195.3 191.5 181.8 174.2 168.3 164.2 158.6 152 145.1 139.7 135.5 132.9 128.2 123.4 120.9 114.5 109.9 106.5 102.4 95.4 87.2 77.9 67.3 61.7 49.1 44.3 44.3 44.3 44.3 44.3 44.3 44.3 44.3 44.3 44.3 44.3 44.3 44.3 44.3 44.3 45.5 49.1 47 49.3 51.7 53.1 54.1 53.6 55 56.6 59.6 64.1 64.6 63.3 65.6 76.1 74.5 67.1 67.3 67.4 69.4 66.3 63.3 65.1 66.6 66.3 66.7 66 65.2 69.6 69.2 68.5 69.2 63.5 65.8 68.4 67.7 71.1 73 73.5 73.2 72.8 73.5 74.2 84.3 81.3 81.1 79.9 80.5 86.9 87.8 88.7 91.5 84.4 84.3 84.5 86.2 86.2 88 89 93.6 105.9 106.2 97.1 99.4 100.4 103.9 108.1 111.7 117.9 128.2 129.5 128.7 133.1 139.2 144.7 149.5 159.5 176.6 191.1 196.4 203.4 207.8 211.8 210.4 210.3 216.9 217.1 210.3 204.2 198.2 193.4 190.7 189.5 193.4 193.3 195.4 195.9 196.8 204.3 206.1 207.6 210.4
217.4 213.6 210.7 213.7 212.4 212.7 208.4 209.7 210.3 210.8 211.3 211.8 212.1 211.9 211.9 212.5 213.9 214.8 215.6 219.9 220.8 222.2 221.4 220.6 219.7 218.7 220.3 221.6 221.3 223.4 226.1 225.7 226.8 226.3 227.2 226 226.7 226.9 229.1 231.2 233.8 234.7 235.4 239.9 239.4 241.1 239.1 238.8 237.3 232.7 232.9 233.8 228.5 224 219 215.2 211.1 204.4 194.5 186 178.4 170.3 166 162 156 149.6 144.1 140.9 137.6 131.1 128.9 127.2 122 117.1 113 109 103.6 96.2 87.2 78.9 71.3 59 47.6 44.3 44.3 44.3 44.3 44.3 44.3 44.3 44.3 44.3 44.3 44.3 44.3 44.3 44.3 44.3 44.3 46.7 49 51.7 53.9 52.3 53.6 55.2 57.6 59.8 62.6 64.7 64.1 63.4 68.9 73.3 66.3 68 68.3 66.6 66.9 62.3 64.7 64.7 67 65.2 64.8 64.7 65.4 68.1 65.6 66.8 63.3 70.2 67.3 67.6 68 70.4 70.4 70.9 71.5 73 75 82.2 81.7 80.3 79.3 79.3 82.8 91 90.1 88.8 85.4 84.4 84.5 85.1 86.8 89.9 88.8 95.4 107 113.1 102.6 98.5 100.8 103 106.8 117 125.8 129.8 128.3 128.7 130.3 137.1 142 154.4 161.6 173.6 184.5 190.7 194.7 201.2 206.5 206.3 215.8 216.9 211.5 205.9 201.9 198.2 194.4 190.7 186.9 191.1 190.7 193.5 194.8 195.3 198.8 203.7 206.1 206.6
213.2 209.4 209.7 210.5 210.3 208.6 207.7 209.1 210.1 209.6 210.6 211 211.1 211.3 213.9 213.9 212.7 215.6 217.3 220.6 222.6 224.5 223.8 222.8 222 222 222.9 224.6 225.3 225.5 227.5 227.3 226.2 225.9 225.9 225.4 225.7 226.5 226.9 232.6 233.9 235.7 237.7 240.4 239.6 241.6 242.7 244.5 244.9 244 238.9 238.2 235.3 232.9 229.4 221.9 216.1 211.3 201.8 192 182.6 173.5 169.8 166.2 159.4 153.2 149.7 144.1 140.2 136.5 135.4 132.5 127.7 124 118.7 115.1 111.8 104.9 95.4 90.6 82.1 71 59.2 46 44.3 44.3 44.3 44.3 44.3 44.3 44.3 44.3 44.3 44.3 44.3 44.3 44.3 44.3 44.3 44.3 45.7 49.3 50.6 51.1 52.6 55.3 59.9 59.9 61.6 62.1 64.3 65.3 64.7 68.9 68.7 66 67.9 67.2 62.9 62.7 67.6 63.8 66.3 66.5 64.3 63.7 63.7 63.4 70.7 68 62.5 68.3 67.2 67.3 67.9 67.5 68.4 73 75.8 75.8 75.5 77 78.8 78.9 78.9 79.1 79.3 90 92.2 86.6 85.5 84.3 84.5 85.1 85.8 88.5 89 92.4 102.7 112.7 110.1 99 100.2 103 111.7 117.7 127.3 132.4 128.8 129.2 130.4 137.8 145.9 157.3 165 178.3 185.1 185.8 191.9 195.2 202.1 212.2 214.6 209.3 207.5 205.9 205.1 200.2 196 190.8 183.9 185.8 187.3 188.5 187.6 191.7 193.9 195.9 198.9 204.2
211.5 208.9 208.7 210.4 208.5 206.5 206 206.7 208 207.7 207.7 209.8 210.7 210.6 213.3 213 214.3 215.7 218.6 222.3 224.2 225.4 224.2 225.3 224.9 224.3 224.9 225.7 227.2 227.5 227.3 227.1 225.4 225.5 225.2 225 225.3 224.8 224.8 226.9 231.2 236.1 237.3 240.7 241.3 242.1 247.4 247.6 249.3 251.1 249 246.8 243.6 240.2 235.3 230.2 226.6 216.6 209.3 200.8 190.2 182.6 176.1 171 163.8 157.6 153.4 148.7 144.4 140.4 139.9 137 133.5 131.3 127.2 122.3 117.8 111.5 105.1 99.2 90.3 81.4 70 58.2 44.3 44.3 44.3 44.3 44.3 44.3 44.3 44.3 44.3 44.3 44.3 44.3 44.3 44.3 44.3 44.3 44.3 47.4 48.4 50.3 55.7 57 60.4 60.1 59.9 61.2 64 66.5 66.7 65.6 66.3 65.9 68.4 63.4 61.6 62.4 68.6 66.3 63.7 65.5 64 63.5 63.6 63.5 67.8 69.7 62.6 66.2 67.8 67.2 67.8 68.8 71.8 75.4 75 75.2 76.3 77.2 78 79.3 78.9 79.2 80.4 83 91.3 84 83.6 83.9 84.1 85.7 86.2 88.3 89.8 89.2 95.4 107.9 108.6 100.9 100.9 103.9 111.9 117.2 124.8 132.6 130.2 138.2 137.1 140.8 148.3 156.1 164.5 178.5 182 181.9 187.1 196.9 204.1 207.6 207.9 209.7 211.2 210.8 209.8 206.2 198.5 189.9 180.4 181.2 183.8 183.4 183.2 184.3 184.8 187.4 189.4 193.2
206.5 207.6 208.8 205.8 203.5 205 204.8 206.6 207 205.8 206.6 209.5 210.1 209.7 209.7 210.8 212.7 215.3 216.4 221.3 223.8 225.3 225.7 225.4 226 226.1 225.8 227 228 227.8 226.2 225.6 224.2 224.9 225.1 224.4 224.4 224.1 224.1 225.1 225.1 228.8 234.8 240.3 239.5 240.9 245.6 250.7 252.1 253.2 252.7 250.6 250.2 246.1 239.6 235.7 229.1 218.5 214.3 208.7 198.5 191.1 182.8 173.6 167.8 161.3 156.7 151.7 147.9 145.2 144.6 142.8 140.4 138 132.2 128.3 124.9 117.1 113.7 108.1 101.9 91.3 80.9 69.7 51.4 44.3 44.3 44.3 44.3 44.3 44.3 44.3 44.3 44.3 44.3 44.3 44.3 44.3 44.3 44.3 44.3 44.3 47.7 49.1 54.9 56.8 58 60.9 59.4 61 65.6 66.5 66.1 65.5 65.2 66 63.4 61.6 61.4 61.9 69.4 65.8 64.1 63.4 63.5 63.1 62.9 63.4 63.1 63.6 62.7 66.3 67.2 68.7 67.5 71.1 76.7 75 76.1 75.5 75.4 76.7 77.8 82.1 79 79.7 79.5 81.7 86.4 83 84.8 88.1 95.9 89.9 87.7 88.1 89.2 89.1 90.1 97.2 103.1 101.3 102.1 103.9 107.6 114.1 122.4 132.1 129.9 140.3 146.2 142.7 147 154.7 162.9 169.5 178.1 179.7 186.3 194.9 203.3 203.3 204.7 210.8 215.5 215.3 213.5 208.8 198.3 190.5 179.8 178.5 179.7 180.9 181.9 179 176.2 177.1 178.9 181.8
201.7 202.3 204.1 204.2 200.8 200.7 201.1 202.1 201.6 202.6 205.9 205.9 207.7 206.6 206.3 208.5 211.9 213.3 215.4 218.6 221.8 221.2 222.9 224.1 225.7 226.2 225.5 226.6 227.8 226.1 224.4 224.2 222.7 222.9 223.8 222.2 222 221.7 223.3 223.6 223 224.8 230.3 236.6 238.2 241.9 247.5 252.1 251.6 256.1 257.8 254.4 251.6 251.2 243.7 238.4 230.2 225.8 218.2 212.9 207.7 199.4 189.3 177.5 170.6 164.2 159.7 154.2 152.1 149.1 149.2 147.5 145.7 142.3 140.7 137.5 131.7 125.1 120.1 116.3 108 99.1 89.4 80.3 70.1 56.3 44.7 44.3 44.3 44.3 44.3 44.3 44.3 44.3 44.3 44.3 44.3 44.3 44.3 44.3 44.3 44.3 46 49.8 54.9 55.7 58.5 59.1 61.1 61.5 65.9 70 66.3 66.4 64.8 62.3 61.4 61.6 61.7 62.7 67.6 66.5 64.7 63.8 63 63 62.7 64.3 64.8 62.4 62.8 69.2 67.2 67.6 68 70.4 81.6 75.6 74.4 73.4 75.9 76.6 77.5 84.1 83.2 80.3 82.5 80.9 82.2 84.2 86 93.7 94 90.3 88 88.9 88.7 89.8 90.3 92 97.1 97.5 100.3 101.4 102.5 110 117.1 124 122.3 132.8 145.4 145.1 148.5 151.1 160.5 167.3 172.1 178.2 182.6 187.9 192.3 199.4 207.4 211.2 217.4 218.5 215.3 209.7 197.3 190 180.2 177.1 176.5 178.1 178.7 177.1 174.1 171.7 171.8 173.1
197 196.6 198.5 198.9 198 199.7 198.8 199.8 199.4 200.5 200.8 204.4 202.7 203.2 202.8 204.5 209 210.3 210.9 213.8 215.8 217.1 219.6 222.6 224.5 223.5 222.9 223 222.6 222.7 223.1 222.5 220.1 220.6 220.7 219 219.6 220.8 221.3 221.9 221.8 221.8 226.7 229.5 232.5 240.1 245.5 251.1 251.1 257.3 262.4 262.4 259.4 252.3 245.6 241.7 235.7 231.2 226.5 216.8 213.2 204.5 194.9 183.8 175.3 167.5 162 159.3 157.3 153.5 154.6 153.5 151.4 147.4 146.1 143 137.2 133.4 130 123.2 113.9 106.1 98 89.1 79.4 69 57.2 44.3 44.3 44.3 44.3 44.3 44.3 44.3 44.3 44.3 44.3 44.3 44.3 44.3 44.3 44.3 44.3 48.3 51.3 52.8 57.8 56.8 58.2 59.9 62.1 69.4 68.2 64.8 63.1 62.6 63.1 62.5 61.9 64.3 63 66.6 66.1 65.7 61.8 62.5 62.5 63.7 65.9 63.4 64.4 65.1 67 67.9 70.6 74.2 75.6 75.2 73.4 74.4 75.6 76.7 77.2 81.9 89.1 82.2 81.6 81.1 82.3 84.8 86.2 95.6 93.4 90.2 89 88.5 88.2 89 90.5 91.1 94.9 96 98 100.3 103.4 105.7 109.7 115.3 120.5 125.7 139.1 140.7 143.8 145.8 154.9 159.2 166.3 172.4 178.8 179.5 187.2 195.6 206.2 211.5 217.9 220.8 218.3 211 197.2 188.8 180.8 177 173.5 174.3 173.5 171.3 170.3 167.9 165.9 163.3
193.1 192.3 192.6 192.3 194.3 195.9 195.7 196 197 196.1 197.4 198.6 198.7 199.8 199.3 201.9 205.9 206.7 207.6 208.4 210 211.3 214.4 219.4 221.1 219 218.9 218.7 219.3 219.9 220.5 219.8 217 217.1 216.8 217.3 218.2 218.3 218.3 218.7 219 219.5 221.5 224.4 227.1 236 240.7 244.6 247.9 250.1 261.6 266.8 262.8 253 249.3 247.4 244.5 236.6 230.3 222.4 216.8 209.6 200.8 186.5 179 172.9 167.1 163.8 159.6 158.7 159.9 158.2 156.7 154 150.4 146.8 141.4 138.2 136.5 128.9 121.4 115.2 108.6 99.2 90.1 77.2 68.7 53.7 44.3 44.3 44.3 44.3 44.3 44.3 44.3 44.3 44.3 44.3 44.3 44.3 44.3 44.3 44.3 46.2 48.2 51.8 54.5 57.4 57.5 59.7 60.8 67.4 68.2 63.4 63.5 63.1 64.9 63.4 60.9 65.3 66.5 64.6 66.2 63.4 62.6 62.1 63.1 64.5 63.3 62.3 64.5 65.1 67.6 72.5 72 72.8 74.6 74.4 73.3 74.4 77.6 76.9 76.8 77.9 90.4 87.3 82.3 82.1 83.5 86.7 88.8 92.6 90.9 89.5 90.6 88.6 88.5 88.6 91.4 92 94.9 97.4 97.9 100.3 103.9 105.9 109.1 116.8 119.3 123.9 131.1 133.1 136.5 139.2 153.2 157.7 160.4 166.8 174.4 175.6 180.9 199.1 202.5 208.6 217.5 222.1 221.7 212.7 198.2 187.7 179.8 177.5 171 171 169.6 166.4 165.3 161.5 153.9 150.4
186.4 186.1 189.2 188.3 190.6 191.2 193.5 191.3 193.4 194.3 193.8 194.7 195.7 195.2 196.2 199.4 202 204 205.2 203.2 204.9 205.8 209.2 212.2 214.4 213.2 214.5 215.3 215.9 217 214.4 214.9 215 214.2 213.9 215.5 215.7 215.7 216 215.7 216 217.7 218.8 219.4 223.5 228.1 237.9 243.1 246.2 246.1 253.5 265.3 263 256.4 256.8 255.7 248.4 240.6 231.6 225.8 217.2 210.7 198.6 187.7 181.6 174.9 169.3 164.8 160 160.6 162.9 161.9 159.8 159.8 156 153.4 147.3 143.9 143 134.8 130 123.2 115.4 108 101.2 89 77.2 64.7 51.6 44.3 44.3 44.3 44.3 44.3 44.3 44.3 44.3 44.3 44.3 44.3 44.3 44.3 44.3 44.3 44.3 48.9 51.9 55.9 57.7 59.3 60.4 62.5 64.2 63.5 63.6 62.8 65.1 63.4 62.6 61.8 63.1 64.4 68.3 63.3 62.9 65.4 61.7 64.5 62.4 60.9 68.3 67.4 67.6 71.5 70.4 70.9 73 72.6 76.1 76.9 76.7 77.2 77.5 78.6 84.8 90.1 84.1 84.2 84.8 88.4 88.8 89.5 89.9 93.9 91.4 89.7 93.2 91.8 90.5 92.4 93.4 96.7 98.5 98.1 102.6 105.2 112.5 118.1 124.9 127.5 133.3 136.6 135.3 139 150.9 162.9 161.5 171 172.7 174.2 185 196.2 201.5 205.3 211.3 219.7 219.6 213.2 200 189.3 178.6 172.4 168.2 166.9 165 163.2 155.7 150.7 146.3 145.6
182.4 181.2 182.2 184.5 185.8 187.5 186.9 186.9 188.6 190.6 190.9 191.1 191.6 191.8 193.8 197.6 198.9 199 198.1 196.4 197.7 200 202.2 205.1 208.7 208.1 208.8 210.7 212.8 213 211 212.1 211.6 211.4 211.1 212.4 213.1 213.1 213 214.1 215.7 216.1 217.2 218.7 222.1 225.5 230.2 239.2 241.9 243.8 246.4 255 258.9 264.4 263.4 258.9 251 241.5 234.2 226 217.1 209.7 198.9 189.6 182.9 176.5 169 164.5 163 163.8 165.5 165.5 164.7 164.3 162.5 158.3 156 150.9 147.6 139.6 136.2 131.9 124.4 116.5 111.4 101.5 90.1 77.2 66.3 50 44.3 44.3 44.3 44.3 44.3 44.3 44.3 44.3 44.3 44.3 44.3 44.3 44.3 44.3 44.3 49.4 51.7 53.8 56.2 57.2 58.1 59.3 64.6 64.9 63.5 62.5 63.1 63.6 62.5 61.3 63 65.7 68.6 63.4 63.3 63.1 63 60.7 61.2 62.2 69 68.6 71.3 70.8 69.7 74.1 72.5 73.7 77.4 77.2 77.1 77.6 79.5 79.9 79.8 89.4 84.4 88.9 97.3 88.9 89.3 89.6 89.5 92.3 92.4 92.2 93.6 92.3 92.1 91.1 92.7 93.2 95.1 97.1 101.4 105.1 111.2 117.3 128.4 131.2 140.7 146.6 149.9 151.1 151.2 162.2 164.2 172.1 171.7 176.7 191.3 197 201.9 203.8 209.6 214 214.5 211.4 201.4 188.9 179.3 170.4 164.1 161.6 164.1 154.7 148.7 145.5 143.5 144.2
179.6 176.4 176.3 178.4 180 181.7 183 183.4 184.4 188.1 187.8 187.2 188.7 188.1 190.9 194.4 195.2 194 191.2 190.1 193.8 195.3 197 200.2 202.5 202.4 203.6 204.3 204.5 205.1 205.8 208.1 205.9 207.9 207.7 209.2 208.9 209.5 210.1 211.9 213.1 215.5 215.2 217.4 219.7 223.6 226.5 231.3 234.5 238.8 244.3 249.6 253.4 264.3 267.4 261.4 254.5 244.4 234.7 227.1 216.9 208.5 200.8 190.8 183.5 175 171.6 169 167.7 167.7 168.4 169.9 171.2 171 168.5 166.2 161.5 157.4 153.8 147.2 143.3 136.1 132.5 125.6 119.6 112.2 100.5 86.8 74.1 63.6 47.6 45.2 44.3 44.3 44.3 44.3 44.3 44.3 44.3 44.3 44.3 44.3 44.3 44.3 44.3 44.9 53.4 55.2 56.8 56.2 59.4 60.2 60 64.4 61.2 62 62.2 61.7 63.3 60.1 62.1 64.6 66.4 65.6 65.5 65.2 65.3 60.7 61.1 65.5 66.6 69 69.9 68 69.2 74.6 75.5 74.6 79.9 80.4 79.5 78.9 79.6 80.2 79.8 83.1 85.6 91.8 97.5 90.3 89.4 89.6 89.9 91.6 93.2 94 92.3 92.7 91.3 91.1 91.4 92.1 92.8 95.6 101.1 106.8 111.7 123.4 127.8 134.3 146.3 153.4 161.7 158.9 160.4 159.7 166.4 173.4 174 178.5 189.4 195.2 196.6 199.5 205.3 209.2 210.6 210.6 203.2 190.3 186.3 170.4 160.9 156.4 151.1 146.8 144.1 141 138.3 140.2
173.6 170.8 169.8 171.4 174.9 174.9 178.1 179.4 180.6 183.4 184.3 182.6 184.8 183.8 188.8 188.8 188.4 186.6 185.2 185.3 187.4 189 190.2 193.8 196.2 195.9 195.6 197.2 199.2 199.2 200.8 201.4 200.5 203 205.7 205.9 206.6 207.7 207.9 209 212.2 212.4 211.9 216 219.5 220.3 222 224.8 228.4 233.5 241.1 246.2 251.6 263.5 267.7 264.2 257.3 247.6 236.7 226.6 217.6 208.5 200.2 193 184.4 178.2 175.3 173.4 172.6 172.5 171.7 175 176 175.3 173.4 170.2 168.1 163.4 158.1 153.4 150.4 140.5 136.1 132.4 125.5 118.9 108.9 96.3 82.4 73.3 61.1 49.6 44.3 44.3 44.3 44.3 44.3 44.3 44.3 44.3 44.3 44.3 44.3 44.3 44.3 44.3 51.9 54.8 55.5 57.5 58.6 59.8 61.7 62.2 61 60.2 61.2 62.9 61.5 60.7 61.6 62.8 63.1 64.6 65.9 65 65.5 59.7 67.1 66.8 68.5 68.7 69.6 68.7 69.2 72.9 77.7 77.9 79.4 79.1 80.7 80.1 79.9 80.2 79.7 83.7 88.1 92.2 93.8 92 92.3 91.4 93 93.1 93 95.5 92.1 91.9 91.7 91 91.1 91.6 92.2 96.5 101.7 107.7 118 126.5 134.2 138.8 147.5 158.6 167.3 166.2 165.8 164.7 166.2 178.1 178 182.4 186.6 190.7 193.5 193.4 199.4 202.9 204.8 204.7 201.8 193.5 184.7 174.2 159.3 147.8 144.7 141.8 139.2 136.7 134 133.3
168.4 165.4 161.5 167.4 168.7 167 170.5 173.8 174.7 175 178.5 178.8 178.9 178.2 180.7 182.6 181.1 180.6 178.7 178.7 179.9 182 183.2 187 188.6 189 190.7 190.4 191.3 193.9 194.4 195.7 196.6 199.4 202 202.5 203.3 205.1 206 207.1 209.4 209.3 209.9 213.6 216.3 218.8 220.5 224.3 227.4 230.6 235.1 240.3 249 253.1 255.9 257.6 256.7 251.4 240.5 228.1 215.7 207.1 198.7 191.7 183.9 179.1 178.2 176.3 175.9 177.4 176.2 179.2 180.4 179.8 177.1 175.4 173.4 169.1 163.9 158.1 156.5 149 142.7 138.6 133.2 124.9 116 104.7 90.4 83.1 70 55.8 44.3 44.3 44.3 44.3 44.3 44.3 44.3 44.3 44.3 44.3 44.3 44.3 44.3 44.3 49.7 54.5 54.9 54.5 57.2 60 61.8 59.2 59.3 59.9 60.7 61.1 62 59.5 61.2 62.1 64.6 63.6 65.4 67.2 61.1 64 65.9 67.9 66.2 68 68.9 67 69.8 72.6 74.4 76.6 77.4 77.8 79.1 81.4 85.1 82.5 81.6 83.5 90.5 91.2 92.2 93.8 95.5 100.2 93.7 97.4 93.4 93.5 93.6 92.1 91.4 91.2 91.7 92.1 94 99.5 110.3 118.4 117.9 124.4 135.7 146 152.3 157.4 168.6 171.4 169.8 170.9 170.2 175.5 185.3 185.4 189.2 194.1 193.5 188.4 192.7 196.5 199.3 200.8 199.5 191.5 183.3 169.2 153.8 146.5 139 135.9 136.4 131.7 130.6 130.8
163.9 161.1 154.8 157.6 160 162.2 164.2 168.3 167.9 169.8 172.3 173.1 174.6 174.3 175.5 174.9 175.2 175.3 174.6 172.8 172.8 174.3 177.2 180.7 183.5 182.6 184.6 185.1 185.4 187.9 188.6 191 192.2 193.8 196.6 199.5 199.9 202 202.9 204.6 206.5 205.9 208.2 209.6 215.8 218.5 222.2 225.5 228.3 233.2 238.2 241.4 243.1 244.8 248.3 248.4 248.4 248.3 243 230.7 216 206.5 197.8 189.3 184.2 182.4 181.3 178.4 179.4 181.1 180.7 183.4 184.5 184.4 183.8 183.7 181.3 175.9 169.8 164.2 161.1 155.9 150.5 143.8 137.2 130.8 122.4 114.3 101.6 91.1 77.9 62.7 50.3 44.3 44.3 44.3 44.3 44.3 44.3 44.3 44.3 44.3 44.3 44.3 44.3 44.3 48.3 52.5 53.9 54.6 56.2 59 59.9 59.4 60.1 60.4 60.7 61.5 61.2 60.1 60.9 62.5 61.8 63.2 62.6 56.8 57.6 63.4 63.9 66.5 67.4 67.9 65.6 68.1 70.3 72.3 74.2 76.6 77.2 77.9 79.4 84.2 84.4 86.2 83 85.3 90.7 92.3 95.7 95.1 96.5 101.7 100.1 95.9 99.9 94.3 93.9 92.1 91.5 91.5 92.3 92.8 95.6 101.2 112.7 123 121.6 132.5 140.6 149 156.2 159.6 165.7 170.9 172.1 176 171.6 175 184.1 185.8 188 195 190 183.2 185.7 189.3 191.3 194.6 194 188.8 176.8 161 154.4 146 135.9 131.4 130.2 130.5 130.4 130.7
159.6 157.6 152.8 152.1 155.5 157.3 158.7 161.5 162.3 163.1 165.3 168.3 168.7 170.2 171.6 169.8 169.1 168.8 167.7 167.2 168.4 167.9 171.5 174 174.9 176.5 179 179.8 178.3 181.7 182.7 187.1 188.7 190.8 191.4 195.9 198.3 200.6 203.4 205.6 203.5 204.5 204.2 210.9 212.9 218.3 225.1 230.2 232.2 236.5 238.9 241.4 243.1 244.4 245.2 246 244.7 242.2 238.3 230.4 218.1 205.3 198.5 190.2 185.7 184.9 181.8 181.1 183.2 184.9 185.7 186.4 186.8 189 189.2 190 185.1 181.5 175 169.4 165.7 160.6 156.5 149.1 143.6 137.7 128.8 121.5 110.3 100.5 88.4 72.5 57.3 48.1 44.3 44.3 44.3 44.3 44.3 44.3 44.3 44.3 44.3 44.3 44.3 44.3 44.3 47.4 51.4 54.1 52 56.3 59.2 60.2 60.5 61.5 60 61 61.9 59.3 60.5 60.2 61.3 61.3 59 63.8 59.3 62.6 63.6 64.4 65.1 65.3 69.2 70.9 70.3 74.4 74.6 76.8 77.7 78.1 83.1 82.6 83.4 85.1 84.9 85.1 90.6 97.3 101.7 98 97.2 102 103.3 96.8 95.4 94.5 94.2 92.7 92.3 91.8 95 96.5 99.6 104.2 113.2 124.7 124.1 133.6 141.4 149.3 154.5 161.8 167.1 174.2 177.7 185.1 181.8 178 181.4 183.7 188.4 188.8 186.1 180.5 180.1 181.5 183.3 186.1 187.9 182.3 167.8 161.9 154.2 143.5 134.3 129.6 129.4 129.3 129.8 132
154 151.2 150.3 145.3 146.6 150.5 152.5 155.5 158.1 157.9 161.3 162.8 164.6 165 166.3 162.7 162.3 161.1 161.3 160.8 162.5 162.9 166 167.5 170.5 170.1 171.3 171.1 173 173.7 175.9 182.5 184.5 185.3 187.3 192.6 195.7 199.5 200.7 202 203 201.8 205.6 211.1 214.2 220.1 226.5 231.4 237.2 239.3 240.9 243.5 244.7 246.9 249.2 247.5 245.2 240.1 234.6 228.3 218.7 207.7 199.7 193.7 188 186.9 185.7 184.7 186.3 188.8 190.5 190.8 192.5 192.9 193.6 193.8 190.3 186.2 180.5 175.2 169.4 163.8 160.2 153.8 147.6 139.7 134.9 125.9 117.7 107.9 98.2 83.3 67.9 57.1 50.3 44.3 44.3 44.3 44.3 44.3 44.3 44.3 44.3 44.3 44.3 44.3 44.3 44.3 50.2 50.3 52.8 56.7 58.6 59.4 60.4 60.9 60.9 60.5 60.1 57.8 58.9 59.3 59.8 60.8 58.4 62.7 63.5 66.3 63.3 63.5 64.8 66.7 69.7 71.8 71.8 72.4 75.1 75.3 78.1 79.8 81.9 82.5 85.2 89.3 91.5 86.7 93.1 100.8 107.8 103.2 98.9 100.1 103 96.5 95.1 93.9 93.6 92.9 92.8 93.2 95 98.6 105.7 105.9 110.3 120.1 122.3 131.4 141.7 148.6 157.5 163.3 173.3 179 182.9 188.3 189.5 179.5 187.9 183 186.2 187.1 182.4 178.7 174.4 174.4 173.6 173.2 174.9 170.2 165.2 160.7 154.9 141 130.7 130.6 128.3 131.8 133.9 132.2
146.9 145.2 146.9 144.4 139.4 144.1 147.4 150.3 152.2 152.8 154.5 157.6 160.3 161.7 163.3 158.8 157.7 155.4 155.4 154.8 156.5 156.4 158 160.5 163.6 164.2 164.6 167.7 168.6 170.5 171.9 175.2 179.6 180.9 185.1 188.7 193.3 196.5 199.1 200.6 200.1 205.1 207.7 210.7 218 222.9 228.8 234.3 240.5 243.9 246.5 249.3 251.7 251.7 252.6 252 246.2 241.9 233.1 226.6 218.6 210.1 203.2 197.6 193.3 191.1 189 188.5 190.2 192.3 192.5 193.2 196.2 197.7 195.3 195.3 194 189.8 185.2 178.7 173.7 168 164.9 160.3 154 145.7 138.5 131.4 123.3 116.3 106.3 93.6 80 66 55.5 44.3 44.3 44.3 44.3 44.3 44.3 44.3 44.3 44.3 44.3 44.3 44.3 44.3 45.8 48.1 50.1 55.4 58.3 59.9 62.5 60.3 63.3 60 59.6 58.6 57.3 56.4 56.2 53.6 61.2 61.6 63.8 63.7 62.1 63.9 66.7 67.5 73.5 71.8 71.5 72.5 74.5 73.9 81.8 80.6 81.9 87.2 88.4 89.9 93.7 89.6 92.6 103 111.9 104.3 100.2 99.3 99.7 98 95.3 94.4 93.7 94 96.6 94.6 100.4 99 100.9 102.6 109.3 113.9 122.7 130.1 140.8 150 162.2 164.4 173.5 178.8 179.3 179.3 186.4 177.7 191.8 187.4 180.2 181.2 179.8 171.5 169.8 166.4 164.9 161.8 161.5 163 161.3 158.8 153.5 141.1 131.2 128 129.2 137 132.8 132.1
137.5 137.5 139.1 137.2 135.2 134.4 141.3 144.7 146.7 147.8 151.4 151.9 153.7 156.2 157.3 154.4 152.1 149.9 150.3 149.5 149.9 150.8 150.9 154 157 158 158.1 160.8 164.3 167.4 168 172 175 177.8 181.1 184.9 189.5 193.7 197.1 200 200.7 205.7 208.3 211.5 218.7 225 229.9 237.7 242.5 248.2 253.7 257.2 257.9 257.6 257.1 256.5 253 248 239.5 230.2 219.9 213.8 206.3 201.9 198 196 193.9 192.6 194 196.3 195.4 195.3 197.7 199.2 197.2 198.3 195 190.9 188.8 181.4 176.4 172.7 168.1 162.8 157.3 152 144.2 137.4 130.9 123.4 115.4 106.3 91.1 76.8 60.5 49.6 44.3 44.3 44.3 44.3 44.3 44.3 44.3 44.3 44.3 44.3 44.3 44.3 44.3 44.3 46.9 57.1 60.4 61.2 60.5 60.5 61.3 58.8 59 58.3 57 54.9 54.1 57.1 56.7 58.4 63.3 63.8 65.5 64.4 65.5 66.8 69.4 71.3 71.4 73 73.4 74.8 79.5 80.8 82.6 85.9 89.7 97.8 97.3 89.8 93.3 104.6 113.3 105.5 100.5 99.1 99.2 98.6 96.7 95.4 95 97.3 96.4 98.5 95.4 97.5 97.6 99.6 104.1 113.5 120.6 128.7 147.9 157.7 157.1 161.3 170.4 174.3 175.9 173.8 178.1 178.1 185 183.6 180 178.3 176.5 168 164.2 161 154.3 154.3 154 157.9 157 157.5 152.5 143.6 132.9 126.4 133.6 132.6 131.3 128.6
131.2 127.3 124.8 129.2 129.3 130.4 131.7 136.8 138.6 140.7 143.9 145.7 147.2 149 149.1 149 146.8 145.7 145 145.5 144.3 145.4 148.3 148.6 151.1 153.4 154.4 155.8 157 162.9 164.8 168.6 171.1 173.6 177 182.9 187.1 190 195.1 197.7 201.2 205 208.4 215.3 220.5 224.4 232.4 238.2 245.3 253.3 258.7 263.2 264.6 264.8 264 264.6 263.2 260 252.4 241.6 225.3 217.5 209.7 205.5 201.6 198.6 196.7 195.9 197 196.7 194.9 195.8 196.5 198 197.7 198.1 199.5 193.4 190.1 183.9 178.9 175.2 168.8 164.6 159.7 156.1 153.2 143.4 137.5 129.5 125.6 117.2 103.5 88 71 54.4 48 45.5 44.5 44.3 44.3 44.3 44.3 44.3 44.3 44.3 44.3 44.3 44.3 44.3 47 55.8 59.9 60.7 60.9 59.7 58.5 58.9 57.4 57.2 55.2 54.4 53.6 56.5 58.3 60.5 64.6 65.3 65.4 65.2 65.7 66.6 69.1 69.8 71.1 74.7 76.1 78.9 81.6 84.9 87.7 89.1 90.2 98.8 103.6 90 98.1 106.3 112.2 108 100.4 99.4 99.9 99.9 99.4 97.7 99.7 104.2 97.8 97.3 95.8 96 96.4 97.9 108 111.4 121.1 134.4 148.3 150.6 153.6 158.1 167.4 169.5 170.5 170.1 167.7 170.9 176.3 176.6 174.1 173.1 170.6 165.3 159.8 153.6 147.1 148.7 149.8 149.3 149.4 149.1 147.4 141.4 133 129.2 127.9 131.6 128.6 127.3
122.6 119 118.8 118.5 121.7 122.4 120.1 125.5 122.6 131.3 138.5 139.8 140.7 141.7 142.1 142.2 140.1 140.9 140.6 139.4 139.1 138.9 141.5 143 145.2 147.8 149 152.5 156.9 156.2 159.6 163.9 167.2 168.9 173 178.9 183.5 187.5 192 193.6 202.6 204.4 208.8 216.1 222.2 228.8 232.2 241.7 249.5 257.1 263.5 268 269 270 271.1 271.5 271.4 269.3 264.7 249.5 232.8 223 213.2 208.6 204.8 200.8 198.3 197.6 198.1 196.2 195.5 195 197.4 195.5 197.6 195.4 197.3 195.9 192 185.9 180.7 174.3 170.6 165.7 163.5 157.6 154.2 145.4 139.8 135.8 134.5 128.3 114.6 99.8 80.4 60.6 48.5 44.3 44.3 44.3 44.3 44.3 44.3 44.3 44.3 44.3 44.3 44.3 44.3 44.3 45.7 52.7 56.1 57.4 59.3 59.6 60.6 58.5 56.1 53.7 52.4 51.9 56 59.6 58.3 62.1 66.9 66.6 64.9 65.6 67.8 67.3 68.3 73.8 74.8 74.4 78.5 79.3 85 89.4 95 94.7 94.1 99.2 96.7 90.3 94.9 104.1 108.1 105.4 100.5 101 102.8 103.9 103.4 100.1 108.5 107.1 98.9 96.1 95.7 95.6 95.7 98.8 106.7 111.8 115.9 126.4 137.9 144.2 149.3 153.5 161.6 164.6 164.9 166.6 163.1 160.1 166.8 167.7 168.7 167.3 164.6 161.6 153.6 147.6 146 145.5 146.4 144.8 145.6 143.4 142.8 138.2 133.1 132.1 129.3 126.5 121.9 126.4
109.1 109.6 112.5 111.5 114.5 113 115.9 111.9 116.7 121.3 125.8 127.2 129.3 134.8 130 130 132.7 135.9 135 134.6 135.8 136 136.1 137.6 140.6 141.7 144.3 148.9 151.4 151.3 156.6 159.4 161.4 162.7 169.5 174.9 180.1 184.6 187.8 190.8 199.3 202.9 208.6 214.7 220.6 227.4 234.7 243 249.3 261 266.7 271.7 274.7 274.7 276.3 278.5 277.8 276.7 272.1 258.8 246.3 233.7 221.6 212.6 208.2 204 201.3 199.6 198.9 196.9 194.7 194.7 196.7 194.1 194.5 193.2 194.5 193.7 191.8 186.6 180.6 176 170.2 168.1 160.8 158.8 154.4 147.3 143.4 142.2 141.4 137.8 127.2 109.9 88.6 64.6 49.5 44.3 44.3 44.3 44.3 44.3 44.3 44.3 44.3 44.3 44.3 44.3 44.3 44.3 44.3 47.7 53.4 55.6 58.7 58.8 60.3 56.5 56.2 52.1 55.6 51.1 58.7 60.3 57.8 62.4 66.7 66.3 64.6 66.2 67.4 67.5 70.7 74.6 76.2 76.7 86.4 83.4 87.2 96 104.5 95.7 100.4 98.8 95.8 92.4 94.5 96.9 101.2 100.4 102.5 105.3 102.4 103.7 104.7 103.7 103.6 101.7 97.4 96.4 95.6 95.4 95.6 97.1 103.8 107.1 113.2 122.6 130.4 140.4 145.5 149.2 152.6 158.7 160.5 162.6 159.1 150 158.9 161.2 161.2 161.2 162.3 155 152.1 148.8 148 145 144.6 146 148.4 141.4 136.7 133.7 133.8 132.8 126.7 117.4 119.8 127.4
97 101 104.4 104.3 102.2 109.2 108.3 105.8 109.2 112.3 113.1 117.3 118.3 125.3 118 123 126.4 131.7 132 128.8 130.3 132.5 132.9 133.5 135.4 137.6 141.3 144.1 144.4 146.4 155.1 156.8 157.6 160.7 163.6 169.9 175.8 178.9 185.5 188.5 197.5 201.2 209.3 216.7 223.2 229.8 235.1 243 253.1 264.1 271.5 277.8 280.5 279.1 286 290.2 288.5 285.1 275.2 265.3 253.7 242.7 230.3 220.1 213.1 206.8 202.1 199.9 199.8 197.6 194.6 192.7 192.7 192.4 192 190.2 192.8 191 190.2 187.6 182.4 175.8 171.2 168.6 162 158.1 153.1 147.4 145.5 144.5 146.9 144.4 135.6 119.2 99.3 75.6 56.3 45.5 44.3 44.3 44.3 44.3 44.3 44.3 44.3 44.3 44.3 44.3 44.3 44.3 44.3 44.3 48.6 55 57.7 58.9 55.5 53.1 49.7 51.2 54.3 54.9 56.4 57 61.6 61.2 62.3 65 64.6 65.9 70.8 72.2 70.5 74.2 75.5 78.5 90.2 92.9 85.4 92.6 95.8 97.3 103.6 96.9 93.7 92.9 95.5 94.5 98.4 99 99.7 103.5 106 109.5 112.8 104.4 103.4 100 96.4 96.3 95.4 95.2 95.2 97.5 101.3 108 112 117.1 122.8 128.1 140.6 144.4 148.6 152.3 157.2 156 153.6 147.4 146.3 152.9 154.4 154.1 153.3 152.6 145.1 146 145 141.3 138.9 142.5 144.4 141.7 131.2 133.6 131 129.4 124.2 116.7 120.2 131.3
92.1 93 96 97.9 98.8 101.3 102.5 101.7 104.9 106.1 105.9 107.1 109.8 119.8 113.9 114.9 121.6 122.8 126.1 126.5 126.5 128.5 129.5 128.9 131.4 132.3 138 140.3 140.1 146 149.4 151 156 160.2 163.7 167.1 171.1 174.9 181.8 188.3 194.3 199.3 207.9 216.1 223.1 230.7 236 239.4 256.4 266.5 275.9 281.4 285.2 288.8 296.8 299.3 296.6 293.3 284.7 273.2 260 247.2 236.9 227.4 219.3 209 205.8 202.9 200.9 197.3 195.2 193 191.8 190.6 189.6 186.9 187.1 186.9 187.6 186.4 183.4 176.4 172.3 167.6 163.7 159.2 153.3 149.6 144.8 145 150.3 146.4 138.7 126.6 109.6 85.9 65.4 49.8 44.3 44.3 44.3 44.3 44.3 44.3 44.3 44.3 44.3 44.3 44.3 44.3 44.3 44.3 46.4 49.3 53.6 52.5 51.2 47.6 55.1 50.1 54.3 53.9 56.7 58.5 59.1 60 60.5 65.4 64.9 69.3 74 72 71.4 72.9 76.1 82.9 91.1 96.2 89.3 92 98.4 100.1 98.3 97.6 95.4 93.3 94.4 94.4 99.4 102.4 99.5 101.3 109.1 111.6 112 103.8 98.6 97 95.7 96.7 97.3 96.5 95.1 97 100.8 103.8 107.7 113.5 120.2 123.5 133.3 139.7 143.3 149.7 153.8 152.5 148.5 146.3 141.5 145.1 147.2 146.9 147.3 144.3 142.6 140.4 141.8 139 138 136.4 136.4 135.6 131.1 136.9 131.4 126.5 118.3 120 127.5 137
89.8 90.3 91.3 94.3 94.4 96.6 97.2 98.8 100.7 100.5 100.9 102.3 104.2 110.2 109.9 114.1 108.5 113 115.1 124 123 124.4 126 126.4 128.3 129.6 133.7 136.6 142.4 143 146.6 150.1 154.1 157.4 164.3 169 168.8 171.1 175 184.8 192 200.1 206.3 214.9 222.7 231.2 238.8 241.7 256.2 266.4 275.6 283.5 292.7 298.7 307.9 310.6 305 299 292.4 279.9 265.6 254.7 240.8 232.6 222.7 210.5 205.6 203 203.5 200 196.4 192.1 190.5 188.9 185.9 183.5 183 183.7 183.6 182.9 182 178.1 172.1 165.4 163.8 160 150.9 148.3 146.1 152.3 154.5 152.3 142.5 131.9 116.9 93.8 73.6 56.9 50.7 44.3 44.3 44.3 44.3 44.3 44.3 44.3 44.3 44.3 44.3 44.3 44.3 44.3 44.9 47.1 48.8 47.2 45.8 50.7 54.4 55.5 52.9 53.4 55.3 56.6 58.6 60.4 66.9 66.5 66.5 69.5 71.7 73.2 74.4 73.1 77.4 82.1 94 99.5 94.5 95 95.5 99.1 97.4 97 97.5 94.3 94.3 94.1 94.9 99.1 99.1 103.7 112 107.2 107.2 101.3 98 96.5 95.9 97.4 97.1 95.9 98.3 95.1 97.9 101.8 107.2 112.1 119.2 127.7 130.3 136.3 141.4 142.6 145.7 148.1 144.5 142.3 141.9 143.7 147.2 148.9 144.2 142.8 140.1 137.8 144.1 138.7 138.5 132.2 129.3 128.7 126.5 131.2 134.1 124.5 114.2 127.3 131.5 136.5
87.6 87.2 89.3 89.3 92.9 92.8 91.4 93.1 95.6 96 96.7 97.3 100.2 103.8 104 106.6 105.5 108.3 109.8 116.8 118.9 124 122.8 121.8 123.1 127.7 130.6 134.2 137.7 141.8 143.5 146 150.6 155.9 162.4 166 167.6 169 173.6 180.4 188 195.7 202.9 211 221.1 229.5 236 244.8 255.9 265.5 275.9 289.7 300.1 307.8 315.5 316.7 308.8 300.3 296.7 285.1 268.5 256.3 245.7 233.7 224.2 211.6 205.8 202.9 203.6 200.8 197.9 192.6 187 185.9 183.3 181.4 180.9 180.4 181.2 181.3 179.8 178.1 173 167.1 163.8 157.4 150.7 148 147.5 157.3 157.4 155 147.7 136.1 120.8 103.3 83.6 67 58.1 50.9 44.3 44.3 44.3 44.3 44.3 44.3 44.3 44.3 44.3 44.3 44.3 44.3 45.3 45.2 43.9 47.1 48.5 50.5 54.4 54.6 53.5 53 53.6 56.2 59.8 61.6 69 65.1 67 76.8 71.7 71.2 73.8 73.9 79.7 87.7 96.2 99.7 96.8 93.2 101.2 98 97.5 97.7 99.1 96.1 94 94.5 97.4 101.5 99.8 99.2 102.8 105.2 104.3 100.8 100 95.7 95.3 99.3 98.6 96 99.1 94.7 96.7 98.8 104.7 108.9 116.7 125.7 132.4 136.6 137.7 138.6 139.8 139.4 139.4 136.2 143.7 146.2 140.2 139.2 144.4 150.2 143.8 137 142.6 143.7 134.5 130.5 121.5 120 119.4 120.6 129.1 116.5 119.3 134.8 134.2 138
86.1 87.2 86.7 87.2 88.6 88.9 88 89.6 91.8 93 93.6 93.7 94.3 96.5 98.8 102.5 104.6 103.6 106.5 113.2 113.7 119.5 119.6 121 120 123 125.2 131.8 133.5 134 139.5 145 146 152.3 157.6 164.2 165.8 167.1 171.2 179.5 186.3 193.7 201.6 207.6 218.3 228.3 237.7 246.3 257.5 266.4 280.8 292.9 303.3 309.9 319.7 321.2 314.9 307 296.9 289 274.6 254.5 242.5 231.8 224.4 212.3 207.2 204.6 203.9 200.2 196.6 192.6 186.9 183.5 180.9 178.7 179.8 177.5 177.8 177.6 177.6 179.3 173 167.2 162.3 157.6 151.4 148.2 153 159.4 161.6 162.7 150.2 137.8 124.4 108.4 90.8 76.8 64.9 55.1 46.4 44.3 44.3 44.3 44.3 44.3 44.3 44.3 44.3 44.3 44.3 44.3 44.3 44.3 44.3 47.5 48.7 50.6 55.4 53.6 52.7 53.2 53 57.3 60.7 63.6 64.6 62.6 65 70.1 72.7 74.9 73.4 77.1 79.1 85.6 94.4 97.9 96.3 97.2 95.8 99 98.1 101.1 104.5 100.2 94.2 98.5 99.8 104.9 98 96.4 98.9 98.9 99.3 98.5 98 95.1 97.4 97.9 96.1 94.2 93.8 97.3 97.6 98.6 103.2 111.6 118 124.1 130.7 133.9 135.4 134.9 134.1 132.8 133.6 131.8 139.5 146.4 140 135.9 139.6 146.1 148.2 137.9 134.2 141 135.9 124.4 119.9 114.8 113.7 113.9 113.5 113.4 123.3 131.2 136.1 137.1
87.3 84.9 87 86.6 86 86.4 86.5 86.3 89.8 91 90.8 91 92 92.7 95.6 96.1 100.5 99.7 102.3 106.1 111.5 115.1 113.4 117.7 118 122.7 123.5 127.2 128.2 128.1 134.1 140 143.5 148.8 157.5 163.2 160.8 167.5 172 179 187.3 190.9 199.1 205.7 215.9 223.8 236 243.1 254.2 269.7 282.9 291.9 305.4 312 319.6 324.5 321.2 319.6 303 289.4 276.4 258.9 244 232.9 223.3 212.3 207.9 206.8 201.9 197.9 194.6 191.2 186.8 182.8 180.3 177.1 176.1 175.6 175.6 176.5 177.3 175.6 172.4 167.9 162.9 157.2 150.5 150 156.5 161.4 164.9 167 154.4 142.1 129 115.9 99.8 84.5 72.5 61.9 52.8 45 44.3 44.3 44.3 44.3 44.3 44.3 44.3 44.3 44.3 44.3 44.3 44.3 44.3 44.3 45 47.3 49.9 51.2 51.5 51.3 51.9 56.3 63.3 65 61.4 61.7 64.2 68.2 71.5 73.2 74.2 78.5 86.6 82.9 89.6 95.2 94.8 98.6 102.5 101.9 102.5 104.4 107.8 104.7 93.9 101.6 97.7 95.6 93.9 95.5 95.2 95.3 97.1 97.6 96.4 95 96.6 94.1 92.4 94.2 93.1 95.6 98.7 97.9 103.7 117.2 118.9 123.5 126.1 129 129.4 129.1 129.3 129.3 127.1 134.2 137.3 142.1 140.4 132.1 133.7 140.5 146.8 139.4 129.7 128.5 130.6 124.5 117.1 113.4 111 110.2 111.6 112.6 122.5 128.6 136 136.9
88.5 86.8 84.1 86.5 86.3 86 85.3 86.5 90.1 88.8 86.9 87.7 88.8 89.8 89.3 89.6 95.4 95.6 95.7 101.2 105.3 109.9 102.5 114.1 116.4 119.4 121.2 122.9 124.9 123.4 130.5 134.4 141.6 146 150.5 156.5 157.5 165.4 172.1 178.9 185.9 191.8 197.6 203.4 214.1 224.1 233.4 241.7 253.1 270.8 282 288.5 300.4 310.5 319.9 324 321.9 322.5 311.6 295.7 275.1 259.8 246.4 234.3 221.6 211.2 207.5 206.8 201 197.3 194.2 191.1 188.8 183.8 181.3 176.7 175.4 174.4 173.1 172.9 173.3 172.8 170.8 166.8 162.3 156.9 150.5 151.5 159.7 164.6 167.6 169.3 159.2 148.9 135 126.1 110.8 94.6 81.6 69.3 59.7 53.1 44.3 44.3 44.3 44.3 44.3 44.3 44.3 44.3 44.3 44.3 44.3 44.3 44.3 44.3 44.3 45.8 49.6 51.3 51.6 52 51.5 53.1 63.6 62.4 59.7 63.1 64.9 69.5 69.6 71.8 73.2 77.1 90 91.6 87.5 92.2 94.2 99.2 108.6 103.3 107.7 106.3 107.9 107.4 93.7 97.4 101.5 99.9 93.2 92.8 91.8 89.4 97.4 96.5 95.5 95 92.7 92 93.4 93.8 96.6 93.3 96.6 98.4 106.5 115 116.4 118.4 123.7 124.3 125.2 125.3 124.7 123.1 123.5 133.2 138.6 135.6 136.1 130.5 129.7 130.1 136.7 136.3 127.5 121.3 119.7 119.1 115.1 110.2 110.3 110.1 111.7 113.2 117.5 127.3 134.1 135.3
89.4 87.8 88.1 86.8 86.3 87.6 86.9 82.8 85.8 87.5 86.3 85.7 86.8 87.3 85.9 84.9 87.8 89.8 92.3 94.8 96.5 98.9 102.9 112 112.6 116.1 112.9 116.6 120.7 121.8 129 132.4 136.8 142.2 147.3 154.7 153.2 163.8 169.5 176.2 184.3 189.9 194.6 201.2 210.2 220.3 227.5 240 250.5 265.7 280.1 290.9 292.9 303.3 312.6 308.2 315.2 319.6 310.2 299.4 276.6 262.1 248.8 235.2 221.5 210.1 206.7 206.6 201.1 197.2 193.8 192.4 188.4 183.2 179.5 176 174.2 173.3 171.1 170.9 170 170 171.4 167.5 162.7 157.2 150.9 154.4 159.4 165.6 169.9 172.6 164.8 158.9 151.9 142.2 122.6 107.9 88.3 76.4 64.7 57.9 44.9 44.3 44.3 44.3 44.3 44.3 44.3 44.3 44.3 44.3 44.3 44.3 44.3 44.3 44.3 49.9 49.5 51.1 51.1 51.3 52.4 53.1 56.3 58 61.6 60.4 65.5 69 74.9 70.9 72.5 78.6 88.3 95.9 89.6 90.3 96 101.8 109.8 108.7 103.3 105.1 102.8 101.4 93.6 96 104 100 91.5 88.9 89.6 86.9 94.9 92.8 91.1 93.2 91.9 92.2 96.9 96.8 95.1 91.9 96.6 99.4 101 103 113 118 117.9 120.4 126.1 128.2 120.3 119.3 120.5 130.8 135.1 133.4 127.9 127.9 126.4 124.2 123.9 128.1 121.6 118.3 119.5 115.3 109.7 108.5 110.2 112.3 116.3 122.1 126.8 129.7 131.8 137.9
91 90.7 92.4 90.4 90.5 88.2 88.6 86.5 84.8 82.2 82.9 82.3 84.4 84.1 82.6 81.9 83.4 85.8 87.9 91.4 91.9 90.5 99.9 101 107.5 110.6 108.1 110.4 112.6 118.6 127.1 132.3 136 143.7 148.9 150.7 151.4 159.7 166.3 174.3 181.3 188.1 194.9 199.8 209.3 216.8 224.7 235.7 246 259.4 272.9 282.8 285 291.9 297.8 296.5 299.5 300.9 305.6 294.7 278.1 262.8 247.4 236.7 221.9 209.9 205 205.3 203.3 198.4 194.9 190.9 187.2 184.3 179.5 174.8 172.9 170.8 169.3 168.4 167.7 167.6 170.8 168.5 163.4 155.1 151.4 157.1 162.4 168 172.9 173.7 171.8 170.9 164.6 152.1 143.1 116.1 97.6 82.4 68.2 63.2 47.6 44.3 44.3 44.3 44.3 44.3 44.3 44.3 44.3 44.3 44.3 44.3 44.3 44.3 44.3 46.6 48.4 50.5 51.8 52.3 51.7 52.8 55.2 55.7 61.8 62.2 65.4 66.3 67.7 71.5 76.3 78.4 86.5 95.9 94.8 91.2 97.8 99.5 105.7 106.8 103.3 106.7 101.2 94.6 93.4 95.7 102 104 88.6 86.9 86.9 86.8 89.4 89.5 95.3 94.3 91.3 95.7 91.4 97 92.8 91.5 94.4 98.4 97.1 99 102.3 106.7 115.8 115.6 117.9 127.9 126.2 116.7 117.8 122.6 129.7 129.5 120 122.6 122.1 120.2 119.3 119.7 120.3 118.1 117.5 111.2 107 109.8 112.7 117.8 120.7 127.1 132.8 136.9 138 140.4
98.3 99.2 100.7 97.2 95.4 89.2 88.7 87.2 86 86.3 85.2 81.6 80.3 81.2 81.8 81.2 83 82.2 83.1 85.4 86.2 87.4 92.4 97.3 101.4 105 105.7 108.6 112.3 118.2 121.2 129.7 135.3 142.2 146.4 144.3 152.4 159.1 165.4 172.9 182.5 189.8 195.7 199.7 206.3 215.8 223.2 232.2 241.6 251.9 263.5 275.8 276.4 278.5 288.2 284.5 283.1 285.8 292.2 290.7 280.9 261.8 242.7 234.7 220.8 207 203.6 203.9 203.1 200.6 197.1 191.2 186.9 183.7 177.1 174.9 173.5 170.1 168.4 167.5 166.5 165.8 167.6 166.6 161.6 155.5 154.6 159.4 164.1 170.6 172.3 175.4 178.1 181.9 174 162.5 148.7 128.1 104.8 86.8 78.3 70.5 50.3 44.3 44.3 44.3 44.3 44.3 44.3 44.3 44.3 44.3 44.3 44.3 44.3 44.3 44.3 45.3 50.8 56.3 57.1 52.8 52.3 53.6 53.3 56.1 62.4 64.3 63.9 64.9 69.1 72.7 73.2 77.5 81.6 94.2 97.2 95.1 101.8 98.6 105.2 103.6 103.2 100.4 101.1 92.8 92.5 88.8 95.5 101.5 91.2 86.4 86.8 89.5 88.3 88.9 94.1 90.7 88.7 89.2 90.5 91 92.7 89.9 90.4 95.2 95 96.1 98.5 106 113.6 110.7 112 122.6 130.8 119.9 114 116.1 121.4 120.9 117.5 117.1 118.4 115.5 115.3 117.1 118 112.2 108.6 107 108.4 109.7 114.2 117.2 122.8 129.7 136.6 141.7 143.8 150.8
99.5 96.8 94.3 93.4 97.4 90.6 88.7 86.3 87.3 97.8 93.7 85.5 83.2 82.6 82.1 81.8 79.1 81.2 80.4 80.3 81 84.7 87.5 94.5 97.4 100 103.2 104.3 106.3 112.7 120.4 125.5 131.5 136.4 140 144.9 152.4 158.7 164.8 172.1 177.1 187.1 194.9 200.1 205.7 213.2 220.8 229.2 237.4 245.9 256 268.6 270.3 268.9 267.5 277.2 274 271.1 274 277.1 274.1 266.7 239.1 232.2 221.2 209.1 202.9 202.8 199.9 198 196.1 191.8 187.6 184.5 179.9 175 173.6 171 169 167.8 165.4 165 166.2 165.5 159.4 156.6 157.4 161.4 166.4 175.1 175.4 177.3 181.5 187.4 182.5 169.8 155.7 136.6 114.5 97 87 74.9 55.2 44.3 44.3 44.3 44.3 44.3 44.3 44.3 44.3 44.3 44.3 44.3 44.3 44.3 44.3 44.3 50.2 57.8 56.3 55.5 52.6 55.4 52.5 54.5 59.8 64.6 64.1 68.6 72.1 76.4 75.2 75.8 78 89.3 94.6 92.7 90.9 94.8 97.8 99.7 99.8 107.2 100.9 92 88.4 89.4 88.2 95.9 96.4 85.8 93.3 90.8 87.9 88 87.8 87.9 86.9 86.4 88.2 87.4 87.4 87.7 89.3 92.8 93.9 95.1 95.8 99.3 104.4 108.7 110.6 114.3 124.9 123.5 112.4 114.8 112.6 112.9 110.5 112.9 110.7 111.6 112.1 112.8 112.7 108 105.5 109.3 108.5 110.6 113.7 115.6 124.1 132.2 140.6 145.9 153 158.2
98.1 97.4 93.6 91.7 91.3 90.2 90.7 89.9 89.7 96.8 93.7 87.7 84.2 83.4 82.1 81.9 81.4 81.3 80.4 78.1 80.5 81.9 84.3 86.8 93.4 94.7 101.6 100.8 103.8 106.9 115.2 123.3 129.1 132.9 138.9 143.4 150.3 157.9 162.9 169.6 177 183.4 190.8 197.9 204.1 211.6 217.9 226.9 233.4 239.5 246.9 258.5 265.3 261.6 261.6 262.7 263.3 260.2 263.7 264.6 266.1 257.4 245.1 231.9 225.6 213.7 207.6 201.4 196 194.8 195.2 192.5 189.5 186.1 182.6 178.8 175 171.5 169.4 169.3 166.4 164.3 162.2 163 158.1 160.5 162.8 165.5 169.7 174 178.5 178.6 182.1 184.3 185.2 177.7 165.7 148.9 121.8 110.1 94.8 76.3 59 47.8 44.3 44.3 44.3 44.3 44.3 44.3 44.3 44.3 44.3 44.3 44.3 44.3 44.3 44.3 44.3 47.8 51.8 54.6 55.5 53.2 52.4 53.2 57.8 60.5 67 64.4 73.3 72 75.1 73.8 75.1 81.3 83.6 87.9 89.6 91.9 93.4 96.5 96 96.9 95.6 90.7 87.2 90.7 90 87.6 94.9 85.1 84.8 89.3 87.7 88.2 90.6 86 82.8 83.5 84.1 85.7 86.3 88.7 88.6 89.9 90.8 92.1 93.1 95.2 102.2 104.4 113.8 112 112.8 120.5 112.8 109.4 113.1 110.4 105.8 106.7 105.4 110.6 111.4 112.5 112.6 106.9 106.3 110.9 109.8 110.5 112.3 118 126.7 136.3 145.3 150.8 160.4 164.5
100.8 103.4 103.5 98.4 99.2 100.9 97.1 91.2 90.5 90.3 88.2 86.8 83.7 83.6 82.7 82.1 81.1 82.2 79.9 80 77.4 79.7 81.6 84.8 90 93.2 95.6 96.7 104.2 104.7 110.2 117.6 123.5 128 135.1 140.3 147.8 154.7 160.6 167.6 174.6 182.6 189.5 195.3 202.1 207.8 214.8 224 230.7 235.2 238.1 245.9 257.8 255.5 254.2 255.5 255.4 249 245.7 248.3 254 259.9 245.7 233.3 225.3 214.6 207.6 199.2 196.9 193.4 193.5 192.6 192.1 188.7 185.4 181.3 178.2 172.1 168.9 167.8 167.5 165.5 161.1 159.2 157.8 160.3 166.1 171.2 173.3 174.9 181.5 181 185.5 188.1 189.2 186.8 175.1 160.2 144.6 122.3 103.2 80.4 64 52.7 44.3 44.3 44.3 44.3 44.3 44.3 44.3 44.3 44.3 44.3 44.3 44.3 44.3 44.3 44.3 44.3 57.1 66.6 59.7 58.1 52.3 52.3 55.5 60.1 62.4 65.1 66.5 67.1 71.8 73.4 73.1 75 84.9 88.6 90.6 90 87.6 89.7 89.5 90.8 94.3 88.8 86.6 91.7 93.6 87.6 84.9 83.5 88.2 93 91 85.4 83.1 80.7 80 82.7 83.1 85.4 85.3 84.4 86.3 87.4 87 89.8 91.8 94.9 97.9 107.6 116.1 122.6 112.6 112.7 113.9 107 112.1 111.4 108.2 99.8 102.5 108.2 114.8 113.9 110.4 107.5 108.3 112.4 110.3 108.7 112.7 121.9 130.5 139.9 148.8 158.3 168.2 169.8
106.2 107.5 102.7 102.7 102.8 101.2 99.1 94.4 92.6 91.6 89.5 90.6 87 85.6 84.1 82.8 81.6 80.3 80.2 78.7 78.5 78.7 80.3 83 85.5 89.4 90.1 92.7 101.9 100 102.4 111.4 117.6 124.4 130.6 136.6 144.5 151.4 157.7 166.6 174 182.1 188.7 193.5 200.4 208.5 212.8 219.8 225.3 226.7 230.7 234.9 240.1 246.1 247.5 247.3 245.4 234.3 231.8 234 234.5 246.8 244.1 234.7 224.2 214.5 206.7 198.8 197.6 194.6 192.2 191.5 191.4 190.1 185.9 182.9 178.7 174.9 170.1 167.7 167.1 165.1 162.5 159.1 158.4 160.7 168.7 173.9 178 177.8 182.1 186.3 186.8 195 195.9 193.9 183.6 169.9 159.6 139 110.3 90.7 74.1 61.7 50.9 44.3 44.3 44.3 44.3 44.3 44.3 44.3 44.3 44.3 44.3 44.3 44.3 44.3 44.3 44.3 47 58.6 59.8 55 51.9 51.6 54.7 57.6 59.5 64 64.3 68 72.7 71.8 73.6 81.2 90.2 91.9 86 83.4 82.7 84.6 84.7 88.8 86.7 86.1 84.8 90.3 91.9 85.7 84 83.5 88.8 88.4 83.2 80.8 80.6 81.4 80.4 83.9 82.6 86 84.5 84 84.2 85.8 85.8 88.4 90.6 92 98.1 106.6 120.1 125.7 121.2 109.1 107.7 104.8 102.8 105 102.4 99.2 106 113 115.3 113.3 107.7 103.7 109.6 109.1 109.7 107.7 116.3 124.5 132.8 141.1 150 160.8 169.2 171.6
109.3 109.5 106.2 105.4 104.9 102 101.4 98.4 94.7 99.4 94.1 93.1 91.8 88.5 86.8 85.6 83.3 81.3 80.8 79.2 78.7 77 78.8 81.6 83.9 87 89.8 92.5 95.7 96.1 102.3 109.2 114.4 120.2 125.4 133.5 140.6 148.3 155.5 164.7 172.3 178.4 186.9 192 198.4 204.6 207.8 214.4 220 223.2 225.6 229.7 233.8 236.9 241 239.6 236.1 228.6 224 225.4 226.6 232.2 240.7 233.3 224.6 214 206.7 198.8 196.7 194.6 193 191.8 190.6 189.4 186.1 183.7 179.8 176.9 170.6 167.2 166.7 166.3 164.1 159.4 158.7 160 165.9 175.5 181.9 180.6 180.9 192.5 190 201.7 205.1 200.8 195.1 182.5 178.3 150.2 124.5 101.3 80 65.4 54.3 44.3 44.3 44.3 44.3 44.3 44.3 44.3 44.3 44.3 44.3 44.4 44.4 44.3 44.3 44.3 44.3 45.4 54.1 59 51.7 51.2 52.9 57.2 57.1 63.1 62.3 64.6 71.2 74.9 83 84.1 89.3 87 83.5 81.4 80.6 78.6 82.3 86.5 82.8 82.7 79.5 86.1 87.4 85.6 89 83.9 81 80.4 79.9 81.4 77.9 76.8 78.8 83 84.2 83.6 82.6 83.9 84.4 84.4 85.1 87.3 87.8 93.6 100 104.1 117.9 123.1 121.3 109.6 98.3 96.5 95.8 95 95 105.2 110 111 111.7 110.4 107.2 104.8 110 106.1 105.7 113.6 119.6 125.3 132.1 141.3 150.4 161.3 169.7 173.2
112.5 111.7 110.9 107.1 106.4 103.7 102.1 101.4 99.7 101.8 96.5 96.8 93.7 97.2 89.7 87.8 85 83.3 82 80.1 78.7 76.2 79.3 79.1 80.7 83.5 85.2 89.5 94.6 95 100.2 106.9 110.6 116.5 124.1 132.6 137.4 145.4 153.5 161.8 170.3 176.8 183.7 190.9 196.2 203 207 211.1 214.2 219.3 222.6 226.1 227.9 232.2 234.1 234.1 230.3 223.1 217.2 217.5 221.9 224.5 233.9 230.5 224.7 217.5 208.6 199.5 195.1 193.8 193.1 193.4 192.1 189.8 187 184.5 181.7 177.6 173.9 170.2 166.4 167.5 163.6 159.2 158.9 160 163.8 173.4 185 184.8 182.2 183.9 190.8 202.4 206.8 205.3 201.4 203.8 191 166.9 139.3 107.2 84 71.6 56 44.3 44.3 44.3 44.3 44.3 44.3 44.3 44.3 44.3 44.4 44.4 44.4 44.3 44.3 44.3 44.3 44.3 47.7 65.1 52.2 50.6 51.2 54.5 56.5 58.3 61.4 66.5 66.5 72.6 76.2 80.1 85.4 83 82.1 79.6 77.8 75.6 81.1 80.1 78.9 75.5 76.8 79.5 82.8 84.1 81.7 79.4 76.6 74.6 75.6 76.3 75.5 77.4 77.5 81.7 84.8 83.5 83.6 84.1 84.2 84.7 85.9 86.4 88.8 93.4 96 101.4 111.3 118.1 115.9 107.9 96.7 95.2 94.6 95.2 106.1 106 104.3 104.9 107.8 110.2 110.7 107 99.1 102.7 115.4 115.7 117.9 123.7 134 142.7 150.1 159.8 169.4 175.1
114.2 113.9 112.2 111.4 109.9 108.6 108.5 104.5 104.9 104.9 101.4 97.5 97 98.1 92.7 90.9 87.7 86.4 83.9 80.5 78.5 76.1 78.7 79.1 76.9 80.5 83 85.9 90.8 93.5 99.6 101.2 105.5 112.7 119.7 128.5 134.3 138.9 149.6 158.2 166.8 175.1 182.7 188.4 196 203.3 205.9 208.8 210.7 215.9 219.2 221 224.2 227.1 228.9 230.2 224 218.6 213.7 209.5 212.8 215.5 227.3 227.3 220.3 218.1 210.9 198.6 195.1 193.6 193.3 192.2 192.8 190.5 187.9 185.2 182.3 179.6 175.1 171.5 168.5 166.8 163.7 161.1 160 161.4 162.7 168.7 184.2 187.2 186.6 183.4 188.4 197.3 210.6 209.9 210.7 213.6 205.1 174.9 144.6 113.1 92.3 72.9 56 44.3 44.3 48.3 50.4 47.3 44.3 44.3 44.3 44.4 44.4 44.4 44.4 44.4 44.3 44.3 44.3 48.8 45.5 47.5 48.4 49.9 49.9 51.4 52.8 54.8 60.3 61.3 65.2 67.3 69.8 74.5 75.9 73.1 77.9 79.1 74.9 76.6 72.4 72.4 75.4 76 80 75.8 78.8 82.8 76 74.9 74.7 71.1 72 73.4 73.9 74.5 76.6 82.6 86.1 87.1 92.2 89.2 87.8 86.9 88.8 86.9 88.8 93.4 94.5 103.2 103.4 111.3 108.9 103.4 97.8 95.6 94.1 95.9 102 100.3 99.6 100.9 102.2 105.5 107.7 104.1 99.8 109.3 113.6 113.4 116.5 126.2 135.2 140.6 151.6 161.5 170.2 174.6
115.9 115.1 115.5 113.7 111.8 111.7 108.5 106.2 107.3 108.2 103.1 98.6 97.8 95.7 94.3 92.1 90.3 87.5 84.8 82.2 80.2 75.9 77.5 76.9 76.8 80.2 82.8 83.5 87 91.4 95.8 98.8 101.9 106.7 116.7 126.5 130.9 137.7 147.1 156.1 165.1 173.1 179.8 188.8 194 199.7 203.8 208.8 209.6 213.1 215.8 219.3 222.1 222 223.6 223 218.2 214.3 208.9 206.1 206.5 207.7 214.6 216.5 216.4 213.1 207.5 199.6 194.8 193.5 193.5 190.2 190 189.9 188.3 185.6 182.6 179.6 175.7 172.6 168.8 165.9 164.1 163.3 162.6 163.2 165.3 164.9 174.5 186.9 189.7 190.7 186.7 194.4 207.6 212.2 217.4 220.3 212.7 174 143.5 116.9 96.4 69.8 57.9 47.4 45.6 56.5 53.1 48.5 44.3 44.3 44.3 44.4 44.4 44.4 44.4 44.3 44.3 44.3 44.3 44.3 44.3 44.3 44.3 44.3 46.1 49.6 51.2 52.6 55.7 60.3 61 60.6 65.5 67.6 68.7 71.2 75 75 73.3 73.3 74.1 70.6 71.2 72.7 75.9 73.6 72 74.2 73.8 69.6 69.7 69.3 71.7 77.2 78.4 82.6 82.9 86.9 91.6 91.6 92.4 90.5 87.5 94.7 90.2 87.6 89.2 90.2 92.5 103.9 105.5 101.7 98.6 98.5 97.8 95 93.5 92.9 93.5 96.3 100.2 104.6 104.1 102 102 101 100.9 110 114.4 114.4 118.5 127 134.4 141 151.3 160.1 172.5 173.4
118 117.7 115.2 114.3 115 113.5 109.4 107.8 108.1 107.5 104.2 100.3 98.7 97.4 96.1 94.4 91.7 89.1 86.7 84.2 79.8 78.4 74.9 76.5 76.9 77.4 80.6 80.8 83.7 88.6 94.2 97.1 99.1 104.9 112 120.5 127.7 133.6 143.3 152.4 160.9 168.9 176.6 186.3 192.9 198.2 202.7 206 206.8 209.8 213.4 213.9 217.7 216.9 219.3 217.7 212.9 209.8 204.9 202.8 199.4 199.8 203.1 210.5 212 211.2 208 200.5 194.8 194.7 194.2 191.2 189.2 188.9 189 185.9 183 179.7 176.3 173.3 169.8 166.2 164.2 164.3 164.8 166 165.3 166.6 170.2 179.5 188.9 197 193.7 195.9 205.6 217.5 225.3 228 211 169.2 143.3 120.5 99 72.1 55.4 47.1 47.3 54.7 53.8 49 50.1 44.3 44.3 44.3 44.4 44.4 44.3 44.3 44.3 44.3 44.3 44.3 44.3 44.3 44.3 44.3 44.5 51.9 53.5 52.3 53.7 54.8 54.2 59.2 60 61.3 64.8 67 71 70.4 69.6 68.5 77.4 70 68.3 67.4 70.2 71.5 68.1 75.6 69.6 67.9 75.4 75.6 78.8 84.2 86.8 86.9 91.3 91.8 96.8 96.3 93.7 88.8 94.7 95.3 91.4 90.4 90 89.4 90.7 100.8 105.6 98.6 96.8 97.7 95.5 92.7 92.3 92.7 93.3 94.5 100.4 104 104.3 100.5 99.6 99.9 105.8 110.2 113.5 115.6 119.7 124.5 130.9 139.4 153 165.3 171.2 171.1
121.1 118.8 118 116.8 116.3 115.5 112.8 112.7 110.3 108.1 106.1 104 100.3 98.9 97.5 95.2 92.3 89.9 88.3 85.8 82.3 79 78.7 76.5 74.2 76 77.5 78.1 83.4 85.6 90 92.4 94.8 100.4 108.2 114.2 123.7 131.3 142 149.9 156.6 166.5 173.2 183.2 190 197.1 200.8 206.4 208.1 208.2 207.7 209.9 211.2 213.5 213 211 208.8 207.6 201.2 199.6 196.6 195.2 195.9 201.9 202.8 206.4 203.7 200.1 193.6 193.7 193.4 191.2 191 189.3 188.8 186.3 182.8 179.7 176.9 173.6 170.1 166 165.2 165.4 165.2 166.2 167.5 169 173.4 180.2 189.9 200 201.1 200.2 208.1 220.9 229.3 235.7 214.5 168 154.9 132.3 93.6 69 56.8 49.2 46.9 50.5 52.9 52.2 47.2 44.7 44.3 44.3 44.3 44.3 44.3 44.3 44.3 44.3 44.3 44.3 44.3 44.3 44.2 44.3 44.3 44.3 46.2 49.3 49.2 49.8 51.6 53.5 57.3 59.4 59.1 62.6 67.7 66.2 69.3 64.6 72.2 72.2 66.6 63.9 66.7 68.6 67.3 66.6 68.6 67.1 75.6 86.7 85.7 90.2 94.2 95.5 98.4 98.8 99.2 102.1 96.1 90.2 95.5 94.9 95.6 98.9 93.8 90.1 90.5 93.5 100.6 102.5 97.5 96.2 91.5 92 91.5 92.6 93.7 95.3 98.6 100.6 99.5 97.3 102.1 108.9 110.7 111.6 115 115.3 117.8 123.1 127.4 137.3 151.4 163.2 166 168.1
121.6 119.3 118.6 117 115.9 114.8 113.7 113.8 111.8 110.3 108.7 106.1 103.3 101.1 98.6 96.2 93.6 91.8 90 88.1 84.2 80.7 78.1 76.8 75.3 73.2 75.9 77 80.5 81.4 87 89.4 92.3 98.4 104.4 109.1 117.1 129.1 138.3 145.3 152.2 162.6 170.3 179.9 187.4 195.4 198.4 200.8 206.5 202.2 203.5 204 206.3 206 209.4 207.6 204.8 203.9 197.7 193.8 191.2 190.9 191 195.3 195.3 197.3 198.3 196.3 191.5 191.4 190.3 188.6 187.8 187.5 187.1 185.8 182.2 179.6 176.6 173.3 170.1 167.6 167.2 166.9 167.1 167 168.6 170.8 176.7 184.8 192.8 205.6 208.9 207.3 213.3 222.4 232.8 237.1 219.4 180.2 163.7 135.3 93.9 69.9 59 49.5 46.5 47.3 54.8 49.9 47.7 44.4 44.3 44.3 44.3 44.3 44.3 44.3 44.3 44.3 44.3 44.3 44.3 44.3 44.2 44.2 44.2 44.3 44.3 44.3 46.6 47 51.3 51.9 51.8 54.5 57.9 56 59.4 64.4 63.4 61.1 61.9 66.6 63.6 61.7 66.7 65.5 66.7 64.5 65.3 65 72.9 86.6 89.2 94.5 97.4 99.2 97.5 99.2 99.1 102.9 100.4 93.6 93.3 96.5 102.6 106.6 96.8 90.2 90.1 89.9 93 98.4 97.7 92.1 91.5 91.3 91.4 92.3 95.2 95.2 98.6 97.1 100.3 101.5 110.9 115.3 112.6 115.3 116.5 115.3 117.7 119.6 124.2 130.6 144 155.6 159.2 160.3
121.9 120.1 118.6 118.1 116.7 116.2 116.5 113.5 113.5 113.1 112.3 108.9 105.3 103.2 100.6 97.8 95.9 94.1 92.2 90 86.3 82.5 78.6 76.8 75.2 74.8 74.5 74.7 76.9 80 83.8 85 89.9 95.1 99.7 108.9 114.1 125.7 134 140.5 149.1 157.6 167.2 175.9 183.6 191 197.3 200.6 204 203.3 200 200.1 201.9 203 205 206.7 203.2 199.9 194.9 190.9 185.9 183 183.4 186.4 188.1 190 190.8 191.6 190.4 187.9 185.8 183.9 184 185 184 184 181.6 179.4 175.4 172.2 169.5 167.9 167.6 167.3 167.1 168.5 169.8 174.9 179.9 189 198.9 209.1 216.1 215.5 220.2 228.2 238.4 241 219.2 186.3 160.6 133.9 95 74.7 58.4 49.2 47.6 46.8 49.3 48.6 47.2 48.8 47.3 44.3 44.3 45.5 49.3 46 44.3 44.3 44.3 44.3 44.3 44.3 44.2 44.2 44.2 44.2 44.2 44.3 44.3 47.6 49.3 50.5 48.2 49.7 51 52.8 55.2 57 58.5 59 58.1 62 56.8 57.2 64.6 62.7 61.3 63.6 65 63.9 70 84.9 95.6 100.6 100.4 100 99.3 97.4 97.7 97.6 99.2 93.5 96.1 100.9 105.5 107.7 100 90.4 90.6 90.8 90.7 92.7 94.7 91.5 91.5 91.4 91.2 92.3 94.2 100.3 96 104.7 106.9 117.6 121.8 122.1 119 119.2 118.5 116 118.8 118 122 126.6 134.3 145.3 153.8 155.4
120.2 119.9 119.2 119 118.4 117.5 116.5 115.8 116 116.3 113.7 109.7 106.9 104.7 102.4 100 98.2 96.7 94.4 91.5 88.8 84 79.2 76.5 75.8 74.4 72.4 74.1 75.1 78.1 81.1 82.4 86.7 91.3 96.1 106.4 112.7 118.6 130 136.5 145.4 152.4 161.4 170.5 179.6 187.2 193.4 197.2 200 201.9 196.3 198.2 197 196.4 199.2 202.5 199.8 197.5 193.1 188.3 183.1 179.6 178.2 180.4 181.7 186.1 187.7 188.6 188.3 186.3 182.6 179.8 179.2 180.2 181.2 182.2 182.3 178.6 174.9 170.3 166.5 167.1 167.1 167.1 167.3 167.8 170.4 176 183.8 192.9 202.9 212.7 219.2 221.2 227.2 232.8 243 249.5 215.6 192 165.6 131.5 97.1 78.4 57.2 50.2 49.4 46.6 46.8 48.5 50.5 53.6 50.4 48.1 48.7 50.7 55.3 49.3 44.3 44.3 44.3 44.3 44.3 44.3 44.2 44.2 44.2 44.2 44.3 44.3 44.3 44.3 47.1 48.7 46.8 47.7 50.3 50 51 53.2 53.9 54.7 56.4 54 55.2 56.4 57.1 57.5 60.5 62.8 61.2 67.3 70.3 81.7 99.6 98.9 97.2 96.5 95.4 95.5 96 95.7 96 98.6 99.7 105.8 105.5 107.6 109.4 96.7 90.7 91 90.9 91.4 91.2 91.3 92 91.6 91.3 92.3 93.7 94.7 103.8 112.4 123.7 128.6 128.3 126.6 124.4 123.1 120.6 121.2 121 117.4 118.2 121 126.9 134.6 142.8 150.3
119 119.8 119 118.8 118.1 118.2 116.8 116.5 116.5 115.8 114 110.8 109.7 106.9 105.4 102.1 100.3 97.7 95.1 90.7 90.9 85.6 80.4 76.9 75.5 73.8 73.7 72.2 74.8 76.2 78.3 80 86.3 87.1 96.7 106.8 112.2 114.6 123.9 132.5 140.8 148.8 156 164.7 174.2 181.8 189.7 193.9 196 196.8 193.5 192.9 192.3 189.8 190.2 193.8 194.2 193.5 191.5 183.9 180.4 177.1 174.6 174.7 177.2 182 185.5 186.6 187.2 186.3 179.3 176.1 176.2 176.2 179.5 180.5 183 180.4 174.3 169.5 166.6 165.4 166.4 167 166.5 167.5 169.8 176.5 184.7 195.8 205 212.2 220.1 224.8 231.2 234.7 244.5 251.6 212.1 195.2 169.2 128.4 101.4 78.5 64.1 53.3 49.5 46.6 47.5 48.4 50.5 53.2 51.8 52.9 51.4 52.5 56.9 51.6 45.8 44.3 44.3 44.3 44.3 44.3 44.3 44.2 44.2 44.2 44.3 44.3 44.3 44.3 44.3 44.3 44.3 48.3 47.1 48 49.5 50.6 50.5 50.5 52.3 54.3 54.7 62.4 59.2 59.3 61.8 61 63.2 70.5 70.8 81.8 89.8 93.7 93.7 93.4 95.4 99.5 101.8 106.1 96.5 99.3 99.5 104.3 109.1 114.7 115.5 97.1 92.1 96.1 96.2 94.6 91 91.1 91.6 91.3 91.5 94.2 98.2 103.4 117.5 131.2 135.2 136.1 133.9 133.2 130 127.3 123.7 121.3 119.1 117.1 116.1 116.6 121.1 129 137.8 138.8
119.2 119.7 118.1 118.3 117.9 117.4 117.2 117.6 117.1 116.3 113.8 112.5 108.8 107.5 107.1 104.9 101.9 98.8 96 91 88.3 85.4 81.1 77.4 76.2 73.9 73.7 71.6 73.2 74.2 78.1 78.4 83 86.4 93.1 104.6 108.2 113.9 119.8 127.1 137.7 144.7 153.7 159.5 168.8 177 186.2 191.7 195.5 194.6 195.7 189.1 186.6 182.8 183.1 185.8 188.5 193.7 189.9 183.2 176.2 176.4 168.7 168.5 173.1 178.3 182 182.1 182.4 179.9 177.3 175 175.2 175.2 175.6 177.2 178.6 177.9 175.8 168.3 165.2 165 164.2 163.5 165.6 166.4 169.1 175.5 185 196.2 207.1 213.1 221.2 225.2 232.2 236.6 244 251.7 214.8 196.8 169.4 131 106.6 83.5 69.7 55.6 52.4 48.3 49.8 51.3 55.6 57.7 57.1 54 52.2 51.7 58 56.6 47.5 44.3 46.6 46.5 45.6 44.3 44.3 44.3 44.3 44.3 44.3 44.3 44.3 44.3 44.3 44.3 44.3 44.3 45.5 45.7 46.1 48.3 49.2 51.9 52.3 53.1 53.9 65.7 67.6 58.7 60.2 60.3 64.7 66.4 65.1 82.6 83.1 88.2 90.8 88.4 96.3 108.7 110.9 108 97.4 96.2 98.8 108.4 110 112.5 110.5 101.3 99.2 100 97.1 95.6 91.5 91.3 91.4 90.8 92.8 99.7 106.6 121.1 133 143.1 146.3 143.2 144.6 139.3 135.5 127.8 123.4 119.9 114.3 113.9 113.2 112.2 112.5 118.3 123.2 130.5
118.7 118.9 118.9 117.6 118.1 117.3 117.2 116.7 116.3 115.9 115.1 112 110.7 107.8 106.7 106.2 105.8 100 95.8 91.4 89.8 84.2 81.7 78.6 75.9 74.8 73.7 73.7 73.3 73.7 74.9 77.1 79.2 86.1 90 97.5 104.3 112 117.9 122.1 131.5 138.9 146.8 153.6 162 170.3 179.7 186.7 193.2 191.9 193.3 187.2 181.1 178.2 176.4 177.3 180.2 190 187.2 178.2 175 170.8 166.3 164.8 169.3 171.2 177.3 177.2 175.8 176.4 175.2 173.5 173.1 174.7 172.5 171.9 175.7 172.7 172.5 167.7 165 162 160.4 162.7 164 165.5 168.1 174.8 183 194.6 205.5 213.1 219.7 223.8 229.9 236.9 242.4 247.6 216.7 195.1 163.5 134.1 114.5 102.5 75.1 57.3 52.9 49.4 55.3 52.6 55.8 57.3 57.2 54.2 52.3 51.8 57 58.6 49.4 46.2 48.1 50.3 49.1 48.1 44.3 44.3 44.3 44.3 44.3 44.3 44.3 44.3 44.3 44.3 44.3 44.3 44.3 44.3 44.4 46.7 48.2 50.3 50.5 52.4 54.3 62.3 67.2 59.7 58.9 63.8 62.1 61.9 66.7 67.9 80 80.6 80.2 96.7 101.4 103.2 106.8 103 101.8 101.8 103.5 103.9 110.7 102.7 102 106.2 109 105.1 100.5 96.3 91 91.4 91.7 91.7 99 109.1 122 133.5 144.7 152.5 155.1 153.7 152.6 147.4 141.5 129.9 123.5 119.6 113.3 111.1 110.5 107.3 109.7 108.4 115.4 124.8
