ncols 200
nrows 104
xllcorner 390000
yllcorner 82300
cellsize 50
15.4 13.4 10.7 11 7 6.2 5.8 7.4 7 5.9 5.4 5.5 5.5 3.9 3.2 2.7 2.7 2.6 2.6 2.6 2.6 2.6 6.7 3.7 3.9 4 3.5 3 6.4 1.9 1.6 1.5 1.1 2.8 9.2 12 12.2 13 11.7 14.1 12.9 11.7 9.8 8.7 8 7.2 6.5 5.8 5.1 4.6 4.1 3.6 3.1 3.4 3.5 3 2.5 2.2 2.3 2.1 1.9 1.2 1.2 0.5 -0.4 -0.3 -0.1 0.4 0.9 1.4 0.6 0.8 1.2 0.6 0.1 -0.4 -0.4 -0.4 -0.4 -0.5 -0.3 -0.1 0.2 0.2 0.3 1 -0.4 0.5 0.5 0.3 -0.4 -0.4 1.1 0.9 0.8 0.4 1 0.7 0.5 0.5 0.5 0.5 0.5 0.5 0.5 0.5 0.5 0.5 0.5 0.8 1.9 2.7 3.2 5.3 7.2 12.2 16.6 18.6 20.8 24.2 24.3 22 20.5 20.3 21.4 19.7 17.9 16.9 14.8 13.4 15.8 16.6 15.3 14.2 12.3 12.2 13.1 12 12.5 15.1 15.5 13.9 10.8 7.3 4.7 6.8 12.6 12.4 11.5 9.5 9.6 9.8 9 7.5 6.2 5.2 4.3 3.2 1.9 0.4 0.7 0.5 0.5 0.5 1.1 0.5 0.4 0 -0.4 -0.4 -0.4 -0.4 0 0.4 1.8 9.9 10.6 11.1 7.9 0.8 0.5 0.7 0.6 0.4 0.2 0.1 -0.1 -0.4 -0.4 -0.4 -0.4 -0.4 -0.4 -0.4 -0.4 -0.4 -0.4 -0.4 -0.4 -0.4
18.7 18.7 16.1 14.9 13.2 10.3 8.3 8.5 8.8 7.9 6.6 5.8 6 6.3 6.4 6 5.3 5.2 5 3.4 4.2 4.7 4.2 4.3 4 4.5 4.3 5.8 5.6 3.2 2.2 4.2 8.3 12.9 13.3 13 13.3 13.3 13.1 12.8 12.2 10.6 9.3 8.2 7.5 6.9 6.2 5.5 5 4.6 4.5 4 3 3.5 3.2 3.3 2.9 2.8 1.7 1 0.9 1.1 1.2 0.5 -0.1 -0.2 -0.1 0.4 0.8 1.3 0.6 0.5 1.2 -0.5 -0.6 -0.7 -0.3 -0.4 -0.4 -0.8 -0.6 -0.3 -0.1 0.1 0.5 1.1 -0.4 0.9 -1.5 0.7 0.2 -1 0 1.5 0.6 0.3 1.5 1.2 0.8 0.7 0.5 0.5 0.5 0.6 0.6 0.7 1.3 1.4 1.5 1.6 1.6 2.1 2.9 6.6 10.5 12.5 18.4 22.5 23.6 24 23.6 21.2 19 18.3 17.2 16.1 15 14.5 11.9 10.3 12 10.5 9.4 9.6 8.5 7.9 8.8 14 14.3 14.9 15.1 13.6 12.7 9.7 4.8 4.6 7.5 9 10.9 10.4 7.1 7.9 7.8 8 6.7 5.2 3.6 2.1 1 0.5 0.6 0.8 0.8 0.7 0.4 0.3 0.2 0.1 -0.2 -0.4 -0.4 -0.4 -0.4 0.3 0.9 5.9 13.9 13.2 3.7 0.9 0.6 1.1 0.5 0.3 0.2 0 -0.4 -0.4 -0.4 -0.4 -0.4 -0.4 -0.4 -0.4 -0.4 -0.4 -0.4 -0.4 -0.4 -0.4
24 25.7 27.8 20.6 16.6 15 13.9 13.3 12.5 11.8 10 8.4 7.8 7.9 9.4 8.9 7.9 10.1 5.8 5.9 8.3 4.9 4.5 9.6 11.6 12.3 11.5 10.6 12.4 12.6 12 12 13.2 13.4 13.7 13.6 13.5 13.3 13.2 9.6 12.8 11.7 9.8 8 7.3 6.7 6 5.4 4.9 4.5 4.4 4.4 3.7 3.7 3.1 2.8 3.2 2.2 0.5 0.8 1 1.1 1.3 0.8 0.4 0 0.1 0.3 0.8 0.9 0.6 0.4 0.2 -0.1 -0.5 -0.6 -0.4 -0.6 -0.4 -0.6 -0.2 0.1 0.3 0.6 0.7 0.9 0.4 0.2 -0.1 0.9 0.5 -0.5 0.5 1.2 0.8 0.5 1 1.5 1 0.2 0.6 0.8 1.1 1.2 0.7 1.2 0.6 0.8 0.9 1.1 1.3 1.6 2.5 4.3 10.3 13 17.6 22.1 23.9 24.4 23.2 20.9 18.4 15.9 14.9 13.8 12.7 11.9 10.1 9.2 9 8.7 8.4 8.3 6.4 5.4 7.6 18.4 16.9 15.9 13.8 12 10.4 7.5 6.8 3.7 4.8 5.1 4.3 4.4 4.3 4.1 6.3 8.5 7.3 5.6 2.8 1.4 1 0.7 1.1 1.4 0.4 0.3 0.2 0.1 0.1 -0.1 -0.2 -0.4 -0.4 -0.4 -0.4 0.1 0.4 1.1 8.2 4.6 0.9 1 0.7 1 0.3 0.1 0 -0.2 -0.4 -0.4 -0.4 -0.4 -0.4 -0.4 -0.4 -0.4 -0.4 -0.4 -0.4 -0.4 -0.4 -0.4
25.6 28.7 30.2 23.9 21.2 18.8 21 19.8 14.8 14.5 13.4 11.5 10.6 10 11.6 12.6 13.7 14.1 12.6 10 8.5 11 11.8 13.3 14 14 11.3 12.5 13.7 13.4 13.2 13.2 13.2 13.6 13.9 13.8 13.6 13.3 13.2 12.3 10 12.2 10.1 8.1 7.1 6.5 5.9 5.4 4.8 4.5 4.4 4.2 3.6 3 2.7 2.8 2.8 1.8 0.3 0.3 0.5 0.9 1.3 1.2 0.8 0.4 0.2 0.3 0.7 -0.4 0.1 -0.3 -0.3 -0.4 -0.4 -0.2 -0.4 -1.5 -0.4 -0.6 0.3 0.6 0.8 1 1.1 1.2 1.1 1.4 1.5 1.2 0.7 0 1.2 1.3 1 0.6 0.7 1.1 -0.6 -0.2 0.2 0.9 0.3 0.5 0.7 0.5 0.6 0.8 0.9 1.1 1.3 1.3 2.1 3.4 7.1 11.5 15.5 18.4 20.6 23.1 22.2 20.2 17.2 14.9 12.6 11.5 10.4 8 7.7 7.7 7.5 7.8 7.5 7.3 5.5 4.4 5.8 10.1 12.2 12.7 10.6 10.8 9.9 10.9 12 8.4 6.8 3.6 3.5 3.7 3.9 3.4 3.9 3.9 3.2 3.1 0.9 1.1 1.2 0.5 0.4 0.3 0.2 0.1 0.1 0 -0.1 -0.2 -0.4 -0.4 -0.4 -0.3 -0.1 0.2 0.4 1.1 1 1 0.7 1 0.7 1 0.3 0 -0.4 -0.4 -0.4 -0.4 -0.4 -0.4 -0.4 -0.4 -0.4 -0.4 -0.4 -0.4 -0.4 -0.4 -0.4 -0.4
29.6 30 30.8 31.4 32.4 25.5 27.3 18.8 16.5 16.3 16.4 15.5 13.5 11.8 13.2 14.5 14.9 14.8 11.9 11.6 13.4 14.2 15 15.1 15.1 13.9 13 13.5 14.2 13.9 13.3 13.2 13.4 13.9 14.1 14.1 13.8 13.6 13.3 12.9 12.5 12.6 10.3 8.3 6.2 5.8 5.4 5 4.6 4.4 4.2 4.1 3.5 2.9 2 1.5 1.6 0.4 0.1 0.1 0.1 0.2 0.6 0.4 0.5 0.7 0.5 -0.4 -0.4 -0.4 0.4 0.3 0.3 -0.4 -0.4 -0.4 -0.5 -0.4 -0.4 -0.5 0.3 1.1 1.3 1.4 1.5 1.5 1.5 1.5 1.5 1.1 0.8 0.6 1.2 1.3 1.3 1.2 1.2 0.7 0.4 -0.1 -0.5 -0.2 0 0.6 1.2 0.9 0.9 1.1 1.3 1.4 1.4 1.4 1.8 2.9 4.5 9.7 13.9 15.9 16.8 18.2 20.3 16.5 14.8 13.1 11.1 9 6.9 6.1 6.1 6.2 6 6.2 6.5 6.3 5 3.9 3.5 4.3 4.9 5.1 6.5 7.3 10.1 11.9 12.6 12.3 11.1 9.1 6.9 4.2 4.1 3.5 2.6 1.4 0.7 0.8 0.5 0.5 0.8 0.4 0.1 0 -0.1 -0.1 -0.2 -0.2 -0.2 -0.4 -0.4 -0.4 -0.4 -0.2 0 0.2 0.4 0.5 1.1 0.9 0.5 1.1 1 0.5 0.1 -0.4 -0.4 -0.4 -0.4 -0.4 -0.4 -0.4 -0.4 -0.4 -0.4 -0.4 -0.4 -0.4 -0.4 -0.4 -0.4 -0.4
30.7 31.5 31.6 31.6 31.2 29.6 20.7 18.8 18.3 18.2 18.5 18.7 18.4 14.5 13.7 15.4 15.5 12.7 15.2 13.3 14.6 15.1 15.3 15.1 14.8 13.1 14.1 14.4 14.6 14.1 13.5 13.2 13.8 14.2 14.4 14.3 14.1 13.7 13.3 12.9 12.6 10.9 10.1 8.4 6 3.3 2.8 2.4 3.5 4.6 4.3 4 3.1 2 1 1.1 1.4 1 0.4 0.1 0.1 0.1 -0.1 -0.8 -0.4 0.1 -0.4 -0.4 0.5 0.5 0.4 0.2 0.1 0.2 0.7 -0.4 -0.4 -0.4 -0.4 1.1 1.2 1.4 1.5 1.5 1.5 1.5 1.5 1.5 1.4 1.1 0.7 0.7 1.3 1.5 1.5 1.5 1.5 1.3 0.9 0.5 0 0.2 0.4 0.6 0.9 1.3 1.2 1.4 1.4 1.5 1.4 1.4 1.8 2.9 4.2 8.2 11.9 12.8 13.5 14.1 14.8 13.9 12.2 10.6 8.9 7 5.1 4.4 4.5 4.5 4.5 4.7 5 5.2 4.7 3.8 3 3 2.9 3.3 4.1 5.4 10 13.2 12.8 12.6 11.7 10.1 6.2 7 5 3.4 2.5 1.1 0.5 0.5 0.8 1.5 0.5 0.1 -0.4 -0.4 -0.4 -0.4 -0.4 -0.4 -0.4 -0.4 -0.4 -0.4 -0.4 -0.2 0 0.1 0.2 0.2 0.9 1.1 0.5 0.4 0.3 0.1 -0.4 -0.4 -0.4 -0.4 -0.4 -0.4 -0.4 -0.4 -0.4 -0.4 -0.4 -0.4 -0.4 0.3 -0.4 -0.4 -0.4 -0.4
30.1 31.2 31.7 31.4 30.7 28.4 22.3 20.4 21 21.2 20.1 20.3 19.8 17.2 16 15.8 12.4 15.4 14.4 15.2 15.2 15.3 15.6 15.3 14.9 15 15.1 14.7 14.5 14.7 14.2 13.8 14.2 14.5 14.6 14.5 14.1 13.7 13.3 12.9 12.5 11 8.9 9 4.3 -0.4 -0.4 -0.4 3.2 3.7 3.3 2.4 2.3 1.3 0.8 0.9 1.2 1.5 0.8 0.2 0.1 0 -0.6 -0.4 0.2 0.9 -0.4 1 0.5 0.4 0.4 0.3 0.1 0.2 1 -0.4 1.7 1.5 0.7 0.8 1 1.2 1.4 1.5 1.5 1.5 1.5 1.5 1.4 1 0.5 0.8 1.1 1.3 1.5 1.5 1.5 1.5 1.4 1 0.6 0.5 0.7 0.9 1.1 1.3 1.5 1.4 1.4 1.3 1.3 1.2 1.8 2.9 4.1 7.5 9.6 10.1 10.9 11.7 12.5 11.2 9.6 7.9 6.3 4.7 3.9 3.5 3.2 2.9 2.9 3.2 3.7 4.2 4.3 3.7 3.4 2.8 2.5 2.9 3.8 4.9 9.7 14.1 13.4 12.5 11.5 9.9 9.4 9.5 5.9 4.1 2.6 1.2 0.7 0.8 1 1.4 0.1 -0.4 -0.4 -0.4 0 0.2 0.8 1.5 0.5 0.2 -0.1 -0.4 -0.4 -0.4 -0.4 -0.4 -0.4 -0.4 -0.4 0.1 0.1 -0.1 -0.1 -0.4 -0.4 -0.4 0 0.2 0.3 0 0.5 1.1 0.9 0.5 0.5 1.2 0.8 0.1 -0.4 -0.4 -0.4 0.5
30.1 31 31.7 31.3 30.8 30.1 28.6 26.9 26.4 25.8 23.9 21.9 21 18.7 17.3 12.7 16.3 16.4 16.4 16 15.2 15.4 15.7 15.4 15 14.9 14.8 14.3 14.3 14.3 14.6 14.8 14.9 14.7 14.3 13.7 14.1 13.7 13.3 12.9 11.4 8.9 4 2.4 -0.4 -0.4 -0.4 -0.4 -0.4 -0.4 -0.4 -0.4 -0.4 0.6 0.6 0.8 1 1.2 1.3 0.7 0.1 0.3 0.3 0.6 1.2 1.6 -0.4 -0.4 0.4 0.4 0.3 0.3 0.2 0.2 -0.4 -0.4 1.6 1.2 0.5 0.6 0.9 1.1 1.3 1.5 1.5 1.1 1.5 1.5 1.3 0.8 0.3 0.8 1 1.2 1.4 1.5 1.5 1.5 1.5 1.5 1.1 0.8 1.1 1.3 1.4 1.2 1.3 1.2 1.2 1.1 1.1 1.2 1.9 2.9 3.9 6.2 8.6 8.9 9.2 9.5 10.2 8.9 7 5.7 4.9 4.1 3.3 2.8 2.5 2.1 1.9 2.2 2.7 3.1 3.2 3.9 3.8 3.1 2.8 2.3 2.4 5 12.7 14.3 13.2 12.3 11.3 9.9 9.1 8.8 6.9 4.6 3.3 1.9 1.1 1.2 1.2 0.2 -0.4 -0.4 -0.1 0.1 0.3 1.2 0.8 1.3 0.3 0.1 -0.2 -0.4 -0.4 -0.4 -0.3 -0.3 -0.2 -0.2 -0.4 -0.4 -0.4 -0.4 -0.4 -0.4 -0.4 -0.4 0 0.7 1.1 0.6 0.5 0.9 0.5 0.5 0.5 0.5 0.5 0 -0.4 -0.4 0.5 0.5
30.4 31 31.2 31.1 30.7 29.4 27.8 27.6 28.2 27.5 26.4 25 22 20 12.7 16.8 16.6 16.7 16.7 16.7 15.6 15.3 15.6 15.9 15.3 14.8 14.3 13.4 13.5 13.8 14.2 14.5 14.7 14 13.6 12.5 12.6 13.1 12.5 10.6 8 5.5 1.7 -0.4 -0.4 0.9 1.5 1.1 0.8 -0.4 -0.4 -0.4 -0.4 -0.4 -0.4 -0.4 0.7 1 1.3 1.1 0.6 0.1 1.1 1.5 1.5 1 -0.4 -0.4 0.4 0.4 0.3 0.2 0.2 0.2 0.9 -0.4 1.1 0.9 0.3 0.5 0.7 0.9 1.1 1.2 0.9 0.7 1.1 1.5 1.2 0.6 0.4 0.7 0.9 1.1 1.3 1.5 1.5 1.5 1.5 1.5 1.5 1.2 1.4 1.3 1 1 1.3 1 1 0.9 1 1.3 2 3 4 5 7.5 8 8.3 8.5 8.5 7.3 5.9 5.2 4.4 3.6 2.6 2.2 1.9 1.5 1.4 1.4 1.8 2 2.1 2.8 3.9 3.6 3.2 2.6 2.2 3.6 8.3 14.6 13.4 12.2 11.1 8 6.6 4.8 3.3 3.7 2.5 2 0.5 0.4 0.2 -0.4 -0.4 0 0.2 0.4 1.4 0.9 0.7 0.5 0.2 0 -0.4 -0.4 -0.4 -0.1 -0.1 0 0 0 -0.1 -0.4 -0.2 -0.1 -0.4 -0.4 -0.1 -0.1 -0.4 -0.4 1.1 1.4 0.5 0.4 0.5 0.5 0.5 0.5 0.5 -0.4 -0.4 0 0.5 0.5
30.3 30.6 30.7 30.6 30.5 29.5 28.7 29 28.8 27.1 24.9 22.8 21.1 12.7 18.7 18.2 17.6 17 17.1 17.1 15.9 15.3 15.6 15.9 16.2 16 15.2 14 13.9 14.1 14.3 14.4 14.3 13.3 12.6 11.5 11.1 10.9 9.8 8.1 5 2.4 -0.4 -0.4 0.7 1.3 1.5 1.5 0.9 0.7 0.5 0.6 0.8 0.7 0.4 -0.4 -0.4 -0.4 1 1.2 0.8 0.5 0.1 0.5 1.1 1.1 -0.4 -0.4 0.7 0.7 0.8 0.8 0.9 0.9 1 -0.4 1.2 0.2 0.1 0.3 0.4 0.5 0.6 0.7 0.4 0.4 0.9 1.4 1 0.4 0.4 0.6 0.8 1 0.9 0.9 1.5 1.5 1.5 1.5 1.5 1.4 1.1 0.9 0.6 0.9 1.3 0.8 0.8 0.8 1.1 1.4 2.1 3.1 4 5 6.3 7 7 6.8 6.9 5.7 5.2 4.7 4 3.1 2.1 1.6 1.3 1.1 1.1 1 1 1.1 1.2 1.6 2.6 4 3.5 2.9 2.3 2.8 6.2 10.6 13.2 12.3 11.2 9.9 8.5 6.8 4 2.6 1.5 0.4 0.1 -0.4 -0.4 -0.4 0.1 0.3 0.6 1.2 0.9 0.5 0.8 0.3 0.1 -0.1 -0.4 -0.4 0 0.1 0.2 0.2 0.2 0.1 0.2 0.2 0.1 0.2 0.2 0.4 0.4 0.3 0.2 -0.4 -0.4 -0.4 -0.4 -0.4 0.5 0.5 0.5 0.2 -0.4 -0.4 -0.1 0.3 0.5 0.5
29.6 30.3 30.3 30 29.8 30 29.7 29.5 28.9 27.4 25.4 23.1 13 19.5 18.7 18.3 17.8 17.2 17.1 16.7 16.1 15.3 15.5 15.8 15.9 13.8 14.9 14.1 13.7 13.9 13.9 13.9 13.4 12.7 11.7 10.5 9.4 8.3 7.1 6 3 1.8 -0.4 -0.4 0.9 1.1 1 0.7 0.6 1.4 1.5 1.1 1 1 0.5 0.3 -0.4 -0.4 -0.4 1 0.6 0.2 0.1 0.1 0.2 0.6 0.4 -0.4 0.7 0.8 1 1.2 1.3 1.4 1.5 0.7 1.5 0.8 0.3 0.3 0.4 0.5 0.5 0.6 1.1 0.9 1.1 1.3 0.7 0.2 0.1 0.1 0.1 0.1 0.1 0.2 0.7 1.3 1.4 1.4 1.4 1.1 0.8 0.5 0.6 1 1.4 0.9 0.7 0.9 1.1 1.4 2.5 3.4 4.4 5.3 6 5.1 4.7 4.5 5.2 5 4.5 4.1 3.5 2.6 1.6 1.1 1.1 1.1 1.1 1.1 1.1 1.1 1.3 1.6 2.1 3 3 3 2.5 2.4 6.5 9.4 13.5 12.8 11.6 10.3 8.3 6 4.6 2.8 1.3 0.2 -0.4 -0.4 -0.4 0.2 0.4 1 1 0.7 0.5 1.1 0.2 -0.1 -0.1 -0.3 -0.4 -0.4 0.1 0.4 0.4 0.4 0.4 0.4 0.5 0.8 0.4 0.5 1.2 1.1 1.1 1.1 0.6 0.5 0.5 1.1 0.2 -0.4 0.2 0.5 0.3 -0.2 -0.4 -0.1 0.1 0.4 0.5 0.5
24.7 27.2 28.1 27.7 27.8 28.3 27.7 27.1 26.6 25.8 24.9 13.6 20.5 18.9 18.3 17.9 17.5 17.2 16.7 16.2 15.8 15.2 15.5 15.6 15.6 13 14.7 13.5 12.7 13 13.3 13.1 12.3 11.5 10.1 8.9 7.2 6.1 4.7 3.3 -0.4 -0.4 -0.4 -0.4 0.8 1 0.7 0.9 1.3 1.4 1.4 1.4 1.5 1.3 0.5 0.1 0.3 -0.4 -0.4 -0.4 0.3 0.1 0.1 0.1 0.2 0.3 0.5 -0.4 0.7 0.8 1 1.2 1.3 1.4 1.5 0.8 1 1 0.5 0.6 0.7 0.7 0.8 1.1 1.5 1.4 1.3 1 0.5 0.1 0.3 0.3 0.3 0.3 0.3 0.1 0.4 0.7 1.2 1.4 1.2 0.8 0.6 0.7 1 1.4 1.3 0.9 0.8 1.2 1.7 1.8 2.7 3.8 4.6 5.2 5 4.8 2.1 2.1 3.8 4.9 4.3 3.7 3.1 2.5 2 1.5 1.1 1 1.1 1.1 1.2 1.2 1.3 1.7 1.4 1.8 2.2 2 2.4 5.3 5.7 10.3 13.7 13.2 11.5 10.3 7.8 5 3.1 1.3 0.2 -0.4 -0.4 -0.1 0.2 1.4 0.9 0.5 0.5 1 0.5 -0.4 -0.4 -0.2 -0.4 -0.4 -0.4 -0.4 0.4 1.1 0.5 0.5 1.1 0.5 0.6 1 1.1 1 1.3 1.1 1.1 1.1 0.8 0.5 0.5 0.5 0.6 -0.4 0.9 0.5 0.4 0.1 -0.3 0.1 0.3 0.5 0.5 0.5
23.8 29.2 28.7 25 23.3 24.6 24 23.7 23.1 22.6 13.9 20.3 19.7 18.3 17.9 17.7 17.4 17.2 16.4 15.8 15.4 15.1 15.3 15.4 15.2 14.5 14.6 13.1 11.6 11.7 12 11.7 11.1 10.2 8.6 7.3 4.9 4.3 2.9 1.7 -0.4 -0.4 1.2 -0.4 -0.4 0.8 1 1.2 1.4 1.4 1.4 1.5 1.4 1.2 0.5 0.1 0.3 0.4 -0.4 -0.4 0.3 0.2 0.1 0.1 0.3 1.1 -0.4 -0.4 0.7 0.8 1 1.2 1.3 1.4 1.2 0.6 0.9 1.1 0.8 0.9 0.9 1 1 1.6 1.6 1.5 1.3 0.9 0.5 0.1 0.4 0.5 0.5 0.5 0.6 0.2 0.3 0.7 1 1.4 1.4 1.4 0.9 1 1.4 1.8 1.2 0.8 1.4 2 2.5 2.6 3.6 4 4.4 4.2 4 3.8 2.2 0.7 3.2 4.1 4.4 3.7 3.7 3.3 2.7 2.2 1.5 0.9 0.9 1.5 1.3 0.6 1.4 1.6 0.8 1.1 1.5 1.7 3.5 2 2.2 8.2 13.1 13.2 11.3 10.2 7.7 4.9 2.1 0.3 -0.4 -0.4 -0.1 0.1 0.4 1.2 0.6 0.5 -0.4 -0.4 -0.4 -0.4 0.3 0 -0.2 -0.4 -0.4 -0.4 0.5 1.1 1.1 0.8 0.7 0.5 0.5 0.9 3 4.1 5.5 5 4.3 2.9 1.1 0.7 0.5 0.5 0.5 0.5 -0.4 0.4 0.5 0.4 -0.4 0.3 0.5 0.5 0.5 0.5
17.9 21.5 25.3 22.1 20.4 20.9 20.6 20.4 19.3 14.1 13.4 18.4 17.8 17.8 17.9 17.7 17.4 17.2 16.5 15.3 14.9 15 15.1 15 14.4 13.7 10.1 10.9 10.5 10.3 10.7 10.2 9.5 8.6 7.2 5.3 1.7 2.3 1.9 -0.4 -0.4 -0.4 1 0.5 0.7 0.8 1.1 1.3 1.4 1.5 1.4 1.3 1.1 1 0.4 0.1 0.3 0.4 0.4 -0.4 -0.4 0.3 0.3 -0.4 -0.4 -0.4 -0.4 1.5 1.8 1.8 1.8 1.8 1.9 0.6 0.4 0.7 1 1.1 1 1.1 1.2 1.2 1.5 1.7 1.6 1.4 1.4 0.9 0.5 0.1 0.4 0.7 0.8 0.8 0.7 0.2 0.3 0.6 0.9 1.4 1.4 1.4 1.8 1.4 1.8 1.7 1 1.2 1.9 2.7 3.4 3.9 4 3.8 3.7 3.5 3.3 2.9 1.4 1 2.6 3.3 3.8 4 3.7 3.7 3.4 2.8 2.2 1.7 1.1 0.8 1.2 1.9 2.1 0.4 0.5 0.5 0.8 1.4 1.4 1.2 2.3 5 5.6 10.2 11.3 10.2 6.3 3.3 1.4 0 -0.4 -0.1 0.1 0.3 1.4 0.8 0.5 1.1 -0.4 0.5 0.5 0.5 0.4 0.2 0 -0.4 -0.4 0 0.4 0.5 0.5 0.5 0.5 0.8 1.1 3.2 4.7 5.8 8.1 6.6 7.1 4.3 1.6 1 0.7 0.7 0.5 1.1 -0.4 -0.4 1 0.5 -0.4 -0.4 0.5 0.5 0.5 0.5
15.2 17 18.1 17.7 17.6 18.3 17.7 13.6 17 17.1 15.4 16.8 16.7 16.9 17 17 17.1 17.2 16.5 14.8 14.6 14.5 14.4 14.3 14.2 12.3 8 10.5 9.7 9.2 9.3 8.8 9.3 5.2 1.7 1.7 1.6 1.1 -0.4 -0.4 -0.4 -0.4 0.6 0.7 0.9 1 1.2 1.4 1.5 1.3 1.2 1 0.8 0.7 0.4 0.2 0.3 0.3 0.4 0.5 -0.4 -0.4 1 -0.4 -0.4 1.9 2.7 3.1 3 3.1 3.1 3.2 2 0.8 0.6 0.7 1.1 1.2 1.3 1.4 1.4 1.5 1.9 1.8 1.5 1.4 1.4 1.3 0.6 0.1 0.4 0.7 1 1 0.8 0.3 0.2 0.5 0.9 1.4 1.4 1.6 2 2.3 3.9 1.3 1.2 1.8 2.5 3.2 3.6 3.5 3.1 3.1 3.4 2.6 1.7 1 0.4 1.2 2 2.5 3 3.4 3.3 3.1 3.3 3.4 2.8 2.2 1.6 1 1.2 2.7 3.2 3 1.9 0.5 1 1.5 0.8 0.8 0.9 1.4 1.2 3 6.7 9.4 6.8 2 0.3 -0.4 -0.4 0 0.3 0.5 1.2 0.7 0.5 0.5 0.5 0.5 0.5 0.5 0.3 0.1 -0.1 -0.4 -0.4 -0.1 0.3 1 0.6 1 1.1 0.7 0.9 5.1 5.8 7.4 12.9 11.7 7.5 5.4 4.4 4.2 3.4 1.1 0.8 0.9 0.8 -0.4 -0.4 0.5 -0.4 -0.4 0.5 0.5 0.5 0.5
12.6 13.2 13.8 15.3 13.8 12.4 16.5 16.7 16.5 16.4 16.4 16.5 16.4 16.4 16.3 16 15.7 15.5 14.7 13.8 13.1 13.1 13.1 13.1 12 10.7 9.4 7.5 8.9 9 8 4.4 1.6 1.5 1.4 1.4 1.5 1.4 -0.4 1.8 0.9 -0.4 0.8 0.9 1 1.2 1.3 1.5 1.4 1.3 1 0.8 0.5 0.4 0.2 0.1 0.2 0.3 0.3 0.4 -0.4 -0.4 0.5 -0.4 3.4 5.3 5.5 6.3 4.9 4.4 4.4 3.6 2.2 1.5 1.1 1.3 1.5 1.5 1.6 1.6 1.7 1.9 1.9 1.6 1.4 1.4 1.4 1.4 1.1 0.2 0.2 0.8 1.1 1.2 0.8 0.4 0.1 0.5 0.9 1.4 1.5 1.9 2.1 2 1.5 1.3 1.7 2.1 2.5 2.8 2.9 3 2.5 2.6 2.9 2 1.1 0.7 0.5 0.8 1.1 1.7 2.4 2.8 2.7 2.6 2.7 3.1 2.6 2 1.6 1.6 1.2 2.2 2.7 3.2 2.3 0.5 0.5 0.4 0.3 0.3 1.5 0.5 0.4 1.3 1.7 0.5 0.3 0.2 -0.4 -0.4 0 0.2 0.4 1.5 1.3 0.9 0.5 0.5 0.5 0.5 0.5 0.5 0.4 0.2 0 -0.2 -0.4 -0.1 0.3 0.8 1.1 0.8 0.5 0.5 0.6 6.7 11.1 10.1 15.5 10 6.4 4.7 3.9 4.1 3.5 2.6 1.6 0.9 0.6 0.5 -0.4 1.1 0.5 -0.4 -0.4 0.1 0.5 0.5
8.2 11.6 12.8 12.5 13.3 14.5 16 16.3 16.3 16.3 16.6 16.3 16.3 16.3 16.1 15.8 15.5 15.1 13.9 12.9 11.9 11.7 11.6 11.6 10.7 9.4 8.1 7.1 8.9 8.6 2.1 3 1.5 1.4 1.2 1.4 1.4 1.4 -0.4 2 0.9 0.7 0.9 1 1.2 1.3 1.5 1.6 1.2 1.3 1.4 1.2 0.9 0.6 0.4 0.1 0.1 0.2 0.3 0.2 0.1 -0.4 -0.4 -0.4 9.2 14.7 12.9 10.2 7.9 6.2 5.2 3.6 2.5 1.9 1.9 2.4 2.6 1.9 1.8 1.9 1.9 2.1 1.7 1.4 1.4 1.4 1.4 1.4 1.4 0.4 0.1 0.1 0.7 1.4 0.9 0.5 0.1 0.5 1 1.4 1.7 1.8 1.9 1.7 1.3 1.4 1.4 1.7 2.1 2.1 2.2 2.3 2.2 2.2 2.4 1.7 1.5 1.3 1.1 1.1 1.4 1.2 2.1 2.7 2.4 1.9 2 2.5 2.5 2.2 1.7 1.2 1 1.2 1.2 1.7 1.2 0.3 0.1 0 -0.4 -0.3 -0.4 -0.4 0 0.3 0.2 0.1 -0.1 -0.4 -0.4 0 0.2 0.4 1.1 2.3 1.7 0.9 0.5 0.5 0.5 0.5 0.5 0.5 0.5 0.3 0 -0.2 -0.4 -0.1 0.3 1.1 1.1 0.9 0.7 0.5 1 3 7.7 9.8 11 7.8 6.8 4.7 4.2 1.7 1.8 2.2 2.8 0.7 0.5 1.3 -0.4 1 1.1 -0.4 -0.4 -0.4 0.5 0.5
4.2 9.1 10.6 10.4 11.3 13.5 15.5 16 16.1 16.4 13.2 16.3 16.2 16.2 15.9 15.6 15.4 14.5 13.1 12.1 11.1 10.5 10.2 10.1 9.2 8.3 7.3 6.2 4.9 2.3 1.4 2.4 1.7 1.3 1.1 1 1.4 1.4 -0.4 2 0.9 0.9 1 1.1 1.3 1.4 1.8 1.6 1 1 1.2 1.3 1.3 1 0.6 0.2 0.1 0.1 0.1 0.1 0.6 1.8 2.1 5.6 11.1 18.6 17.4 13.7 9.3 6.7 5.3 3.5 2.8 2.4 2.6 3.1 2.9 2.2 2.2 2.1 2.2 1.8 1.4 1.4 1.4 1.4 1.4 1.4 1.4 0.5 0.1 0.4 1.2 1.4 1.3 0.3 0.2 0.6 1.1 1.4 1.5 1.6 1.7 1.5 1.4 1.4 1.4 1.4 1.5 1.6 1.8 2.2 2.1 2.2 1.9 1.8 1.7 1.7 1.6 1.5 0.7 0.7 1.6 2.5 2.2 1.7 1.6 2.3 2.3 1.7 1.3 0.8 0.7 -0.4 -0.1 0.2 -0.4 -0.4 -0.4 -0.4 -0.4 0 -0.1 -0.4 -0.3 -0.3 -0.4 -0.3 -0.4 -0.4 0.1 0.3 0.5 1.8 1.8 2.5 2 1.2 0.5 0.5 0.5 0.5 0.5 0.5 0.5 0.3 0 -0.4 -0.4 -0.4 0.3 1.1 1.1 1 0.8 0.7 1.2 3.5 5.5 5.9 7.4 6.1 6 3.7 2.6 1.2 1.1 1.1 1.1 1.1 0.5 1.1 -0.4 0.7 0.7 -0.4 -0.4 0 0.4 0.5
3.5 4.4 7.2 8.3 10.4 12.5 14.4 15.6 15.9 16.4 10.3 16.6 16.2 16.1 15.8 15.5 15.2 13.8 12.4 11.4 10.3 9.9 9.4 8.7 8 7 3.4 2 2 1.8 1.3 2 1.8 1.3 1 0.8 1 1.3 -0.4 1.8 1 1 1.1 1.3 1.4 1.7 2.2 1.6 1 0.8 1 1.1 1.3 1.3 0.8 0.3 0.2 0.1 0.1 0.3 1.4 2.9 4.1 8.3 13.7 19.8 20.1 16.4 11 7.7 5.8 4.4 3.4 3.1 3.4 3.6 3.3 2.6 2.5 2.3 1.8 1.4 1.4 1.4 1.4 1.4 1.4 1.4 1.4 0.3 0.5 1.2 1.8 1.7 1.5 1.3 1 1.4 1.4 1.4 1.4 1.5 1.5 1.4 1.4 1.4 1.4 1.4 1.8 2.1 2.5 2.9 2.2 1.8 1.5 1.3 1.2 1.1 1.1 0.5 0.1 0.5 1.5 2.3 2.1 1.8 1.4 2.2 2 1.2 0.8 -0.4 -0.4 -0.4 0.5 0.5 -0.4 -0.4 0 0.1 0.2 0.3 0.4 0.5 0.3 0.4 0.3 0.5 0.4 0.9 2.2 2.9 2 1.9 1.8 2.1 1.4 1 0.5 0.5 0.5 0.5 0.5 0.5 0.5 0.2 -0.1 -0.4 -0.4 -0.1 0.3 1.1 2.3 2.9 1.2 1 1.1 1.3 1.7 3.2 5.2 4.8 3.5 2.4 2.2 2.6 2.2 1.8 1.2 1.1 0.7 0.7 -0.4 -0.4 0.5 -0.4 -0.4 -0.3 0 -0.4
2.9 3.1 3.8 4.1 4.9 10.7 12.5 8.9 8.1 7.6 10.9 14.1 16 16 15.5 15.2 14.1 12.2 11.6 10.1 9.7 9.4 8.4 7.3 4.9 1.9 1.1 1.7 1.8 1.6 1.3 2.1 2 1.4 1 -0.4 -0.4 -0.4 -0.4 -0.4 1.1 1.2 1.3 1.4 1.7 2.1 2.2 1.9 1.7 1.3 0.9 1 1.2 1 0.8 0.5 0.6 0.7 0.7 0.8 2.5 4.3 6.8 13.8 21.2 21.6 20.9 14.5 11.3 8.4 6.7 5.5 4.2 3.9 4.2 4.4 3.8 2.6 2.2 1.8 1.5 1.4 1.4 1.4 1.4 1.4 1.4 1.4 1.4 0.6 0.9 1.6 2.2 2.2 2 1.8 1.7 2.2 2.4 2.2 2 1.8 1.9 1.8 1.9 2 2.6 3.3 2.7 2.9 3.2 3.4 2.6 1.7 1.1 0.7 0.6 0.5 0.1 0.1 0.2 0.6 1.3 2 1.8 1.7 1.4 1.2 -0.4 -0.4 -0.4 -0.4 0.5 0.5 0.5 -0.4 -0.4 0.5 0.5 0.6 0.7 0.9 1.3 1.6 1.4 1.8 2.3 3.1 3.4 3.8 3.8 2.9 2.2 1.5 1.4 1.4 1.3 1.1 0.6 0.5 0.5 0.5 0.5 0.5 0.5 0.1 -0.4 -0.4 -0.4 0 0.4 1.1 1.2 6.3 3.3 2.5 1.7 1.9 2.4 3.4 4.6 4.8 3.7 4.3 4 4 3.9 4.4 3.3 2.5 1.1 1.1 1.1 -0.4 -0.2 -0.4 -0.4 -0.4 -0.4 -0.4
2.7 2.6 3 3.3 3.4 2.9 1.7 3.3 3.5 3.3 2.7 6 4.2 15.1 15.3 14.9 12.7 10.7 9.7 10 9.5 8.4 6.2 1.9 1.1 0.7 0.7 0.8 1.5 1.4 1.2 1.1 1.9 2.8 2.1 -0.4 -0.4 -0.4 -0.4 -0.4 1.2 1.3 1.4 1.5 1.5 2.2 2.8 2.6 2.6 2.5 1.4 0.9 0.9 0.8 1.2 1.7 1.9 1.6 1.6 2.5 4.5 6.6 10.9 16.3 24.7 27.9 18.6 13.5 11 8.6 6.8 5.5 4.5 3.7 3.9 4.1 3.8 2.6 2.3 2.2 2.3 1.4 1.4 1.4 1.4 1.4 1.4 1.4 1.4 1.4 1.5 2.1 3.3 3.7 3.5 3.6 3.9 3.3 3.5 3.3 3.2 3.1 3 2.7 2.8 3.5 4.6 5.8 5.6 4.7 4.3 5.1 3.3 2.4 1.5 0.6 0.1 0.1 0.1 0.1 0.3 0.7 1.1 1.7 1.6 1.4 1.4 -0.4 -0.4 0.5 0.5 0.5 0.5 0.5 0.5 -0.4 1 1.5 1.1 1.4 1.4 1.4 1.9 2.2 3.2 5.5 9 7.1 6.1 4.7 3.9 3.1 2.2 1.5 1.4 1.3 1.2 1 0.7 0.5 0.5 0.5 0.5 0.5 0.4 0 -0.4 -0.4 -0.4 0.2 1.1 1.1 1.1 9.3 6.3 4.4 4.5 3.7 3.8 4.2 5.4 4.3 5.3 6.3 6.3 5.6 6.4 7 4.3 3.5 3.1 1.1 1.1 1.1 0.9 1.1 -0.4 -0.4 -0.4 -0.4
2.6 2.3 2.4 2.4 2.7 2.7 2.9 2.9 3.1 2.8 2.8 2.7 7.4 4.4 14.6 14 11.8 10.2 9.2 9.1 8.9 7.1 3.1 0.5 1.3 1.3 0.2 0.5 1.7 1.4 1.3 1.2 0.9 1.6 2.5 1.6 -0.4 1.1 1.7 1.2 1.3 1.3 1.4 1.5 1.5 2.7 3.4 3.5 5.3 4.8 3.8 2.6 2.4 2 2.5 3 3.5 4 3.6 4.8 7.5 10 10 14.5 22.3 20.8 15.9 12.4 10 7.9 7.1 5.9 5 4.5 3.7 3.9 3.6 2.7 2.5 2.4 2.2 1.9 1.4 1.4 1.4 1.4 1.4 1.4 1.4 1.5 2.4 3.3 4.5 5.1 5.1 5.8 6.2 5.6 5 4.8 5 5.1 4.5 3.8 4.5 5.4 6.6 7.7 8.2 7.8 6.9 6.6 5.3 3 2 0.9 0.6 0.1 0.1 0.1 0.4 0.9 1.3 1.4 1.6 1.7 1.9 -0.4 0.7 0.7 0.6 0.5 0.5 0.5 -0.4 -0.4 2.8 2.3 1.5 1.6 1.6 1.8 2.2 3.7 6.2 9 10.5 7.2 5.8 4.4 3.3 2.9 2.4 1.7 1.6 1.4 1.1 0.9 0.7 0.5 0.5 0.5 0.5 0.4 0.1 -0.4 -0.4 -0.4 0.2 0.5 0.5 1.1 1.1 7.6 10.5 10.6 13.2 6.2 6.4 6.9 7.8 6.7 8.2 9 8.7 8.4 9.4 6.6 4 1.1 0.6 0.5 0.4 -0.4 0.1 -0.4 -0.4 -0.4 -0.4 -0.4
2.5 2.6 2.4 1.4 2.6 2.6 2.9 3 2.7 2.9 3 3 3.7 3.9 15.3 13.5 11.3 8.8 8.7 8.2 7.2 4.3 0.9 1.6 1.4 1.2 0.4 0.6 0.7 1 1.3 0.9 0.8 1.5 1.5 1.8 2.3 1.1 1.3 1.3 1.4 1.4 1.5 1.7 2 2.4 10.3 4.3 5.4 6.2 5.8 4.7 4.5 4.2 3.8 3.8 4.2 5.9 8.8 13.1 15.3 20.7 17.1 15.6 16.8 16 13.4 11.2 10 8.6 7.4 6.3 5.6 5 4 3.6 3.3 2.7 2.3 1.9 1.8 1.8 1.5 1.4 1.4 1.4 1.4 1.4 2.1 3.2 3.9 5.9 6.1 6.6 7.3 7.9 8.4 7.8 7.3 6.9 7.5 7.6 8.1 7.7 7.2 6.9 7.7 8.6 10.5 10.2 9 8 7.5 3.2 2.2 1.3 1.3 0.8 0.3 0.1 0.6 1.1 1.5 0.6 0.7 1.1 1.6 0.9 0.9 0.8 0.7 0.6 0.6 0.5 -0.4 1.4 2.8 2.8 2.7 2.7 3.2 2.9 4 6.9 11.2 10.9 9.2 6.9 5.4 4 2.7 2.1 1.7 1.7 1.3 1.1 0.9 0.6 0.5 0.5 0.5 0.5 0.5 0.2 -0.1 -0.4 -0.4 -0.4 0.5 0.9 1.1 1.1 1.1 4.8 16 15.8 9 7.6 8.6 8.6 9 9.6 13.1 15 13.3 12.2 10.7 6.1 1.1 0.5 0.3 0.2 0 -0.4 -0.4 -0.4 -0.4 -0.4 -0.4 -0.4
2.5 2.6 1.1 0.3 2.5 2.6 2.9 2.7 2.8 3 3.2 3.3 3.1 2.7 10.2 12.8 10.7 8.2 7.2 5.5 2.8 0.9 0.9 1.4 1.6 1 1.2 1 0.8 0.8 1.1 1.4 1 0.8 0.8 1.1 1.4 1.5 1.6 1.6 1.6 1.7 1.7 1.9 2.2 2.5 5.5 4 5.4 6.2 7 6.7 6.8 8.7 8.8 6.5 6.6 8.3 13.4 22.8 24.9 27.3 21.4 18 16.1 13.9 12.7 11.5 10.3 9 7.7 6.7 6.1 5.5 5 3.4 3.1 2.7 2.3 1.8 1.4 1.4 1.5 1.5 1.5 1.4 1.8 2.8 3.9 4.6 5.6 7.6 9.4 10.1 10.8 10.5 11 10.5 10.1 9.9 10.3 11.1 12.4 12.5 9.6 9.6 9.8 10 11.5 10.3 9.5 9.3 6.9 3.8 2.4 1.9 1.9 1.5 1.1 1.6 1.6 1.5 1.8 1.4 1.2 0.9 1.3 1.1 1 0.9 0.8 0.6 0.6 0.6 -0.4 1.9 2.9 2.9 3.3 3.9 4.4 4.8 8.3 10.5 11 10.9 8.9 6.6 5.1 3.7 2.3 1.5 1.4 1.3 1.1 0.9 0.7 0.6 0.5 0.5 0.5 0.5 0.3 0 -0.4 -0.4 -0.4 0.2 0.8 1.1 1.1 1.2 1.2 5.8 16.9 15.2 11.5 9.2 8 8.7 12.3 14.9 14.7 14 11.6 11.5 7.1 4.1 1.1 0.4 0.2 0 -0.3 -0.4 -0.4 -0.4 -0.4 -0.4 -0.3 0
1.5 2.9 2.3 2.2 2.1 2.8 2.6 2.4 2.8 2.9 2.8 2.8 3.1 3.1 5.2 7.9 7.6 4.8 2.8 1.5 1.5 1.4 1.5 1.7 1.6 1.5 1.3 1.1 0.9 0.9 1.1 1.4 1.4 1.4 1.4 1.4 1.5 1.4 1.5 2.4 2.3 2.3 2.2 2.2 2.3 2.7 3.2 3.7 5.5 5.9 6.8 7.7 7.9 8.2 9.7 11.3 8.6 13.3 17.9 23.4 25.7 22.7 18.9 16.2 14.3 12.8 11.7 10.8 9.9 9 8.1 7.2 6.6 6.1 5.5 4.4 4 4.1 3.2 2.3 1.4 1.4 1.6 2.1 2 1.9 2.9 4.6 5.8 6 7.3 9.4 11.3 15.3 17.7 17 16.4 13.7 14 13.1 13.2 17.2 20.4 16.4 12.8 12.2 11.7 11.4 10.7 9.4 8.1 6.4 5.3 3.9 2.5 2.5 2.5 2.6 2 2.7 2.5 2.2 2.1 1.9 1.7 1.6 1.4 1.2 1.1 0.9 0.8 0.7 0.7 0.6 -0.4 -0.4 2.8 3.1 4.1 5 5.5 8.7 11.6 10.6 10 9.8 8.7 7.1 5.7 4.1 2.5 1.6 1.7 1.3 1.1 1 0.8 0.6 0.5 0.5 0.5 0.4 0.2 -0.4 -0.4 -0.4 -0.4 0.9 0.7 1.1 1.1 1.1 2.7 10 12.2 14.4 11.7 9.3 7.2 9.9 14.9 12.4 13.3 12.2 8.7 8.1 6.1 1.2 0.5 0.2 0 -0.2 -0.4 -0.4 -0.4 -0.4 -0.4 -0.4 0.3 0.5
2.4 2.5 2.5 2 3.1 2.2 2.5 2.5 2.4 2.4 2.3 2.3 2.1 2.9 2.8 3.5 1.7 2.1 0.7 1.4 1.7 1.4 1.5 1.6 1.7 1.5 1.3 1.1 1 1 1.1 1.3 1.4 1.5 1.5 1.4 1.5 1.4 1.6 2.1 2.6 2.8 2.7 2.6 2.8 3.7 4.1 4.5 5.5 5.3 5.7 5.4 5.5 6.1 7.5 9.6 11.6 13.3 16.8 18.3 18.2 18 16 14.8 13.3 11.8 10.7 9.8 8.9 8.2 7.9 7.5 6.9 6.4 5.9 5.1 4.9 4.1 3.2 2.3 1.4 1.4 2 2.6 2.5 2.6 3.5 5.3 7 7 9.2 11.2 14.1 20.5 25.1 25 25.1 17.2 19.9 17.2 17.5 18.5 18.7 17.9 17.7 15 13 11.2 9.6 8.7 6.9 5.8 4.8 4.1 3.3 3.5 3.8 3.4 2.7 2.5 2.6 2.4 2.3 2.2 2 1.9 1.7 1.8 1.1 1 0.8 0.8 0.7 0.6 0.5 -0.4 2.4 5 6.9 6.9 7.7 9.8 11.3 10.3 9.2 8.6 8.3 7.5 6.3 4.8 3 2 2 1.5 1.1 1 0.8 0.6 0.5 0.5 0.2 0 -0.1 -0.4 -0.4 -0.4 -0.4 0.5 1.1 1.1 1.2 1.2 7.4 8.7 15.8 14.3 12.3 10.3 7.6 7.9 12.7 12.4 8.7 11 6.4 4.1 7.7 0.9 0.9 -0.4 -0.4 -0.4 -0.4 -0.4 0.3 0.1 0.1 0.3 0.5 0.5
2.4 2.6 2.4 2.2 2.7 2.5 2.2 1.9 2.1 1.8 2.1 1.8 1.6 2.1 0.6 2.2 1.1 1.9 1.6 1.4 1.5 1.6 1.4 1.5 1.6 1.6 1.4 1.2 1.1 1.1 1.2 1.3 1.4 1.6 1.9 1.4 1.5 1.4 1.7 2.2 3.2 3.3 3.2 3.1 3.5 4.6 4.5 5 5.4 5.2 5.4 4.9 4.3 4.3 5.7 7.7 9.6 11.4 13.6 14.3 14.1 13.7 13.5 12.8 12.1 10.8 9.7 9 8.7 8.4 8.1 8.1 7.2 6.6 6.1 4.9 4.3 3.8 3.2 2.4 1.5 1.6 2.4 3.1 3 3.3 4.1 6 7.6 8.7 10.9 13.1 16.3 23.4 25.3 24.9 24.9 26 26.1 25.3 17.7 21.7 22.4 22.8 20.7 17.3 14.5 11.9 10.6 9.2 8.2 7.1 5.9 4.8 4.7 5 5.3 4.9 4.4 4.1 2.7 2.6 2.5 2.5 2.4 2.2 2 2.7 1.6 1 0.9 0.8 0.7 0.6 -0.4 -0.4 3.3 6.9 8.9 10.2 10.8 11 10.5 9.7 8.9 7.8 7.1 6.4 5.9 5.2 3.6 2.4 2.2 1.7 1.3 0.9 0.8 0.7 0.5 -0.4 -0.4 -0.4 -0.4 -0.4 -0.4 -0.4 1.2 1.2 1.3 1.2 1.4 9 16 16.9 14.9 11.2 12.1 11.2 8.4 4.7 6.6 5 4.3 4.4 2.8 2 3.3 -0.4 -0.2 -0.4 -0.4 -0.4 0.8 0.9 0.9 1.1 1.2 2.2 2.5 2.7
2.5 2.6 2.4 2.1 2.4 2.1 1.8 2 2.1 2 1 1.5 1.7 1.4 1.5 1.4 1.5 1.7 1.4 1 1.4 1.5 1.6 1.5 1.6 1.5 1.5 1.3 1.2 1.2 1.3 1.3 1.4 1.7 2 1.9 1.5 1.4 1.9 2.8 3.8 3.9 3.7 3.6 4.1 5.1 5.4 5 5 5.3 5.7 5.8 5.2 4.7 4.3 6.1 8 9.9 10.9 11.7 12.6 12.4 12 11.2 10.3 9.5 9.4 9.2 8.9 8.6 8.3 8.5 7.7 6.9 6.1 4.8 3.8 3.2 2.7 2.2 1.5 1.9 2.7 3.5 3.6 4 4.7 6.6 8.3 10.4 12 13.5 15.2 19.2 21.9 23.7 25.2 23.4 26.1 26.7 20.9 24 23.4 24.1 23.5 20.6 17.1 14.1 12.3 10.5 9.5 8.4 7.2 6.1 5.9 6.5 6.8 6.6 6.1 5.3 3.8 3.8 3.6 3.3 3.5 3.4 3.8 3.9 2.5 1.4 0.9 0.8 0.7 0.7 -0.4 -0.4 3.7 7.7 11.5 11.8 11.5 11.6 11 10.2 9.4 7.9 7.1 6.3 5.6 4.9 4 2.8 2.4 1.9 1.5 1.1 0.7 0.6 0.5 -0.4 0 0.1 -0.2 -0.4 -0.4 0.5 1.2 1.1 1.4 3.8 3.4 15.3 17.4 15.3 13 9.9 8.8 8.5 6.3 4.9 3.8 2.1 2.1 2 -0.4 0.9 -0.4 -0.4 0.5 -0.4 -0.4 3.5 3.7 2.8 2.6 3.3 3.4 3.3 3.1 3.3
2.6 2.6 2.4 2.3 2.1 2.3 2.3 1.9 2.3 1.3 1.3 1 0.5 1.8 1.7 1.7 1.6 3.7 1.2 0.6 1.2 1.3 1.4 1.5 1.5 1.5 1.5 1.3 1.3 1.3 1.4 1.5 1.4 1.8 2.1 2.4 1.7 1.5 2.4 3.4 4.4 4.5 4.3 4.2 4.8 5.4 6.1 6.6 5.6 5.6 6 6.4 6 5.4 4.9 5.6 7.4 9.3 9.7 9.9 10.1 11 10.7 9.8 9.4 9.4 9.5 9.4 9.1 8.8 8.6 8.7 8.3 7.4 5.9 4.7 3.7 2.9 2.4 2.1 1.5 2.2 3 3.9 4.3 4.6 5.3 6.9 8.4 10 11.6 13.5 15.4 16.9 18.6 20 20.2 21.4 25.1 25.3 23.9 21.9 21.9 23.9 22.9 21.8 20.5 16.6 14 11.7 10.9 9.7 8.5 7.5 6.8 7.8 8.3 8 7 5.4 5.2 4.9 5.7 6.4 7 6.5 5.7 5.8 4.7 2.3 1.6 1.2 1.3 1.4 1.5 -0.4 3.8 9.7 12.8 12.3 12 12.2 11.7 10.7 9.6 8 7.1 6.3 5.6 4.2 3.1 2.4 2.3 2 1.6 1.3 0.9 0.5 0.1 -0.4 0.4 0.4 0 -0.4 -0.4 1.1 3 2.5 3.2 2.2 2.8 8.9 12.2 12.9 10.8 8.6 6 4.5 4.7 2.8 2.1 1.4 1.1 1.2 -0.4 0.9 -0.4 1.1 -0.4 -0.4 -0.4 4.9 5.6 4.9 4.7 4.4 4.5 4.4 3.7 4.4
2.7 2.6 2.5 2.5 2.4 2.3 2.7 2.3 1.8 2 1.7 2 1.8 1.7 1.5 1.6 1.5 1.2 1.3 0.5 1.1 1.2 1.3 1.5 1.4 1.4 1.4 1.4 1.4 1.6 1.8 1.6 1.4 1.5 1.9 2.5 2 2.5 3 4 5 5 4.9 4.7 5 5.4 5.6 6.4 7.2 7 6.8 6.7 6.2 5.4 5.5 5 6.9 8.2 8.5 8.7 8.9 9.1 9.3 9.2 9.3 9.3 9.4 9.3 9.3 9 8.8 9 8.8 7.3 5.6 4.7 3.7 3.2 3.2 2.9 2.8 3.1 4 4.5 4.2 5 6 6.7 8.5 10.2 11.6 13.1 14.9 15.6 16.3 18.3 19.6 18.9 20.5 21.1 20.7 19.3 19.7 21.4 22.2 23.2 21.8 20.6 15.6 12.4 12.2 11.8 11.8 9.8 9.6 9.9 10.2 9.4 8.5 7.5 5.8 7.4 8.6 10 10.5 10.1 9.2 8.3 7.3 6.1 3.8 2.5 1.9 2 2.1 3 4.8 10.4 13.2 12.8 12.5 12.6 12 11 9.2 8 7.1 6.2 4.9 3.5 2.3 1.9 1.9 1.7 1.4 1 0.7 -0.4 -0.4 0.5 0.6 0.9 0.3 -0.4 -0.4 -0.4 -0.4 3.1 1.7 1.5 2 3.6 7.4 10.9 9.7 7.8 5.2 3.9 1.9 1.4 1.6 1.6 1.2 1.1 1.7 4.4 4.7 3.7 -0.4 -0.4 4.6 5.3 6.2 5.6 5 4.7 4.6 4.4 4 3.9
3.2 2.9 3 3 2.8 2.2 2.5 2.6 2.5 2.2 1.5 1.9 1.6 1.3 1.1 1.4 1 1 1.4 1.3 1.5 1.8 2 1.9 1.2 1.1 1.1 1.6 1.8 2.1 2 1.5 1.5 1.5 2.1 1.9 2.7 4.5 5 5.4 5.7 6.1 6.1 5.4 5.1 5.4 5.7 5.9 6.5 6.6 6.8 7 6.9 6 5.6 5.6 6.3 7 7.2 7.4 7.7 7.9 8.4 9 9.1 9.2 9.3 9.3 9.2 9.2 9.1 9.2 8.6 6.6 5.2 5.2 4.3 4 3.8 4.1 4.6 4.7 5.2 5.1 5.5 6.2 7.1 8.7 10.8 10.9 11.8 12.8 13.8 14.6 15.8 16 16.3 15.9 16.8 16.8 16.7 18.9 20.2 21 22.6 23.8 23.7 23.5 19.7 19.1 18.5 16.6 15.8 12.3 12.3 13 12 11.2 11.2 10.4 10.9 11 12.2 13.3 13.8 13.6 13.2 12.6 10.9 8.6 6.7 4.8 3 2.7 3 4.6 6.3 8 10.3 11.9 12.5 12.4 11.4 8.3 6 7.3 6.2 5.1 3.9 2.8 1.5 1.4 1.4 1.4 1.1 0.8 0.5 -0.4 0.4 0.5 0.5 0.8 -0.4 0.1 0.2 0 -0.4 -0.4 -0.4 1.4 2.5 3.4 8.6 11.6 10.3 8 4.9 3.3 2.2 2.4 2.6 2.4 2.3 2.9 3.9 5.2 5 -0.4 -0.4 -0.4 5.3 5.5 5.5 5.4 5.2 4.9 4.7 4.5 3.6 2.8
3.9 3.8 3.4 3.4 3.1 2.5 2.2 2.5 2.3 1.9 2.3 2.2 1.6 1.3 1.7 2.1 2.1 1.7 1.3 2.9 1.6 1.7 2 1.7 1.2 0.8 1.2 1.3 2.1 2.8 2.1 1.5 1.5 1.8 2.6 3.3 4.4 5.5 6 6.2 6.8 7.3 6.8 6.1 5.5 5.5 5.7 6 6.4 6.9 7.1 7.4 7.5 6.8 6.5 6.1 5.8 6 6.3 6.6 6.9 7.2 7.8 8.6 8.8 9.1 9.2 9.2 9.2 9.1 9.1 9.1 9 7.9 7.3 6.1 5.3 4.5 4.1 4.3 4.8 5.3 6.5 6.7 7 7.6 8.5 11.5 14.5 15.8 15.3 14.3 13.3 12.5 12.8 13 13.3 13.1 13.8 13.9 14.9 18.2 21.3 20.7 21.5 22.5 22.9 22.9 22.4 21.5 20.7 19.1 20.7 15.4 16.2 16.4 15.9 15.8 15.9 10.6 11.5 13.7 14.6 15.6 14.6 13.8 14.3 14.1 9 6.5 3.8 2.4 2.5 3.7 4.4 7.2 7.2 7.8 9.6 9.1 10.3 11.5 9.4 8.8 5.8 2.8 4.5 3.9 2.6 2.1 1.5 1.7 1 0.9 0.8 -0.4 -0.4 -0.4 0.5 0.6 0.8 0.9 0.5 0.5 0.5 0.3 0.5 0 -0.4 0.8 2.3 5.2 10.5 10.1 8.4 6.6 4.7 3.4 3.4 3.4 3.6 3.7 3.6 3.5 4.1 4.7 1 -0.4 -0.4 3.2 5.7 5.6 5.6 5.5 5.3 5.1 4.8 4.2 3.6 3
4.6 4.5 4.5 3.9 3.5 2.7 2.7 2.2 2 2.1 2.3 3 2.1 1.3 2.3 3.1 2.4 1.6 1.1 1.3 2.4 1.4 1.3 1.1 0.7 0.9 1.2 1.7 4.2 4 3.6 3.2 4.5 4.5 4.5 4.2 4.3 5.2 6.1 6.7 7.1 7.4 6.3 6 5.7 5.6 6.1 6.5 7 7.3 7.5 7.7 8 7.7 7.4 7.2 6.9 6.4 6.3 6.6 6.9 6.8 7.5 8.2 8.5 8.7 8.9 9.1 9.1 9.1 9.1 9.1 9.1 9.2 7.8 7.1 6.3 5.6 4.8 4.5 5.8 7 8.2 8.4 8.6 9.4 10.6 12.7 16.5 16.1 15 13.9 12.7 11.9 11.3 10.9 11 11.2 11.6 12.6 13.7 16.9 17.8 18.1 18.4 20.5 21.5 21.7 21 21.8 21.5 21.2 20.7 18.9 19.5 19.3 19 17.1 15 12.9 14.1 16 15.5 14.8 14.6 13.9 14.5 9.8 6.1 4.7 2.8 2.7 2.5 4.2 6.9 12.3 10.2 6.7 5.4 4.8 6.1 8.1 4.5 4.1 4.6 2 2.1 1.2 1.4 2.4 1.5 1.7 2.1 1.4 -0.4 -0.4 0.5 0.8 0.8 1.1 1.1 1.1 1.1 0.5 0.9 0.8 0.6 0.2 -0.4 0.5 7.9 12.7 10.5 8.8 6.7 5.2 4.3 4.3 5.1 5.1 4.6 4.6 4.5 4.5 4.5 4.9 1.3 -0.4 -0.4 6.2 6 5.8 5.7 5.6 5.4 5.3 5.6 5.1 3.4 1.1
5.3 5.3 5.2 5 5.3 5.4 5.1 4.4 3.8 2.7 2.4 3.7 2.9 3.3 3.3 3.4 2.3 1.4 0.9 1.2 1.5 1.7 1.2 0.7 1 1.4 1.8 2.5 5 5.3 5.5 5.2 5.6 5.4 4.9 4.6 4.3 4.6 5.5 6.3 6.8 7.1 5.7 6.6 6.8 5.9 6.2 6.9 7.5 7.8 8.2 8.6 8.9 8.8 8.6 8.3 7.9 7.3 7 6.8 6.9 7.4 7.9 8.6 8.7 8.9 9.1 9.6 9.6 9.6 9.5 9.5 9.5 9.4 8.7 7.9 7.1 6.4 5.7 5.4 6 7.5 8.2 8.5 10.1 11.7 13 14.5 16.1 16.1 14.6 13.6 12.2 11.4 10.8 10.2 9.9 10.1 10.1 10.7 12.4 13.5 14.7 16.1 16.2 17.7 19.5 19.9 16.9 18 20.4 20.7 20.7 19.8 19.9 20 18.8 17.6 15.6 16.1 16.8 15.4 12.5 10.3 8.9 9.4 8.8 5.6 3.2 2.3 2.2 2.5 6.1 9.4 13 13.8 9.3 5 3.7 2.3 1.4 1.4 0.9 0.4 -0.4 -0.3 -0.3 -0.3 -0.2 -0.4 -0.4 0.9 1 -0.4 -0.4 0.6 0.9 1.2 1.5 1.3 1.1 0.8 0.5 0.5 0.6 0.5 0.5 0.1 -0.4 0.5 5.7 12.6 9.8 7.9 6.5 5.7 4.9 4.5 5.3 6.2 6.1 5.6 5.6 5.6 5.6 5.2 2.5 -0.4 -0.4 6.4 6.3 6.1 5.9 5.7 5.8 6.3 6.9 6.1 3.6 0.8
6.1 5.6 5.2 5.2 5.4 5.7 5.4 4.7 4.7 4.4 4 4.2 4 3.5 3.5 3.5 3 1.7 0.9 1.4 1.7 2.3 1.8 0.9 1.2 1.9 2.3 3.3 5.6 6.1 6.3 6.6 6.2 5.7 5.4 5.1 4.8 4.7 5 5.9 6.4 5.9 6.1 7 7 6.1 6.8 7.4 7.6 8.4 9.2 9.7 9.9 9.8 9.7 9.4 8.9 8.2 7.9 7.4 7.9 8.2 10.5 12 11.7 10.8 10.5 11.4 10.8 10.4 10.4 10.4 10.3 10 9.4 8.6 7.8 7.3 7 6.6 6.3 6.9 7.9 9.1 11.1 13.4 14.9 16.8 17.2 15.2 14.2 13 11.6 10.8 10.3 10.4 9.3 9.4 9.3 9.6 10.2 11.1 12.2 14 13.8 14.9 15.9 16 14.6 14.4 18.2 18.5 18.1 19.9 20.4 20.4 19.5 18.6 18 17.3 16.1 12.7 9.3 7.3 5.9 5.5 3.7 2.8 2.2 2.6 2.8 4 8.9 11.2 14.4 11.3 2.8 2.7 2 0.8 1.2 0.5 -0.4 -0.4 0 0.2 0.3 0.4 0.5 0.4 -0.4 -0.4 -0.1 -0.4 0.4 0.8 1.3 1.9 2.1 1.5 0.9 0.6 0.5 0.5 0.9 0.7 0.3 -0.4 -0.4 0.8 5.3 11.8 9.8 8.5 7.1 6.2 5.4 4.7 5.5 6.8 7 6.6 6.6 6.6 6.2 5.4 3.4 0.5 -0.4 6.8 6.7 7.1 6.8 6.7 6.4 7 6.7 4 2.3 0.5
6.7 6.2 5.8 5.7 5.9 6.1 5.6 5 5.1 5.2 4.9 4.1 3.9 3.9 3.9 3.9 3.7 3.6 3.2 2.2 2.1 1.8 5.5 1.2 0.9 1.8 2.5 4 6.3 6.9 7 6.8 6.5 6.1 5.8 5.5 5.2 4.9 5.1 5.3 6 6 6.6 7.1 6.9 6.3 6.7 8 7.7 8.4 9.3 10.3 10.9 10.8 10.8 10.6 10 9.2 8.8 8 8.6 9.2 11.1 13.6 15.8 14.2 12.2 12.9 12.1 11.3 11.2 11.2 11.2 10.6 9.9 9.3 8.9 8.4 8 7.6 7.1 7.3 9.4 11.2 11.9 14.3 16.1 18 18.9 17 14.7 12.5 11.1 10.4 10.6 10.4 9 8.9 8.8 8.7 9 9.9 10.8 12.2 12.4 12.8 12.3 11.8 11.6 11.3 14.3 14.3 17.1 19.4 20 19.9 19.4 19.1 18.5 16.8 13.2 9.9 7.1 4.8 3 3 3.1 3.1 2.7 2.4 3.6 5.6 12.5 8.2 3.4 1.8 1.3 0.6 -0.4 0.5 0.1 -0.4 -0.4 -0.4 0.5 0.5 0.5 0.5 0.5 0.6 0.7 1 1.2 1.4 1 1.6 2.2 2.8 2 1.5 0.7 0.5 0.5 0.6 1 0.9 -0.4 -0.4 0.7 2.1 6.9 12.8 10.7 9.4 7.9 6.8 5.9 5.1 5.9 7.2 7.5 7.8 7.6 7.3 6.6 5.6 2.8 1.3 -0.4 2.2 7.1 7.6 8 7.9 7.6 6.7 5.4 3.9 2.1 0.6
9.1 7.9 6.6 6.4 6.5 6.3 5.8 5.2 5.5 6 5.7 5 4.6 4.3 4.2 4.2 4 3.8 3.7 3 3.9 2.8 3.6 3.4 1.2 3.3 5.5 6.5 7 7.5 7.2 7.1 6.9 6.5 6.2 5.9 5.6 5.3 5.3 5.5 5.8 6.2 6.7 7.2 7.3 6.8 7 8.8 8.1 9 10 11.1 12 11.9 11.8 11.7 11 10.3 9.5 8.6 9.3 10 11.7 13.2 15.5 16.3 15.1 14.2 13.4 12.5 12.1 12.1 11.8 11.2 10.4 9.5 9 8.6 8.2 7.8 7.4 10.1 12.5 14.2 13.2 15.5 16.9 19.1 20.5 17.8 14.5 12.4 10.5 10.3 10.3 10 8.6 8.5 8.4 8.2 8.1 8.6 9.7 10.5 10.8 10.7 9.4 8.5 9.2 9.8 10.6 13 15.1 17.2 17.9 16.7 17 16.3 15.7 14.1 8.1 7.4 5.1 2.8 2.7 2.8 2.9 3 2.8 2.4 4.8 11.1 10.8 4.1 2 1.5 0.8 0.7 -0.4 1.4 1.7 -0.4 -0.4 1.1 0.9 0.5 0.5 0.5 0.8 1.2 1.4 2.4 2.9 2.4 2 2.5 3.1 2.9 1.8 1.3 0.8 0.5 0.5 0.5 0.5 0.5 -0.4 0.6 1.4 1.5 4.9 13.7 11.8 10.3 8.9 7.4 6.5 5.6 7.4 7.7 8.1 8.5 8.5 7.9 6.9 5 3 2.4 1.9 5.7 7.8 9.2 9.2 8.8 7.6 6.1 4.8 3.6 2 0.5
10.9 10.3 9.3 8.1 7 6.5 6.1 5.6 6 6.5 7 6.9 6.4 5.5 4.8 4.4 4.3 4.1 3.9 4.2 4.8 5 5.2 6.1 6.4 8.6 7.7 8.2 8.3 8.3 8.2 8 7.7 7.3 6.9 6.5 6.1 5.8 5.5 5.7 6.2 6.4 6.6 7 7.4 7.5 7.8 9.2 9.8 9.7 10.8 11.9 13 13.1 12.9 12.8 12 11.2 10.2 9.1 9.3 9.9 11.5 13.1 15.1 16.1 15.1 15.2 14.6 13.8 13 12.9 12.4 11.5 10.6 9.7 9 8.6 8.1 7.7 8.4 12.8 18.5 18.8 17.3 18.5 18.3 18.6 17.5 16 13.9 11.8 9.6 9.2 8.9 8.6 8.3 8.1 8 7.8 7.7 7.5 7.8 8 8.3 8.1 7.8 7.4 7.8 8 9 11.9 10.9 11.1 11.9 11.7 11.5 11.7 11 7.7 6.1 4.8 3 2.7 2.6 2.6 2.7 2.8 2.8 2.5 7 13.2 9.4 3.5 2.3 1.7 1.4 1.1 1.5 2.5 2.2 1.9 1.6 2.1 2.6 3 2.6 2.7 2.6 1.9 3.3 3.7 3.9 3.6 3 3.5 4 2.9 1.7 1.1 0.6 0.5 0.5 0.7 0.8 0.5 -0.4 1.1 1.8 3.1 6.4 13.3 12.6 11.2 9.7 8.2 7.2 6.4 6.8 7.7 9 9.5 8.9 7.7 6.6 5.5 3.4 2.8 2.6 6.4 9.1 9.4 9.2 9.1 7.9 6.2 4.6 3.7 2.6 1.1
11.7 10.5 9.2 8 6.9 6.8 7.7 7.4 7.6 8.1 9.6 10.7 9.9 8.9 7.6 7 6.6 6 5.3 5.5 5.8 6 6.1 7.7 8.1 7.4 7.8 8.9 9.2 9.2 9 8.8 8.5 8.1 7.7 7.2 6.8 6.4 6 6.2 6.5 6.8 7 7.3 7.8 8.6 9.5 10 10.9 10.5 11.6 12.7 13.8 14.2 13.9 13.6 12.8 11.9 11 9.8 9.1 9.7 11.6 13.3 14.5 15.5 15.7 15.8 15.5 14.9 14.2 13.6 12.7 11.8 10.9 9.9 8.9 8.1 8.1 7.8 10 13.3 19.8 22.8 21.6 22.7 22.2 18.9 15.6 12.9 11.6 9.8 9.3 9.1 8.8 8.6 8.1 7.7 7.5 7.4 7.4 7.3 7.7 8.2 7.9 7.1 6.2 6.1 6.4 7.4 8.1 8.8 8.1 6.7 7.4 7.3 7.7 7.9 6.3 4.6 3.2 2.7 2.7 2.6 2.6 2.5 2.5 2.6 2.6 2.8 7.8 13.5 8.6 4.3 3 1.6 1.4 1.3 2 2.8 3 2.6 2.6 3.1 3.5 3.8 4.3 4.2 4.2 2.4 4 4.4 4.9 4.6 4.1 4.4 3.9 2.8 1.7 0.9 0.6 1.3 0.7 0.6 1.1 -0.4 0.7 1.5 2.4 3.4 7.5 13.7 12.3 10.9 9.5 8.5 8.2 7.4 7.7 8.4 9.7 9.7 9.2 8 6.7 5.4 3.2 3.1 4 7 7.7 6.6 8.5 9.3 8.1 6.5 5.5 4.2 3.1 1.9
11.4 10.4 9.1 7.9 7.3 7.5 7.9 8.7 9.4 9.7 11.5 14.2 13.9 12.9 11.2 9.6 8.7 7.9 7.2 7.3 7.2 7.4 7.3 8.6 9.6 8.2 9.8 9.7 9.6 9.5 9.6 9.5 9.3 8.9 8.5 7.9 7.4 6.9 6.8 6.8 7.3 7.8 8.3 8.8 9.2 10.3 11.1 11.4 11.5 11.6 12.2 13.1 14.1 15.1 14.8 14.4 13.9 12.8 11.8 10.1 9.9 10.5 11.9 13.2 14.2 15.7 16.7 16.4 16.1 16 16.1 14.3 13.1 12.2 11.2 10 9.2 8 9.7 15.7 15.1 14.3 21.6 23.1 23.5 25.5 23 19 14 11 10.2 9.5 9.2 9 8.8 8.5 7.9 7.5 7.3 7.3 7.2 7.1 7.5 7.8 7.3 6.6 5.7 5.5 5.6 5.4 6.2 6.2 5.4 5 5.3 4.8 4.1 3.3 2.9 2.6 2.6 2.7 3 2.7 2.6 2.5 2.4 2.4 2.9 4.3 7.3 12.4 12.8 5.5 3.5 2 1.2 2.2 3 3.4 3.7 3.5 3.1 3.6 4 4.4 5 4.3 4.8 4.4 4.5 5 5.9 5.6 5.1 5 3.9 2.8 1.7 0.7 1.6 2.2 1.3 1 0.5 1 1 1.9 2.8 4.5 7.2 13.2 12.2 10.8 9.6 9.1 8.9 8.4 8.7 9.3 9.8 9.8 9.5 8.2 6.6 5 3.4 3.2 2.5 3.1 3.3 5.3 9.4 9.5 8.4 7.5 6.4 4.9 4.3 3.9
11.1 10.2 8.9 8.7 8.9 8.9 8.8 9.2 10.2 11.3 11.1 13.2 16.5 17.2 15.9 13.8 12.4 9.9 9 8.7 8.5 8.9 8.8 9.6 11.5 10 9.4 9.9 10 10 9.9 9.9 9.7 9.3 8.8 8.3 7.7 7.6 7.9 8 8.4 9.4 9.9 10.3 10.6 11.6 12 12.1 12.2 12.3 12.7 13.2 14 15 15.6 15.2 14.8 13.8 12.3 10.7 11.2 11.8 12.9 14 15.1 17.7 17.3 17.7 18.3 18.6 17.9 15.8 13.4 12.5 11.2 10.3 9.5 8.5 13 21.8 24.7 23.6 21.7 21.5 21.1 20.4 19 14.1 11.2 10.3 9.6 9.4 9.1 8.9 8.8 8.5 8.2 7.8 7.7 7.5 7.4 7.3 7.3 7.2 6.5 5.8 5.4 5.4 5.4 5.2 5 5.2 4.8 4.4 4.2 3.8 3.4 3.2 2.8 2.5 2.5 2.8 3.2 3 2.8 2.6 2.5 2.6 3.4 5.7 8.1 12.8 13.8 9.3 2.6 1.3 1.9 3.1 4.1 4.4 4.5 4.4 3.9 4 4.4 4.9 5.7 4.8 5.2 5.9 5.8 6.4 6.7 6.4 5.9 5.4 4.4 3.4 2.2 1.7 3.5 3.1 1.8 0.5 0.7 1.2 1.2 1.5 3.3 5.4 8.1 11.7 12.1 10.7 10.1 9.8 9.5 9.3 9.7 10.5 10 10 9.3 7.9 6.2 4.6 4 3.9 2.9 2.5 2.5 3.9 8.6 9.4 9.5 8.5 7.3 6 5.7 6.1
10.8 9.9 9.8 9.7 9.7 9.6 9.1 9.5 10.5 11.5 11.1 11.1 15.4 19.4 20.6 18.7 18.4 14.4 9.7 9 9.5 10.2 7.4 7.4 9 10.3 10.3 10.4 10.4 10.4 10.4 10.2 9.9 9.6 9.2 8.6 8.4 8.7 8.9 9.1 9.1 10.4 11.4 11.7 12 12.5 12.6 12.7 12.9 14.2 15.3 16.4 15.4 15.1 15.3 14.9 15.4 14.8 13.7 12.9 13 13.1 13.8 14.8 16.5 19 18 17.7 18.3 18.3 17.5 16.6 14.4 12.8 11.4 10.5 10.8 18 24.1 22.4 20.3 19.3 19.6 18.9 16.2 14.2 13.3 12 10.7 9.8 9.6 9.5 9.3 9 8.8 8.8 9 8.3 8 7.9 8.1 7.5 7 6.5 6.2 5.9 5.6 5.4 5.2 5 4.8 4.7 4.4 4.2 4 3.6 3.6 3.5 3 2.4 2.6 2.9 3.3 3.3 3 2.8 3.1 3.6 5.4 7.9 11.4 13.7 13.4 5 2.4 2 2.4 3.8 5 5.3 4.9 4.8 4.8 4.4 4.9 5.3 8.1 8.4 7.8 7.8 7.6 7.8 7.1 6.5 5.7 5.7 5.4 4 2.6 3.4 3.5 3 1.7 0.5 0.8 1.2 1.5 4.3 5.8 8.5 11 13.3 11.9 11.2 10.7 10.4 11.2 11.3 11.6 11.4 10.5 10 8.7 7.6 7.1 7.5 7.2 4.4 3.7 3 2.5 2.5 5.6 9.2 10.8 10.3 10.6 8.9 7.8 8.9
10.9 10.7 10.5 10.5 10.4 9.9 9.3 9.9 10.7 11.1 11.7 11.1 13.9 20 22.3 22.7 21.7 20 12.4 12.5 11.4 7.4 7.4 7.4 7.5 10.9 10.9 11 11 11 10.7 10.4 10 9.7 9.4 9.2 8.9 8.7 8.5 8.5 9.1 10.4 11.6 12.5 12.8 13.1 13.2 13.8 15.2 16.5 17.6 18 17.7 17 16.6 16.1 16 16.4 16.2 16.9 15.9 15.5 15.3 15.8 16.3 18.9 18.6 17.6 16.9 16.5 16.7 16.4 15.5 13.5 11.8 10.5 11.2 16.2 16.1 15.9 15.7 15.7 17.1 17.6 14.9 12.7 11.4 10.6 10 9.8 9.7 9.6 9.4 9.2 10.9 10.8 9.7 8.8 8.6 8.8 8.6 7.8 7.5 7.1 6.8 6.5 6.3 6 5.6 5.4 5.1 4.6 4.6 4.2 3.8 3.8 3.8 3.8 3.3 3.9 3 3.1 3.4 3.5 3.3 3.3 4.5 6 9.3 12.2 14.4 12.9 11.7 3.6 2.3 2.7 3.1 4.3 5.6 5.6 5.4 5.2 5.2 5.2 5.3 6 8.2 9.3 9.5 8.7 8.4 8.7 7.8 6.3 5.7 5.7 5.7 4.4 3.3 3.5 2.7 2 1.8 0.5 0.9 3 10 12.3 11.5 12.9 15.9 14.8 13.3 12.6 12.1 13.4 13.6 13.4 13.2 12.2 11.2 10.4 9.7 8.7 7.8 8.3 8.4 5.3 3.7 3.1 3 2.8 2.7 6.4 10.7 12 12.3 11.5 10.6 12.1
11.9 11.6 11.4 11.2 10.7 10.1 9.5 10.1 11.6 13.5 11.1 13.5 21.2 23 23.1 23.1 22.3 21.1 17.8 15.2 12.8 7.4 7.4 7.4 7.4 10.1 11.5 12.2 11.7 11.8 11.3 11 10.7 10.3 9.8 9.8 9.2 9 8.8 9.2 9 10.1 11.2 12.2 13.2 13.8 14.8 16.1 17.2 18.3 19.1 19.3 19.2 18.5 18.1 18.6 19 20.3 20 20.4 19.5 18.9 18.5 17.8 18.5 20.3 19.4 17.7 16.7 15.9 15.9 15.7 15.1 14 12.3 10.5 11.2 12.1 12.3 12.6 13 14.5 15.3 16.2 14.6 11.7 10.8 10.5 10.2 9.9 9.7 9.6 9.6 11.7 14 13.1 12.9 12 11.1 10.5 9.7 8.8 8.7 8.2 7.8 7.4 7 6.7 6.3 6 5.5 5 5.2 5.3 4 3.9 3.9 4 5.6 5.4 3.9 3.7 3.7 3.8 4.1 5.2 6.6 9.7 13.1 14.7 14.2 11.2 4.3 2.6 3 3.3 3.4 4.4 5.3 5.3 5.5 5.7 5.6 5.8 6.3 6.5 8.1 8.8 9.3 9.3 9.4 9.7 7.9 6.3 6.4 6.5 5.8 4.6 3.6 2.8 2 1.2 1.5 1.2 1.2 4.2 16 20 18.5 15.6 16.8 16.6 14.3 14.3 14.3 14.5 14.6 14.2 13.8 12.8 11.8 10.9 10.3 9.7 8.9 8.5 8 4 3.6 3.3 3 2.8 2.7 5.5 9.6 12.9 13.3 15 17.6 20.2
12.9 12.7 12.4 11.6 10.8 10.2 10.3 11.1 12.5 14.3 16 17.6 23.7 23.3 23.5 22.6 21.8 20.3 19 16.7 10.5 7.4 7.4 7.4 7.4 10.1 11.4 9.8 12.2 12.4 12 11.6 11.1 10.5 10.4 10.5 9.9 9.3 9.4 9.9 9.5 9.7 11.1 12.5 13.3 13.9 15.1 16.4 17.6 18.7 19.8 20.3 20.6 20.1 20.6 22.6 23.6 24.9 24.5 23.7 23.3 22.9 21.8 19.9 20.6 21.6 20 17.9 17 16.2 15.4 14.8 14.1 13.5 12.4 11.4 11.3 12 10.4 10.7 13 13.5 14 15 13.3 11.4 11.1 10.8 10.5 10.2 9.8 10.4 12.2 15.6 17.1 17.6 18.4 17.5 15.7 15.7 16.6 14 9.9 9.4 9 8.2 7.2 7 6.3 6.1 5.9 5.4 4.9 4.6 4.3 4.2 4.1 5.8 8.1 6.3 5.1 5.1 5.1 5.8 6.5 8.2 9.8 13.3 14.1 14 11.6 6.3 3.9 2.6 2.6 2.6 2.6 4.2 5.1 5.4 5.7 6 6.3 7.3 9.4 9.8 10.5 10.8 11.9 10.8 10.6 9.9 8.4 7.2 7.3 6.9 5.8 5 3.7 2.9 2.1 1.3 1.4 1.5 1.5 3 12.5 15 13.5 13.3 10.9 13.5 13.1 14.7 15.6 15 14 13.1 13.8 13.5 12.4 11.5 10.9 10.2 9.6 8.6 6.1 6.1 4.8 3.6 2.9 2.6 2.8 5.2 7.6 11.1 14.6 17.5 21.5 21.2
13.7 13.8 13.5 12.3 11.4 11 11.2 11.9 13.2 14.9 16.9 19.3 22.1 23 22.8 22 22 20.2 18.6 16.3 9.4 7.4 7.4 7.4 9.1 10.7 11.4 13 12.1 12.8 12.5 11.8 11.3 11.1 11.1 11.2 10.9 10.3 10 10.5 11.6 11.3 12.1 12.4 12.7 13.5 14.6 15.9 17.2 18.5 19.9 20.9 21.4 22.1 22.4 24.2 29.2 30.8 30.4 29.9 29 28.5 26.7 23.8 24.8 23.3 20.4 18.3 17.4 16.6 15.8 15.2 15 14 13.5 13.3 12.9 12.9 13.3 15.3 15 15.2 14.7 14.8 13.3 11.6 11.3 11 10.8 10.5 10.1 12.1 16.3 23.6 25.1 26 24.9 24.6 23.1 25.3 25.7 21.6 13.8 9.1 8.1 7.3 7.6 7.2 6.5 5.9 5.8 5.8 6 5.3 4.6 4.5 4.4 6.7 7.8 6.8 6.6 6.9 7.5 8.1 11.4 11.7 12.6 14.9 14.4 12.9 9.5 6.8 4.4 2.4 2.6 2.7 4.5 5 5.2 5.9 6.2 6.5 6.8 7.2 9.2 10.1 13.6 13 12 12.1 11.6 10.6 9.1 8.1 8.1 6.9 6.3 5.2 3.8 2.9 2.1 1.3 1.5 1.5 1.6 2.7 5.3 8.6 8.6 9.6 10.6 11.4 12.1 14.6 15.5 14.5 13.6 12.9 13.6 14.1 13 12.1 11.4 10.8 10.2 8.1 7.8 7.6 6.3 5.1 3.9 2.7 2.9 5.3 7 9.4 12.9 17.3 22.5 19.5
14.6 14.7 14.2 13 12.3 12 12.3 12.5 13.8 15 16.1 17.1 19.2 20.8 21.7 21.9 22.1 20.3 18.6 17.3 15.4 7.4 7.4 9.9 10.6 11.2 12.2 12.6 13.3 12.7 13 12.1 11.7 11.8 12 11.5 11.2 10.9 10.7 11.5 13.1 13.1 11.5 11.8 12.1 13.1 14.2 15.4 16.7 18 19.4 20.7 21.7 22.6 23.6 25.8 30.2 32.9 33.7 34.1 34.2 33.3 28.4 26.8 26.8 23.9 21.4 19.5 17.8 17 16.3 15.9 15.9 14.9 13.9 13 13.8 16.7 17.8 17.9 17.5 17.3 16.1 15.9 17.1 14 13.3 12.6 12 11.3 11.2 13.2 18.7 25.6 33 33.6 32.4 30.6 29.3 29.5 29.9 24.7 15.3 8.1 7.5 7.8 8 7.3 7.1 6.5 7.5 8 7 6.5 5.2 4.9 4.8 8.7 8.9 7.6 7.9 8.9 10.7 14.4 16.6 16.1 15.6 15.5 13.6 11.3 8.8 6.4 4.4 2.6 2.4 2.4 5 5.4 5.5 6.3 6.7 6.7 6.9 7.5 8.6 10.5 13.3 12.8 12.1 12.2 12.3 11.2 9.7 9 8.2 7.5 6.9 5.3 3.8 3 2.2 1.8 1.5 1.5 1.7 2.3 3.4 4.8 5.9 7.3 8.6 9.7 10.5 14.4 15.7 14.8 14 13.1 13.2 14.4 14.1 12.2 10.2 9.4 8 9.1 9.2 9 7.8 6.5 5.3 3.6 2.8 5.4 6.9 8.8 11.2 15.7 20.2 18
16.1 16.1 14.7 13.9 13.3 13.1 13.3 13.4 14.4 14.6 15.6 16.3 17.1 18.2 20.4 21.8 22.2 20.5 19.6 19 18.2 15.2 12.8 14.1 11.1 11.7 13.2 14.1 14.4 13.4 12.5 11.8 12.6 12.8 12.3 11.8 11.5 11.2 11.5 12.8 14.9 13.8 12.4 11.5 11.7 12.7 13.9 15 16.2 17.5 18.9 20.2 21.5 23 24.9 26.7 29.4 33.3 33.8 34.5 35.2 35.2 32.6 30.6 27.7 24.9 22.6 20.7 19 17.4 16.8 16.7 16.8 15.8 14.8 13.8 12 14.6 17.8 20.1 19.5 19 18.9 22.1 22.2 16.5 15.1 13.7 12.3 11.6 11.8 13.4 16.8 20.5 25.3 31 29.6 29.7 30.8 28.4 24.6 18.8 11.7 7.7 8 8.2 8.5 7.4 7.7 9.6 12.9 11.8 9.4 7 5.4 5.4 5.4 6.4 7.1 6.6 7.1 9 9.1 16.6 15.9 14.7 15.1 14.5 12.1 9.7 7.3 6.4 5.3 2.6 2.4 3.9 5.1 5.4 5.5 6.5 6.9 6.6 7.4 8.2 9.3 10.9 13.1 12.7 12.1 12.3 12.5 11.8 10.4 9.4 8.8 8.1 7.1 5.4 3.9 3.1 2.4 1.8 1.6 1.6 1.9 2.6 3.3 4.6 4.9 5.3 6.6 7.7 9.2 12 14.3 15.1 14.4 13.5 12.9 14.8 15 12.8 10.7 8.5 9.4 10 10 9.9 8.9 7.4 5.4 3.8 3.4 4.5 6.3 8.4 10.7 13.6 16.6 17.3
18 16.4 14.9 14.4 14.1 14.1 14.3 14.4 14.4 14.8 15.6 16.7 17.7 18.4 19.4 21.3 22.5 21.9 21.2 21.1 21 20.6 19.5 17.5 12.4 12.9 14 17.2 17.4 14.5 14.1 13.6 13.5 13.1 12.6 12.1 11.8 11.8 12.7 13.7 15.1 13.6 12.6 11.9 11.6 12.6 13.7 14.8 15.8 17.1 18.5 19.9 21.1 22.3 24.3 26.1 29 31.8 34.2 35.2 36.2 35.9 34.8 32.3 30.1 26.5 23.9 21.9 20.2 18.4 18.3 17.6 17.7 16.7 15.6 14.4 13.6 14.3 18.9 20.8 20.4 20 20.3 20.6 22.5 15.2 14 13.2 12.5 12.8 13 13.6 15.9 17.8 19.8 21 21.9 23.8 25 22.6 19 13.4 10.5 8.1 8.4 8.7 8.5 8.1 8.5 11.9 12.5 11 9.2 7.1 5.8 5.7 5.5 5.3 5.6 6 6.6 8.7 11.7 14.7 14.4 13.7 12.7 11.1 9.6 8 6.1 5.3 4.1 2.5 2.3 2.4 5 4.9 5.3 7 7.6 7.1 8 8.9 9.9 10.8 11.5 14.4 12.1 12.2 12.4 11.5 10.2 9.9 9.4 8.8 7.2 5.5 3.9 3.1 2.5 1.9 1.8 1.7 2.2 2.9 3.5 4.4 4.7 4.9 4.8 5.7 8.8 11.3 13.2 14.3 14.2 13.7 12.8 14.1 14.3 12.7 10.5 9.4 10.2 11 10.8 10.3 9.5 7.9 6 4.3 3.8 4.1 6 8.2 10.4 12.8 15.4 17.7
18.9 17 15.2 14.8 14.6 16.2 18.7 20.6 20.6 20.5 19.1 18.2 18.8 19.5 21.2 23.4 24.9 25.4 24.9 24.4 23.1 21.9 20.5 17.4 13.8 14.6 17.6 19.7 18.7 16 15 14.3 15.9 13.4 12.9 12.4 12 12.8 13.5 14.5 14.8 13.9 13.4 12.8 12.3 13.3 14.3 15 15.8 17 18.4 19.6 20.5 21.3 23.4 25.5 27.9 30.4 32.9 35.9 37.5 37.6 35.8 32.1 30.9 27.8 24.9 22.8 21.2 19.6 19.6 20.1 19.3 17.3 15.8 14.6 13.9 14.8 19.3 21 21.3 21 20 17.6 15.9 15 14 14.4 13.6 13.8 14 14.2 13.7 14.8 16.1 16.7 18 19.6 19.3 17.8 16.2 12.5 9.2 8.5 8.8 9.1 8 7.7 10 10 9.9 8.9 7.2 7.1 6.1 5.9 5.8 5.6 5.5 6.3 6.8 9.1 9.6 11.2 11.7 12.3 9.9 9.1 8.2 6.9 5.9 4.9 3.8 2.2 1.8 2 6.3 3.7 4.4 6.9 7.6 7.5 8.4 9.3 9.4 9.7 10.8 14.3 12.7 11.9 12 11.2 10.4 10 9.7 8.9 7.3 5.7 4 3.2 2.4 2.1 1.9 1.8 2.4 2.9 4.7 7.3 7.2 6.3 5.6 6.1 8.5 10.6 12.3 13.8 13.6 13.1 12.7 12.5 12.6 12.5 10.4 10.3 11.1 11.4 11 10.5 10 8.6 6.8 5.2 4 3.9 5.7 8 10.1 12.4 15.3 17.9
20.4 18.3 17 15.7 16 19.7 19.9 21.3 22.1 22.1 22.2 20.7 21.3 22.1 23.9 25.3 26.7 27.5 27.2 26.1 24.5 23.2 21.8 20.3 20 18.7 19.2 19.6 19.3 18.7 17.4 15.7 14.5 15.4 13.3 12.7 13 13.7 14.4 15.2 15.1 14.6 14.1 13.6 13.1 13.5 14.3 15 15.7 16.8 18 18.9 19.8 21 23 25.4 27.5 29.7 32 35.2 38.4 39 37.7 33.6 32.2 29.3 25.2 23.2 22.1 20.8 22.8 24.6 21.2 19.2 17.2 15.2 15 16.1 20.1 24 23.1 22.2 20.3 18.7 17.6 17.4 18 16.5 15.7 15.2 15.5 15.5 14.3 14.2 14.7 15.7 16.5 16.9 16.8 15.4 13.6 12.8 9.2 9 9.2 8.6 8.2 8.1 10.5 9.5 7.9 6.9 6.7 7 6.5 6.3 6.3 6.4 6.2 6.1 8.3 7.7 9.3 10.9 10 9.4 8.8 8.2 7.4 5.9 6.5 5.7 2.7 2.3 1.9 2.9 6.6 1.8 5.3 7.1 7.2 7.6 8.5 9.5 10.1 11.8 11.5 14 14 12.7 11.8 10.9 10.2 9.5 8.9 7.8 6.3 4.9 3.8 3.1 2.4 2.4 2.4 2.4 2.6 3.7 5 7.4 7.9 8.1 6.9 7.6 9 10 11.5 13.2 13 12.6 12.3 11.9 11.5 11.1 10.4 10.9 11.2 11.5 11.4 10.8 10.2 9.3 7.6 6 4.3 4.1 5.4 7.5 9.6 12.5 16.7 17.9
21.5 20.3 19 17.6 16.5 19.6 20.8 22 23.3 23.8 24 23.6 23.8 25.3 26.1 27 28.5 29.6 29.7 28.1 26.1 24.5 23.1 21.5 20.4 18 18.3 16.7 17.8 19.8 18.8 16.1 15.4 15.2 15.1 14 14.2 15.1 15.9 16.7 15.8 15.3 14.8 14.3 14.2 14.5 14.9 15.4 15.9 16.6 17.9 19.1 20.4 21.6 23.2 25.5 27.5 29.6 31.9 34.6 38.3 40.6 38.2 35.3 32.2 30 26.5 23.9 22.1 22.2 24.7 24.6 21.1 19.4 17.7 15.6 15.9 17.4 21.8 26.3 24.9 23.5 23.1 22.3 19.9 21.8 22.8 18.8 16.5 16.6 17.7 16.8 15.2 13.9 13 15.3 16.5 13.9 16 14.2 11 10.7 10 9.2 9.4 9.1 8.7 8.6 9.7 8.6 7.5 7 6.9 6.9 6.9 7 7.1 7.2 6.9 6.7 7.3 8.2 9 10.6 9.6 9.3 8.3 7.2 6 4.8 4 3.1 2.8 2.4 2.1 2 2.3 2.5 4.3 6 7.3 7.6 8.5 9.4 13.1 13.5 13.4 12.9 13.5 14 12.9 11.1 9.3 8.7 8.1 6.8 5.2 3.7 3.5 3 2.5 2.5 2.6 2.7 3.6 4.6 5.2 6.2 9.8 9.3 7.7 8.6 9.2 10.1 11.1 12.9 12.9 12.4 11.8 11.5 11.1 10.7 11 11.1 11.2 11.5 11.7 11.1 10.5 9.1 7.2 5.3 4.6 4.4 5 7 9.3 12.5 18.4 20.2
22 20.7 19.7 18.6 17.6 18.6 20.2 22.2 24.1 25.5 25.8 26.1 26.5 27.2 27.9 28.7 30.2 32.9 32.1 30.2 28.1 25.8 24.6 22.6 20.6 16.2 16.2 16.2 16.2 19.9 18 15.9 15.4 15.3 15 15.3 15.4 16 16.4 16.8 16.8 16 15.4 14.9 15.2 15.5 15.9 16.2 16.8 17.6 18.5 19.8 21 22.3 23.5 25.6 27.6 29.6 31.9 34.5 38.3 41.6 38.9 37.3 36 30.4 29.5 25.3 24.2 24.4 25.8 25.2 22 20.4 18.6 15.4 17 18.8 22.1 26.2 25.6 24.8 25 25.2 24.5 25.2 23.1 19.3 17.1 17.5 18.8 16.4 15.1 14.2 12.3 12.1 12.7 11.3 11.3 10.2 9.6 9.3 9.5 10.6 11.3 10.7 10.3 9.5 9.4 9.3 8.8 8.3 8.9 9.5 9.3 8.4 8.3 8.1 8.9 8.2 9.2 9.9 9.8 10.3 9.8 9.5 8.8 8 7.4 6.2 5.1 2.8 2.6 2.3 2 2 2.3 2.3 2.5 3.3 5 7.3 7.3 9 14 13.7 13.2 12.5 13.1 13.6 13.1 11.4 9.4 7.8 7.2 5.9 4 3.3 3.1 2.9 2.7 2.7 2.6 3.1 5.1 5.4 6.1 7 9.2 9.9 9 9.2 9.8 10.5 11.2 12.7 13.2 12.7 12.1 11.6 11.1 11.8 11.9 11.6 11.7 11.8 11.8 11 9.7 8.4 6.7 5.4 4.9 4.7 5.3 6.8 10.2 15.7 21.4 22.2
22.7 21.2 19.9 18.8 18.9 19.7 20.8 22.8 24.8 26.8 27 27.4 28.1 28.9 29.6 30.5 32.7 34.6 33.7 31.5 29.3 26.4 24.9 22.9 17.6 16.2 16.2 16.2 16.2 16.8 16.3 16.7 14.9 15.3 15 15.6 15.6 15.9 16.3 17 17.3 16.8 16.1 16 16.5 17 17.4 17.6 17.8 18.7 19.5 20.4 21.7 22.9 24.3 25.7 27.8 29.8 31.9 34.1 37.7 41.9 40.8 39.2 38.2 33.8 30.1 28.6 27.3 31.5 32 26.9 22.9 20.9 18.9 15.8 19.1 25.2 23.1 25.6 25.3 25 25.3 25.9 25.2 25.5 21.2 18 16.6 15.8 16.2 14.5 14.2 13.3 12.6 12.2 11.8 11.2 11.1 10.1 10 10.8 13.2 14.5 13.3 14.1 13.9 12.4 12.1 11.3 10.3 10.4 10.9 10.8 10.6 10.2 10.5 10.6 9.9 10.2 10.3 10.6 10.4 10.2 9.9 9.5 8.9 8.2 8 7.5 5.2 2.8 2.2 2.3 2.5 2.8 4.3 5.7 4.2 3.1 2.7 6.2 6.8 8.7 13.9 13.4 13.1 12.8 12.7 13.1 12.9 11.6 9.7 7.7 6.3 4.9 4.2 3.7 3.6 3.3 3.1 2.7 2.7 4.6 7.8 6.8 7.5 9.1 8.5 9 9.3 9.8 10.4 11.1 12 12.5 13.5 13 12.5 12.1 11.8 12.8 12.7 12.3 12.2 12 12.3 10.2 8.9 7.6 6 5 5.2 5.1 5.9 7.8 9.9 18.9 23.3 23.4
23.4 21.8 20.4 19.4 20.8 22.1 23.4 24.8 26.2 28 28.9 29.1 29.8 30.7 31.7 37.5 38.7 37 35.2 32.7 29.8 26.9 25.2 24.1 16.2 16.2 16.2 16.2 16.7 18.6 17.7 10.3 -1.7 7.9 15.5 15.4 17 15.6 16.5 17.4 17.6 18.2 17.6 17.6 18.2 18.8 19.1 19 19 19.6 20.4 21.3 22.3 23.7 25.3 26.6 28 30 32.3 34.5 38.4 42.1 41.8 40.7 39.8 37.3 31.9 32 34.2 35.6 34.5 30 24.2 21.8 19.7 17 21.2 26.2 27.1 26.7 25.7 25.3 25.3 25.3 24 21.5 18.9 16.8 15.9 16.4 17 16.5 16.3 16.7 15.8 13.9 12.3 12.3 12.5 13.2 11.8 12.5 15 17.6 16.5 16.2 16.4 16.3 16 14.4 12.8 12.4 11.8 11.1 12.2 11.8 11.6 11.4 11.8 10.4 10.4 10.4 10.2 8.8 9.6 9.6 8.8 8.1 7.9 6.7 3.6 2.4 2.6 3.2 3.8 5.1 7.3 8.9 7.7 5.1 3.5 4.8 6.7 9.6 11.1 13.3 13.4 13 12.6 12.5 12.4 11.1 9.2 7.5 5.8 5 5.8 4.5 4.3 4 3.8 3.6 3 6.9 10.7 8.7 9.1 10.3 10.3 10 10.5 11.1 11.2 12.1 13.3 13.6 14.2 13.4 13 12.6 12.7 13.4 13.4 13.1 12.5 12.6 11.8 9.9 8.1 6.6 6 5.5 6 6.5 7.2 8.3 9.7 13.4 18.8 23.5
24 22.6 21.3 20.6 23.1 24.8 26.1 27.6 29.3 31.4 31.5 32 31.8 32.8 35.7 41.1 41 39.4 36.5 32.8 29.9 27.3 28.4 24.9 20.2 16.2 16.2 16.2 19.1 19.1 14.9 0.9 -3.4 -3.4 3 15.2 16.6 16.6 17.2 17.8 19.1 19.6 20.1 21.3 19.9 20.5 20.5 20.3 20.2 20.7 21.4 22.2 23.2 24.7 26.3 27.9 29 30.8 32.9 35.1 40.2 42.5 42.7 41.5 40.2 38 36.9 36.3 31.3 36.8 34.1 30.7 24.1 22.2 20 16.8 21.9 27.9 26.6 25.6 25.5 25.7 25.2 23.9 22.2 20.5 17.9 17.3 16.6 17.5 19.6 19.5 20.1 20.3 18.9 16.6 12.9 15.4 16.4 17.3 17.8 17.7 18.7 19.3 21.1 18.8 16.6 16.2 17.5 15.7 12.8 11.1 8.9 9.7 14.2 13.5 12.9 11 10 10.7 10.6 10.1 9.7 5 7.8 7.3 8.3 8 7.9 5.7 2.7 2.6 2.6 3.3 4.6 6.2 8.4 10.8 10.4 6.6 5.3 5.6 7.3 10.2 10.6 11.8 12.3 13.4 12.5 12.1 12 10.6 8.6 6.9 5.9 6 7.4 5.9 4.9 4.6 4.4 4.1 4 7.2 9 9.1 10.4 13.2 13.8 12.2 12.6 13.1 12.4 13.5 15.3 19.6 16.3 14.6 13.5 13.2 13.6 14 14.1 13.9 13.3 12.2 10.7 9.1 7.5 6.4 5.5 4.8 7.4 8.2 8.9 10.1 12.5 18.6 23 23.9
25 24.2 23 22.6 24.8 26.7 27.6 29.4 32.9 37.3 39.8 36.4 33.9 35.9 38 41.6 40.9 39.5 37.6 33.1 30.3 27.7 26.9 24.3 24.4 16.2 16.2 16.2 19.8 19.8 0.7 3 0.8 1.3 6.4 11.3 16 17.1 17.7 21.9 20.2 20.4 21.8 23.6 22.5 21.9 21.8 21.7 21.6 21.8 22.5 23.3 25.1 26.8 28.2 30.1 32.4 32.5 34.1 35.7 40.5 44 42.9 41.9 40.8 39.5 37.9 36.7 36.8 29.7 31.2 28.3 24.2 21.8 19.8 19.3 22.5 24.9 26 24.7 23.8 24.2 23.9 22.9 21.8 20.4 19.2 18.2 17.7 19.4 22.1 24.5 21.8 20.5 19.2 18.4 17.7 17.9 23.4 21.1 21 19.8 18.7 17.9 18.5 16.4 13.9 11.9 12 9.6 8.7 8.2 7.3 7.8 9.6 8.6 8.5 6.7 5.8 5.9 8.6 5.5 5.1 4.6 4.3 3.8 4.4 5 4.5 3.4 2.9 2.4 2.6 3.4 5.9 8.5 10.8 13.4 12.5 9.9 6.8 6.4 7.8 9.8 10.3 11.4 11.8 12.2 12.3 11.9 11.6 10.2 8.1 6.3 7 8.5 8.9 6.4 4.5 4 4 4 3.7 5.7 6.6 8.4 10.6 17.8 18.2 14.7 14.4 16.7 20.2 19.8 16.9 17.6 15.9 15 14.1 13.9 14.2 15 15.5 14 13.3 11.8 11.1 9.5 8 7.4 5.6 6.8 8.3 9.9 10.6 11.8 13.6 18.4 24.2 25.6
25.9 25.1 24.3 24.2 25.6 28.3 29.7 32 38.1 47.7 52.6 43.8 38.2 39.4 41 41.9 41.1 39.6 37.8 34.4 31.4 28.5 26.4 23.5 22.1 21 18.1 20.1 20.7 20.5 18.8 13.9 6.7 2.1 6.4 11.8 16.5 17.4 18.6 18.9 20.1 22.6 23.6 23.6 22.3 22.3 23.1 23.7 23.3 22.8 23.3 23.8 26.4 29 30.4 33.6 35.2 35.2 36.1 36.8 39.2 42.5 41.5 40.8 40 39.2 38.5 37.2 36.5 32.6 28.7 26.2 22.4 21 19.9 18.4 21.5 22.3 24.9 24.6 23.8 22.8 22.6 21.7 22.1 22.1 20.9 18.8 18.6 23.9 26.3 26.2 24 23.5 19.6 18 16 19.9 21.3 20.2 18.8 16.8 16.3 15.8 16 15.2 13 10.8 9 7.4 8.1 8.1 7.7 7 6.8 6.4 5.9 5.5 5.7 5.9 5.7 5.2 4.7 4.7 4.2 3.8 4.5 4.2 4.4 4.4 3.8 3 2.8 3.9 10.7 11.2 12.9 15.6 13.4 10.8 8.3 8.1 8.4 9.5 10.2 10.9 11.2 11.4 11.5 11.5 11.2 9.8 7.7 6.9 8.4 8.9 10.2 5.9 4.5 3.8 3.4 3.7 4 5.3 6 6.8 13.3 18.2 19.7 17.4 16.7 20.6 23.8 21 18 16.6 16 16.1 16 16.8 17.3 18.2 16.8 14 12.6 11.2 10.5 10 8.8 8.3 6.5 8.1 10 11.5 12.3 12.5 15.2 17.8 21.3 24.3
26.6 25.5 24.5 23.9 25 28.1 31.3 35.3 42 49.6 53.2 48 45.9 44.8 44.1 42.4 41.3 39.5 37.7 35 32.3 29.2 26.6 23.2 22.6 22.7 20.9 21.8 21.1 20.2 19.9 19.9 18.8 6 2 6.8 17.9 18.8 19.7 20.3 22.2 24.3 24.6 23.8 23.1 23.3 24 24.6 25.1 24.2 23.7 24.7 27.4 30.3 33.8 36.5 38 37.9 37.7 38 39.5 40.7 40 39.4 38.8 37.3 36.1 35.7 32.5 29.5 27.9 26.1 25.4 23.7 20.2 22.6 26.9 28 28.2 26.9 25.6 24.2 22.9 21.9 22.2 22.5 19.6 20.2 21.5 25.2 26.3 26.1 25.6 26.4 22.7 18.1 15.6 17.6 18 17.4 16.6 15.3 14.3 13.7 14.1 13.5 12.2 9.7 7.7 9.3 9.7 9.9 9.4 8.5 7.9 7.6 6.9 7.3 7.5 7.4 7.8 7.1 9.6 9.2 8 8.1 4.5 4.9 5.2 6.2 4.6 3.9 3.8 3.8 7.5 10.2 13.5 13.6 12.4 10.7 10.2 9.9 9.3 9.7 10.4 10.7 10.8 11 11 10.9 10.8 10.2 9.2 8.2 8.3 8.9 9.2 5.4 4.8 4.2 3.9 4.1 4.5 5.4 6.1 7.6 12.8 16.8 15.3 18.9 17.8 20.4 24.8 24.6 19.8 18 18.3 19.9 20.1 20.9 21.5 20.8 16.8 13.9 12 10.7 9.8 9.5 10 10.9 9.1 9.6 11.7 13.8 15.7 21 21.1 17.8 22.3 23.8
28 27.4 26.3 25.6 25.5 28.5 31.4 34.7 40.2 46.4 50.7 50.6 51.3 51 48.6 43.5 40 37.9 36 34.4 32.1 29.2 26.5 23.8 23.7 22.9 23.1 23.6 22.1 22.3 22.4 22.9 20.8 18.6 10.4 12.5 18.8 20.1 21 22.8 24.3 25.7 25.2 24.3 26.1 24.2 24.8 25.3 25.7 26 24.9 25.7 29.6 33.4 36.8 39.6 40.1 40 39.7 39.4 38.5 39.5 38.8 38.2 37.6 35.8 33.8 31.9 29.2 28.5 27.6 26.7 27.4 24.5 19.7 24.2 32.2 32.6 31.9 30.4 28.4 26.7 25.5 23.2 21.4 20.7 21.3 22.3 23.1 24.9 25.8 25.5 26.4 26.8 23.4 20 16.5 17.8 18.6 18.1 18.3 16.3 15.5 13.7 13.4 12 12.3 9.6 9.7 10.9 11.1 11.4 11.1 10.2 9.3 8.6 8.1 9.1 9.7 10 10.3 10.5 10.6 9.9 9.4 8.4 4.7 5 7.2 8.1 7.1 4.5 4.2 3.8 4.6 8.9 12.5 13.6 13.4 12.1 11.5 10.8 10.1 10.2 10.7 10.8 10.8 11 11 10.9 10.8 11.1 10.1 9.2 8.8 8.1 8.1 5.9 5.2 4.9 4.5 4.4 4.9 5.6 6.2 7.6 9.2 9.8 10.3 17.2 19.4 21.2 26 25.2 22 19.8 20.9 22.8 25.9 25.6 23.5 21.6 16.8 13.9 11.9 10.5 9.7 10.1 11.3 18.4 15 11.4 14.6 18.1 18.4 20.9 22.5 22.9 22.6 23.2
28.9 28.4 27.8 27 26.3 28.4 30.5 33.7 40.5 47.8 50.4 53.3 55.5 57.6 54.6 46.2 39.1 35.1 33.7 32.7 30.4 27.5 26.6 25.3 24.8 23.3 23.4 22.1 23.1 23.9 24.8 25.3 23.1 20.9 19.4 19.7 20.8 21 21.7 23.4 24.7 25.8 25.9 25.2 24.7 25.8 26.2 26.1 27.2 28.3 27.9 28.8 32.2 36.8 40 40.9 40.7 40.8 40.6 39.4 38.5 38.8 37.7 37 36.4 34.4 32.1 30.1 30 29 28.9 28.7 26.9 25.6 20 23.7 31.5 35.5 34.7 32.9 31.2 30 28.1 25.5 22.3 21.2 22 22.7 23.4 24 24.4 24.8 24.5 23.5 20.8 18.6 17.4 19 19.6 19.8 20.1 18.6 16.8 14.5 13.9 12.2 11.8 10.1 11.3 12.1 12.6 12.8 12.8 11.9 11.1 10.2 9.6 11 11.8 11.7 11.7 11.1 10.5 9.6 8.1 6.1 5.3 7.7 8.3 8.8 8.5 4.5 4.1 3.6 3.5 5.6 12.3 12.2 14.2 12.4 12.3 11.6 10.9 10.7 10.9 10.9 10.9 10.9 10.9 10.9 10.8 11.1 10.9 10.2 9.8 9.3 8.8 7.6 6.5 5.5 5.1 5.9 5.7 5.9 6.6 7.1 8.4 9.9 10.9 13.6 17.7 21.3 28.2 26.4 23.6 22.6 24 25.4 26.6 26.4 24.8 21.9 17.1 14.8 13.3 11.7 10.2 11.1 13.4 17.2 17.6 12.1 15.2 17.5 18.8 20.8 22.8 23.1 21.8 22.7
30.1 29.3 28.8 28.2 28.5 31.2 33.1 33.9 37.8 42 51.3 54.8 59.1 61.6 58.2 47.3 38.4 34.8 32.6 30.8 28.8 27 27.2 27.4 26.1 24.3 24.1 23.8 24.1 24.4 26.4 26.3 25.4 22.2 22.1 21.7 21.1 23 22.8 23.8 25 26.2 27 26.4 26.6 27.5 27.1 28.1 28.7 30.4 30.9 31.8 33.5 36.7 41.7 41.9 41.6 41.5 41 39.8 38.6 37.7 36.9 36 35.2 33.2 31.9 31 30.5 30.3 30.1 29.8 30.2 25.9 20.4 24.8 31.2 36.2 36.9 33.8 30.2 28.9 27.7 26.6 24.4 22.5 22.6 22.7 23.5 24.1 24.5 24.8 23.2 21.4 20.7 20.4 18.5 19.5 20 20.6 22.6 20.5 17.5 15.6 14.3 12.5 11.2 11 12.4 13.3 14.1 14.3 14.3 13.6 12.8 11.9 10.8 11.9 11.5 11.1 11.2 10 9.2 9 7.9 6.1 6.1 11.9 11 9.4 8.5 5.1 3.5 3.6 4 4.1 3.9 8.2 11.2 11.4 12.3 12.4 11.7 11.3 11.1 11 11.1 11.3 11.4 11.5 11.4 11.6 11.5 11.1 10.7 9.9 10 10.1 9.9 8.9 6.6 5.4 5.4 6.4 7.5 8 9.4 10.9 13.3 13.9 15.8 18.3 24.3 27.4 24.6 24.3 24 26.4 27.9 27 24.6 21.6 17.7 16.1 14.2 12.3 10.8 9.7 10.8 16 18.2 15.4 15.4 16.4 17.8 20.4 23 22.4 21.4 21.9
31.5 31.1 30.7 30.2 31.6 34.2 37.6 37.4 38.3 39 48.9 54.7 60.7 62.5 55.3 43.6 37 34.9 32.4 30 28.3 29 29.8 30 28.1 26.1 25.4 24.3 24.5 24.4 27 29.2 26.8 24.2 26.8 24.6 26.9 25.4 25.3 25.1 25.6 26.6 27.8 27.4 28.3 28.2 28.2 28.9 30.3 30.8 32.4 32.8 34.7 35.6 39.7 41.4 41.7 42 41.4 40.2 39 37.8 36.7 35.4 34.9 34.1 33.9 33.1 32.3 31.1 30.6 29.1 28.6 24.9 24.9 26.4 29.8 33.2 33.8 32.5 30.4 27.8 26.2 25.4 24 23.9 23.2 23.1 23.5 24.2 24.6 24.6 22.6 20.9 20.8 20 19.7 19.6 20.8 22.5 23.8 23 20.4 17.7 14.6 12.7 11.7 11.9 13.1 14.4 14.8 15.2 15.7 15.1 14 13 12.3 11.9 11.4 11 10.6 10.5 10.8 10.4 8.4 8.4 10.8 13.1 12.8 10.7 8.5 5.3 4.5 4.5 4.3 4.3 4.2 6.6 9.5 10.9 12 13.2 14 13.1 12.9 12.6 12.4 12.7 12.7 12.7 12.6 12.7 13.2 13.7 13.2 11.9 12.8 14.3 15.1 12 8.1 5.9 5.9 7 8 9 10.6 11.3 15.4 16.6 16.8 17.7 24.4 26.5 25.4 25.1 26.5 28.3 28.7 27.3 24.8 20.2 17.6 16.2 14.3 12.5 11.4 10.4 11.2 15 14.9 15 15.4 16.4 17.6 19 20.6 20.6 20.5 21.4
30.7 31.7 32.8 31.9 31.9 34.8 39 41 43.7 48.4 49.6 52.7 59.5 60.5 49.2 39.1 36.3 33.8 31.5 29.6 30.3 30.9 31.4 30.7 29.2 27.7 26.4 25.6 24.8 25.4 27.1 29.2 27.7 25.4 23 25 27.3 28.6 27.7 27.4 27.8 28.3 28.8 29.1 29.5 29.3 29.3 29.7 31.3 32.2 35.7 35 34.9 36.7 39 40.6 41.6 41.6 40.3 39.6 38.9 37.7 37 36.3 35.5 35.4 35.3 35.1 34.2 33.6 29 28.7 27.6 24.9 28.4 31 31.6 32.3 31.7 31.2 30.4 29.6 28.5 27.1 25.8 25.6 24.7 23.7 23.6 24.3 24.4 24.4 23.1 21.1 20.5 20.2 19.9 20.2 21.4 22.7 24 22.5 19.6 16.2 14.8 13.9 13.5 13.1 13.8 15.1 15.2 15.5 15.8 15.2 14.6 13.9 13.2 12.7 12.3 11.9 11.5 11.8 11.1 10.7 9.4 12 12.7 14.9 14 11.5 9.5 5.3 4.3 4.2 4.1 4.2 4.4 5.8 8.8 10.9 12.6 14 14.9 14.9 14.6 14.2 14 14 13.9 13.9 13.8 13.8 14.3 15.7 13.9 13.6 14.7 21.3 19.2 11.7 9.5 7.1 6 6.9 8 9.8 15 16 19.1 22.9 21.6 21.5 23.4 25.1 25.6 27.3 28.2 29 30 29.3 24.2 19.3 17.1 15.9 14.5 13.1 12.6 12 12.9 12.4 12.7 13.9 15.2 17.1 18.9 19.4 20 20.3 21 22.6
29.9 32 34.1 33.5 33.9 35.2 37.5 40.4 45.1 48.5 50.4 50.1 51.6 46.8 40.9 37.6 35.4 33.3 31.2 31.6 32 31.9 32.1 32.1 30.7 29.2 28.1 27.2 26.2 26.9 28.6 28.6 27.1 25.6 23.8 25 27 28.4 28.5 29.9 30.5 31.2 31.9 31.2 30.5 30.6 30.6 30.5 32.2 34.6 39 40.1 38.8 39.5 33.6 40.1 41.4 40.7 39.8 39.3 39.2 37.8 37 38.2 37.5 36.9 36.6 36.5 36.2 31.8 29 28.2 27.6 32.2 33.7 32.7 32.6 32.6 32.4 32.2 31.5 30.7 29.9 29.4 29 27.2 25.7 24.1 24.2 24.9 25.1 25 23.9 21.8 20.8 20.9 21.4 22 22.9 23.8 24.8 23 19.6 18 16.7 15.9 15.1 14.4 15.1 15.9 15.6 15.7 15.5 14.9 14.5 14.1 13.6 13.6 13 12.7 12.6 11.9 11.1 9.8 11.5 14 14.2 16.5 15.4 12.4 10.1 7 5.2 4.8 4.2 4.4 4.7 6.3 9.3 11.8 13.3 14.7 15.4 15.4 15.3 14.9 14.5 14 13.7 13.9 14.1 14.2 15 15.7 15.7 15 16.6 19.8 16.8 12.6 10.3 7.8 6.8 7.1 8.4 10.5 15.9 18.5 24.1 23.5 21.8 23.1 28.2 28.7 28.8 27.8 29.1 29.6 31.5 31.9 23.7 18.7 16.6 15.2 14.5 14.7 14.1 13.5 13.7 12.4 12.1 12.5 14.4 17.6 20.2 21.1 21.5 21.7 23.2 24.6
30.1 32.3 34.5 34.1 35.2 36.4 38.1 40.5 44.8 49.1 50.8 49.9 46.7 41.5 38.1 36.3 35 33 32.9 32.8 32.7 32.6 32.7 32.7 32.4 31 30 28.4 27.4 28.4 29.6 28 26.7 25.9 25.6 27 27.5 28.7 30.4 31.5 32.5 33.8 35.1 34.7 32.8 31.9 31.9 31.8 33.1 36.6 40.8 42 40.7 41.6 41.7 41.3 40.9 38.9 36.2 39.9 41 38.7 37.8 37 38.8 39.3 38.8 37.7 34.5 30.7 29.8 29.3 28.9 33.5 33.2 32.9 32.7 32.7 32.8 32.9 32.6 31.8 31 30.1 28.6 26.8 25.2 24.3 24.9 26.1 26.8 26.4 24.9 22.3 22.4 23.8 24.7 25.6 26.3 27 27.9 26.5 22.5 20.4 18.4 16.8 16.1 15.4 16.3 16.7 16.4 16 15.6 15.3 14.9 14.4 13.8 13.4 13.4 13.4 12.8 12.1 10.9 10.3 13.4 15.9 16.9 17.8 16.8 13.7 10.7 7.2 5.6 5 4.5 4.3 4.2 7.2 10.4 12.4 13.9 14.9 15.6 15.6 15.6 15.4 15 14.4 13.8 13.2 13 13.3 15 15.6 15.6 15.7 19.5 21.6 22.2 14.6 11.2 8.6 7.8 8.1 8.7 9.3 12.5 16.9 19.4 18.2 19.6 23.8 28.9 30.3 28.8 28.6 29 30.2 33 30.2 22.9 17.9 15.9 15.8 15.8 15.9 15.5 15.1 14.1 13.2 12 12.7 13.5 16.7 21.1 23 23 24.4 25.7 26.8
30.3 32.2 33.3 34.3 34.8 37.6 41 41.3 44.3 48 50.4 49.7 44.7 39.7 37 35.5 34.4 33.6 33.5 33.4 33.4 33.3 33.3 33.2 33.1 32.2 30.7 29.1 28.9 29.9 29.9 29.1 28.2 27.4 28.1 30 30 30.6 31.9 32.8 33.8 35.1 37.2 38.8 35.7 34.5 33.2 33 37.6 39.4 41.9 43.7 43.2 43.4 43.5 43.2 42.8 42.8 42.6 42.2 42.1 38.7 38.5 38.8 35.1 38.4 37.1 33.7 34.8 31.6 31.5 29.1 29.2 32.8 33.2 32.9 32.7 32.6 32.7 32.9 33.1 32.4 31.2 30.1 28.4 26.2 24.9 24.2 26.5 29.7 28.6 28 26.3 25.4 25.9 27.9 29.3 29 29 28.9 28.2 27.2 24.1 20.9 19 16.6 15.8 16.4 17 17 16.7 16.4 16 15.6 15.3 14.7 14 13.4 13.1 12.3 11.4 10.5 10.4 11.4 14.3 17 18.4 18.2 17.6 16.4 10.7 5.5 5.7 5.2 4.8 5.2 6.7 9.4 12 13.6 14.5 15.2 15.9 16.1 16.1 16 15.5 14.9 14.4 13.8 13.2 15.2 17.9 18 18.8 19.5 21.3 19.1 15.6 12.6 10 8.9 9.3 9.9 9.8 9.5 12.1 15.4 16.2 16.6 20.3 22 25.6 31.5 28.2 27.5 27.3 29.8 26.3 23 19.3 17.2 17.3 17.1 17.5 17.9 18.2 17.2 15.7 14.2 12.1 13.2 14 15.5 21.8 24.3 25.5 27.1 28.7 28
29.3 30.9 31.8 31.9 33.2 36.2 40.3 41.5 44 47.9 50.3 49.7 44.4 38.2 37 36.4 35.7 35.2 34.6 34.2 34 33.9 33.9 33.7 33.2 32.4 31.4 29.9 30 29 29 30.3 29.7 28.8 31 32.2 32.4 32.4 33.4 34.2 35.8 36.4 40.1 41.7 38 37.4 35.4 38.5 39.9 41.2 42.5 44.1 45.1 45.7 45.3 45 44.8 44.4 43.9 43.6 42.7 42.6 42.2 40 39.1 38.6 35.5 31.7 32 34.1 32.8 30.8 29.7 31.7 32.5 31.3 32.3 32.6 32.8 33.5 33.4 32.2 31.2 30.3 29.4 27.3 25.4 24.7 28.8 31.3 30.1 29.5 28.7 28 27.9 29.3 29.2 28.3 28.1 27.5 26.9 24.9 23.2 21.6 19.3 15.8 15.4 17.2 17.7 17.3 17 16.7 16.3 16 15.5 14.9 14.4 13.8 12.8 11.8 10.8 11.1 11.2 11.7 14.7 17.6 19.2 19.5 19.2 16.7 7.3 4.9 5.8 5.4 5.6 6.6 9 11.2 13.4 14.8 14.9 15.6 16.3 16.7 17 16.9 16.4 15.6 15.1 14.6 14 17.7 20.4 22.2 22.9 23.7 23.1 19.2 14.2 11.9 9.5 9.3 10.6 11.9 11.8 12 12.9 13.9 15.5 18.2 25.3 29.1 28.7 29.7 27.7 26.7 25.8 26.6 24.2 20.7 19.3 18.3 18.7 18.9 19.3 19.7 20.2 19.5 17.5 14.9 12.6 13.6 14.6 17.2 21.8 24.6 26.4 28.4 29 28.9
27.8 29.7 30.2 29.9 32.9 33.4 36.5 39.7 43.7 47.8 49.7 50.4 45.3 39.7 38.1 37.4 36.8 36.3 36.4 35.5 35 34.8 34.6 33.7 33.1 32.4 31.4 30.9 29.9 29.1 29.1 29.5 30.5 31.1 32.5 33.7 34.7 34.9 35.4 35.6 37.9 40 46.6 47.8 41.2 37.8 36.2 37.1 40.3 43.5 45.3 47 47.8 47.4 46.9 46.6 46.2 45.8 45.3 44.9 44.1 43.3 42.9 42.7 41 39.9 39.8 38.2 34.9 35.8 33.9 32 30.8 30.9 29.6 29.6 30.1 31.7 33.5 34 33.7 32.8 31.9 31 30.2 28.9 27.7 27.6 28.3 29.9 31.2 30.5 29.8 29.1 29.3 29.4 28.7 28 26.3 25.7 25.3 22.8 21 19.4 15.6 15.3 16.4 18 18 17.7 17.3 17 16.6 16.2 15.8 15.5 14.9 14 12.9 11.8 10.9 11 11.2 11.6 14.3 17 18.7 19.1 18.7 17.5 8.4 5 5.6 6.5 7.2 8.6 10.6 12.7 14.8 15.1 15.4 16.1 16.8 17.2 17.5 17.8 17.5 16.6 15.6 15.2 15.3 18 20.6 23.6 26.5 27.8 28.5 22.3 16.8 11.4 9.7 9.2 10.8 13.5 14.9 15.6 16.4 16.3 16.8 19.2 25.6 34 32.6 30.6 28.6 26.8 25.7 24.5 21.9 21.1 20.2 20.2 20.3 20.8 21.5 22.1 22.7 22.1 18.8 13.6 13.4 14.6 19.8 17.4 20.4 23.4 26.9 28.8 28.8 29.7
28.4 28.9 29 29.2 30.3 29.7 33.5 38.7 43 46.6 48.9 49 46.6 40.6 38.9 38.2 37.4 37 37 37.5 36.4 36.1 36 35 34 33.2 32.7 32.2 31.7 30.5 29.5 30.2 31.2 33.2 34.3 35.4 36.7 38.4 39.2 40 39.7 44.1 48.1 47.3 42.9 39.3 37.6 37.6 38.5 44.7 48.7 48.6 46.9 48.2 47.8 47.6 47.5 47 46.6 46.2 45.2 44.2 43.3 42.5 41.6 40.1 39.3 40.1 38.3 37 35 33.6 32.6 32.3 31.8 30.9 31.1 32.6 34.2 34.3 33.8 33.3 32.9 32.2 31.2 30.1 29.7 29.7 29.2 32.3 33.1 31.5 30.8 30.5 30.6 30.3 28.7 26.8 24.9 24.6 23.7 20.8 18.2 16.5 17.5 18 17.4 18.6 18.3 18 17.5 17.1 16.6 16.2 15.8 15.7 15.1 13.9 12.8 11.7 12.1 11.6 10.7 11.3 13.4 17.3 19.8 19 17.1 16.2 7.3 5.3 5.6 6.3 7.4 9.3 11.8 14.1 15.2 15.4 15.9 16.6 17.3 17.7 18 18.3 18.6 17.5 16.5 15.9 16.6 17.1 19.3 21.8 24.7 27.5 29.2 23.1 17.4 11 9.9 9.2 11.1 14.6 17.3 19 19.2 18.8 18.2 20.3 25.4 33.2 34 31.2 29.7 27.8 26 25.1 24.8 24.3 22.8 22.7 22.7 22.8 23.8 24.7 23.1 20.8 17.3 14.4 15.9 18.4 19.7 19.8 22.4 25.3 27.4 28.9 29.6 30.5
29.8 30.5 30.8 30.5 31 31 32.1 37 41.8 45.3 47.3 46.5 44.6 41.6 40.2 38.9 38.1 38.1 38.7 39.7 38.8 37.5 37.4 36.5 36.2 34.6 33.8 33.3 32.9 31.5 30.2 31.4 32.5 34.8 37.1 38.4 39.7 41.3 42.7 42.5 41 40.7 49.2 46.7 46.1 42.2 39.9 39.8 39.6 40.7 42.1 43.1 46.9 48 48.7 48.6 48.3 47.7 47.3 46.7 45.8 44.7 43.6 42.6 41.6 39.2 38.8 38.5 37.9 39.8 36.5 35.2 34.3 33.4 32.7 32.1 32.3 33.7 34.9 34.4 34 33.5 33 32.5 32 31.5 31 31.6 30.8 35 35.2 33.6 31.9 31.5 31.3 29.9 27.3 25.5 24.1 23.2 22.2 20.2 16.9 17.1 17.8 18.5 19.1 18.9 18.5 18 17.6 17.1 16.7 16.2 15.8 15.7 14.1 13.3 12.7 11.5 12.1 10.8 9.7 10.2 11 14.5 19.8 18.2 18 13.9 7.1 5.9 6 6.7 7.1 6.8 10.1 12.2 13.4 16.8 18.2 17.7 17.8 18.2 18.8 19.4 19.4 18.2 17.1 16.3 16.5 16.4 16.3 18.4 21.2 23.9 23.8 16.3 14.1 10.3 10.2 9.6 11.2 14.6 17.3 19.6 19.8 19.1 18.9 20.4 27 33.4 32.8 32 31.5 30.4 29.3 27.7 27.4 26.9 25.4 25.3 25 24.1 26.3 23.4 21.7 18.8 15.8 14.8 17 19.5 22.1 23.1 25.1 25.8 27.6 28.8 30.3 31.1
31.6 32 32.4 32.7 33 33.2 33.2 35 40.4 43.7 45.6 45 44.6 43.3 42.7 41.5 40.8 40.9 40.9 42 41.2 41 40.4 38.7 38 36.4 35 34.5 33.7 32.1 31.5 32.6 33.7 36.5 38.6 39.6 40.5 40.3 40.8 38.4 37.8 44 48.7 48.1 48.1 45.5 41.8 41.3 42.2 46.4 42.6 43.2 47.6 48.5 49.1 48.9 48.6 47.5 46.8 46.1 45 43.6 43.1 42.3 41 38.9 38.6 38.5 38.3 37.4 36.9 36.4 35.2 34.8 33.6 33.2 33.5 34.8 35.2 34.8 34.3 33.9 33.4 33 32.6 31.9 31.6 33 33.2 36.2 35.5 33.7 31.9 30.7 30.3 29.2 26.7 24.2 22.8 21.2 17.9 18.4 18.4 18.6 18.7 19.3 19.8 19 18.5 18 17.6 17.2 16.7 16.3 15.9 15.4 13.9 12.8 12.6 12.4 11.9 9.8 8.7 9.1 9 9 9.1 10.5 13.5 13.2 8.6 6.6 6.4 7.1 7.8 7.9 8.9 10.4 12.9 15.7 20.7 20.3 17.9 19.4 20.2 20 19.8 19 17.8 17.1 16.7 16.6 16.5 16.2 18.5 21.2 16.3 13.7 11.6 10.5 10.3 10.9 12 13.2 16.5 18.9 20.6 19.9 19.2 21.5 26.3 30.9 33.8 34.4 34.2 33.5 32.4 31.6 30.3 29.2 28 27.5 26.6 25.8 24.7 21.9 19 17 16.2 16.1 18.3 20 22.9 25 25.8 26.1 27.6 27.6 29 30.9
33.3 33.6 33.4 33.1 35 35 34 35.5 38.4 41.1 43.8 45.5 46.5 46.9 46.4 45.1 44.2 44.6 44.7 45.2 47.4 48.5 47.1 43 39.7 38.2 36.6 35.6 34.4 34 33.6 33.7 34.4 36.3 38.5 39.8 39.9 40.7 43.7 44.3 47.1 50.1 50.6 50.6 48.7 46.1 43.6 43.5 44.6 46 45.4 44.9 44.9 48 49.5 49.1 48.9 47.9 46.6 43.5 43.2 42.3 41.5 40.7 40.1 39.6 39 38.6 38.4 38.6 37.3 36.9 38.2 35.4 34.4 33.7 34 35.2 36 35.6 35.1 34.7 34.2 33.6 32.8 31.9 32 33.3 35.8 36.6 35 33.5 31.9 30.1 29.5 27.6 25.1 22.7 20.3 20.1 19.5 20.2 20.9 20.4 20.1 20.5 20.1 19.2 18.6 17.9 17.6 17.2 16.8 16.3 16 15.5 14.3 13.4 13.8 14.1 11.6 9.1 8.3 8.1 7.5 7.6 6.2 6.2 9.1 12.7 8.6 6.2 6.7 7 7.2 7.2 8.3 9.1 13 14.7 13.9 14.4 14.3 18.4 20.3 20.3 20.1 19.8 18.8 18.4 17.9 17.4 17.2 16.9 16.4 18.7 15.5 13.7 12.1 11.6 13 13.2 15.2 15.2 16.7 18.7 19.8 22.1 22.8 23.4 24.7 27.8 33.1 37 36.8 35.4 34.1 33.3 32 30.7 29.3 28.1 27.1 26.2 23.4 20.2 17.8 18.5 19.4 18.2 19 20.7 23.4 26.3 25.8 26.1 26.9 26.8 27.2 29.1
34.6 34.6 34.5 34.5 36.6 36.8 35.6 37 39.2 41 43.9 47.5 48.4 50 50.6 49.3 49.1 49.4 50.2 51.1 51.2 52 50.2 46.7 42 40.2 38.3 36.8 35.8 35.1 34.3 34 34.6 35.6 38.6 40.6 41.7 42.9 46 47.5 49.6 50.9 51.8 52.1 51.2 48.9 44.2 44.9 45.4 45.8 45.7 45.7 46.9 49.5 49.9 49.3 48.9 46.8 44.2 44 43.8 42.7 42.2 41.8 41.5 40.9 40.4 39.9 39.4 38.8 38.3 38 37.2 39 35.2 34.9 35.2 35.7 36.8 36.4 35.9 35.3 34.5 33.7 32.8 32.1 32.5 33.5 36.3 36.3 34.6 33 31.5 29.9 27.8 25.4 23.2 20.8 20.9 20.9 21 21.7 21.7 21.6 20.8 21.3 20.5 19.5 18.9 18.3 17.7 16.2 16.7 16.4 16 15.8 14.7 13.9 14.3 13 10.8 8.2 8.3 7.6 7.3 8.1 7.1 6.1 5.9 7.3 7.9 6.4 7.1 7.5 7.4 8.1 8.5 8.6 9.4 14.8 16.9 16.8 18.4 19 20 20.7 20.5 20.4 20.1 19.6 19.1 18.6 18.2 17.8 17.3 16.8 15.2 13.2 13.9 14.5 16.1 16.6 19 20.7 20.9 23 24.4 26 27.6 28.3 27.1 28.2 32.4 38.2 38.5 36.7 35.6 34 32.8 31.5 30.1 28.7 27.1 25.5 22.4 20.1 20 21 21.3 20.7 19.8 20.9 22.2 23.6 23.7 23.2 23.6 24.5 25.5 27.6
35.8 35.8 35.8 36.4 37.8 38.4 38.3 40.7 42.2 44 47 49.5 50.8 52.4 53.3 52.6 53 53.6 54.2 54.3 54.1 52.7 50.1 46.7 43.6 40.7 40.5 38.8 37.1 35.5 34.6 34.4 34.8 38.3 41.4 43.1 43.9 45.8 47.8 49.4 50.5 51.5 52.1 51.8 52.5 47.9 50.3 47 46.8 47.5 47 46.6 46.4 48 47.9 49.5 47 44.9 44.5 44.5 44.3 44 43.5 43.1 42.8 42.3 41.8 41.2 40.7 39.5 38.6 38.4 38.1 37.5 37.1 37.2 37.1 37.4 37.5 37.1 36.2 35.4 34.6 33.7 32.9 32.6 32.9 34.2 37.1 36.7 34.9 33.2 31.4 29.6 27 24.4 21.3 22 22.5 22.4 22.5 22.3 21.9 21.7 21.4 21.1 20.7 19.8 19.1 18.5 17.9 17.3 9.9 16.1 16.3 16 15.2 14.5 14 11.8 9.9 8.3 7.7 7.2 7.5 8.6 8.1 6.8 6.7 6.7 6.5 6.7 7.4 7.8 8.9 9.2 8.9 8.7 8.3 10 11.9 14.4 16.7 19.2 20.5 21.4 21.3 21.5 21.4 21 20.5 20 19.4 19.2 19 18.5 16.8 15.7 16.3 17.8 19.2 20.6 22.5 24.6 25.2 30.3 32.8 36.6 37.9 34.3 30.6 31.6 36.2 39.7 40.2 37.6 35.9 34.7 33.6 32.2 30.9 29.5 27.4 25.2 22.7 22.1 21.9 22 22.2 21.6 21.1 21 21.5 21.4 22.1 22.9 23.4 24.5 25.8 27.2
36.9 37.6 38.3 38.7 39.1 41.6 39.7 42.5 44.8 47.4 50.6 51.4 52.5 52.1 52.7 54.1 54.8 55.1 55.2 54.5 54.1 52.8 50.1 47 45.4 45.3 46.3 41.3 38.6 37 35.5 34.9 36.7 41.2 44.8 45.7 46.5 47.4 48.9 50.4 51.4 52.5 52.9 47.7 47.3 50 51.8 49.3 48.4 48.9 48.8 48.4 47.5 47.4 47.7 48.4 48.2 46.1 46.2 46.5 46.7 45.3 44.8 44.4 44.1 43.6 43.1 42.5 41.3 40.1 39.1 38.7 38.8 40.2 41.8 39.8 39 38.9 37.8 37.2 36.3 35.5 34.6 33.8 32.9 33.1 33 35.6 37 37.2 34.1 32.3 30.6 28.8 26.2 23.5 22.5 23.7 23.6 23.5 23.3 22.9 22.6 22.2 21.7 21 20.5 20.1 19.4 18.7 18 16.8 14.3 10 15.7 15.6 15 14.5 13.5 11.7 9.9 8.6 7.9 7.4 7.8 9.2 9 7.4 7.3 7.2 6.9 8.9 9.8 10.6 12 11.3 11.1 10.8 9.2 9.4 11.4 13.8 17 19.7 21.2 22.2 22 22.7 22.8 22.3 21.8 21.4 20.4 20.5 20.5 20.2 18.9 18.4 18 19.1 20.3 21.8 24.3 26.8 31.1 35.6 38.8 43.5 46.8 36.8 33.9 33.4 36.7 38.5 37.5 38 36.6 35.5 34.3 33 31.6 30.1 27.8 25.4 23.5 22.9 22.7 22.9 23 22.6 22.2 21.2 21.5 21.8 22.7 23.6 24.3 25.5 26.7 27.9
39.1 40 40.4 40.6 41.7 45.5 41.3 43.4 45.2 47.6 48.6 49.1 48.7 47.1 50.1 52.4 54.4 55.1 55.2 54.4 53.6 52.2 50.9 48.2 47.7 47.6 46.2 41.9 37.9 36.9 36.5 36.9 39.2 43.7 48.7 49.4 49.2 50.2 50.9 51.9 52.1 51.3 49.6 48.4 49.8 49.6 49.2 48.6 49.8 50.3 50.6 50.1 48.7 48.6 48.5 48.9 47.6 47.4 47.7 48.3 48.2 46.5 46.1 45.8 45.4 45 44.4 43.2 42 40.8 39.7 40 41.6 43.2 43.7 41.7 39.9 38.5 37.7 37.1 36.4 35.5 34.7 33.9 33.1 33.2 33.2 35 36.7 36.9 33.6 31.4 29.8 27.9 25.4 23.2 23.6 23.9 24.4 24.1 23.9 23.6 23.2 22.7 21.8 21.1 20.5 19.9 19.3 18.6 17.2 15.1 16.3 15.4 14.4 12.4 12.4 12.6 11.9 11.3 9.9 8.8 7.4 7.7 8.6 10.2 10.3 9.1 8.1 7.6 8.4 11.1 12.6 15.1 14.3 13.6 13.2 12 10.2 9.9 13.2 15 18.1 20.2 22 22.9 23.1 23.9 24 23.7 23.2 22.6 21.7 21.7 21.7 21.7 20.8 20.3 20.1 20.5 21.5 23.2 25.7 27.7 31.1 34.9 37.1 39.6 40.7 35.3 37.6 37.5 38.4 43.1 42.2 39.5 37.6 36.2 35.1 33.7 32.2 30.7 28.1 25.6 24.2 23.5 23.5 23.7 23.9 23.8 23.4 22.5 21.7 22.4 23.2 23.8 25.2 26.6 27.7 28.9
40.9 41.7 41.9 42.3 44 45.8 44.7 43.5 44.8 45.3 44.9 46 45 46.1 48.4 50.7 51.9 54.4 55.2 54.4 53.8 52.6 51.4 50.6 48.6 46.7 46.3 39.4 36.7 38.2 38.4 41 43.3 46.4 50.4 51.4 51.4 51.5 52.2 53.5 54.1 53.4 52.6 53.3 53.5 52.9 52 50.7 51.4 52 51.9 51.1 50.5 49.9 49.9 49.2 48.2 48.8 49.2 50 49.5 47.8 47.4 47 46.7 46.2 45.3 44.1 42.9 41.6 40.2 41.9 43.3 44.5 43.9 42.4 41.2 39.9 38.6 37.1 36.4 35.6 34.8 35.1 34.2 33.7 33.7 33.2 35 34.8 32.5 29.9 28.2 26.5 24.7 24.4 25.1 25.8 25.6 24.9 24.5 24.2 23.8 22.8 21.3 20.6 20.2 19.6 19 18.2 17.3 16.9 16.8 14.7 12.3 9.4 9.8 10.2 10 9.4 9.4 8.6 7.7 7.9 9.3 11.1 11.8 11.5 11.5 11.3 10.8 12.4 14.7 16.9 17 16.2 14.8 12.5 10.1 11.8 14.3 16.4 18.7 20.8 22.7 23.6 24.3 25.2 25.3 25 24.6 23.6 22.9 22.9 22.9 23 22.7 22.4 22.1 22.1 23.4 25.4 27.1 28.7 30.9 33.2 35.2 36.8 40.3 43 44.5 44.9 44.7 45.5 43.7 40.9 38.9 37.1 35.8 34.4 32.9 31.1 28.5 26.2 25.1 24.2 24.3 24.5 24.7 24.8 24.4 23.1 22.3 22.3 22.8 23.4 25.5 28.5 29.3 30.4
42.6 43.4 43.6 43.2 44.9 46.3 45.6 44.6 45.8 46 45.8 44.8 45.7 45.6 46.8 49.2 52.1 52.9 55.2 55 54.7 54 52.2 50.5 49.2 46.2 42.2 37.7 38.1 40 42 46.3 48.9 51.2 52.2 52.9 53.1 52.8 53.5 55.1 56.1 56.2 55.5 55.8 55.2 53.6 55.2 54.1 53 52.9 52.6 51.9 51.5 48.7 51 49.9 49.1 50.2 50.2 50.6 50.5 49.1 48.7 48.5 47.9 46.8 45.4 44.8 44 42.8 40.8 44.5 44.8 45.1 44.3 43.6 42.8 41.5 40.2 39 37.5 36.8 35.8 37.4 35.7 34.3 33.1 32.4 32 31.8 30.9 28.2 26.6 25 25.9 26 26.1 26.3 26.3 26.1 25.5 24.9 23.6 21.8 20.4 19.7 19.5 19 18.4 17.8 16.7 15.7 15.2 13.1 10.7 10.3 10 9.8 9.5 9.6 9.8 9.4 8.7 8.3 8.2 12.1 12.6 12.6 12.4 12 12.2 13.4 15.7 18 18.7 18.8 17.1 14.8 12.5 12.9 15.2 17.7 18.8 21 22.8 24.7 25.5 26.4 26.5 26.3 25.8 24.7 24.1 24.2 24.2 24.2 24.1 24 23.9 23.9 25.2 26.8 28.4 30.2 30.8 32.2 35.4 39.5 45.5 50.8 47.5 48.9 51.5 49.5 46.4 42.4 40.3 38.5 36.5 35 33.5 31.5 29.1 27.4 26.2 26.2 25.8 25.5 25.6 25.8 25.5 24.2 23.2 22.4 22.5 23 25.9 28.8 29.9 31.1
44.3 45.1 45.1 44.6 45.4 47.7 46.9 45.9 46.9 47.6 47 46.4 45.9 45.1 48.2 52 54.3 57.4 55.5 55.5 55.1 54.6 53 51.7 49.8 45.2 39.4 39.7 41.8 43.9 46.1 49.4 52.1 53.7 54.3 54.7 54.6 54.2 55 56.6 58.1 58.1 58 57.2 55.2 52.4 53.6 54 54.2 52.8 50.4 51 54.6 51.5 49.5 48.7 48.7 51.4 51 51.1 50.8 50.5 50.6 49.5 48.4 47.3 46.1 44.4 44.2 43.9 42 46.5 47.2 47.5 46.7 45.9 44.3 43 41.8 40.9 39.9 37.4 36.8 37.7 36.3 34.7 32.3 31.7 31.1 30.2 29.2 27.2 27 26.6 27.5 27.5 27.2 26.7 26.3 26.3 26.3 25 22.2 20.8 19.5 18.8 18.2 17.4 17.2 16.6 15.7 14.8 13.1 11.4 9.5 11.7 11.4 11.2 10.9 10.4 10.6 10.1 8.2 8 8.1 10.8 13.4 13.2 13 12.8 13.3 15 17.7 19.7 20.7 19.6 17.7 15.2 12.8 14.3 16.6 19.1 20.4 22.1 23.3 25.6 26.4 26.8 27.6 27.5 27.1 26.2 25.2 25.4 25.4 25.4 25 24.9 24.8 24.8 26.6 28.1 29.8 31.3 33 34.7 36.9 42.7 50 51.7 52.3 51.9 52.5 52.9 49.3 44.5 41.5 39.1 36.7 34.9 33.7 32.1 30.1 29 28.1 28.1 27.8 27.4 27.1 26.7 26.2 25.2 24.3 23.2 22.6 23.4 27.4 27.5 29.1 31.1
44.8 45.6 45.6 45.7 45.7 48.8 49.7 46.5 48.1 48.8 48.2 47.7 47.8 46.5 47.8 50.5 54.9 55.5 55.7 56 54.6 53.8 52.4 51.5 51.5 42 40.5 44.4 44.4 47 49.7 51 53.4 55.1 55.8 56.1 55.9 55.8 56.5 58 59.4 59.1 59.8 57.9 53.2 52.4 52.4 52.5 54.6 51.2 49.3 49.2 51.1 49 51.9 52.4 52.5 52.7 51.9 51.6 52.7 52.7 51.2 50 49 47.9 46.8 45 43.8 43.9 44.4 48.2 50.1 52.7 49.5 47.5 45.8 44.6 43.9 43 41.9 40.5 38.6 37.2 35.9 34.4 32.7 32 31.4 31.1 30.9 29.3 28.8 28.4 28.6 28.6 28.1 27.6 27 26.4 25.7 23.6 21.6 19.9 18.5 17.9 16.5 15.6 15.6 15.5 14.9 13.9 11.9 10.6 10.7 12.8 12.8 12.5 12.3 11.9 11.3 10.3 8.1 8.2 8.3 11.1 13.4 13.2 13 13.4 14.5 16 19.5 21.6 22.7 21.7 19.8 17.1 14.8 13.7 15.7 18.3 20.1 21.9 23.4 26.5 26.9 27.5 28.7 28.7 29.3 27.6 26 26 26.5 26.2 26.2 26 25.8 25.7 27.5 29.5 32.6 34.6 36.2 38.1 39 44.5 48.7 51.5 52.6 52.8 53.4 53.1 50 44 41.4 39.1 36.8 34.8 33.8 32.2 30.8 30.7 30.6 30.1 29.6 29.2 28.5 27.8 27.3 27.1 26.6 25.4 23.4 23.9 27.6 28.8 29.2 31
45.2 45.5 45.4 45.5 45 45.5 46.3 44.9 46.3 46.3 46.3 47.1 47.9 49.8 50.4 50.9 52.3 52 52.5 53.2 52.1 52.1 51.5 49.5 43.1 41.3 45.8 48.4 47.4 47.9 50.7 52.3 54.1 55.5 57 57.5 57.4 57.4 57.9 59.1 60.3 59.9 62.3 56.8 53.3 52.5 54.8 55 56.1 50.9 50 49.5 49.6 54.6 55.9 59.3 60.3 59 57.1 57.8 57.6 54.1 52.8 51.3 49.8 48.4 47.3 45.7 42.3 42.6 44 48.1 53.4 54.2 49 48.3 47.5 46.8 46 44.9 43.4 41.6 40.1 38.8 36 34.5 33.4 32.4 31.9 31.6 31.2 31 30.5 30.2 29.9 29.5 29 28.5 27.6 26.6 25.3 23.2 21.3 19.5 17.7 16.5 15.7 14.9 15 14.7 14.4 13.7 13.2 12.7 12.5 14 14.2 13.9 13.6 13.3 12.9 11.3 9.6 8.6 9.2 12.6 13.2 13.1 13.5 14.5 15.6 16.6 19.7 23.2 24.2 23.5 21 18.7 17.6 16.4 15.2 15.5 18 19.9 21.7 24.7 26.9 28.1 29.4 30.2 31.3 29 27.4 26.2 27 27.1 27.6 27.4 27.1 26.7 26.7 31 34.4 36.8 38.3 40.4 42.3 45.4 47.6 49.1 51.4 52.1 52.2 50.2 46.7 43.6 41.4 39.3 37.1 35.6 33.9 32.5 31.3 31 31 31.2 30.7 30 29.3 28.2 27.9 27.7 27.5 27.3 25.6 23.5 27.4 30.3 31 31.5
45.2 45.4 44.9 44.3 43.8 43 42.1 43.8 43.7 44.7 45.8 46.4 47.3 47.8 48.8 50.3 51.5 53.6 52.8 51.1 49.9 49.1 46.4 42.6 42.4 46.5 50.1 50.3 49.8 50.3 52.1 53.8 55.3 56.7 58.2 59.2 59.2 59.1 59.7 61.6 62.7 62.8 53 53.4 53.7 57.8 57.9 58 57.8 55.9 57 56.8 57.2 57.6 58.6 60 59.6 59.1 58.4 57.6 55.6 53.7 52.7 51.4 50.2 49 48 43.1 40.2 39.2 39.3 42.8 50.2 49.2 49.6 48.8 49 49 47.4 45.4 43.4 41.7 40.4 39 37.7 36.5 34.3 33.1 32.4 32 31.5 31.5 32.8 30.8 30.6 30.5 30 29 27.7 26.5 24.7 22.7 20.9 19.2 17.5 16.6 15.8 15.1 14.9 15.2 15.4 14.6 14.2 14.1 13.9 13.9 14.2 14.3 14.3 14.3 13.5 8.8 8.7 9 11 12.9 13.4 13.4 14 14.9 15.7 16.6 18.4 21.5 23 22.6 21.4 19.5 18.3 17.4 17.2 16.9 16.6 18.1 20.3 22.5 24.6 26.7 27.8 29 29.8 29.9 28.4 27 27.5 28 28.9 28.7 28.2 27.4 27.1 29.2 33.5 35.9 37.9 39.8 40.9 43.6 46.1 48.1 50.2 51.6 52.7 51 47.9 44.2 41.7 39.6 38.1 36.4 34.6 33.4 32.2 32 32.5 32 31.4 30.7 29.7 28.8 28.6 28.5 28.6 28.1 27.6 23.9 27.3 30.9 31.8 32.7
42.1 41.5 41.7 41 42.2 41.6 43.4 45.3 46.2 47.1 48.5 48.4 49 52.1 53.6 54.9 56.1 54.9 53 50.7 49.3 47.3 45.3 44.9 47.3 50.3 52.8 52.7 52.3 52.9 53.6 55.2 56.7 58.2 59.7 61 61 61.1 61.8 64.4 64.5 64.3 61.8 60.5 63.5 62.6 61.3 62.3 61.6 61 61.9 61 59.7 60.1 57.6 58.2 60.2 60.4 58.3 56.4 55.1 53.8 52.7 52 51.2 50.5 48.7 39 39 39 39 39 46 47.9 48.7 49.4 49.3 49.1 47.5 45.4 43.5 41.9 40.4 39.1 38 36.9 35.7 34.3 33.9 32.7 32.2 32.3 32.4 35 30.6 30.1 29.9 29.8 27.3 26.3 24.2 22.2 21.3 20.5 19.6 18.3 17 15.7 15.3 15.9 16.5 15.8 15 14.4 14.2 13.9 13.7 13.9 14.1 13.8 13 9.3 8.8 10.2 12.7 13.9 14.5 14.7 14.9 15.3 15.8 16.6 18 19.9 21.9 21.5 21.1 20.2 19.1 18.9 18.7 18.4 18.1 19.5 21.7 21.6 22.9 25 26.4 27.6 28.6 29 29 28.1 28.5 29.1 30.3 29.9 29.6 29.3 28.3 27.5 31 34 35.8 37.6 39 41.3 44.3 46.2 48.8 50.9 52.9 52.6 48.9 45.3 42.3 40.2 39 37.8 36.6 35.4 34.5 34 33.5 33 32.5 32 30.2 29.4 29.6 29.8 29.3 28.9 28.4 25.5 28.3 31.1 32.8 34.3
38.1 38.1 38.6 39 39.5 40.4 43.4 45.3 45.8 48.7 51.7 53.8 53.9 56.8 57.4 57.2 56.3 54.8 52.4 50.1 49 47.6 47 47 48 50.6 53.9 55.1 54.9 55.6 56 56.4 57.8 59.7 61.2 62.7 62.8 63.1 63.4 65.1 65.7 66.1 66.2 67.5 67.3 66.6 66.8 66.6 66.2 65.9 65.2 63.7 62.2 62.3 57.8 58.2 59.2 61 58 57 56.3 54.9 54 53.6 53 52.3 46.6 47.2 47.9 45.1 43.7 40.9 47 48.3 48.8 49.3 49 48.8 47.1 45.1 43.2 41.8 40.6 39.4 38.4 37.2 36.1 34.9 34.6 35.6 35.3 33.5 32.6 32.1 35.6 31.1 28.9 28.6 27.3 25.4 26.8 28.7 22.5 21.9 20.6 19.5 18.2 16.6 16.5 17.7 17.9 17.1 15.9 14.7 14.5 14.2 14 13.7 13.5 11.3 9.4 8.6 10.1 11.9 13.4 14.9 15.8 15.9 16.2 17.1 17.7 17.8 19.3 20.6 21.6 21.8 21.4 20.7 20.4 20.1 19.9 19.6 20.5 20.9 21.5 22.2 23.8 25.2 24.8 26.3 27.8 28.3 28.7 29.2 29.6 30.1 31.3 32.1 31.9 31.5 30.5 29.5 31.2 30.8 32.8 35.4 36.7 38.8 42.8 44.1 47.3 49.4 52.1 52.9 48.9 46.2 43.2 41.2 41 39.9 38.8 37.7 36.9 35.8 35 34.4 33.9 32.9 31.3 30.8 31.1 30.6 30.1 29.6 29.2 26.5 29.4 32.3 33.7 35.3
36.3 37.9 40 40.6 41 41.9 42.8 44.5 45.6 48 49.4 51.8 54.4 55.3 56.8 56 54.9 53.2 51.2 49.8 48.9 48.5 49.7 49.7 50.4 52.4 55.7 56.7 57.4 57.7 58.1 58.5 58.5 60.6 62.4 64.2 64.4 64.1 64.8 66.2 66.5 66.5 66.5 70.7 71.9 71.5 71 71.1 70.6 69.6 66.9 65.4 63.4 63.8 61.5 60.3 60 61.2 59.2 58.4 57.8 56.6 56.2 55.8 55.6 55.3 52.4 53.2 57.5 58.3 57.4 56 50 50 48.8 47.9 47.3 47.3 45 43.7 42.6 42.1 40.7 39.7 38.7 37.7 36.5 35.8 35.8 36.6 35.7 34.4 33.7 33.1 32.5 31.5 31.3 27 29.9 25.3 31.4 31 27.7 25.5 21.7 20.6 19 17.6 18.8 20 18.8 17.8 16.6 15.4 14.8 14.5 14.3 14.3 14.4 11.4 9.4 8.5 9.4 12.5 14 15.6 16.8 17.1 17.8 19.1 19.9 20.5 21.1 22 23 22.7 22.2 21.7 21.4 21.3 21.1 21.7 22.1 22.4 22.8 22.8 23.9 25.2 25.7 27.2 28.3 28.7 29.2 29.9 30.7 31.1 32.1 33.7 34 33.5 32.7 32.3 32 32.3 32.8 33.5 34.9 36.4 38.6 42 44.9 48.6 51.4 52.7 50.2 47.6 44.5 43 43.8 42.1 41 39.9 39.2 37.6 36.5 35.9 35.4 34.6 33.6 33.6 34.1 32.7 31.7 30.7 26.6 28.2 30.8 33.1 34.5 36
38.3 39.3 41.9 42.6 43.5 44.3 44.5 45.5 47.6 48.5 49.8 51.8 55.3 58.7 60.1 57 53.7 52.5 50.8 49.5 50.1 52.5 52.9 53.3 55.7 55.3 57.3 58.4 59.2 59.7 60.1 60.6 61 62.2 64.2 65.2 64.9 65 66.8 67.8 66.8 66.5 67.6 77 76.7 75.8 75.1 75.5 74.8 70.2 68.1 66.1 63.7 61.4 60.8 59.5 61.1 61.8 60.9 60.3 59.6 58.5 58 57.8 57.6 57 54.6 53.9 55.2 56.5 55.1 52.5 53.6 52.9 50.2 46.5 50.5 47.7 44.5 44.4 44.5 43.1 42 41.2 41 41.9 42.6 39.4 38.4 36.8 36.1 35.3 34.8 34.5 33.2 32.3 31.3 33 29.7 26.7 24.5 26.8 30.9 31.7 26 23.9 21.9 19.7 21.1 21.8 20.4 18.9 17.6 16.2 15.4 15.5 15.6 15.7 14.7 11.6 9.7 8.8 8.7 12.3 14.5 16.1 17.7 18.4 19.4 20.1 22.3 23 23.7 24.4 25.1 24.7 23.9 23.1 22.6 22.6 22.9 23.3 23.6 24 24 23.6 24.7 25.7 27 28.3 29.5 29.6 30 30.6 31.5 32.2 32.9 34.5 36 35.8 35.8 36.3 36.2 35.4 34 34.5 35 36.5 38.7 40.3 42.9 46.3 48.9 50.2 51.5 48.9 46.2 46 47 44.5 43.2 42.1 41.1 39.3 38.1 37.6 37.4 36.8 36.4 36.2 38.4 37 35.5 31.9 28.3 30.6 32.6 34 35.3 36.9
39 41 41.3 41.6 43.4 46.3 46.5 46.9 48.8 49.7 50.2 52.1 57.5 63.4 65.9 58.9 54.9 52.9 50.9 50.1 52.1 53.1 53.7 54.5 57.1 57.4 58.6 59.9 61.3 62.4 62.4 62.8 63.2 64.5 66.3 65.6 65.2 67.5 69.4 69 70.8 74.9 76.8 83 81.6 79.4 79.8 79.9 78.7 73 68.6 66.3 64.5 63.2 63.3 63.9 63.4 63.4 62.7 62.1 61.5 60.6 60.1 60.3 59.6 58.9 57.5 53.7 53 52.5 53.4 55 56.1 55.3 54.6 51.3 48.6 47.4 46.6 46.6 46.4 43.7 43.8 46.4 46.5 46.8 46.8 45 42.6 42.7 38.2 38.1 36.7 35.1 33.8 32.6 31 28.4 29.9 29.2 24.4 24.9 24.6 26.4 26.5 25.9 24.3 23.1 22.7 23.1 21.7 20.2 18.9 17.8 17.4 17 17 16.8 15.2 14.2 13.2 9.5 9.9 9.1 13.2 16.2 18 19.6 20.3 21.1 23.5 25.6 26.3 26.9 27.1 26.8 25.9 25.1 24.2 24.1 24.5 24.8 25.2 25.5 25 24.4 25.5 26.7 28.1 29.4 30.6 30.8 30.9 31.4 32.2 33.1 33.8 35.3 36.7 37.6 38.6 38.4 38.1 37.3 36.3 35.3 36.2 37.5 39.5 41.8 44.5 47.2 47.8 48.8 49.9 50.5 48.2 48.4 49.8 47.6 45.5 44.5 42.8 41.1 39.8 39.7 39.5 38.9 38.7 38.6 40.1 38.6 37.1 30.2 28.3 32.8 34.7 35.1 36.5 37.3
36.5 40 40.8 41.4 44.4 45.7 47 47.6 48.6 49.6 50.7 53 57.1 61.8 64.8 60.1 55.4 53 52.2 52.4 52.8 53.5 54.3 55.5 57.7 59.5 60.5 61.6 63.9 64.9 64.9 64.6 64.7 66.4 67.7 65.9 66.7 69 73.5 76 77.3 80.1 86.2 87.8 85.7 84.1 85.9 85.1 82.7 79.1 76.2 73.7 72.5 71.5 70.1 67.8 66.5 65.4 64.6 64 63.3 62.8 62.3 62.1 67 59.6 56.8 54.3 53.7 54.9 57.4 56.7 55.8 56.4 56 55.3 49.1 47 47.5 48.6 46.5 42.6 44.9 44.5 39.6 39.2 43.3 39 38.9 39.4 39.5 38.2 37.7 36 34.1 32.6 31.1 29.4 27.1 27.7 31 28.9 28.3 27.7 28.8 27.5 25.5 24.3 24.8 24.5 22.9 21.5 20.2 19.2 18.4 18.2 17.8 17.6 17.4 17.1 15.7 10.7 10 9.6 12.1 14.5 17.5 19.3 21 22.3 24.7 27 28 28.5 28.5 28.4 28 27.2 26.2 25.7 26 26.4 26.7 26.6 25.9 25.3 26.4 27.7 29.1 30.4 31.7 31.9 31.7 32.4 33 33.7 34.6 35.9 37.2 38.2 39.4 39.9 39.6 38.1 36.7 35.6 37 38.2 39.2 41.2 43 45.7 47.1 49.9 52.2 53.2 51 51.1 52.5 50.3 48.2 46.4 44.8 43.3 42.7 41.9 41.6 41.2 41 39.4 39.1 37.8 37.3 31.7 30.7 34.1 35.2 35.7 36.5 37.2
36.8 40.1 41.7 42.6 43.8 44.3 45.2 46.8 48.4 49.6 50.8 52.7 53.7 57.4 58 57.3 54.6 53.4 53.1 53.3 53.5 54 54.8 56 58 60.3 61.8 62.9 64.9 64.9 64.9 64.9 65.2 68.9 68.1 68.5 71.3 75.8 79.6 82.6 84.4 86.8 91.6 92.6 89.6 88.6 90.1 91.8 87.4 85.1 83 81 79.5 80.6 74.2 69.3 68.4 67.4 66.1 65.4 64.7 63.5 62.2 62.9 56.5 54.4 53 51.7 53.7 57 58.4 57.2 55.8 56.9 57.6 56.6 47.2 44.4 41.8 40.8 39.8 39 38.1 38 36.6 37.5 37.4 36.5 35.4 36.4 36.7 35.5 36.3 35.1 34.6 33.9 32.5 30.6 29.1 29.7 31.8 31.9 32 32.1 31.9 28.9 26.9 26.6 26.8 26 24.1 22.8 21.5 20.6 19.7 18.9 17.8 17.5 17.1 16.5 14 10.5 10.6 11.1 14.4 15.2 16.5 19.4 21.3 23 25.2 27.4 28.5 29 29.4 29.8 29.5 27.7 27.4 27.7 28.1 28.4 28.5 27.8 27.1 26.5 27.4 28.7 30.1 31.4 32.5 32.4 32.7 33.4 34 34.7 35.4 35.6 37 38.9 40 40.6 40 38.6 37.3 36.7 37.8 38.9 39.9 41 42.8 44.7 47.3 49.9 52.7 55.4 53.3 53.3 55.3 55.6 52 48.9 46.9 45.8 45.4 44.8 44 43 41.3 39.5 38 36.3 33.7 34.4 33.6 33.7 34.7 35.8 36.9 37.5
37 37.5 40.4 40.8 41.3 41.7 43.1 44.3 46.5 48.6 50.5 51.3 52 52.8 52 52.1 52 53.6 54.2 54.6 54.9 55.3 55.7 56.7 58.6 61 62.8 64.9 64.9 64.9 65.5 65.7 68.9 70.2 71.2 72 77.5 82.3 85.6 88.8 91.1 92.8 97 97.7 93.4 94 94.8 95.8 95.6 92.2 92 82.8 77.5 83.3 77.7 71.9 69.8 68.8 67.6 66.8 66.1 65.1 58 55.6 55.1 54 51.8 53.2 55.9 58.1 58.5 57.3 55.7 47.8 50.5 50 44.2 43 45.4 42.2 39.7 39.2 38.1 37.2 36.5 36.8 36.8 36.1 34.5 34.6 34.5 34.9 35.2 35 34.6 34 33.4 33.3 32.5 33.7 33.6 32.7 33 33.5 33.2 30.2 29.1 28.2 27.9 26.7 25.4 23.8 21.9 20.4 19 17.9 16.4 16 15.3 13.3 12.2 9 10.3 13.9 19 19.6 18.5 20.3 22.1 23.6 25.6 27.5 28.9 29.4 29.8 30.3 30.8 30.8 31 31.3 31.3 31.1 30.6 29.9 29 28.9 28.8 29.5 30.9 32.4 33 33.2 33.9 34.7 35.4 36.2 36.8 36.4 37 39.2 39.6 40.2 40.6 39.4 38.5 38.7 39.5 40.2 40.9 41.7 43.3 45.2 46.9 49.7 52.5 55 54.5 55.2 57.5 57.7 54.9 51.9 50.1 49.4 48.9 47 46 43.4 41.2 39.5 37 35.3 35.5 36.4 35.2 34.6 35.1 35.9 37.1 37.9
37.3 37.2 37.2 38.8 40 40.8 41.4 42.6 43.8 45.3 48.1 49.9 50.8 50.1 49.2 49.2 49.5 52.3 54.7 55.9 56.3 56.6 57.1 58.2 59.9 61.8 63.5 64.4 65 66 67.5 69.4 74 74.6 73.8 76.6 81.9 86.9 91.1 93.8 96.5 98.1 100.2 99.7 97.3 99.4 98.3 99.2 100.4 97.8 87.5 72.3 70.7 82.2 87.1 83 75.1 69.8 69.9 68.4 67.7 66.1 73.1 56.4 55.2 53.9 54 55.1 56.5 58.1 59.1 57.1 51.7 48.8 49.2 54.9 55.7 54.8 52.1 49.6 40.5 39.1 37.9 37.1 36.8 37 36.1 34.9 35.1 35.7 36.6 36 35 37.3 35.4 34.9 35 34.7 36.5 37.3 35.9 34.8 33.7 33.7 32.6 31.2 30.8 30.1 28.9 26.7 25.1 24.5 22.4 20.9 19.7 18.6 18.8 19.3 15.8 14.3 16.2 9.3 10.6 17 22.1 22.1 20.7 20.3 22.2 24.2 26 27.8 29.5 29.9 30.4 31.8 32.5 32.7 32.9 33.1 33.1 32.8 32.6 31.8 30.6 29.9 30.2 30.5 31.7 33.2 33.9 35.1 35.9 36.3 36.9 37.7 37.8 37.9 38 39.5 39.7 39.8 40.5 39.9 39.9 40.1 40.3 40.7 41.4 42.4 44 45.6 47.2 49.2 53.1 57.7 57.8 56.6 58.6 58.9 57.4 54.9 53.7 53.1 51.9 49.8 46.9 44.2 41.5 39.3 37.3 36.4 37.6 38.3 37.5 36.1 36.2 36.7 37.2 38.2
40.6 40 39 38.9 39.1 40.2 41.6 42.3 43.2 44.3 45.8 48.7 50 49.8 49.2 49.3 50.2 52.5 53.8 55.8 57.6 58 59 59.9 61.6 63.3 64.4 65.3 66 67.1 68.7 71.2 75.4 75.8 77.1 79.5 83.8 89.7 95.3 100.1 103.2 102.2 102.8 101.2 100.2 100.2 92.2 90.2 88.6 91.6 87.6 80 78 81.3 78.4 76.9 74.1 73.7 77 79.9 80.4 76.7 73.3 70 68.7 56.3 56.3 56.3 56.3 55.9 55.8 52.6 50 47.9 46.6 47.3 53.4 51.5 51.2 49.4 40.7 38.8 38.4 38.1 38 37.5 37 37.4 36.9 39.9 38.3 39.3 39.2 39.5 40 40.5 40.6 40.5 39.9 39.3 38.1 37 35.8 34.4 32.7 31.5 31 30.4 28.1 27.6 26.2 23.6 23.6 22.3 21.1 20.4 20.8 19.6 13.4 8.9 14 8 10.7 17.2 23 23.8 22.9 22.5 21.6 23.5 26.1 28.3 30 30.4 31.9 33.5 34.4 34.6 34.8 34.9 35 34.6 34.3 33.5 32.2 30.9 31.2 32 32.9 34.1 35.6 37 37.8 38.5 38.9 39.2 39.3 39.4 39.5 39.7 40.2 40.6 40.5 40.6 41 41.4 41.6 41.8 42 43.1 44.7 46.3 48.2 50.4 53.8 58.8 59.2 58.6 59.5 59.9 58.5 57.8 57.6 56 54.4 51.1 47.6 44.9 42.3 39.9 38.1 38.2 38.5 40.4 39.4 37.9 37.2 37.8 38.3 38.6
43.8 42.4 40.6 39.5 38.9 40.2 41.9 42.6 43.3 44.1 44.3 46.4 49.1 49.1 49.5 50 52.6 54.9 56.2 57.2 58 59.3 60.8 61.8 63.3 64 65.1 65.2 66.7 68 69.8 71.9 74.3 77 78.1 81.3 84.7 90.3 95.7 100.6 104.8 105.8 105.2 103.6 102.6 100.5 92.4 91.5 91 91 88.6 86.6 82.3 79.4 78.1 77.9 77.3 77 80.9 82.8 83.2 81.8 80.9 77.9 74.5 71.5 66.9 66.4 63.7 61.7 60.8 58 54.3 49.1 47 46.8 46.9 45.9 45.1 43.2 40.6 39.2 39.4 39.2 39.1 39.2 40.1 42.1 42.4 41.8 41.3 41 40.8 41.3 41.8 41.5 41 40.9 40.2 39.3 37.9 36.4 34.9 34.1 32.4 30.8 30.1 29.4 28.6 28.4 27.6 25.3 23.6 24.4 25.1 24.4 23.2 21.6 14.6 8.5 8.8 8.3 9.4 17.9 21.8 24 24.9 24.6 24.5 23.4 26 28.5 30.5 32 33.6 35.2 36.2 36.4 36.5 36.7 36.8 36.6 36 34.7 33.5 32.4 32.6 33.5 34.4 35.3 37.3 39 39.9 40.9 41.4 41.4 40.8 40.6 40.8 41.1 42.1 42.5 42.4 42.7 42.7 42.8 43 43.3 43.6 45 45.4 48 50.4 52.4 54.5 57.6 60.3 60.6 61.3 61.6 61.3 60.8 59.2 58.1 55.9 51.9 48.3 45.7 43.3 40.9 39.7 40 40.2 40.9 41.4 39.7 39.2 39.5 39 38.5
46.2 43.7 43.4 42.7 40.1 40.5 42.2 42.9 43.6 44.8 46.3 44.5 45.6 47.3 50 51.4 55.7 55.1 55.8 56.6 57.6 59 60.7 62.1 63.5 64 65.1 64.5 67.4 69.5 71.6 73.3 75.3 78.2 79.1 83.2 87.2 90.4 95.1 100.4 103.6 106.4 107.3 108.1 105.4 103.4 102.5 100.3 97.5 93.3 90.3 86.8 83.7 81.4 80.5 80.2 79.2 79.1 80.6 82.5 83.1 82.6 80.7 78.5 75.9 73 70.1 67.9 65.9 63.4 61.3 59.1 56.5 48.8 46.9 45.9 45.5 44.1 43.3 41.6 40.7 40.1 39.8 43 44.5 44.4 43.6 45.2 44.6 43.6 43 42.8 42.4 42.9 43 42.6 42.1 41.6 40.5 39.5 36.9 35.4 34.8 34 32.2 30.4 29.6 29.5 28.8 28.6 28.6 26.6 24.5 22.3 25.7 26.4 25 24.7 19.1 10.8 8.2 9.4 9.5 12.3 20.7 22 22.8 24.5 25.6 25.3 25.8 28.3 30.7 33.4 35.4 36.9 38.2 38.4 38.6 38.9 39 38 37.3 35.9 34.5 33.9 34.1 34.9 35.9 37.4 38.7 41.3 42.2 43.2 43.8 43.6 43.1 42.4 42 42.2 43.3 44.4 44.7 44.7 44.7 44.8 44.8 45.2 45.2 47.1 48.1 50.3 52.1 54 55.4 58.7 61.1 62.7 63.8 64.3 63.7 61.9 60.3 59.1 56.2 52.3 48.8 46.1 43.5 41.8 41.7 42 42.1 42.5 41.9 41.3 40.7 39.6 38.9 38.6
48.7 45.6 44.6 44.6 42.9 42.6 42.5 43.3 44.2 45.9 47.4 47.5 45.8 47.9 49.8 52.2 55.3 55.5 55.2 55.9 56.1 57.5 59 61 63.4 65 66.7 68.5 70.1 74.9 76.8 77.9 80.1 84 86.4 88.5 91.8 95.7 99.1 104.2 106.3 109.5 111.8 112.8 111.4 111.2 108.2 104.2 100.3 95.9 92.9 88.7 83.7 83.4 82.6 82.1 81.6 82 84.4 85.2 83.5 82.4 80.1 77.6 75.4 73.3 70.9 67.7 65.9 63.9 61.8 59.1 56.2 53 50 47.9 47.1 46.1 46 46.1 48.4 49.5 50.7 50.8 50.3 48.3 47.2 47 47 45.9 45.5 45.3 44.3 44.7 45.3 44 43.2 42.4 41.5 40.1 39 35.8 34.6 33.8 32.3 30.8 30.4 30.3 29.8 28.4 28.4 27.5 25.2 22.9 22.3 21 23.6 20.4 15.2 14.9 9.6 8.7 9.6 12.2 16.7 19.4 22.2 25.8 26.4 29.8 28.5 29.6 30.9 34.3 37 39.2 40.7 41.2 41.5 41.7 41.1 39.7 38.7 37.2 36.2 35.9 35.9 37.2 38.7 39.8 40.5 43 44.5 45.5 46 45.8 45.4 44.8 43.8 43.2 43.9 45.4 47.1 47.4 46.9 46.9 46.9 46.7 46.2 46.3 50.4 52.4 54.6 55.8 57 59.6 61.9 63.7 65.2 66.4 65.3 63 61.3 58.6 54.7 51.2 47.9 46.4 44.7 43.6 43.8 43.9 43.7 43.6 42.9 42.2 41.6 40.5 39.1 41.1
51.7 48.6 47.9 47.5 47.5 46.1 44.4 43.1 42.9 44.3 44.2 45.7 47 47.7 48.4 49.2 50.2 51.8 53.4 54.2 54.2 56.5 58.4 60.2 64.7 66.8 69.1 71.4 74.9 80.1 80.4 80.8 84.1 87.9 90.3 93.6 99.8 106.6 108.5 111.8 114.2 117.2 120.6 122.9 122.4 120.7 118.3 112.4 105 97.4 95.7 92.4 83.4 84.1 84.8 84.9 85.1 87.6 88 87.5 84.5 81.6 79.2 76.7 74.4 72.2 70.9 67.1 65.1 63.1 60.9 60.2 58.4 57.2 55.7 53.6 54.1 52.8 52.3 51.9 53 54 54.2 53.8 53.4 51.7 50.3 50.3 50.4 49.1 49 48.7 47.1 46.8 48.4 46.6 44.9 43.6 42.7 41.6 41.2 38.2 36.4 34.4 32.9 32 31.8 30.9 30.4 29.1 28.1 27.1 25.6 22.6 22.2 22.2 19.7 17 18 16 13.8 9.6 10 13.4 14 19.3 20.3 22.9 30.2 30.1 29.2 31 32.8 36.5 39.1 41.3 43.1 43.6 44.3 44 43 41.6 40.4 39.6 38.8 38.3 39.1 40.1 41.8 42.2 42.3 44.3 46.2 47.6 48.2 48.1 47.7 46.5 45.5 44.6 44.8 46.3 48 49.5 49.2 48.8 48.8 48.8 51 59.2 58.9 58.1 59.1 57.6 67.5 67.7 65.3 66 66.3 67.4 67.3 65.7 63 58.7 54.8 51.2 48.5 47.5 46 45.7 46 45.7 45.4 44.6 43.9 43.2 42.6 41.4 39.4 41.2
53.9 53.4 53.9 52.9 52.6 47.7 45.5 45.4 44.6 45.5 47.3 48 47.7 48.4 49 49.7 52.7 55.2 53.7 54.4 57.3 58.7 60.8 60.6 63.2 67.7 71.1 74 79.8 84 83.1 83.4 84.3 88.1 93.7 97.6 107.3 114.8 122.4 123.7 126.8 129.4 132.7 135.7 135.9 131.8 125 121.2 108.6 99.4 97.2 98.8 92.9 84.8 85.5 86.6 87.9 91.1 88 87 85 81.5 77.9 75 73 71.2 69 66.6 64.1 62.2 60.5 60.1 59.7 58.7 57.9 58.4 58.8 58.4 57.8 57.1 57.7 58.2 57 57.5 56.6 54.9 53.8 53.4 54.4 53.5 53.5 51.9 51.5 50.9 51.7 51.4 49.3 46.5 44.6 42.7 40.9 39.3 37.1 35.8 35.8 35.7 34.7 32.9 31.6 30.3 27.9 27 26 23.1 21.6 22 20.4 18.5 17.4 15.8 11.8 10.5 10 14 14.3 26.1 31.8 29.5 27.8 28.2 26.6 30.3 36.5 38.2 40.5 43.5 46.1 47 47.7 46.9 45.8 44.4 43.5 42.8 41.7 40.7 41.2 43.1 46.7 46.4 45.2 45.9 48 49.5 50.2 50.4 50.1 48.8 47.4 46.2 46.2 46.9 48.7 50.2 51.3 50.8 50.6 50.4 51.9 56.4 61.3 64.6 65.6 65.3 71.7 69.7 68.3 68.3 68.2 69 68.8 67.7 65.4 60.8 55.7 52.2 49.4 48 47.8 48.3 48 47.7 47.5 46.6 45.8 45 44 41.9 42.9 44.9
51.5 54.8 61.4 59.9 55.2 50.9 50.9 50.9 51.1 52.6 52.6 52.6 51.4 49.9 49.7 50.4 52.3 55.3 55 55.1 56.4 59.2 61.4 64.3 64 69.1 73.6 76.2 79.5 82 84.3 85.5 85.8 89.5 97 101.2 109.1 117.8 126.9 134.5 139.6 142.9 145.4 148.5 147 140.2 129.6 121.9 108.8 103.8 102.1 96.9 95 91.3 87.9 88.3 90.1 88.2 86.8 85.9 84.9 80.4 75.4 72.2 70.2 69.3 67.4 65.9 65.1 63.3 61.1 59.7 60.5 59.8 59.2 62.2 63.1 63.7 64 63.1 64.2 62.5 61.7 61.8 61.1 60.8 62.2 63.9 64.4 64.1 64.8 64.4 61.3 59.6 58.9 57.4 55.7 52.6 50.3 48.4 46.9 42.5 41.3 40.3 40 39.8 38.4 37.6 36.4 35 33.2 32 30.8 26.5 24 22.9 21.3 20.5 19.8 17.7 12.4 10.7 11.6 17 24.7 33.3 38.1 40.3 41.1 41 41.9 42.6 42.8 45.2 45.7 47.7 49.6 50.9 50.8 50 48.9 48.1 47.5 46.8 45.6 43.6 43.2 44.7 47.2 47.7 48.7 49.4 50.1 51.4 52.4 52.8 52.5 51.2 49.8 48.4 48.3 48.6 49.4 50.9 52.4 53.7 53.1 52.5 52.3 54 55.3 59 66.2 70.2 73.1 71.9 70.3 70.3 70.4 70.6 70.3 69.4 66.9 61.9 56.5 53 50.6 48.4 50.6 51 50.5 50 49.6 48.8 47.8 46.6 44 44.2 47.1 49.4
51.8 54.8 59.8 58.9 56 53.3 56.7 57 57.3 57.3 56.7 54.8 53.5 52.2 51.2 51.6 52.9 55 56.6 58.3 59 60.5 62.1 66.6 64.4 69.4 74.7 77.8 80.3 82.1 84 86 87.1 92.3 98.6 104.2 110.6 117.4 127.8 137 146.5 154.1 160.1 161.4 156 142.3 132.5 122.3 112.5 111 102.8 97.1 94.8 93.6 92.6 91.5 91.2 87.4 85.8 84.9 84.8 79.4 75.8 73.2 71.6 69.9 68.3 67.1 66.2 64.3 64.6 60.9 63 65.2 66.4 68.2 69.3 69.8 71 74.8 78.8 79.9 79.5 79.3 78.6 79.5 78.6 80.7 83.2 83.3 82 80.2 78 76.3 74.4 71.8 68.9 66 61.6 59.5 58.2 55 51 51 49.4 49.2 47.1 45.6 45 43.5 42.6 40.7 37.3 33 28.2 23.7 23.6 22.3 23.4 20.5 12.4 11.7 19.2 34 37.5 49.1 54.4 56 55.9 54.9 53.4 55.4 55.1 55.5 56.4 55.7 55.6 54.8 54.5 54.2 53.6 54.3 53.6 52.7 51 48.5 47.1 47.4 48.7 50.2 51.6 52.4 53.1 53.8 54.5 55.2 54.8 53.6 52.1 50.9 50.7 50.8 51.6 52.4 53.8 55.7 56.5 56.6 56 55.1 56.4 58.3 70.2 74.6 75.4 74 72.2 72.2 72.3 72.4 71.7 70.9 66.2 60.8 56.4 53.1 51.2 51.2 53.4 53.8 53.3 52.9 52 50.6 50.7 47.3 45.1 49.1 52 53.8
52.1 53.7 55.8 57.9 57.2 56.6 59.8 61.7 62.1 61.2 58.6 56.1 54.8 53.9 53.2 52.7 54.1 56.5 59.4 67.1 70.9 69.1 67.7 69.2 69.3 68.4 72.5 77.6 81.6 83.3 85.1 88.2 90.6 95.9 101.6 108.2 114.5 122.4 132 138.1 149.6 161.4 173 173.5 159.3 148.6 136.9 127.1 115.5 111.8 105.9 103.1 100.7 99.1 95.8 93.6 90.7 87.6 85.4 83.2 80.9 79.2 78.8 77.6 76.7 72.6 69.2 67.7 68.2 69.3 70.6 71.1 71.3 73.6 74.6 77.5 80.1 85 87.9 91.9 95.3 97.4 98.3 99.1 100 101.6 101.5 101.9 103.8 103.2 101.3 100.5 100.2 100.7 97.3 94.1 92 88.6 85.2 81 78.4 76.5 74.3 72.2 71.8 71.6 69.6 68.5 68.5 69.5 66.5 61.6 44.1 33.6 28.8 24.3 20.1 17.2 15 13.7 15.3 19.4 39.8 54.9 66.6 73.8 78.6 82.6 82.6 81.9 82.1 77.7 74.6 71.6 72 70.9 70.3 69.1 60.4 60 62.5 61.1 60.1 59.8 58.1 55.8 53.6 52.5 53.7 53.9 54.3 55.2 56.1 56.8 57.5 58 57.8 56.1 54.3 53.4 53.6 53.3 53.7 54.3 55.5 57 59.8 60.3 58.9 58.7 59.8 60.9 71.8 76.5 77.1 75.9 74.2 74.1 74.1 74 73.1 69.8 63.6 58.8 55.5 53.6 53.2 55.2 56.9 56.6 56.3 55.7 54 52.3 51 48.2 46.4 49.4 54 54.9
51.5 53.2 55.2 57.6 59.9 60 62.2 63.6 64.8 63.3 60.3 57.5 56.7 55.9 55.1 52.7 54.9 57.6 62 68.8 71.8 72.2 73.7 74.8 75.1 75.4 73.1 76.1 80.1 83.5 87.2 90.9 94.8 99.6 104.9 111.3 117.7 126.6 135.6 144.8 156.9 168.2 180 178.8 165.9 156.4 141.1 127.3 118.4 114.8 109.2 104.7 102.5 101.6 98 95.9 93.8 90.2 88.8 87.8 87.1 86.3 85.5 85.1 83.4 77.2 71.3 70.9 74.7 81.7 83.8 84.4 85.2 89.4 94.6 99.3 104.2 106.4 108.5 112.1 114.7 115.4 116.7 118.2 117.8 119.9 120.9 122.8 123.1 122.9 122.5 120.7 117.7 116.2 115.1 113.8 111.5 110 108.3 105.4 101.9 100.8 98.8 98.6 97.9 95.1 95.5 95 95.9 95 87.7 67.8 42.9 29.6 24 20.8 17.9 14.6 12.5 12.8 13.2 29.2 48.1 65.4 76.5 84.6 90.5 93.6 94.5 94 91.7 89.4 87.2 86.1 85.7 85.1 84.7 83.7 67.6 63.6 71.6 83.8 80.6 79.2 76.3 71.6 66.6 60.2 59.6 59.3 59.6 59 60.4 61 61.2 61.6 61 59.2 57.1 57.8 57.4 56.3 56.6 57.2 58 59.4 61.7 64 63.7 61.6 62.7 63.8 66.8 80.6 79.4 77.7 76 75.9 75.9 75.4 72.5 66.1 61.9 59.2 57.3 56 57.3 58.9 65.4 63.1 59.5 57.7 56 54.2 52.6 51.1 49.6 48.5 52.1 55
51.3 53.1 55.1 57.8 60.2 62.2 64.1 65.3 66.3 64.5 62.7 61.4 59.3 58 57.8 56.8 55.9 57.1 61.1 62.4 67.8 70.1 71.6 73.3 75.2 77.7 77.7 79.1 80.6 82 87.2 92.5 98.1 101.7 105.3 110.5 117.6 129.9 138.3 150.5 163.6 174.7 183.1 177.7 160 150.9 135.9 125.7 120.1 116.7 112 107.7 105.8 103.4 101.4 99.8 99.6 98.1 96.3 97.8 98.9 98.2 99.6 97.6 90.2 75.9 73.5 83.8 96.6 103 106.5 99.4 105.5 114 120.2 123.3 124.5 127.4 130.6 133.1 134.9 136.6 136.1 137.3 135.1 135.8 135.7 136.3 134.5 131.8 130.4 127.5 124.4 123.5 122.3 120.7 118.6 116.6 113.9 112.2 110.4 109.7 108.7 106.9 105.1 104.3 103.1 102.3 103.2 103.5 93.3 64.4 38.4 26.7 21.2 16.7 10.6 16.6 30.9 29 13.6 28.9 53.5 70.5 81.7 90.3 97.4 101 100.8 98.9 97.2 94.5 93.2 93 93.4 93.2 93.3 91.6 82.3 69.7 84.3 92.6 94 95.8 95.9 93.6 91.1 83.7 77.5 74 69.4 63.2 64.3 67.2 66.1 66.7 65.4 62.7 60.7 61.4 60.8 59.4 59.6 60.2 60.8 62.3 64.8 66.5 67.1 65.9 65.6 66.2 69.3 80.3 79.2 78.7 78.1 77.7 77.5 75.8 71.1 64.7 62.6 60.6 59.3 58.9 61 66.2 72.2 72.2 62.9 59.4 57.5 55.6 53.4 53.8 51.9 50.5 51.9 52.8
52.5 53.9 55.5 57.4 59.8 62.1 64.3 66.2 68.9 70.8 69.6 65.9 63.7 62.5 61.5 60 58.1 58.1 54.9 61 61.7 65.3 67.9 68.6 72.1 76.7 79 80.3 82.1 83.9 87.4 92.2 95.8 100.4 105.2 111.5 120 131.3 140.9 153.7 167.5 178.8 178.8 170.7 157 141.2 134.6 128.5 123.7 118 114.4 112.3 110.2 108.7 108.2 108.5 110.5 112.1 113.5 116.8 116.5 116.4 115.8 109.9 88.2 76 86.8 101.8 114.4 124.6 130.4 128.9 130.6 138.7 144.1 143.7 143.5 143.9 141.8 141.9 141.5 139.2 138.3 136.3 135 133.2 132.7 130.7 129.4 127.1 125.6 123.3 121.4 120.9 119.9 119.7 120.5 119.3 117.2 115.1 112.2 110.3 106.6 104.9 103 101.5 100.2 97.6 97.2 97.1 90.2 65.6 42.9 27.1 16.8 14.5 31.7 48.5 59.4 47.1 20.5 22.4 51.7 69.4 80.2 86.6 91.2 94.4 93.9 94.5 93.4 93 94.2 95.1 97 97.9 98.6 97.5 92.9 78.4 80.9 93.1 97.6 100.5 102.6 104.2 103.1 101.8 101.9 95.7 89.2 84.8 80.1 78.7 75.3 74.2 71.8 69.4 67.5 67.3 66 63.6 63.3 63.3 63.9 65.4 68 69.9 70.9 70.6 68.8 69.8 72.6 77.7 81.1 81.6 80.2 76.8 76.1 73.5 67.3 64.2 62.8 62.4 62.2 62.3 63.4 68.4 73.8 73.9 65.9 60.4 59.1 57.6 57 55.7 54.9 53.7 54.6 55.8
