ncols 200
nrows 92
xllcorner 450000
yllcorner 74800
cellsize 50
100.2 102.4 109.8 101.3 89.9 84.1 94.1 106.4 105.6 92.3 81.8 74.8 69.1 64.2 62.3 68.5 67.7 65.6 62.5 63.3 61.7 59.3 55.7 49.7 50 52.3 52.9 51.1 48.1 46.3 47.4 48.4 50 51.6 52.7 54.1 55.7 58.3 61.3 66.2 69.2 74.7 85.9 91 86.8 78.1 83 87.5 95 100.9 105.3 109.4 114.5 124.7 137.3 144.3 148.1 150.5 151.7 153.4 156.7 156.9 154.7 156 162 166.2 165.6 166.4 168.4 171.4 175.8 186.1 193.3 200.9 211.7 218.2 221.5 221.6 217.8 211.9 202.3 190.9 173.2 153.4 142.2 131.2 123 116.3 109.6 104.4 99.8 95.2 90.6 87.2 83.7 81.2 84.3 89.2 95.8 101.4 111.1 118 120.9 121.2 118.4 115.9 112.2 108.4 105.4 105.6 104.4 103 91.2 95.1 103.7 110.9 117.5 121.8 125.5 127.9 120.9 111.4 109.4 113.3 118.8 118.9 119.4 125 139 142.6 144.9 146.1 144.9 143.4 144 147.1 151.5 158.3 166.1 179.8 193.8 211.2 222.8 230.5 227.7 220.5 209.7 197.3 183.6 168.8 156.3 150.1 142.4 135 118.9 104.5 95 89 85.6 83.3 81.2 78.8 74.4 70.9 66 45.3 14.1 0.3 -1.1 -1.1 -1.1 -1.1 -1.1 -1.1 -1.1 -1.1 -1.1 -1.1 -1.1 -1.1 -1.1 -1.1 -1.1 -1.1 -1.1 -1.1 -1.1 -1.1 -1.1 -1.1 -1.1 -1.1 -1.1 -1.1 -1.1 -1.1 -1.1 -1.1 -1.1 -1.1
93.9 92.4 96.7 96.9 89.5 85.6 86.5 96 94.3 85 76.2 71.2 66.2 64.4 65.4 65.4 66.9 64.2 62.2 63.1 63.8 59.2 53.3 52 53.5 53.9 53.4 51.9 49.5 45.3 48.4 50 51.6 52.4 53.2 54.7 56.1 59.8 64.1 71.9 78.9 79.3 87.9 92.1 90.2 85.4 82.2 86.8 92.6 97.8 102.5 106.8 111.2 118.5 128.3 137.1 139.9 142.3 144.6 145.7 147.1 144.6 143 150.1 157 161 160.8 159.9 161.1 162.9 167.4 174.4 184.5 194.4 203.8 211.2 217.6 220.9 218.7 213.3 203.7 191.9 177 155.8 144 133.2 124.8 116.8 110.5 106.2 101 95.3 91.1 87.5 84 82 87.8 93.7 100 107.1 118.5 123.7 125.5 125.3 124 122.2 118.3 114.7 114.5 113 110.7 108.8 100.5 93.8 99.8 107.2 113.5 117.7 119.5 117.7 110.1 106.9 114.5 124.7 132.8 134.8 123.4 122.1 131.7 138.2 137.1 135.8 137.1 140.5 142.1 144.6 148.7 153.9 161 172.2 187.5 205.6 219.9 229.2 229 222.6 213.9 202.7 190.2 175.9 158.7 147.9 141 128.7 115.1 104.7 99.1 96.6 86.8 80.2 76.8 74.8 70.2 65.6 55.5 18.9 1.1 -1.1 -1.1 -1.1 -1.1 -1.1 -1.1 -1.1 -1.1 -1.1 -1.1 -1.1 -1.1 -1.1 -1.1 -1.1 -1.1 -1.1 -1.1 -1.1 -1.1 -1.1 -1.1 -1.1 -1.1 -1.1 -1.1 -1.1 -1.1 -1.1 -1.1 -1.1 -1.1 -1.1
94.1 89.9 86.7 88 88.2 83.1 79.8 82.1 80.8 80.8 75.6 69.6 65.7 65.5 63 60.8 59.9 59.9 59.8 57.9 60 54.4 51 54.6 55 54.6 53.3 52.4 50.7 45.7 49.6 51.5 52.3 53 53.7 55.2 57.2 61.1 67.3 76.5 84.6 85.3 89.3 92.4 91.7 89.8 87.9 87.6 90.6 96 100.9 105.8 108.1 113.5 121.3 126.9 131 134.7 137.3 138.7 137.4 133.1 135 144.3 152 155.6 156.9 155.2 156 157.1 161.6 169.9 181 188.9 195.4 204.7 212.6 218 218.6 213.6 204.6 193.6 179.7 161.9 146.9 134.6 124.9 117.3 112.5 107.3 100.9 95.8 91.2 86.4 82 85.4 92 99.4 104.4 114 123.8 127.7 129.1 128.7 127.2 125.9 123.7 122.3 122.2 120 117.4 114.9 105.8 96.7 96.3 98.2 102.9 108 109.4 105.7 106.1 113.8 124.7 131.8 135.8 137.5 136.4 130.8 127.3 128.2 132.2 136.3 139.6 140.7 142.5 144.3 146.9 151.3 157.8 169.8 186.3 202.4 218.9 228.4 230.3 223.9 218.3 208.2 196.9 182 165.2 149.2 139.3 126.7 117.7 109 103.3 97.3 87.9 81.5 73.8 73.1 71.4 64.4 48 26.2 1 -1.1 -1.1 -1.1 -1.1 -1.1 -1.1 -1.1 -1.1 -1.1 -1.1 -1.1 -1.1 -1.1 -1.1 -1.1 -1.1 -1.1 -1.1 -1.1 -1.1 -1.1 -1.1 -1.1 -1.1 -1.1 -1.1 -1.1 -1.1 -1.1 -1.1 -1.1 -1.1 -1.1
98.3 93.8 90.2 86.5 81.6 78.1 75.9 75.9 75.1 74.2 72.4 68.7 68.5 66.1 61.6 59.3 58.8 58.7 56.5 54.7 52.4 51.6 54.8 56.2 56.2 55.3 54.4 53.2 51.1 46.9 50.3 52.3 53 53.7 54.4 56 58.7 63 70.7 82.2 85.9 86.9 88.6 91.5 93 93.7 92.5 90.1 91.4 97.1 102.7 107 107.7 109.2 113.1 119 122.8 126.5 129.7 131.3 128 124.9 130 141.3 146.3 150.2 152.5 148.9 148.2 152.4 156.9 163.4 171.5 176.6 189.7 200.1 210.7 217 217.2 212 203.9 193 181.5 167.5 148.2 135.9 126.5 118.4 113.1 107.7 102.5 97.4 88.6 84 83 89.3 98 102.7 107.9 118.7 126.6 130.9 132.2 131.3 130.1 128.9 127.7 126.9 126.4 124.7 123 119 108.6 99.7 97 99.1 98.6 98.8 100.7 105.7 114.3 124.9 130.9 133.7 136.1 137.7 138.1 138.5 137.8 137.6 138 138.9 140 141.8 143.7 146.5 149 151.5 155.8 167.3 182.4 201 216.3 226.9 231.1 228.6 222.3 214.4 202.9 186.6 171.3 153.6 143.7 134.4 119.7 112.3 100.5 91.5 84.8 79 76.1 76.1 76.3 70.6 66.8 47.7 8.7 -1.1 -1.1 -1.1 -1.1 -1.1 -1.1 -1.1 -1.1 -1.1 -1.1 -1.1 -1.1 -1.1 -1.1 -1.1 -1.1 -1.1 -1.1 -1.1 -1.1 -1.1 -1.1 -1.1 -1.1 -1.1 -1.1 -1.1 -1.1 -1.1 -1.1 -1.1 -1.1 -1.1
100.3 96.2 92.1 89.1 83 76.8 74.3 73.4 72.5 71.4 72.6 76.3 75.8 69.2 66.9 65.5 62.3 59.1 56.8 52.9 55.4 56.6 55.7 57 56.9 55.8 55 54 51.9 48.5 49.8 53.1 53.9 54.6 55.4 57.1 61.7 69 75.5 82.5 85.3 85.5 85.2 89.2 92.1 93.9 94.1 91.4 89.7 96.2 101.3 103.7 104.2 104.1 105.8 109.5 114.9 118.5 121.9 123.7 119.8 118 123.2 130.2 132.3 135.7 140.1 137.9 140 150.6 152.7 156.8 162.1 174.2 187.9 197.2 207.4 214.5 213.9 209.7 199.6 190 180.1 165.8 149 137.5 129 120.7 114.4 108.4 103.2 97.7 91.5 87.2 86.5 93.1 99.2 104.1 111.2 120.4 127.6 131.4 133.4 132.9 131.3 130.7 130.2 129.5 128.5 127.7 126.5 121.7 109.7 106 111.2 113.4 99.8 103.7 103.1 116.4 126.7 129.5 131.9 133.6 135.7 137.9 139.2 140.5 141.1 140.8 140.5 141.2 142.1 143.4 146.5 149.6 153.3 157.7 157.1 166.6 182 197.4 214 225.3 232.7 231.5 225.1 219.2 208.6 194 177.7 159.8 144.6 136.2 129.7 116.1 99.8 89.6 83.7 84.3 81.8 80.1 79.2 78.3 74.6 63.6 25.8 1 -1.1 -1.1 -1.1 -1.1 -1.1 -1.1 -1.1 -1.1 -1.1 -1.1 -1.1 -1.1 -1.1 -1.1 -1.1 -1.1 -1.1 -1.1 -1.1 -1.1 -1.1 -1.1 -1.1 -1.1 -1.1 -1.1 -1.1 -1.1 -1.1 -1.1 -1.1 -1.1
102.3 96.8 94.8 91.1 85.9 79.4 75.1 74.1 73.2 73.2 76.4 84 91.5 90.1 81.8 77.5 65.3 59.7 54.5 57.2 59 58.5 57.6 58.4 57.6 56.5 55.5 54.6 52.8 49.5 49.4 53 54.6 55.4 56.3 58.4 63.9 71.6 78.3 82.5 84.1 83.9 81.3 85 88.5 91.7 93.9 92 88.6 93.2 97 97.8 98.5 99.5 101 103.4 107.4 111.3 115.5 114.9 111.3 111.6 112.8 118.4 121.5 124.1 126.7 129.6 140.9 146.8 148.6 153.5 160.9 174 187.5 196.6 205.6 211.2 210.8 204.5 196.1 186.7 173 159.4 147.2 138.9 130.8 125.2 115.7 109.6 104.4 100.7 95.1 88.4 86.7 94.1 100.3 105.2 113.7 122 128.7 131.8 133.3 133.3 132.5 132.1 131.7 130.7 129.6 128.7 128.2 124.4 110.8 107.5 118.5 123.4 121.7 114.2 107 113 123.9 129.3 130.4 133.2 135.3 138.5 141.9 143.5 144.5 144.7 144.4 144.8 145.6 147.1 149.5 153.1 158 163.6 163.5 164.2 180.1 194.8 212.9 223.4 231.5 232.2 226.9 220.4 212.4 200.1 182.9 164.4 145.2 133.5 120.7 108 97.8 94.9 94.1 89.5 88 87.1 85.2 81.2 74 64.9 46.8 7.9 -1.1 -1.1 -1.1 -1.1 -1.1 -1.1 -1.1 -1.1 -1.1 -1.1 -1.1 -1.1 -1.1 -1.1 -1.1 -1.1 -1.1 -1.1 -1.1 -1.1 -1.1 -1.1 -1.1 -1.1 -1.1 -1.1 -1.1 -1.1 -1.1 -1.1 -1.1 -1.1
105.4 99.8 96.8 94.7 89.3 82.6 77.4 76.2 77 77.6 82.5 95.1 96 90.8 82.8 77.4 66.3 59.4 57.6 59.6 59.7 59.7 59.1 59.4 58.3 57.3 56.2 55.1 53.8 51.2 50.3 52.9 55.2 56.2 57.6 59.5 67.1 70.8 75.6 81.7 82.4 81.6 78.3 80.7 85 88.2 91.2 91.2 86.6 87.3 90.9 91.2 92 95.1 96.9 98.8 103 106.7 107.6 106.7 106.9 110.2 112.8 116.8 120 123.3 128.1 130.5 134.3 138.7 148.1 153.2 158.9 174.9 186.3 195.4 203.4 208.8 207.1 201 193 181.3 166.7 153.2 144.1 138.3 131.3 126.3 120.2 113.1 107.3 102.5 96.1 88.7 85.9 94.8 101.3 107.7 114 122.4 128.6 132 133.7 134.4 134.3 134.6 134.9 132.9 131.6 129.8 127.1 118.3 112.3 114.2 120.7 126.7 126.5 121 113.4 110.3 117.4 122.7 127.8 131.7 135.4 138.8 142.3 146 148.1 148.3 148.7 149.7 151.5 153.5 156.6 158.1 164.7 171.2 170.4 166.2 176.8 191 209.2 222.9 231.2 232.2 231.3 224.1 214.9 201.3 182.9 162.4 140.7 133.4 121.3 103.6 103.3 107.6 108.7 101.9 98.2 96.9 90.8 83.3 77.4 69.7 56.8 28.9 -1.1 -1.1 -1.1 -1.1 -1.1 -1.1 -1.1 -1.1 -1.1 -1.1 -1.1 -1.1 -1.1 -1.1 -1.1 -1.1 -1.1 -1.1 -1.1 -1.1 -1.1 -1.1 -1.1 -1.1 -1.1 -1.1 -1.1 -1.1 -1.1 -1.1 -1.1 -1.1
107.5 102.4 100 95.3 89.2 82.7 80.5 79.9 82.1 83.5 89 99 94.2 84.1 76.1 70.3 65.8 59.2 58 61 60.9 61 60.5 60.5 59.6 58.6 57.7 56.7 55.2 51.7 50.6 53.2 55.6 57.2 58.5 60.7 69.7 70.7 79.2 79.2 79 77.5 74.4 78 82 85 86.7 85.7 83 83.8 84.7 86 88.7 92.7 93.2 95.3 98.5 101.4 103.2 107.1 109.6 112.6 117.3 122.7 125.3 129.5 133.9 139.6 146.6 146.7 149.5 154.9 162.4 171.8 184.5 194.8 201.8 207.8 204.6 196.9 189.5 176.1 160.8 150.2 142.3 138.6 133.5 128.7 121.7 112.4 104.8 97.7 93.5 90.4 86.6 91.7 99.1 106.9 114.1 122.6 128.3 131.6 134.4 135.8 139.2 141.5 139.9 136.9 132.6 129.8 125 117.3 118.8 122.1 123.9 126.2 128.7 126.7 121.4 116.9 120.1 128.2 128.7 131.6 135.4 138.9 143.3 147 150.8 153.6 155.9 161.1 164.4 167.2 167.3 167.4 171.4 177.4 177.6 172.4 176.8 189.9 207.1 219.6 231.1 232.9 232.2 225.9 214.1 198.8 176.6 148.6 132.5 123.3 114.4 110.8 115.5 120.9 124.1 119.5 113.2 108.6 97.4 88.7 81.9 72.8 59.3 32.6 3 -1.1 -1.1 -1.1 -1.1 -1.1 -1.1 -1.1 -1.1 -1.1 -1.1 -1.1 -1.1 -1.1 -1.1 -1.1 -1.1 -1.1 -1.1 -1.1 -1.1 -1.1 -1.1 -1.1 -1.1 -1.1 -1.1 -1.1 -1.1 -1.1 -1.1 -1.1
113 107.8 101.9 93.2 86.4 87.8 84.9 83 87.3 97.6 99.7 101 93.3 81.1 73.4 68 65.1 60.2 59.4 62.6 63.2 62.9 62.4 62 61.2 60.2 59.3 58.4 57 54.2 50.6 54 54.6 56.6 58.6 61.1 65.8 69 75.4 73.4 72.5 72.4 71.8 73.7 76.9 79.8 81.5 80.8 81.2 83.1 84.8 88.9 93.4 96.1 97.3 97 97.9 101.5 105.6 109.2 114 119 124 128.8 134.1 141.1 145.6 149.7 153.2 154.7 155 160 166.7 178.4 188 195.8 202.2 206.3 201 194.3 185.5 172.3 157.6 147.5 141.3 138 133.3 125.9 116.7 109.3 103.9 100.2 98 94.7 91.9 89.5 97.9 106.3 114.9 122.7 127.2 132.1 135.6 142.8 148 146.5 146.3 142 135.1 129.7 123.2 125.9 132.2 132 130.3 129.7 130 130.1 130.1 127.3 123.2 127.8 130.8 133.1 135.8 140.6 144.6 150.1 154.3 159 167.3 173.6 178.3 180.1 180.6 179.5 179.3 183.8 183.6 178.3 178.9 191.3 206.3 219.6 230.1 233.4 233.7 225.9 212.2 194.7 166.9 137.5 129.8 126.1 125.2 128.2 131.6 135 137.4 137 129.6 127.2 107.3 93.6 84.8 77.6 63 40.7 10.8 0.4 -1.1 -1.1 -1.1 -1.1 -1.1 -1.1 -1.1 -1.1 -1.1 -1.1 -1.1 -1.1 -1.1 -1.1 -1.1 -1.1 -1.1 -1.1 -1.1 -1.1 -1.1 -1.1 -1.1 -1.1 -1.1 -1.1 -1.1 -1.1 -1.1 -1.1
117.2 110.7 101.7 94.5 92.8 95.6 91.4 87.5 90.4 96.1 100.8 99.2 93.6 81.7 72.6 66.9 64.2 61.1 60.5 64.4 65.7 65.2 63.4 64 62.9 61.8 61.3 60.5 58.6 56.2 51.2 52.8 55.8 56.4 58.6 59.6 62.1 62.8 65.5 67.3 67.2 68.4 71.4 72.4 73.1 74.4 76.7 79 81.9 85.9 90 92.6 95.2 97.8 100.2 101.2 102.4 106.7 111.1 116.4 123.1 129.6 135.4 140.1 143.8 147.9 149.2 152 155.5 159.3 162.7 166.7 175.2 183.7 191.4 197.5 203.6 204.9 199.2 191.4 182.4 169.8 155.9 145.7 139.9 135.6 126.7 119.5 116.6 115.8 111.6 106.9 103.4 100.6 95.4 91.8 97.8 106 114.4 121.5 127.8 133.3 140.5 151.4 157.2 157.5 154.6 146.7 138 131 128.3 132 135.7 135.4 133.4 132.3 132 131.4 131 128.6 128.2 129.7 132.8 135.8 139.8 145.1 152.6 157.2 160.4 169 177.9 184.9 190.9 194 195 193.7 190.3 190.2 190.2 186.4 183 192.1 207.4 220.6 231.1 235 235.4 226.2 211.5 194.1 163.7 137.8 134.3 136.5 138.2 143.9 151.7 159.8 154.4 145 137.3 130.9 112.3 94.8 82.6 75.9 65.8 43.1 12.5 0.5 -1.1 -1.1 -1.1 -1.1 -1.1 -1.1 -1.1 -1.1 -1.1 -1.1 -1.1 -1.1 -1.1 -1.1 -1.1 -1.1 -1.1 -1.1 -1.1 -1.1 -1.1 -1.1 -1.1 -1.1 -1.1 -1.1 -1.1 -1.1 -1.1 -1.1
120.7 115.6 106.1 100.3 103.2 105.8 101.9 96.4 88.7 86.4 89.3 94 90.5 83.6 73.3 66.8 65.3 61.5 62 67.8 68.3 67.6 66.1 69.1 67.7 66.1 65.3 63.7 60.4 58.1 53.7 52.5 55.4 57.2 58.9 60.2 61.2 63.5 66.7 68.5 69.7 73.4 77.1 78.4 77.9 77.1 77.5 81.5 84.4 88.5 92.5 95.1 97.7 101 103.2 105 108.7 113.6 118.4 125 130.9 136.1 141.1 145.9 147.6 149.4 151 153.7 157 160.7 168.6 174.5 182.3 188.6 194 200.5 205 203.4 197.3 188.8 179 166.5 153.7 144.4 140.2 134.9 131.5 128.5 125.9 125 119.3 112.9 109.2 105 93.7 93.7 100 108.1 116.2 123.2 128.5 135.3 146.1 159 165.8 166.7 161.6 152.7 143.2 134.8 130.9 133.8 138.7 139.6 137.9 136.3 135.1 133.7 131.6 130.1 130.6 132.1 135.1 141.4 151 161.4 167.2 169.5 171 177.3 189.2 199 206.6 209.8 209.9 207.5 203.7 201.3 197.4 195.3 192 195.3 210.4 223.5 231.9 236.2 235.5 227.4 211 188 162.6 147.2 147.6 158.4 163.7 171.3 176.6 170.4 158.3 147.1 138.4 133 115.3 92 77.7 71.6 60.7 37.1 10.8 0.4 -1.1 -1.1 -1.1 -1.1 -1.1 -1.1 -1.1 -1.1 -1.1 -1.1 -1.1 -1.1 -1.1 -1.1 -1.1 -1.1 -1.1 -1.1 -1.1 -1.1 -1.1 -1.1 -1.1 -1.1 -1.1 -1.1 -1.1 -1.1 -1.1 -1.1
125.2 121 114.4 109.9 113.7 111.9 106.9 101.4 93.8 85.4 82.4 84.9 83.3 77.2 70.9 69.5 67 61.7 65.1 71.2 69.9 68.8 69.9 73.4 72.2 71.3 72.1 67.9 64.3 60.6 56.4 52.8 54.3 57.9 59.1 61.2 64.3 67.9 73.4 73.9 76.4 80.5 83.1 84.7 83.6 80.7 80 84.1 87.8 90.9 95 97.7 101.3 105.1 106.9 110.2 115.1 119.5 126.3 132.4 137 141.6 146.1 148.1 147.9 148.4 150.3 153.2 157.5 162.8 170.7 179.6 185.1 191.1 196.6 204.3 207 203 196.4 187.6 175.1 161.2 150.9 145 143.2 141.6 138.4 134.5 130.8 127.9 122.3 115.7 111.4 100.7 93.7 97.5 103.2 110.9 118.2 124.8 130.2 138.5 153.1 166.5 172.6 171.9 168.8 160.9 150.8 140.7 137.6 136.5 141.8 144.1 143.4 141.9 139.3 136.5 134.4 134 135.5 138 140.5 151.5 164 172.1 178.1 181.6 183.3 186.4 198.7 209.6 216.6 219.2 220 218.4 216.3 212.1 208 206 201.9 201.4 213.7 224.4 233.9 238.4 237.3 229.4 210.1 189.4 168.5 167.2 175.8 186.2 188.6 194.4 192.4 177.8 163.4 152.5 142.6 132.4 112.7 86.1 74.4 66.4 55.1 33.1 5.2 -1.1 -1.1 -1.1 -1.1 -1.1 -1.1 -1.1 -1.1 -1.1 -1.1 -1.1 -1.1 -1.1 -1.1 -1.1 -1.1 -1.1 -1.1 -1.1 -1.1 -1.1 -1.1 -1.1 -1.1 -1.1 -1.1 -1.1 -1.1 -1.1 -1.1 -1.1
130.2 126 121.1 119.6 117.1 109.8 102.2 97.3 92.5 86.5 80.6 78.2 76.9 72.9 72.9 72.7 68 62.5 69.3 74.7 75.2 70.9 74.6 81.4 80.4 80.6 79.8 74.1 67.4 63.1 59 55.4 53.6 56.2 58.6 60.3 63.6 73.2 78.7 81.3 83.1 84.8 86.4 88.5 87.7 84.1 82.2 85.8 91.4 94.7 97.7 100.8 105.2 109 112.3 115.8 121 126.6 134.2 139.1 143.1 146.7 148.6 148.7 148.5 148.3 149.3 152.2 155.9 161.4 170.2 179.7 186.7 193.3 199.9 205.5 207.8 203.5 196.4 187 175.7 163.9 154 146 143 140.9 138.6 135.9 132.1 128.3 123.7 117.4 110.9 97.9 96.2 101.7 107.7 114.1 120.1 126.3 132.3 141.2 161.2 172.1 178.6 176.4 173.9 169.4 159.6 152.3 145.7 140.8 145.7 149.3 149 147.2 143.2 140 139.1 138.9 142.1 144.6 146 153.6 166.7 180 188.1 194.2 196.3 196.9 206.5 217.8 224.6 228 227.3 226.2 225 222.7 219.1 216.5 212.7 211.1 218.4 229.5 236.3 239.7 238.7 231.9 213.3 195.3 190 194.8 205.5 208.8 208 206.5 196.5 182.7 169.5 155.3 138.8 128.5 95.9 78.9 70.9 63.3 53.3 20.7 -1.1 -1.1 -1.1 -1.1 -1.1 -1.1 -1.1 -1.1 -1.1 -1.1 -1.1 -1.1 -1.1 -1.1 -1.1 -1.1 -1.1 -1.1 -1.1 -1.1 -1.1 -1.1 -1.1 -1.1 -1.1 -1.1 -1.1 -1.1 -1.1 -1.1 -1.1 -1.1
135.8 132.7 126.4 123 116.8 109.8 101 92.4 88.3 84.3 81.3 79.9 77.6 77.2 75.6 71.6 66.2 65.2 71 77.6 82.2 73.5 77.8 86.4 86.3 85.6 82.8 77.2 70.6 64.9 60.2 57.3 55.2 55.2 57.7 60.1 63.1 69.9 78.5 81.8 79.8 84.5 87.4 89.5 88.7 85.8 87.7 90.3 93.8 97.3 100.1 102.4 107.9 112.4 116.9 121.6 126.9 135 140.4 144.4 147.9 148.4 149 149.1 149 148.9 148.7 150.1 153.3 158.9 167.7 178.9 185.8 192.9 200.2 206.2 208.6 204.5 198 189.3 179.8 167 153.9 144.9 140.4 138.6 136.6 134.2 130.4 125.1 119.8 113.9 106.3 96.6 97.9 103.8 110.1 117 122.9 127.8 135.4 148.7 165.5 175.9 184.1 186.6 183.4 177.1 169.7 162.9 152.5 146.8 148.6 152.9 155.2 152 147.1 144.8 144.5 144.8 147.2 151.2 153 161.5 172.4 188.3 197.9 205.4 208.6 211.3 214.8 222.8 229 232.1 233.1 232.4 231.6 230.4 228.7 225.5 223.2 222.4 227.2 234.2 238.9 239.9 239.3 235 218.6 212.5 211.6 212.8 216.1 218.1 217.1 209.1 195.8 181.9 166.7 148.6 132.5 110.3 88.7 74 65.1 54.9 40.2 1 -1.1 -1.1 -1.1 -1.1 -1.1 -1.1 -1.1 -1.1 -1.1 -1.1 -1.1 -1.1 -1.1 -1.1 -1.1 -1.1 -1.1 -1.1 -1.1 -1.1 -1.1 -1.1 -1.1 -1.1 -1.1 -1.1 -1.1 -1.1 -1.1 -1.1 -1.1 -1.1
133.7 129.7 125.5 122.4 116.8 111.1 104.8 96.6 88.8 87.8 90.4 90.1 86.2 80.5 73.5 68 64.9 72.2 74.9 78.3 82.8 75.3 79 86.3 86.2 85.8 84 79.4 73.8 66.7 61.6 58.1 56.8 55.8 59.3 60.7 62.8 68.1 75.7 80.7 81.7 84.6 87.3 88.9 88.3 88.6 92.1 94.9 97.5 99.9 102.1 107.1 111.5 116.1 122.6 129.4 135 142.1 145.1 147.8 148.8 148.9 148.6 148.3 148.1 147.9 147 148.5 150.9 157.5 166.1 176.2 183.7 191 197.7 204.9 208.4 205.9 200.6 192.8 181.8 166.9 154.3 144.9 139.5 135 130.2 125.1 119.7 115.1 111.1 106.5 101.6 97.1 98.9 107.5 112.7 122.1 125.7 130 136.3 151.8 165.8 177 186.1 192.5 190 184.2 177.7 169.7 162.3 157 157.3 159.1 161.8 159.8 155.2 152.7 153 153.6 154.7 158.9 162.8 169.8 181.3 194.7 205.5 213.8 219.2 222.5 225.3 229.3 232.3 235 236.5 236.8 236 235.5 234.9 233.8 232.5 231.7 235.1 238.3 240.5 240.7 239.8 235.8 230.6 226.2 224.9 223.7 222.2 220.1 212.8 203 189.6 173.2 154.7 135.4 123.2 99.4 82.9 70.3 61.3 49.2 26.3 -1.1 -1.1 -1.1 -1.1 -1.1 -1.1 -1.1 -1.1 -1.1 -1.1 -1.1 -1.1 -1.1 -1.1 -1.1 -1.1 -1.1 -1.1 -1.1 -1.1 -1.1 -1.1 -1.1 -1.1 -1.1 -1.1 -1.1 -1.1 -1.1 -1.1 -1.1 -1.1 -1.1
130.1 124.8 120.5 118.3 115.1 109.9 103.9 97.2 93 93.7 93.1 88.5 81.7 74.2 68.4 67.7 74 80.8 83.4 81.5 82 77.3 80.7 84.8 85.6 85.2 82.5 79 74 66.7 61.6 60.5 57.8 56.1 59.5 60.7 62.9 65.8 73.8 77.7 80.2 82.9 85.2 87.2 87.8 89.7 93.8 97.9 101.7 104.4 107.3 112.1 116.8 122.7 130.3 137.3 142.6 145.5 147.9 148.6 148.5 148.2 148 147.6 147.2 146.2 145 146.5 148.9 154.2 159.3 172.6 179.6 186.9 194.5 201.3 207.2 208 202.4 196.4 188 173.7 163.6 153.7 144 138.2 133.2 127.6 124.2 115.7 110.2 107.1 103.4 99 99.5 112.6 117.1 126.8 127.9 131.1 136.3 150.9 165.5 176.4 186.4 194.2 195.3 191.7 184.4 177.2 170.9 169.9 170 168.9 168.8 167.5 165.8 166.4 167.1 166.6 168.4 170.8 174.9 181.4 190.9 202.6 212.9 220.8 225.1 227.7 230.3 232.4 235.4 237 238.4 239.2 239.2 238.7 241.2 240.5 239.3 238.1 238.7 240 240.8 240.6 238.5 235.7 233.1 228.5 225.1 219.8 211.9 207.6 202.3 191 173.9 157 138.8 123.8 114.7 97.2 78 65.8 57 46.2 13.1 -1.1 -1.1 -1.1 -1.1 -1.1 -1.1 -1.1 -1.1 -1.1 -1.1 -1.1 -1.1 -1.1 -1.1 -1.1 -1.1 -1.1 -1.1 -1.1 -1.1 -1.1 -1.1 -1.1 -1.1 -1.1 -1.1 -1.1 -1.1 -1.1 -1.1 -1.1 -1.1 -1.1
126.4 121.6 116.1 112.5 110.8 107.8 102.6 97 93.7 92.6 88 82.1 73.5 70.3 69.6 76 80.1 86.7 87.2 84.9 83.9 80 81.8 83.2 85.4 84.4 81.1 73.4 69.8 65.6 64.6 64.5 61.4 56.7 59.1 60.5 63.2 66.4 69.6 73.8 76.9 78.6 83.7 85.8 87 89.6 94.5 99.4 103.9 107.9 111.5 117 123.1 130.4 137.1 142.3 144.9 146.5 148 147.3 147.5 147.2 146.6 145.3 142.6 141.3 142.7 144.8 147.1 152 158.1 166.5 174.6 182.6 191.5 199 205.2 208.7 205.3 199.2 192.1 184.2 176.5 165.5 153.9 144.3 137.3 131.3 128.1 119.3 118.4 116.4 108.4 100.8 101.4 115.9 120.2 126.6 126.9 131.2 137.8 149.8 163.6 174.5 182.3 190.8 196.6 197.8 194 187.8 184.3 183 182.4 181.7 181.8 181.9 179.5 181.5 182.6 182.3 182.3 184.7 188.7 194.2 201.2 211.5 218.8 224.8 228.6 231.3 233.2 235.2 236.7 238.2 239.7 240.4 241.1 241.3 241.1 241.3 241 241.1 239.7 239.2 239.4 235.7 233 230.4 222.6 213.4 211.7 206.2 197.3 188 183.7 172.7 155.2 138.8 123.4 114.9 104.7 85.9 66.6 58.4 49.7 36.8 1.4 -1.1 -1.1 -1.1 -1.1 -1.1 -1.1 -1.1 -1.1 -1.1 -1.1 -1.1 -1.1 -1.1 -1.1 -1.1 -1.1 -1.1 -1.1 -1.1 -1.1 -1.1 -1.1 -1.1 -1.1 -1.1 -1.1 -1.1 -1.1 -1.1 -1.1 -1.1 -1.1 -1.1
123.2 117.2 113.6 108.9 104.5 105.2 101.2 96.8 90.7 87 83.3 77 72.3 73 72.6 79.3 87.1 89.5 89.9 89.3 88.2 85.1 84.2 84.4 85.6 85.4 81.4 75.5 71.1 66.7 67.5 70.6 64.9 58.4 58.4 60.5 63.1 66.6 69.7 73.5 75 77.4 81.2 83.1 85.4 89.2 94 99.5 103.6 107.8 113 120.3 127.5 133.3 138.5 141.6 143.1 143.2 142 139.4 138.9 140 140.2 134.7 132.6 139.9 144.8 145.5 147.3 150.2 155 161 170.1 181 189.9 197.3 204.8 209.2 208.7 203.3 197 191.1 184.8 176 166.7 151.9 140.6 132.8 128.9 125.7 125.8 121.8 113.2 104 104.8 118.7 122.4 124.8 126.7 131.4 135.9 146.5 160.4 170.1 177.8 184.1 189.8 195.5 196.3 196.1 194.8 193.7 193.1 194 194.4 193.7 193.7 195.6 197 197.1 197.1 197 200.1 205.4 212 218.1 224.3 227.7 230.9 232.8 234.6 236.2 237.7 239.2 240.5 241.1 241.4 241.7 242 241.8 240.8 239.9 238.4 235.2 229 220.1 214.6 216.5 208.3 196.2 193.1 187.3 178 165.5 162 149.3 134.9 121 114.1 106 99.3 78.4 58 53.7 42.7 20.5 -1.1 -1.1 -1.1 -1.1 -1.1 -1.1 -1.1 -1.1 -1.1 -1.1 -1.1 -1.1 -1.1 -1.1 -1.1 -1.1 -1.1 -1.1 -1.1 -1.1 -1.1 -1.1 -1.1 -1.1 -1.1 -1.1 -1.1 -1.1 -1.1 -1.1 -1.1 -1.1 -1.1 -1.1
123.5 121.4 116.2 109.3 100.6 98.7 100.1 96.4 90.4 83.5 77.6 73.5 80 86.2 79.5 76.1 87.2 90.5 92.4 93.4 92.1 88.9 86.2 85.5 85.1 84.4 83 78.5 71.6 67.4 74.7 75.5 69.2 62.6 59 60.2 63.1 65 68.4 72 73.5 74.9 76.7 79.9 84 89.1 92.7 98.2 102.4 105.8 109.8 118.4 124.8 130.1 134.9 136.4 137.1 133.6 126.4 123.8 123.4 124.2 125.6 129.4 138.4 145.9 148.2 149.4 150.7 153.5 157.6 163.4 170.9 181 188.8 196.6 204 209.3 209.1 208 202.8 197.7 191.9 183.2 173.6 160.7 143.9 134.9 130.3 128.3 126.8 122.5 114.1 105.8 105.7 116.3 122.9 125 126.7 129.7 133.5 141.3 152.5 162.8 169.3 174.4 179.7 184.8 189.4 193.6 197.7 200.4 202.6 203.2 204.6 207 207.3 208.4 208.5 208 208.7 209.2 211.3 215.5 217.7 223.3 226.3 228.8 230.6 231.1 233.6 234.4 236.5 237.7 239.3 240 240.6 241.3 240.6 239.6 239 236.2 226.7 218 211.7 200.5 190.6 196.1 193.1 174.4 167.4 166 157.8 144 135.7 125.3 115.9 111.6 107.1 100.3 93.8 74.3 59.9 51 34.2 9.2 -1.1 -1.1 -1.1 -1.1 -1.1 -1.1 -1.1 -1.1 -1.1 -1.1 -1.1 -1.1 -1.1 -1.1 -1.1 -1.1 -1.1 -1.1 -1.1 -1.1 -1.1 -1.1 -1.1 -1.1 -1.1 -1.1 -1.1 -1.1 -1.1 -1.1 -1.1 -1.1 -1.1 -1.1
123.1 121.4 117 111.1 102.9 94.8 91.9 91.2 86.4 81.7 76.7 76.1 85.5 92.5 89.2 78 81 88.5 92.5 94.1 96 94.4 88.6 85.3 82.8 81.8 81.9 79.2 71.5 72.3 77.3 75.9 69.1 62.8 59.2 60.2 60.6 61.6 62.6 66.6 69.4 70.9 74.3 77.9 82.3 88.9 93.5 96.6 99.8 103.5 106.9 113.5 119.8 124.6 127.3 128.1 126.1 119.5 116.2 116.1 118.2 122.7 128.6 135.5 146 149.3 151.9 153.4 155 158.5 162.7 167.9 174.1 179.8 187.7 194.7 202.2 207.4 210.6 211.3 208.8 204.8 198.5 189.8 179.8 168.1 151.9 138.5 132.9 129.2 126.9 124.4 116.9 107.2 104.6 110.8 121.7 124.2 125.5 127.4 129.9 134.4 142.2 149.7 157.2 162.7 168.7 173.3 178.8 183.8 191.9 198.3 203.4 208.2 210.3 212 214.6 215.8 216.6 216.5 217.8 216.8 218.4 220.8 223.1 223.4 223.9 223.3 224.2 223.1 224.6 227.6 232.1 234.2 236.6 237.6 237.5 237.9 235.2 232.5 232.7 223.6 208.8 191.9 190.7 184.8 165.3 172.9 173.3 163.2 148.6 143 132.8 123.4 117.6 112.8 106.2 103.9 97.8 95.7 90 71.1 53.7 47.2 14.7 0.4 -1.1 -1.1 -1.1 -1.1 -1.1 -1.1 -1.1 -1.1 -1.1 -1.1 -1.1 -1.1 -1.1 -1.1 -1.1 -1.1 -1.1 -1.1 -1.1 -1.1 -1.1 -1.1 -1.1 -1.1 -1.1 -1.1 -1.1 -1.1 -1.1 -1.1 -1.1 -1.1 -1.1 -1.1
118.8 119.6 116.1 111.7 103.6 96.6 91 86.7 82.9 78.9 76.5 77.7 84.1 90.7 89.5 82.1 80.8 87.8 91.8 95.6 100.5 100.7 93.8 88.3 84.3 82.3 79.7 77.6 72.5 74 78.3 76.5 70.3 64.6 60.6 61 61.8 62.3 61.5 64 66.6 68.8 72.4 76.1 82.1 86.3 91.2 94.9 98.6 101.6 105.1 108.4 114.1 117.7 119.9 119.8 114.1 110.9 110.4 114.6 121.3 130 139.2 144 147.2 150.6 154.4 157.1 159.3 161.3 162.8 167.5 172.9 177.8 184.4 191.4 197.7 204.7 209 211.4 211.1 208 203.7 196.7 186.6 175.4 157.7 142 135.2 131 127.4 124.5 117.7 111.5 105.1 108.2 119.4 123.7 124.9 125.2 127 128.4 131.8 137.6 142.7 149.5 157.2 161.7 167.2 172.8 182 191.1 199.1 206.8 212.2 216.2 217.6 219.8 220 220.1 221.9 221.3 221.1 220.6 219.9 215.7 210.7 207.5 204.4 203.7 208.4 214.1 218.9 224.7 232.3 234.3 232.7 224.4 216.9 213.8 214.6 210.9 190.6 169.9 165.9 165.6 153 150.5 156.5 148.1 136.6 127.5 119.6 112.8 110.2 105.7 99.9 93.2 87.6 78.8 70.5 59 46.7 29.3 0.9 -1.1 -1.1 -1.1 -1.1 -1.1 -1.1 -1.1 -1.1 -1.1 -1.1 -1.1 -1.1 -1.1 -1.1 -1.1 -1.1 -1.1 -1.1 -1.1 -1.1 -1.1 -1.1 -1.1 -1.1 -1.1 -1.1 -1.1 -1.1 -1.1 -1.1 -1.1 -1.1 -1.1 -1.1 -1.1
114.2 115.2 114.2 110.2 103.1 95.9 89.9 83.7 80.1 80.9 81.9 83 83.4 87.3 88.3 85.7 81.8 87.1 94.3 99.8 106.7 104.6 99.3 93.8 89.1 84.6 82.2 79.3 74.7 75 78.5 77.2 72.7 65.7 60.9 61.8 64.7 66.6 64.8 63 64.5 67.8 71.3 75.7 80.7 84.5 89.6 93.1 96.7 99.6 101.6 103 108.1 111 112.5 111.1 106.9 106 111.4 116.9 128.5 138.4 141.2 143.2 146.8 149.3 152.3 155 156.9 158.3 159.5 161.3 167.1 173.1 179.6 186.3 193.8 200.5 205 208.1 209.9 210.1 207.1 201.9 193.4 181.8 163.8 146.6 137.7 132.1 128.3 125.5 124.5 119.8 106.9 108.3 118.8 123.3 123.6 123.1 123.3 124.1 126 129.1 133.8 139 143.5 149.4 155.4 161.2 169.2 181.6 191.7 200.6 211 215.6 219.1 220.5 221.9 222.5 221.7 219.2 215.9 211 203.2 195.3 191.1 186.8 182.9 182.5 183.3 191.2 199.9 213.5 224.5 228.6 220.6 208.6 192.5 187.6 194.1 195.7 181 159.6 143.7 146 138 131.9 135.3 127.8 122.5 119.1 113.5 106.6 101.5 98.7 92.7 85.4 74.3 64.4 56.5 50.5 42.6 10.3 0.2 -1.1 -1.1 -1.1 -1.1 -1.1 -1.1 -1.1 -1.1 -1.1 -1.1 -1.1 -1.1 -1.1 -1.1 -1.1 -1.1 -1.1 -1.1 -1.1 -1.1 -1.1 -1.1 -1.1 -1.1 -1.1 -1.1 -1.1 -1.1 -1.1 -1.1 -1.1 -1.1 -1.1 -1.1 -1.1
109.1 108.3 109.1 106.3 98.7 89.3 83.3 85.4 88.7 90.6 91 89.5 87 90.2 90.4 87.5 85.7 83.5 88.7 95.7 101.2 101.9 101.9 96.8 91.8 87.4 82.3 78.5 76.2 79 79.5 77.5 72.7 67.1 61.4 61.9 67 71 68.9 65.5 63.2 67.3 72 78.4 81.1 84.2 87.4 89.9 93.5 96 97.5 99 100.7 103.1 104.1 102.9 102.7 104.1 109.6 119.8 133.8 139 141.1 143.2 144.4 144.3 149.5 151.4 151.5 151.5 152.4 154.4 158.5 164.3 172.8 180.4 186.8 193.6 198.8 202.2 205.8 208.1 209.2 205.9 199.3 188.2 170.9 151.8 140.2 134.4 129.1 126.1 123.4 114.7 108.9 108.7 116.7 122.1 121.3 121.1 120.7 121.4 122.3 124.3 127.2 131 133.7 138 142.8 149.1 157.5 168.8 183.2 193.7 206.6 213.5 217.8 219.8 220.8 219.7 216.6 209.7 198.4 189.6 179.4 172.1 167 163.7 159.6 157.5 162.2 173.6 188.9 206.7 218.4 217.2 208 192.6 171.5 162.7 171.1 173.9 164.7 152.8 134.2 125.1 122 119.4 117.8 114.8 112.1 105.8 97.3 88.9 85.8 85.2 81.9 75.1 61.8 46.7 47.1 44.6 39.8 1.7 -1.1 -1.1 -1.1 -1.1 -1.1 -1.1 -1.1 -1.1 -1.1 -1.1 -1.1 -1.1 -1.1 -1.1 -1.1 -1.1 -1.1 -1.1 -1.1 -1.1 -1.1 -1.1 -1.1 -1.1 -1.1 -1.1 -1.1 -1.1 -1.1 -1.1 -1.1 -1.1 -1.1 -1.1 -1.1 -1.1
105.7 101.5 104.2 102 90.9 85.5 88.8 92.8 96.8 99.3 100.1 96.9 96.5 97.7 96.2 95.8 95.2 90.7 88.5 91.5 97.4 99.8 98.8 93.2 88.2 84.1 81.4 79.4 78.2 80.7 80.5 76.8 72.3 66.7 62.7 65.3 69.5 72.1 71.2 68.1 64.2 67.2 70.7 75.4 81.3 81.9 84.5 87.2 89.7 92.2 94.8 94.7 98 100.1 100.7 98.6 100.4 104.4 111.4 125.4 135.6 138.8 140.6 142 142.4 142.8 144.9 146.9 145.6 145 145.7 147.7 149.7 156.7 164.7 172.7 178.3 184.3 189.6 195.1 198.6 204 207.6 207.8 203.7 194.3 179.8 157.8 142.7 134.1 128.8 124.6 120.9 118.4 112.9 109.5 110.9 113.6 116.1 117.6 118.6 118.9 120.5 121 123.6 126.3 130.1 131.9 135.5 140.6 149.3 156.8 173.7 187.1 201 207.2 211.7 217.2 216.1 213.5 203.3 192.3 177.5 165 156.7 148.7 141.9 139.5 144.1 153.7 167.2 180.6 196.2 206.7 205.5 202.4 197.2 179.5 155.6 141.5 147.7 154.2 148 136.4 124.1 117.6 113.8 110.4 103.2 87.1 76 74.3 74.5 75.7 79.9 76.5 67.4 57.7 45.8 43.5 40.2 35.8 22.5 1 -1.1 -1.1 -1.1 -1.1 -1.1 -1.1 -1.1 -1.1 -1.1 -1.1 -1.1 -1.1 -1.1 -1.1 -1.1 -1.1 -1.1 -1.1 -1.1 -1.1 -1.1 -1.1 -1.1 -1.1 -1.1 -1.1 -1.1 -1.1 -1.1 -1.1 -1.1 -1.1 -1.1 -1.1 -1.1 -1.1
106.6 99.3 97.8 93.7 88.3 93.3 98.6 101.6 103.6 106.6 104 101.9 102.2 104.6 104.8 103.5 102.1 98.4 96 95.9 99.9 98.3 93.9 90.6 89.6 89.1 85 81.3 80 80.9 80.4 76.4 72 65.9 62.3 66.5 70.7 73.2 72.5 69.4 66 66.7 69.6 73.4 75.4 78.9 82 84.5 87.1 89.8 90.7 91 94 95.8 96 97.4 99.1 103.4 112.4 129.5 134.8 138.3 139.6 140 139.8 140.1 140.7 142.5 141.1 140.5 140.5 141.4 143.4 146.3 153.2 163 168.9 173.8 179.1 185.4 192.7 199.4 204.5 207.9 206.2 200.2 187 165.3 146.8 136.2 129.4 126 123.2 122.4 117.1 113.6 112.6 113.3 114 114.9 115.8 116.8 117.9 119.1 122 122.8 126.3 128.5 131.2 135.9 142.2 152.1 166.7 181.9 194 202 206.4 209.3 212.7 205.5 191.3 173.9 155 143 133.1 125.3 129.9 140.6 154.1 169.2 186.4 196.9 201 200.9 190.8 186.9 180.8 164 142.1 126.8 125.1 131 124 117.6 111.3 106.3 101.4 82.4 73.8 71.4 68.8 66.6 66.4 67.2 59.4 54.2 49.4 42.9 41.8 37 33 28.2 1.6 -1.1 -1.1 -1.1 -1.1 -1.1 -1.1 -1.1 -1.1 -1.1 -1.1 -1.1 -1.1 -1.1 -1.1 -1.1 -1.1 -1.1 -1.1 -1.1 -1.1 -1.1 -1.1 -1.1 -1.1 -1.1 -1.1 -1.1 -1.1 -1.1 -1.1 -1.1 -1.1 -1.1 -1.1 -1.1 -1.1 -1.1
110.6 102.2 94.1 91.7 97.3 103.3 106.3 107.7 108.8 109.5 107.9 107.7 109.1 110.2 110.8 108.5 107.2 105.5 102.8 99.5 101.9 100 96.1 96.3 94.7 91.9 86.5 82.8 82.2 80.1 78.6 76.8 71.5 65.5 64.6 69.1 72.5 73.2 72.9 71.2 68.8 67.5 68.8 70.9 73.2 76.5 79.4 81.9 84.3 85.6 86.5 88.3 89.8 91.1 94.3 95.9 100.7 107 116.9 129.5 134.8 137.6 138.2 138.5 138.3 138 138.7 138.9 137.3 136.6 136.7 136.9 138.8 141.3 145.9 151.5 158.3 166 170.4 174.8 184.2 195.3 201.7 206.3 208.3 204 191.7 169.6 152.6 140.3 133.9 130.2 125.7 123.1 120.5 120.1 118.5 118.8 118 118.7 119.1 119.5 119.4 119.2 119.5 121.9 123.3 125.8 126.7 132.6 137.1 147.9 158.2 174 186.3 195.9 199.1 201.6 203.4 198.3 176.1 155.7 138.8 124.5 118.1 127.6 143.1 158.6 173.8 189.9 200.6 201.6 195.8 186.7 178.1 173.3 165.8 151.1 131.4 115 103.5 98.6 97.9 92.1 86.7 77.6 70.8 65.7 62.4 61.6 55.3 53.7 54 52.6 45.9 43.8 41.3 36.8 34 26.2 24.7 14.9 -1.1 -1.1 -1.1 -1.1 -1.1 -1.1 -1.1 -1.1 -1.1 -1.1 -1.1 -1.1 -1.1 -1.1 -1.1 -1.1 -1.1 -1.1 -1.1 -1.1 -1.1 -1.1 -1.1 -1.1 -1.1 -1.1 -1.1 -1.1 -1.1 -1.1 -1.1 -1.1 -1.1 -1.1 -1.1 -1.1 -1.1 -1.1
111.3 102.2 94.5 98.4 103 107.3 110.3 112.1 114 113.4 112.5 113.1 113.9 115.2 115.1 114.1 112.9 110.3 107.2 104.2 104.7 102 100.8 101.1 98.6 94 90.6 86.9 81.3 78.2 76.8 76.3 70.7 65 65.8 70.6 73.1 73.1 73.3 72.9 71.2 67.8 68.1 70.2 72.3 74.2 76.7 79.2 80.5 81.6 83.3 85.3 87.6 90.7 94.8 100.6 106.5 113.7 123.4 130.3 135 137 137.2 137.1 136.8 136.4 137 136.5 135.1 133.9 134 134.5 136.2 138.5 142.4 146.8 153 159.7 162.5 167 175.9 189.7 198.5 205.4 208.9 207.3 200.7 180.8 163.8 149.4 140.2 133.3 127.7 126.2 125.8 125.1 124 123.9 123.2 124.3 124.4 123.5 123.3 122 122.4 122.1 123.6 123.7 126 130.2 135.5 141.8 150.4 164.3 178.8 186 189.7 191.8 193.1 188 168 144.6 125 114.7 115.1 137.8 160.7 178 192.4 196.3 193.6 188.2 175.2 163.4 154.1 144.4 131.7 117.3 98.4 83.5 75.1 72.9 67.6 69.3 67.2 63.1 53.4 51.4 47.4 45 43.1 42.3 50.2 44.3 41 37.2 33 29.3 26.2 15 4.7 -1.1 -1.1 -1.1 -1.1 -1.1 -1.1 -1.1 -1.1 -1.1 -1.1 -1.1 -1.1 -1.1 -1.1 -1.1 -1.1 -1.1 -1.1 -1.1 -1.1 -1.1 -1.1 -1.1 -1.1 -1.1 -1.1 -1.1 -1.1 -1.1 -1.1 -1.1 -1.1 -1.1 -1.1 -1.1 -1.1 -1.1 -1.1 -1.1
107.4 101.1 97.2 100.3 105.5 109.5 112.5 114.3 116.2 118.2 117.7 117.7 118.9 119.8 121.3 119.9 118.4 116.3 112.2 110 107.2 104.5 104.5 104.5 101 98.3 95 90.5 84.6 79 74.2 73.7 68.5 63.6 67.1 71.4 73.5 74.1 74.4 74.4 73.2 69.6 68.4 70.7 72.7 73.3 74.9 76.7 78.3 80.4 83.5 87.8 91 94.4 101.7 110.3 117.6 125.2 130.4 134.2 135.6 135.9 136.2 136 135.6 135.2 134.9 134.8 133.3 132.1 131.8 132.4 134.1 136.7 140.2 145.2 149.8 153.1 154.6 159 169.7 186.1 198 204.2 209.1 208.3 204.4 196.1 180.5 162.2 146.8 137.2 133.7 134.5 133.6 132.2 131 130.6 130.7 131 130.6 128.9 127.2 126.6 126.6 127.3 127.6 128.9 126.5 128.6 133.2 139.7 145.7 152.7 166.7 176.2 180.6 181.5 183.1 178.7 156 132.3 115.7 108.5 118.7 147.6 171.5 182.6 181.6 175.3 169.5 159.5 142.9 131.7 121.8 110.5 98.1 83.9 73.3 63.5 59.2 55.2 52.3 49.1 42.3 37.6 37.3 36.9 37.4 38.1 40.1 49.8 49 34.2 32.3 29.4 25.3 22.4 15.8 4.3 -1.1 -1.1 -1.1 -1.1 -1.1 -1.1 -1.1 -1.1 -1.1 -1.1 -1.1 -1.1 -1.1 -1.1 -1.1 -1.1 -1.1 -1.1 -1.1 -1.1 -1.1 -1.1 -1.1 -1.1 -1.1 -1.1 -1.1 -1.1 -1.1 -1.1 -1.1 -1.1 -1.1 -1.1 -1.1 -1.1 -1.1 -1.1 -1.1 -1.1
102.4 100.7 100.4 100.5 103.5 109.1 113.9 117.2 120.6 123.2 123.3 122.6 123.8 127.3 129.2 130.2 130.7 126.8 122.2 117.9 114.5 111.2 109.5 106.1 102.2 99.4 96.5 93.3 86.9 80.3 76.1 72 67.2 65.1 68.1 70.8 71.8 72.7 74.8 75.3 74 72.7 70.5 71 72.5 72.8 74.2 77.2 80.1 82.7 86 90.6 95 100.1 109 118 123.5 128.8 133.4 135.2 134.5 134.8 135.1 134.9 134.5 134.2 134 133.3 131.8 130.7 130.1 130.4 132.5 135.6 138.3 142.4 145.7 146.3 149 156.8 171 187.3 197 203 209 208.8 206.6 201 193.4 178.3 162.9 149.9 147.6 147.8 146.1 143.8 142.5 142.1 141.1 140.6 139.6 137.4 135.6 133.2 134.7 138.5 136.1 133.1 129.7 128.8 131.5 135.9 140.9 147.9 154.4 162.8 168.5 168.8 170.6 167.1 147.9 117.8 89.5 90.1 120.7 148.1 164.2 161.4 152.8 143.8 134.9 125.3 108.4 97.6 88 78.5 74.1 69 65.2 59.2 54.7 46.4 43.9 52.1 53.2 49.6 45.3 39.5 41.4 41.7 35.2 32.3 34 34 32.9 24.5 15.6 7.3 3.5 0.4 -1.1 -1.1 -1.1 -1.1 -1.1 -1.1 -1.1 -1.1 -1.1 -1.1 -1.1 -1.1 -1.1 -1.1 -1.1 -1.1 -1.1 -1.1 -1.1 -1.1 -1.1 -1.1 -1.1 -1.1 -1.1 -1.1 -1.1 -1.1 -1.1 -1.1 -1.1 -1.1 -1.1 -1.1 -1.1 -1.1 -1.1 -1.1 -1.1 -1.1
103.8 105.6 106.8 107.3 107 110.2 114.3 119.1 124.3 128.3 131.4 132.6 133.1 138.7 146.5 150.7 148 138.7 127.6 121.4 117.3 113.2 109.4 106 101.8 98.8 96 92.8 88.5 81.8 77.4 72.2 67 66.6 68.5 69.4 70.3 72.4 74.8 76.9 76.4 74.7 74.1 72.2 72.3 71.2 74 76.7 80.4 84.8 88.3 93.1 97.7 103.7 113.8 123 128.3 132.8 135.1 135 134.2 133.7 134 133.9 133.5 133.2 132.7 131.6 131.2 129.1 128.6 128.8 130.4 132.3 135.3 137.8 139.6 142.1 150.1 160.8 173.8 188.7 197.9 204.4 209 208.9 207.7 203.8 198.8 192.5 183.3 173.1 169 165.8 162.1 160 159 157.7 157.2 154.7 152.2 150.1 148.5 146.6 147.8 147.3 143 136.2 130.7 130.5 130.4 133.1 138.3 143 147.2 152.8 155.5 159.2 155.2 150.2 137.9 110.2 89.4 90.3 119.8 137.4 133.9 126.5 119.6 110.2 99.1 88.6 76.4 70.5 71.9 66.7 66.3 65.5 60.7 56.2 49.4 48.8 51.4 45.2 44.4 40.4 38 35.7 36.5 35.8 34.7 33.5 34.3 28.8 25 21 5.3 -1.1 -1.1 -1.1 -1.1 -1.1 -1.1 -1.1 -1.1 -1.1 -1.1 -1.1 -1.1 -1.1 -1.1 -1.1 -1.1 -1.1 -1.1 -1.1 -1.1 -1.1 -1.1 -1.1 -1.1 -1.1 -1.1 -1.1 -1.1 -1.1 -1.1 -1.1 -1.1 -1.1 -1.1 -1.1 -1.1 -1.1 -1.1 -1.1 -1.1 -1.1 -1.1 -1.1
109.9 111 111.9 112.3 113.5 116.1 118.2 121.9 126.9 132.5 139.2 146.3 152.8 155.8 157.4 155.3 148.2 136.8 127.9 121.6 118.1 113.3 107.4 105.4 100.9 97.4 93.1 90.2 86.9 82.5 76.5 71 66.4 68.1 70.3 71.3 71.7 73.4 75.9 79 78.7 77.5 76.2 75.9 77.2 73.5 73.2 76.6 80.6 85.1 89.7 94.5 99.4 106.9 118.9 126 130.3 133.7 134.8 134.7 134 133.3 133 132.8 132.4 131.9 131.3 130 129.5 128.3 127 127.3 129.2 131 131.9 134 137.7 143.8 155.1 166 176.9 190.2 199.1 204.9 208.5 208.6 207.4 204.9 201 197.2 194.2 191 189.7 185.9 181.8 179.2 177.2 174.3 173.5 171.7 168.2 165.5 163.2 160.8 160.8 159.7 151.8 143 135.8 131.1 130.7 132.5 136.1 139.4 143.8 146.1 148.3 147.8 146.9 133.7 121 89.5 90.4 106.6 98.3 100.3 96.9 91.6 87.4 81.6 77.2 71.9 64.3 66.1 67.3 64.3 54.3 48.7 53.6 52 52 50 44.5 43.4 43.2 40.5 37.6 34.6 34.9 34.6 35.2 35.4 29.9 16.3 11.5 10.2 -1.1 -1.1 -1.1 -1.1 -1.1 -1.1 -1.1 -1.1 -1.1 -1.1 -1.1 -1.1 -1.1 -1.1 -1.1 -1.1 -1.1 -1.1 -1.1 -1.1 -1.1 -1.1 -1.1 -1.1 -1.1 -1.1 -1.1 -1.1 -1.1 -1.1 -1.1 -1.1 -1.1 -1.1 -1.1 -1.1 -1.1 -1.1 -1.1 -1.1 -1.1 -1.1 -1.1 -1.1
114.4 115.2 116.5 117.7 118.9 119.4 122.3 126.5 133.2 139.8 150.9 156.4 159.8 161.8 159.3 154.9 145.2 133.6 125.6 120.3 116.2 110.9 105.9 103.7 100 95.5 91.2 86.9 82.9 79.8 74.7 70 67.2 71.2 75 75.2 75.1 74.2 75.6 78.8 80.1 80 81 80.6 80 77.9 73.6 76.4 81.1 85.7 89.5 94.8 100.8 110 121 128 131.7 133.7 134.1 134.2 133.7 133 132.3 131.6 131.1 130.5 129.9 128.3 127.7 126.8 125.9 126.2 127.4 129.2 130.5 133.3 138.5 145.6 157.2 168.1 180.3 191.8 199.8 205.5 207.2 206.9 205 202.4 199.6 197.3 196.1 195.6 195.3 195.5 196.7 193.9 192.2 189.3 188.4 186.2 185.4 180.9 177 175 173.7 171.4 162.9 151.3 140.4 134 132 134 134.9 137.2 139.6 142 143.2 141.2 141.7 125.5 104.9 89.4 88.6 87.7 85.5 84.2 82.6 84.1 84.6 85.6 81 64 64 64 58.3 48 47.7 45 54.9 62.4 55.6 50.2 45.2 44 40.9 38.7 34.5 27.6 23.6 23.6 28 21.5 19.2 9.5 3.2 -1.1 -1.1 -1.1 -1.1 -1.1 -1.1 -1.1 -1.1 -1.1 -1.1 -1.1 -1.1 -1.1 -1.1 -1.1 -1.1 -1.1 -1.1 -1.1 -1.1 -1.1 -1.1 -1.1 -1.1 -1.1 -1.1 -1.1 -1.1 -1.1 -1.1 -1.1 -1.1 -1.1 -1.1 -1.1 -1.1 -1.1 -1.1 -1.1 -1.1 -1.1 -1.1 -1.1 -1.1 -1.1
120.1 121 122 121.3 121.9 124.8 128.4 136.4 142.2 152 159.5 163 164.4 162.9 159.2 152.7 142.3 132.5 124.6 119 113.6 109.5 104.5 100.8 97.7 92 87.5 83 79 76.1 72.7 68.4 70.1 75.3 79.5 81.1 80.6 78.7 77.7 79.4 80.7 83.3 84.5 85.2 83.5 79.9 76.3 75.9 81.4 86.3 89.4 95.2 101.3 110.9 120.5 127.6 131.5 133 133.4 133.4 133.3 132.3 131.2 130.2 129.7 129.2 128.7 127 126.2 125.5 124.7 125.2 125.9 127.2 130.2 133.6 139.6 146.3 158.4 169.6 181.6 192.4 200.2 204.2 205.3 203.5 200.3 196.6 192.5 190.5 191.6 192.9 193.7 195.7 197.8 196.5 196.6 195.6 194 193 193 190.2 188.5 186.3 184.3 179.4 171.6 157.9 146.7 137.3 135.8 135.7 136.4 135.8 138.4 139.6 139.6 132.5 135.7 119.3 96.3 84.9 82 79.6 75.5 76.3 79.5 77.4 79.5 77.1 58.1 56.2 54.6 56 52.6 47.9 45.9 47.6 63.2 62.3 50.9 47.2 43.4 37.9 29.2 26.3 27.9 27.6 28.7 28 19.1 9.7 -1.1 -1.1 -1.1 -1.1 -1.1 -1.1 -1.1 -1.1 -1.1 -1.1 -1.1 -1.1 -1.1 -1.1 -1.1 -1.1 -1.1 -1.1 -1.1 -1.1 -1.1 -1.1 -1.1 -1.1 -1.1 -1.1 -1.1 -1.1 -1.1 -1.1 -1.1 -1.1 -1.1 -1.1 -1.1 -1.1 -1.1 -1.1 -1.1 -1.1 -1.1 -1.1 -1.1 -1.1 -1.1 -1.1 -1.1 -1.1
125.9 126.8 126.9 126 130.5 137.2 142.4 148.3 157 163.2 165.4 165.7 164.7 162.6 157.5 150.9 141.8 130.7 124.1 118.9 111.7 109.5 105 100 96.8 89 84.2 79.7 75.6 73.1 70 68.6 72.6 78.6 82.9 85.5 86 84.6 83.2 84.3 86.6 88 88.4 87.9 86.3 83.6 79.3 74.1 81.5 86.6 90.8 96.1 101.6 110.6 119.7 126.8 130.7 132.2 132.6 133.3 133.8 132.5 131.4 130 129 128.2 127.3 125.9 125 124.3 123.5 123.7 124.6 127.1 129.9 134.2 140.3 149.9 160.4 171.1 183.7 193.2 199.8 202.3 201.3 198.4 193.9 187.6 177 172.4 179.2 184.9 187.8 190.8 194.7 196.1 194.9 194.1 193.3 192.3 191.2 189.7 189.1 186.6 186.2 182.2 176.1 163.7 152.9 145.1 141.6 140.8 139.5 131.1 129.3 127.9 126.3 117.1 119.6 108.5 91.9 72.4 73.1 71.1 72.3 66.4 60.9 67.7 62.3 52.3 50 50.8 46.5 50.1 54.4 53.2 47.5 43.4 42.1 51.6 46.8 39.7 29.3 27.4 30.8 32.5 30.6 9.5 1.1 -1.1 -1.1 -1.1 -1.1 -1.1 -1.1 -1.1 -1.1 -1.1 -1.1 -1.1 -1.1 -1.1 -1.1 -1.1 -1.1 -1.1 -1.1 -1.1 -1.1 -1.1 -1.1 -1.1 -1.1 -1.1 -1.1 -1.1 -1.1 -1.1 -1.1 -1.1 -1.1 -1.1 -1.1 -1.1 -1.1 -1.1 -1.1 -1.1 -1.1 -1.1 -1.1 -1.1 -1.1 -1.1 -1.1 -1.1 -1.1 -1.1 -1.1 -1.1
131.5 131.4 130.8 136.6 143.7 152.5 159.3 159.6 166.1 167.2 167.5 165.9 163.9 160.2 155.8 148.9 141.8 132.6 124.3 119.2 112.8 108.4 103.5 99.4 95.8 89.1 84.7 82 78.6 73.3 69.4 72.3 76.3 80 84.5 88.6 90.8 91.4 90.2 92.2 93.3 93.3 93.5 92.1 90.8 86.3 81.7 75.6 81.8 86.8 90.9 96.4 102 110.1 119.7 126.3 129.8 131.6 133.8 135.7 135.5 133.8 132.3 130.3 128.3 126.8 125.8 124.8 123.8 123.1 122.7 122.6 124.3 126.6 129.4 134.5 142.7 152.4 162.9 172.6 185.6 194.4 198.9 198.4 195.6 191.6 185 173.8 157.8 147.6 162.3 172 179 184.6 187.3 190.5 189.2 188.5 186.3 186 187 185 184.5 182.6 182.3 177.1 168.8 162.4 154.8 148.4 142.6 134.6 126.2 125.6 121.1 118 111.1 103.7 98.1 90.8 77.9 64.4 59.2 58.8 57.4 53 47.3 42.9 39.4 39.1 38.8 42.6 47.2 56 58.5 51.6 50 48.7 40.8 33.1 30.2 27.6 26.7 20.9 18.2 6.7 1.8 -1.1 -1.1 -1.1 -1.1 -1.1 -1.1 -1.1 -1.1 -1.1 -1.1 -1.1 -1.1 -1.1 -1.1 -1.1 -1.1 -1.1 -1.1 -1.1 -1.1 -1.1 -1.1 -1.1 -1.1 -1.1 -1.1 -1.1 -1.1 -1.1 -1.1 -1.1 -1.1 -1.1 -1.1 -1.1 -1.1 -1.1 -1.1 -1.1 -1.1 -1.1 -1.1 -1.1 -1.1 -1.1 -1.1 -1.1 -1.1 -1.1 -1.1 -1.1 -1.1 -1.1
135.6 135 139.7 148.7 159.3 164.9 167 168.3 168.3 168.3 166.6 164.6 161.8 159 153.6 147.2 140.6 130.6 124.6 119.5 114.4 109.6 103.4 98.8 95.6 90.9 87 84.3 78.5 72.4 71.1 76.5 79.8 82.7 86.7 90.8 94.6 96 98.4 100 101.1 100.7 99.8 96.6 92.7 88.3 83.3 77.2 81.8 86.8 91.2 96.8 102.5 110.7 119 125.7 129 131.6 133.9 135.6 137 136.1 133.2 131 127.8 126.2 124.9 123.5 122.7 122.4 122.1 121.8 122.6 124.9 128.3 134 144.4 154.7 164.2 172.8 185.9 192.9 196.3 193.8 189.3 182.4 173.3 162.1 144 131.1 141.2 153.5 168.2 175.9 180.7 183.1 182.9 180 177.8 175 174.1 171.6 169.6 169.4 167.3 163.9 159.4 154 147.1 138 128.8 123.2 120.2 113.9 108.7 103.1 99.4 86.9 79.3 74.1 69.5 63.2 54.5 52.7 47.3 43.9 39.8 39.3 35.3 35.3 36.4 37.5 51.2 54.2 52.6 49.7 38.8 36.9 32.1 22.4 23.7 24.5 5 0.9 0.4 0.3 -1.1 -1.1 -1.1 -1.1 -1.1 -1.1 -1.1 -1.1 -1.1 -1.1 -1.1 -1.1 -1.1 -1.1 -1.1 -1.1 -1.1 -1.1 -1.1 -1.1 -1.1 -1.1 -1.1 -1.1 -1.1 -1.1 -1.1 -1.1 -1.1 -1.1 -1.1 -1.1 -1.1 -1.1 -1.1 -1.1 -1.1 -1.1 -1.1 -1.1 -1.1 -1.1 -1.1 -1.1 -1.1 -1.1 -1.1 -1.1 -1.1 -1.1 -1.1 -1.1 -1.1 -1.1
146.7 151 156.6 165.6 168.4 169.1 169.4 168.6 168.4 167.7 165.5 163.3 159.8 156.3 150.8 144.3 137.1 129 124.7 119.8 114.7 108.5 102.8 98.8 94.6 91 87.2 83.3 77.7 72.2 73.8 77.8 82.1 85.4 89.4 94.2 98.5 101.8 104.9 108.5 113.7 112.9 107.2 100.6 95 88.6 83.8 80.3 82.4 87 91.6 97.3 103 111.7 119.7 125.9 128.7 130.9 134 136 138.5 138.1 134 131.2 127.5 125.6 124.2 122.4 120.6 120.2 119.8 119.4 120.5 123.1 127.1 132.9 142.7 153.5 162.9 171.8 182.9 189.6 190.9 187.5 182 174.1 161 151.8 136.6 125 126.6 145.4 160.5 168.1 173.4 174.6 171.3 166.8 164.1 162.8 160.2 157.3 155.5 154.6 152.5 149.9 145.2 141.1 135.2 128.7 120.4 113.3 106.2 101.7 95.6 84.5 76.5 70.8 65 62.6 60 49 38.7 37.4 36.4 33.8 32.2 30.6 30.4 30.7 31.3 32 40.7 52.3 47.7 31.8 33.7 28.9 23.8 6.5 1.1 0.7 -1.1 -1.1 -1.1 -1.1 -1.1 -1.1 -1.1 -1.1 -1.1 -1.1 -1.1 -1.1 -1.1 -1.1 -1.1 -1.1 -1.1 -1.1 -1.1 -1.1 -1.1 -1.1 -1.1 -1.1 -1.1 -1.1 -1.1 -1.1 -1.1 -1.1 -1.1 -1.1 -1.1 -1.1 -1.1 -1.1 -1.1 -1.1 -1.1 -1.1 -1.1 -1.1 -1.1 -1.1 -1.1 -1.1 -1.1 -1.1 -1.1 -1.1 -1.1 -1.1 -1.1 -1.1 -1.1 -1.1 -1.1 -1.1
163.6 168.4 169.4 169.8 170.3 169.5 169.1 168.7 167.9 166.3 163.9 161.7 157.8 154.5 148.3 140.1 132.8 125.6 121.9 118.7 113.8 107.1 102.9 97.7 93.8 89.4 84.9 80.5 76.2 74.1 77.6 81.3 84.5 88.1 92.3 98.6 102.3 106.7 112.5 120.3 127.1 122.6 114.5 105 97.2 90.8 84.7 81.2 83.6 88.2 92.1 97.8 103.9 113.1 120.2 125.8 128.4 131 134.5 137.4 137.6 137 134.2 130.8 127.3 125 122.5 121.4 118.6 118.2 117.8 117.9 119.4 122.1 126.3 131.4 140.6 152.1 161.6 170.1 178.7 184.2 184 179.8 174.2 167.8 156.5 138.9 127.6 118.2 117.8 136.1 152.4 160.6 162.9 162.9 159.6 154.5 149.4 148.5 146.1 143.2 138.6 137.7 138.1 135.5 130.7 121.3 115.9 112.6 106 98.7 94.1 87 73.6 70.8 68.9 59.3 58.4 52.4 50.2 48.3 46.3 42 38.9 36.3 32.3 29.4 31.3 32.6 35.1 33.9 37 41.5 34.6 28.1 25.5 19.3 -1.1 -1.1 -1.1 -1.1 -1.1 -1.1 -1.1 -1.1 -1.1 -1.1 -1.1 -1.1 -1.1 -1.1 -1.1 -1.1 -1.1 -1.1 -1.1 -1.1 -1.1 -1.1 -1.1 -1.1 -1.1 -1.1 -1.1 -1.1 -1.1 -1.1 -1.1 -1.1 -1.1 -1.1 -1.1 -1.1 -1.1 -1.1 -1.1 -1.1 -1.1 -1.1 -1.1 -1.1 -1.1 -1.1 -1.1 -1.1 -1.1 -1.1 -1.1 -1.1 -1.1 -1.1 -1.1 -1.1 -1.1 -1.1 -1.1 -1.1 -1.1 -1.1
171.6 171.6 171.1 170.8 169.9 169.5 168.5 167.5 166.6 164.9 162.5 160 156.1 151.4 143.3 135.2 127.4 122.2 117.7 114.9 110.1 105.3 102 97.9 93.6 89 84.8 79.8 74.5 75 78.9 82.8 86.3 91.1 95.6 101 106.2 112.6 123.3 130.5 132.1 127.2 118.5 109.1 100.2 92.8 86 82.1 84.6 88.7 92.6 98.2 104.9 114.1 120.1 125.5 129.4 132.5 135.5 137.1 136.4 134.4 131.5 128.4 125.3 123 121.5 120.1 116.9 116.2 116.2 117.2 119 121.7 125.5 130.2 139.1 149.8 158.6 166.3 172 176.2 175.3 171.9 166.2 159.3 149.7 134.8 118.8 115 115.5 129 143.8 151.3 152 152.2 149.3 141 132.2 130.4 130.1 126.3 121.2 121.5 120.5 117.4 109.8 105.1 101.9 94.8 84.4 76.5 73.4 66.5 65.1 51 48.2 46.1 43.3 36.2 42 38 37.1 38.6 39.1 38 36.1 29.9 31.4 35 37.6 36.9 37.2 34.4 27.3 17.9 13.2 -1.1 -1.1 -1.1 -1.1 -1.1 -1.1 -1.1 -1.1 -1.1 -1.1 -1.1 -1.1 -1.1 -1.1 -1.1 -1.1 -1.1 -1.1 -1.1 -1.1 -1.1 -1.1 -1.1 -1.1 -1.1 -1.1 -1.1 -1.1 -1.1 -1.1 -1.1 -1.1 -1.1 -1.1 -1.1 -1.1 -1.1 -1.1 -1.1 -1.1 -1.1 -1.1 -1.1 -1.1 -1.1 -1.1 -1.1 -1.1 -1.1 -1.1 -1.1 -1.1 -1.1 -1.1 -1.1 -1.1 -1.1 -1.1 -1.1 -1.1 -1.1 -1.1 -1.1
172 171.1 170.2 169.7 168.9 167.9 166.8 166.1 165.2 163.3 160.8 158.2 154.4 148 140.3 130.6 122.7 116.3 113.3 109.8 107.6 104 100.5 97 92.9 89.3 85.2 80.6 74.5 76.1 80.3 84.7 89.4 94 98.6 104.3 110.1 119.6 130.2 133.9 132.8 129.1 121.7 113.3 104.2 96.2 88.7 83.2 84.3 89.2 92.9 98.4 107 114.8 120.5 125.4 129.2 132.8 135.3 135.8 134.2 130.9 128.2 125.2 123.1 121.6 120.4 119 115.2 116.1 116.4 117.2 118.8 120.9 124.7 129 134.4 144.8 153.9 160.9 166.1 167.9 166.7 163.6 157.8 150.6 140.7 126.8 111.6 108.1 112.8 123 136 141.1 140.8 139 135.7 127 119.2 114.9 115.1 112.1 108.4 108.5 105 103 98.2 90.6 85.6 82.5 76.9 63.6 60.2 58 51.3 44.2 46.3 44.7 40.3 36.6 33 20.9 19.3 17.7 24.9 34.1 31.6 27.1 31.3 34.4 36.1 37.1 36.2 27.5 23.9 -1.1 -1.1 -1.1 -1.1 -1.1 -1.1 -1.1 -1.1 -1.1 -1.1 -1.1 -1.1 -1.1 -1.1 -1.1 -1.1 -1.1 -1.1 -1.1 -1.1 -1.1 -1.1 -1.1 -1.1 -1.1 -1.1 -1.1 -1.1 -1.1 -1.1 -1.1 -1.1 -1.1 -1.1 -1.1 -1.1 -1.1 -1.1 -1.1 -1.1 -1.1 -1.1 -1.1 -1.1 -1.1 -1.1 -1.1 -1.1 -1.1 -1.1 -1.1 -1.1 -1.1 -1.1 -1.1 -1.1 -1.1 -1.1 -1.1 -1.1 -1.1 -1.1 -1.1 -1.1 -1.1
170.4 168.7 167.8 167.8 167 166.2 165.3 164.6 163.5 161.4 158.8 156.3 152.4 144.6 137.5 130.7 121.1 113.6 108.4 105.4 104.6 100.9 97.3 94 90.6 87.9 84.1 78.8 75.3 78 80.8 85.7 91.1 95.6 101 108 118 128.2 133.9 134.7 133.2 129.9 124 116 107.9 99.5 90.5 84.8 84 88.5 93 99.1 107.5 115.2 120.5 125.2 128.9 130.7 131.8 132.3 130.9 127.8 124.7 122.7 121 120 119.1 118 113.8 114.4 116.6 117.2 117.8 119.8 124 127.2 130.4 138.8 147.7 154.5 158.6 160.4 158.8 155.3 149.4 142.4 132.6 121.6 107.9 107.5 110.8 120.8 128.2 128.1 125.8 123.3 119.4 114.7 109.9 106.1 105.7 103.2 101.1 96.7 94 92.2 86.2 81.4 77.9 76 57.9 53.9 53.1 43.8 41.8 42.7 48.1 53.8 37.3 26.7 13.2 8.6 8.3 7.6 8.4 11.7 10.2 7.7 14.9 21.1 28.2 24.3 15.4 6.4 -1.1 -1.1 -1.1 -1.1 -1.1 -1.1 -1.1 -1.1 -1.1 -1.1 -1.1 -1.1 -1.1 -1.1 -1.1 -1.1 -1.1 -1.1 -1.1 -1.1 -1.1 -1.1 -1.1 -1.1 -1.1 -1.1 -1.1 -1.1 -1.1 -1.1 -1.1 -1.1 -1.1 -1.1 -1.1 -1.1 -1.1 -1.1 -1.1 -1.1 -1.1 -1.1 -1.1 -1.1 -1.1 -1.1 -1.1 -1.1 -1.1 -1.1 -1.1 -1.1 -1.1 -1.1 -1.1 -1.1 -1.1 -1.1 -1.1 -1.1 -1.1 -1.1 -1.1 -1.1 -1.1 -1.1
168.9 166.7 165.4 165.4 164.8 163.9 163.1 162.2 161.2 159.5 156.9 154.4 149.1 142.8 136.1 128.8 120 112.7 106.9 101.2 100.3 98.6 95.3 92.1 88.6 85.4 82.1 77.7 76.7 80 83 87.2 92.2 97.3 105.1 114.1 126.7 132.7 135.1 134.7 133.1 130.8 126.3 118.8 111.2 102.4 93 88.6 84.9 86.9 90.4 98.7 107.6 115 120.3 123.2 125.7 127.1 126.9 126.7 126.1 122.9 122.1 120.7 118.9 118.3 117.8 116.3 112.5 113.5 115.9 116.5 117.2 119 122.2 125.2 128.3 133 141.1 147.1 150.1 150.8 150.2 146.3 139.8 132.8 125.5 117.1 107.8 107.7 109.2 120.1 121.6 120.7 115.6 113.4 110.2 106.7 102.2 99.3 95.7 92 86.4 83.9 77.2 75.9 74.2 71.6 65.8 55.6 48.2 42.7 40.5 39.5 39.6 49.9 57.4 36.8 25.3 11 0.6 -1.1 -1.1 -1.1 -1.1 0.5 -1.1 -1.1 -1.1 0.6 -1.1 -1.1 -1.1 -1.1 -1.1 -1.1 -1.1 -1.1 -1.1 -1.1 -1.1 -1.1 -1.1 -1.1 -1.1 -1.1 -1.1 -1.1 -1.1 -1.1 -1.1 -1.1 -1.1 -1.1 -1.1 -1.1 -1.1 -1.1 -1.1 -1.1 -1.1 -1.1 -1.1 -1.1 -1.1 -1.1 -1.1 -1.1 -1.1 -1.1 -1.1 -1.1 -1.1 -1.1 -1.1 -1.1 -1.1 -1.1 -1.1 -1.1 -1.1 -1.1 -1.1 -1.1 -1.1 -1.1 -1.1 -1.1 -1.1 -1.1 -1.1 -1.1 -1.1 -1.1 -1.1 -1.1 -1.1 -1.1 -1.1 -1.1
168.8 166.1 163.6 159.6 158.2 156.4 155.3 156.6 157.4 156.2 154.1 151.6 146.3 141.5 134.7 127.2 118.8 113 105.3 100.2 97.3 95.1 92.4 91 87.8 83.3 80.4 77 78.3 82.5 84.8 89 94.1 99.5 108.9 122.1 130.8 133.9 134.8 134.1 132.9 130.5 127.3 121.6 113 103.1 94.7 90.5 87.8 86 88.3 94.2 104.2 112.9 118.4 120.2 121.3 122.5 122 123.3 121.7 120.9 120.1 118.8 116.8 114.1 113.6 111.8 110.7 113.2 115 115.6 116.3 118.1 120.3 122.8 125.8 128.7 132.5 137.9 139.9 140.9 139 135.5 130.3 123.9 119.5 113.9 107.7 107.1 107.7 114.7 114.5 110.1 108.2 102.7 96.4 79.1 70.8 67.7 65.9 64.7 64.2 62.1 61.9 59 53.4 51.2 49.5 42.6 37.8 37.7 38.8 41.4 55.7 48.8 30.6 14 8.7 -1.1 -1.1 -1.1 -1.1 -1.1 -1.1 -1.1 -1.1 -1.1 -1.1 -1.1 -1.1 -1.1 -1.1 -1.1 -1.1 -1.1 -1.1 -1.1 -1.1 -1.1 -1.1 -1.1 -1.1 -1.1 -1.1 -1.1 -1.1 -1.1 -1.1 -1.1 -1.1 -1.1 -1.1 -1.1 -1.1 -1.1 -1.1 -1.1 -1.1 -1.1 -1.1 -1.1 -1.1 -1.1 -1.1 -1.1 -1.1 -1.1 -1.1 -1.1 -1.1 -1.1 -1.1 -1.1 -1.1 -1.1 -1.1 -1.1 -1.1 -1.1 -1.1 -1.1 -1.1 -1.1 -1.1 -1.1 -1.1 -1.1 -1.1 -1.1 -1.1 -1.1 -1.1 -1.1 -1.1 -1.1 -1.1 -1.1 -1.1 -1.1
169 166.4 165.1 159.1 152.1 144.4 140.9 141.6 147 150.7 149.3 147 143.4 138.7 132.8 125 117.8 111.9 105.7 101.4 97.5 93.2 88.9 87.6 85.8 82 79.5 76.8 78.8 82.5 86.6 90.8 96 101.8 113.8 127.3 132.2 134.2 134 133.4 132.2 130.7 127.5 122.6 113.1 102.6 95.8 92.7 90.2 88.3 88.9 91.7 97.4 103.7 109.5 108 107.3 108.6 111.9 113.8 117.6 117.5 116.9 115.4 109.7 107.5 108.1 108.6 110.6 113.4 113.9 114.6 115.8 117.8 119.8 122.1 124.4 125.4 126.4 128.6 129.9 128.8 128.9 125.5 121.8 117.1 113.7 109.4 105.1 104.8 105.8 107.1 102.4 90.5 77.7 75.7 71.1 68.9 65.3 60.9 57.7 55 52.7 51.1 51.2 49.2 50.3 50.1 38.8 36.3 36.7 39 48.7 39.9 30 21.2 9.3 0.6 -1.1 -1.1 -1.1 -1.1 -1.1 -1.1 -1.1 -1.1 -1.1 1 -1.1 -1.1 -1.1 -1.1 -1.1 -1.1 -1.1 -1.1 -1.1 -1.1 -1.1 -1.1 -1.1 -1.1 -1.1 -1.1 -1.1 -1.1 -1.1 -1.1 -1.1 -1.1 -1.1 -1.1 -1.1 -1.1 -1.1 -1.1 -1.1 -1.1 -1.1 -1.1 -1.1 -1.1 -1.1 -1.1 -1.1 -1.1 -1.1 -1.1 -1.1 -1.1 -1.1 -1.1 -1.1 -1.1 -1.1 -1.1 -1.1 -1.1 -1.1 -1.1 -1.1 -1.1 -1.1 -1.1 -1.1 -1.1 -1.1 -1.1 -1.1 -1.1 -1.1 -1.1 -1.1 -1.1 -1.1 -1.1 -1.1 -1.1 -1.1 -1.1
169.3 167.7 165.1 161.7 155.5 144.3 135.6 133 133.7 139.4 142.9 140.8 138.7 134.8 129 122 116.3 110.5 105.6 102.6 98.9 94.8 90.6 86.2 83.4 81 78.5 78.3 80.1 83.8 87.4 92.3 98 104.9 118 128.3 132.8 133.6 133.1 132.5 131.7 130.5 127.6 122.6 110.8 102.3 97.9 95.2 93.2 91.4 90.1 91.1 93.9 95.7 96.8 97 97.5 97.7 102.2 104.5 108.3 112.2 111.5 107.3 105.4 107 110.2 111.7 111.2 112.6 113 114.1 115.6 117.6 119.6 121.3 121.9 122.9 121.4 121.3 121 120.1 118.9 118.2 114.7 111.1 108.1 103.4 101.1 95.9 82.2 78 75.9 73.9 72.2 67.6 63.5 59.8 58.5 55.7 51.6 46.2 43.2 42.8 41.2 39.9 34.7 34.2 38.6 40.1 47.9 48.5 25.5 21 15.8 6 -1.1 -1.1 -1.1 -1.1 -1.1 -1.1 -1.1 -1.1 -1.1 -1.1 -1.1 -1.1 -1.1 -1.1 -1.1 -1.1 -1.1 -1.1 -1.1 -1.1 -1.1 -1.1 -1.1 -1.1 -1.1 -1.1 -1.1 -1.1 -1.1 -1.1 -1.1 -1.1 -1.1 -1.1 -1.1 -1.1 -1.1 -1.1 -1.1 -1.1 -1.1 -1.1 -1.1 -1.1 -1.1 -1.1 -1.1 -1.1 -1.1 -1.1 -1.1 -1.1 -1.1 -1.1 -1.1 -1.1 -1.1 -1.1 -1.1 -1.1 -1.1 -1.1 -1.1 -1.1 -1.1 -1.1 -1.1 -1.1 -1.1 -1.1 -1.1 -1.1 -1.1 -1.1 -1.1 -1.1 -1.1 -1.1 -1.1 -1.1 -1.1 -1.1 -1.1 -1.1
166.4 165.2 163.4 160.2 155.6 148 135.6 129 127.3 127.6 132.2 134.2 133.4 129.2 124.2 119.7 113.5 107.7 103.4 99.5 95.9 93.8 89.8 85.7 82.5 80.4 78.7 79.2 81.8 84.7 88 93.3 99 107.8 120.8 129.1 131.6 132.6 132 131.4 130.7 129.6 127.3 120.9 110.1 104 101.7 99.8 97.9 95.3 93.6 91.9 91.9 92.5 93.3 95 97 98.2 99 99.6 101.8 103.2 104.1 104.1 106.6 111.5 114.1 113.4 112.4 112 112.9 113.7 115 116.6 118.1 119.6 119.8 118.6 116.5 115 114.5 113.7 112.1 110.8 99.9 86.2 77.2 75.5 71.4 68.2 68.6 66.6 64.2 64.8 61 59.6 57.9 50 43.7 39 33.6 30.6 29.7 28 25 26.7 26 25.8 40.1 44.2 33 21.8 0.9 0.5 0.2 -1.1 -1.1 -1.1 -1.1 -1.1 -1.1 -1.1 -1.1 -1.1 -1.1 -1.1 -1.1 -1.1 -1.1 -1.1 -1.1 -1.1 -1.1 -1.1 -1.1 -1.1 -1.1 -1.1 -1.1 -1.1 -1.1 -1.1 -1.1 -1.1 -1.1 -1.1 -1.1 -1.1 -1.1 -1.1 -1.1 -1.1 -1.1 -1.1 -1.1 -1.1 -1.1 -1.1 -1.1 -1.1 -1.1 -1.1 -1.1 -1.1 -1.1 -1.1 -1.1 -1.1 -1.1 -1.1 -1.1 -1.1 -1.1 -1.1 -1.1 -1.1 -1.1 -1.1 -1.1 -1.1 -1.1 -1.1 -1.1 -1.1 -1.1 -1.1 -1.1 -1.1 -1.1 -1.1 -1.1 -1.1 -1.1 -1.1 -1.1 -1.1 -1.1 -1.1 -1.1 -1.1
164.6 162.3 161.1 157.6 153.2 147.6 137.3 128.4 123.8 121.7 121.7 126 126.2 122.4 117.9 114.1 109.9 105.3 99.6 95.6 92.6 90.3 87.5 84.8 81.5 79.9 79.6 80.5 83.3 86.1 88.9 94.2 99.9 109.9 122.8 128.6 130.7 131.5 130.9 130.4 129.9 128.9 126.9 122.5 111.4 108.6 111.8 109 104.5 100.1 97.8 95.6 93.7 94.3 98.2 102.3 104.6 105.4 105.5 104.9 103.7 103.2 104.2 106.2 111.3 113.6 115.4 114.6 113.9 113 113.7 113.4 114.2 115.1 115.9 116.5 116.2 114 110.9 109 108.1 107.3 91 77.2 77.8 74 69.3 67.4 65.2 64.2 56.9 58.5 57.4 56.9 57.6 47.9 45.5 36.5 28.8 25.6 26.6 24.2 24.2 22.2 21.8 25.1 23.5 19.5 16.7 14.7 1.1 -1.1 -1.1 -1.1 -1.1 -1.1 -1.1 -1.1 -1.1 -1.1 -1.1 -1.1 -1.1 -1.1 -1.1 -1.1 -1.1 -1.1 -1.1 -1.1 -1.1 -1.1 -1.1 -1.1 -1.1 -1.1 -1.1 -1.1 -1.1 -1.1 -1.1 -1.1 -1.1 -1.1 -1.1 -1.1 -1.1 -1.1 -1.1 -1.1 -1.1 -1.1 -1.1 -1.1 -1.1 -1.1 -1.1 -1.1 -1.1 -1.1 -1.1 -1.1 -1.1 -1.1 -1.1 -1.1 -1.1 -1.1 -1.1 -1.1 -1.1 -1.1 -1.1 -1.1 -1.1 -1.1 -1.1 -1.1 -1.1 -1.1 -1.1 -1.1 -1.1 -1.1 -1.1 -1.1 -1.1 -1.1 -1.1 -1.1 -1.1 -1.1 -1.1 -1.1 -1.1 -1.1 -1.1 -1.1 -1.1 -1.1
163.8 160.2 158.3 154.8 150.4 145.4 137.8 127.4 121.3 118.5 116.5 116.8 118.8 117.3 113.7 110.6 108.1 105.6 101.1 95.3 91.3 87.9 85.9 83.2 81.7 81.3 80.6 81 84.2 87.3 90.3 95.3 100.6 110.8 122.3 127.5 129.7 130.6 130.1 129.6 129.1 128.2 126.2 123.6 116.2 117.3 119.1 116.5 115.4 107.3 102 99.2 96.4 97.6 107.6 111.5 113.3 113.9 114 113.4 111.4 110.8 110.2 112.6 114.3 115.4 117.8 117.9 116.5 115.7 113.2 112.9 111.8 111.8 112 112.9 112.6 110 106.5 103.9 84.3 74.1 72.4 70.7 66.6 60.2 61.5 63.4 56.3 51.7 52.6 53.3 52.6 46.2 40.3 38.1 36.1 30.6 24.2 19.7 20.3 26.7 30.9 27.3 23.3 22 26 27.9 13.2 0.3 -1.1 -1.1 -1.1 -1.1 -1.1 -1.1 -1.1 -1.1 -1.1 -1.1 -1.1 -1.1 -1.1 -1.1 -1.1 -1.1 -1.1 -1.1 -1.1 -1.1 -1.1 -1.1 -1.1 -1.1 -1.1 -1.1 -1.1 -1.1 -1.1 -1.1 -1.1 -1.1 -1.1 -1.1 -1.1 -1.1 -1.1 -1.1 -1.1 -1.1 -1.1 -1.1 -1.1 -1.1 -1.1 -1.1 -1.1 -1.1 -1.1 -1.1 -1.1 -1.1 -1.1 -1.1 -1.1 -1.1 -1.1 -1.1 -1.1 -1.1 -1.1 -1.1 -1.1 -1.1 -1.1 -1.1 -1.1 -1.1 -1.1 -1.1 -1.1 -1.1 -1.1 -1.1 -1.1 -1.1 -1.1 -1.1 -1.1 -1.1 -1.1 -1.1 -1.1 -1.1 -1.1 -1.1 -1.1 -1.1 -1.1 -1.1
162.7 157.5 155.1 152.1 147.8 142.8 136.8 126.6 120 115.8 113 112.2 112.4 112.1 110.8 108.6 106.6 103.2 100.9 97 92.6 87.8 84.9 83.5 82.3 82.1 81.8 81.9 84.9 88 90.3 94.4 100.2 109.7 121.3 126.3 128.4 129.3 129.5 128.9 128.2 127.3 125.5 123.6 119.6 121.2 121.8 122 121.1 117.2 107.7 101.8 99.2 98.1 110.7 114.5 115.3 115.5 115.1 115.2 115.2 115.9 116.3 118.2 118.9 121.3 123.9 124.2 123.2 120.5 117.3 113.7 110.4 108.9 107.7 108.4 109.6 107.3 85 71.7 67.9 64.2 59.4 59.1 59.1 58.5 52.5 49.1 48.5 45.2 41.7 41.4 36.8 33.6 31.2 26.4 25.7 22.5 19.3 16.7 20.3 35.5 36.4 30.4 15.4 7.6 9.9 0.6 -1.1 -1.1 -1.1 -1.1 -1.1 -1.1 -1.1 -1.1 -1.1 -1.1 -1.1 -1.1 -1.1 -1.1 -1.1 -1.1 -1.1 -1.1 -1.1 -1.1 -1.1 -1.1 -1.1 -1.1 -1.1 -1.1 -1.1 -1.1 -1.1 -1.1 -1.1 -1.1 -1.1 -1.1 -1.1 -1.1 -1.1 -1.1 -1.1 -1.1 -1.1 -1.1 -1.1 -1.1 -1.1 -1.1 -1.1 -1.1 -1.1 -1.1 -1.1 -1.1 -1.1 -1.1 -1.1 -1.1 -1.1 -1.1 -1.1 -1.1 -1.1 -1.1 -1.1 -1.1 -1.1 -1.1 -1.1 -1.1 -1.1 -1.1 -1.1 -1.1 -1.1 -1.1 -1.1 -1.1 -1.1 -1.1 -1.1 -1.1 -1.1 -1.1 -1.1 -1.1 -1.1 -1.1 -1.1 -1.1 -1.1 -1.1 -1.1 -1.1
160.4 155.3 151.4 148.8 145.1 140.3 133.2 125.5 119 113.2 110.2 108.3 108 108 107 106 104.1 101.6 99 95.4 90.6 88.4 85.5 84.5 83 83.6 84.2 83.7 85 86.7 90.1 94.4 100.1 106.8 116.6 124.2 126.9 127.9 128.9 128.2 127.6 126.8 125.5 123.8 122.8 122.8 124.2 126.6 125.9 121.7 114.4 105.3 100.7 101.1 105.8 113 115.1 115.5 115.6 117.1 119.1 120.8 123.5 125.8 127.3 128.8 131.7 132.1 130.2 126.5 121.4 117 112.8 108.5 105.2 104.3 89 72.1 71.8 67 62.3 57.1 57.2 58.3 56.8 45.5 43.8 45.3 41.4 37.9 32.8 29.1 26.3 24.7 24.2 22.8 18.4 16.5 17.8 19.2 20.3 27.3 22.9 14.1 1.6 0.6 0.2 -1.1 -1.1 -1.1 -1.1 -1.1 -1.1 -1.1 -1.1 -1.1 -1.1 -1.1 -1.1 -1.1 -1.1 -1.1 -1.1 -1.1 -1.1 -1.1 -1.1 -1.1 -1.1 -1.1 -1.1 -1.1 -1.1 -1.1 -1.1 -1.1 -1.1 -1.1 -1.1 -1.1 -1.1 -1.1 -1.1 -1.1 -1.1 -1.1 -1.1 -1.1 -1.1 -1.1 -1.1 -1.1 -1.1 -1.1 -1.1 -1.1 -1.1 -1.1 -1.1 -1.1 -1.1 -1.1 -1.1 -1.1 -1.1 -1.1 -1.1 -1.1 -1.1 -1.1 -1.1 -1.1 -1.1 -1.1 -1.1 -1.1 -1.1 -1.1 -1.1 -1.1 -1.1 -1.1 -1.1 -1.1 -1.1 -1.1 -1.1 -1.1 -1.1 -1.1 -1.1 -1.1 -1.1 -1.1 -1.1 -1.1 -1.1 -1.1 -1.1 -1.1
156.4 152.8 145.6 144 141.4 135.5 129.4 122.6 116 111.3 107.5 106.1 104.8 104 103.5 103.2 101.5 100 97.3 93.8 91 88.1 86 85.9 85.4 86.1 86.2 85.9 86.5 87.6 90.7 94.6 99.3 105.4 116.7 123.1 125.3 126.3 128 128.9 129.3 128.7 127.5 126.9 125.6 125.3 128 131.1 130.2 126.1 120.9 111.9 104.7 102.5 97 108.5 113 113.9 115.3 117.7 120.9 121.6 125.4 130.4 134.5 136.5 137.2 137.9 135.4 130.8 123.1 117.5 112.6 108.3 104.9 84.9 71.4 65.6 60.9 60.6 56.7 52.3 47.2 45.1 40.8 40.4 37.4 34.5 32.3 29.1 24.6 20.8 20.6 18.3 16 14.6 14.4 14.9 20.4 23.6 9.8 8.3 7.9 0.9 -1.1 -1.1 -1.1 -1.1 -1.1 -1.1 -1.1 -1.1 -1.1 -1.1 -1.1 -1.1 -1.1 -1.1 -1.1 -1.1 -1.1 -1.1 -1.1 -1.1 -1.1 -1.1 -1.1 -1.1 -1.1 -1.1 -1.1 -1.1 -1.1 -1.1 -1.1 -1.1 -1.1 -1.1 -1.1 -1.1 -1.1 -1.1 -1.1 -1.1 -1.1 -1.1 -1.1 -1.1 -1.1 -1.1 -1.1 -1.1 -1.1 -1.1 -1.1 -1.1 -1.1 -1.1 -1.1 -1.1 -1.1 -1.1 -1.1 -1.1 -1.1 -1.1 -1.1 -1.1 -1.1 -1.1 -1.1 -1.1 -1.1 -1.1 -1.1 -1.1 -1.1 -1.1 -1.1 -1.1 -1.1 -1.1 -1.1 -1.1 -1.1 -1.1 -1.1 -1.1 -1.1 -1.1 -1.1 -1.1 -1.1 -1.1 -1.1 -1.1 -1.1 -1.1 -1.1 -1.1
146.5 146.7 142.6 135.1 135 131 125.5 118.3 115.1 111 107.2 104.1 102.6 101.6 100.7 100.5 98.7 95.5 94.4 92.1 89.3 87.7 86.8 87.1 89.3 89.6 89.4 88.9 88.5 88.9 91.3 95.2 99.9 105.9 113.4 122.6 125.2 126.9 129.1 131.6 131.7 129.3 130.9 130.7 130 129.7 132 132.6 133 129 123.6 118.3 108.7 105 108.3 108.7 110.1 113.3 115.1 116.8 119.7 122.4 126.8 132.5 136.4 138.9 139.3 140 136.6 130.2 122.8 114.1 110 88.2 76.9 70.7 62.5 60.4 56.1 53.8 49.7 45.1 37.8 34.7 33.6 31.1 29.1 26.3 24.6 22.5 17.6 14.9 14.5 14.9 15.3 15.6 16.6 19.3 4.7 1 -1.1 -1.1 -1.1 -1.1 -1.1 -1.1 -1.1 -1.1 -1.1 -1.1 -1.1 -1.1 -1.1 -1.1 -1.1 -1.1 -1.1 -1.1 -1.1 -1.1 -1.1 -1.1 -1.1 -1.1 -1.1 -1.1 -1.1 -1.1 -1.1 -1.1 -1.1 -1.1 -1.1 -1.1 -1.1 -1.1 -1.1 -1.1 -1.1 -1.1 -1.1 -1.1 -1.1 -1.1 -1.1 -1.1 -1.1 -1.1 -1.1 -1.1 -1.1 -1.1 -1.1 -1.1 -1.1 -1.1 -1.1 -1.1 -1.1 -1.1 -1.1 -1.1 -1.1 -1.1 -1.1 -1.1 -1.1 -1.1 -1.1 -1.1 -1.1 -1.1 -1.1 -1.1 -1.1 -1.1 -1.1 -1.1 -1.1 -1.1 -1.1 -1.1 -1.1 -1.1 -1.1 -1.1 -1.1 -1.1 -1.1 -1.1 -1.1 -1.1 -1.1 -1.1 -1.1 -1.1 -1.1 -1.1 -1.1 -1.1
133.1 131 133.6 128.9 126.6 125.2 121.1 116.5 113 109.6 106.4 103 101.1 99.2 97.7 96.9 94.5 93.3 92.8 91.1 89.5 88.2 89.2 91.3 93.5 95 94.6 93.4 92.2 91.7 92.4 95.2 100.9 109.8 119.6 122.4 125.4 128 131.5 133.8 136.9 139 138.3 136.6 135.9 134.6 132.7 131.8 131.6 129.2 125.2 119.9 113.7 108.7 114.6 113.9 112.6 112.7 114.2 115.7 118.4 121.4 126.6 131.4 135.7 139.6 140.3 139.2 133.6 127.2 116.8 95.5 76.6 70.9 69.3 58.8 57.7 53.8 50.1 47 41.4 34.9 31.2 29.1 23.9 20.6 19.5 19.6 19.4 17.3 16.3 16.2 20.2 20.6 17.8 15.6 14.4 -1.1 -1.1 -1.1 -1.1 -1.1 -1.1 -1.1 -1.1 -1.1 -1.1 -1.1 -1.1 -1.1 -1.1 -1.1 -1.1 -1.1 -1.1 -1.1 -1.1 -1.1 -1.1 -1.1 -1.1 -1.1 -1.1 -1.1 -1.1 -1.1 -1.1 -1.1 -1.1 -1.1 -1.1 -1.1 -1.1 -1.1 -1.1 -1.1 -1.1 -1.1 -1.1 -1.1 -1.1 -1.1 -1.1 -1.1 -1.1 -1.1 -1.1 -1.1 -1.1 -1.1 -1.1 -1.1 -1.1 -1.1 -1.1 -1.1 -1.1 -1.1 -1.1 -1.1 -1.1 -1.1 -1.1 -1.1 -1.1 -1.1 -1.1 -1.1 -1.1 -1.1 -1.1 -1.1 -1.1 -1.1 -1.1 -1.1 -1.1 -1.1 -1.1 -1.1 -1.1 -1.1 -1.1 -1.1 -1.1 -1.1 -1.1 -1.1 -1.1 -1.1 -1.1 -1.1 -1.1 -1.1 -1.1 -1.1 -1.1 -1.1 -1.1 -1.1
131.5 127.4 125.4 122 121 118.8 115.6 113.1 110.9 108.3 106.4 102.1 100.8 99.7 97.8 96.6 94.5 92.8 92.2 91 90.1 91.2 93.2 94.2 97.6 99.9 100.5 99 96.6 94.8 94.4 96 101 110.6 119.2 122.3 124.9 130.2 135.1 142.1 142.2 141.3 147.2 145.4 141.3 135.8 131.3 129.3 128.9 127 124.5 120.1 113.9 113.2 118 118.8 117.1 115.1 114.7 114.8 117.2 119.6 124.5 129.1 132.9 136 137.1 134.5 129.4 110.6 87.5 75.6 70.3 66.5 62.4 53.8 50.1 45.3 45 37.4 29.8 28 25.8 24.5 21.5 14.7 14.2 14.9 15.9 14.9 17.1 20.1 25.7 20.6 14.7 6.2 -1.1 -1.1 -1.1 -1.1 -1.1 -1.1 -1.1 -1.1 -1.1 -1.1 -1.1 -1.1 -1.1 -1.1 -1.1 -1.1 -1.1 -1.1 -1.1 -1.1 -1.1 -1.1 -1.1 -1.1 -1.1 -1.1 -1.1 -1.1 -1.1 -1.1 -1.1 -1.1 -1.1 -1.1 -1.1 -1.1 -1.1 -1.1 -1.1 -1.1 -1.1 -1.1 -1.1 -1.1 -1.1 -1.1 -1.1 -1.1 -1.1 -1.1 -1.1 -1.1 -1.1 -1.1 -1.1 -1.1 -1.1 -1.1 -1.1 -1.1 -1.1 -1.1 -1.1 -1.1 -1.1 -1.1 -1.1 -1.1 -1.1 -1.1 -1.1 -1.1 -1.1 -1.1 -1.1 -1.1 -1.1 -1.1 -1.1 -1.1 -1.1 -1.1 -1.1 -1.1 -1.1 -1.1 -1.1 -1.1 -1.1 -1.1 -1.1 -1.1 -1.1 -1.1 -1.1 -1.1 -1.1 -1.1 -1.1 -1.1 -1.1 -1.1 -1.1 -1.1
133.7 127 122.7 119.5 117.3 115.8 112 109.9 108.5 106.6 105.8 105.1 104.8 102.8 98.8 97.9 95 93.6 92.4 91.6 91.4 93.4 95.3 98 101.4 105.3 111.4 112.9 104.6 99.4 96.9 97.1 99.4 108.1 116.8 122.1 125 130.5 137.6 145.6 152.6 155.7 155.1 151.9 144.9 137.3 130.5 126.4 124.6 122.7 121.2 117.9 114.5 116.6 122 123.4 123.1 120 117 115.4 115.8 117.9 121.5 125.3 128.7 130.8 131.1 120.8 108.3 77.2 74.6 70.3 68.1 63.9 52.6 50 46.9 39 33.5 27.2 24.7 25.4 21.7 18.1 14.5 14.9 13.8 14.4 13.9 14.3 18.5 21.3 24.5 12.6 -1.1 -1.1 -1.1 -1.1 -1.1 -1.1 -1.1 -1.1 -1.1 -1.1 -1.1 -1.1 -1.1 -1.1 -1.1 -1.1 -1.1 -1.1 -1.1 -1.1 -1.1 -1.1 -1.1 -1.1 -1.1 -1.1 -1.1 -1.1 -1.1 -1.1 -1.1 -1.1 -1.1 -1.1 -1.1 -1.1 -1.1 -1.1 -1.1 -1.1 -1.1 -1.1 -1.1 -1.1 -1.1 -1.1 -1.1 -1.1 -1.1 -1.1 -1.1 -1.1 -1.1 -1.1 -1.1 -1.1 -1.1 -1.1 -1.1 -1.1 -1.1 -1.1 -1.1 -1.1 -1.1 -1.1 -1.1 -1.1 -1.1 -1.1 -1.1 -1.1 -1.1 -1.1 -1.1 -1.1 -1.1 -1.1 -1.1 -1.1 -1.1 -1.1 -1.1 -1.1 -1.1 -1.1 -1.1 -1.1 -1.1 -1.1 -1.1 -1.1 -1.1 -1.1 -1.1 -1.1 -1.1 -1.1 -1.1 -1.1 -1.1 -1.1 -1.1 -1.1 -1.1 -1.1
136.6 128.1 122.4 118.3 116.3 114 112.3 111 109.7 109.5 112.6 115.3 117.6 110.6 101.3 100.4 97.9 96.8 93.8 93.2 93.6 96.2 99.8 103.1 108.3 116.4 121.6 122.3 115.9 104.3 99.8 99 100 105.6 113.7 121.1 125.2 129.9 137.3 145.8 153.1 157.2 157.5 152.5 145 137.2 130 124.9 121.8 120.2 118.5 117.2 117.9 122.5 126.1 128 126.5 124.1 120.9 118.4 116.2 115.6 118.2 121.3 123.3 124.1 104.2 85.6 74.2 73.8 73.2 64.5 62.2 52.6 51.7 45.1 36.9 30.7 25.8 28 28 20.9 18.3 16.9 14 15.8 14.2 13.9 12.4 -1.1 -1.1 -1.1 -1.1 -1.1 -1.1 -1.1 -1.1 -1.1 -1.1 -1.1 -1.1 -1.1 -1.1 -1.1 -1.1 -1.1 -1.1 -1.1 -1.1 -1.1 -1.1 -1.1 -1.1 -1.1 -1.1 -1.1 -1.1 -1.1 -1.1 -1.1 -1.1 -1.1 -1.1 -1.1 -1.1 -1.1 -1.1 -1.1 -1.1 -1.1 -1.1 -1.1 -1.1 -1.1 -1.1 -1.1 -1.1 -1.1 -1.1 -1.1 -1.1 -1.1 -1.1 -1.1 -1.1 -1.1 -1.1 -1.1 -1.1 -1.1 -1.1 -1.1 -1.1 -1.1 -1.1 -1.1 -1.1 -1.1 -1.1 -1.1 -1.1 -1.1 -1.1 -1.1 -1.1 -1.1 -1.1 -1.1 -1.1 -1.1 -1.1 -1.1 -1.1 -1.1 -1.1 -1.1 -1.1 -1.1 -1.1 -1.1 -1.1 -1.1 -1.1 -1.1 -1.1 -1.1 -1.1 -1.1 -1.1 -1.1 -1.1 -1.1 -1.1 -1.1 -1.1 -1.1 -1.1 -1.1 -1.1 -1.1
138.7 128.4 121.6 117.8 116.2 115.9 116.4 116.3 118.8 122.1 125.2 125.4 123.8 119.6 105.3 104.6 101.5 99.2 96.5 95 96.2 99.2 103.7 110.2 117.3 123.2 125.4 124.7 122.7 111.9 103 100.4 100.8 106 115.4 121.3 124.3 128.1 135.6 142.6 149.7 154.8 154.8 149.9 143.5 135.7 130.2 124.7 121.7 120.2 119.1 120 123.6 128 130.5 129.9 128.6 125.5 122.1 119 115.2 113 115.4 118.7 113 82.1 71.6 72.4 72.9 71.6 59.6 56.6 49.9 47.8 43.3 40.6 28.2 25.6 26.9 22.3 17.8 16 16.8 15.6 11.4 6.5 14.6 14.8 0.9 -1.1 -1.1 -1.1 -1.1 -1.1 -1.1 -1.1 -1.1 -1.1 -1.1 -1.1 -1.1 -1.1 -1.1 -1.1 -1.1 -1.1 -1.1 -1.1 -1.1 -1.1 -1.1 -1.1 -1.1 -1.1 -1.1 -1.1 -1.1 -1.1 -1.1 -1.1 -1.1 -1.1 -1.1 -1.1 -1.1 -1.1 -1.1 -1.1 -1.1 -1.1 -1.1 -1.1 -1.1 -1.1 -1.1 -1.1 -1.1 -1.1 -1.1 -1.1 -1.1 -1.1 -1.1 -1.1 -1.1 -1.1 -1.1 -1.1 -1.1 -1.1 -1.1 -1.1 -1.1 -1.1 -1.1 -1.1 -1.1 -1.1 -1.1 -1.1 -1.1 -1.1 -1.1 -1.1 -1.1 -1.1 -1.1 -1.1 -1.1 -1.1 -1.1 -1.1 -1.1 -1.1 -1.1 -1.1 -1.1 -1.1 -1.1 -1.1 -1.1 -1.1 -1.1 -1.1 -1.1 -1.1 -1.1 -1.1 -1.1 -1.1 -1.1 -1.1 -1.1 -1.1 -1.1 -1.1 -1.1 -1.1 -1.1 -1.1
133.2 125.5 120.6 118.5 120.1 122.6 127.3 131.2 135 134.5 134.9 132.8 128.5 117 109.1 104.7 100.4 99.4 98.5 97.7 99.1 102 109.7 118.8 123 125.9 126.7 126 123.8 119 108.2 102.4 101.6 105 114.9 119.4 121.1 125.9 131.7 138.4 143.4 147.6 147.5 143.6 139.1 135.4 129.9 125.6 124.1 125 126.8 126.6 129.1 130.5 131.8 130 127.6 124.8 120.7 116.5 112.1 108.7 105.8 92.1 77 68.5 67.6 65.1 63.8 55.2 52.8 49.3 43.7 35.9 34.2 27.4 26 23.9 21.9 20.3 15.2 15 16.4 12.5 -1.1 -1.1 -1.1 -1.1 -1.1 -1.1 -1.1 -1.1 -1.1 -1.1 -1.1 -1.1 -1.1 -1.1 -1.1 -1.1 -1.1 -1.1 -1.1 -1.1 -1.1 -1.1 -1.1 -1.1 -1.1 -1.1 -1.1 -1.1 -1.1 -1.1 -1.1 -1.1 -1.1 -1.1 -1.1 -1.1 -1.1 -1.1 -1.1 -1.1 -1.1 -1.1 -1.1 -1.1 -1.1 -1.1 -1.1 -1.1 -1.1 -1.1 -1.1 -1.1 -1.1 -1.1 -1.1 -1.1 -1.1 -1.1 -1.1 -1.1 -1.1 -1.1 -1.1 -1.1 -1.1 -1.1 -1.1 -1.1 -1.1 -1.1 -1.1 -1.1 -1.1 -1.1 -1.1 -1.1 -1.1 -1.1 -1.1 -1.1 -1.1 -1.1 -1.1 -1.1 -1.1 -1.1 -1.1 -1.1 -1.1 -1.1 -1.1 -1.1 -1.1 -1.1 -1.1 -1.1 -1.1 -1.1 -1.1 -1.1 -1.1 -1.1 -1.1 -1.1 -1.1 -1.1 -1.1 -1.1 -1.1 -1.1 -1.1 -1.1 -1.1 -1.1 -1.1 -1.1
128.4 123.4 120.7 121.6 129.3 137 139.4 140 139.9 138.9 136.7 132.9 124.2 112.5 107.6 104.2 102.6 102.4 102 101.9 102.8 104.8 115.1 122.7 125.7 126.8 126.3 125.6 124.3 121.9 112.2 106.5 102.8 104.4 110.5 114.4 118.1 123 127.6 132.8 137.1 140.1 140.6 139 136.7 133.5 129.9 127.9 130.1 133.1 134.4 134.7 134.1 133.5 131.6 128.4 125.7 113.1 94.3 84.7 78.2 74.2 74.1 73 68.5 61.7 62.5 59.7 53.8 46 41 37.7 32.9 30.2 26.8 25.2 22.8 19.4 18.7 17.5 18.4 18.5 12.1 0.4 -1.1 -1.1 -1.1 -1.1 -1.1 -1.1 -1.1 -1.1 -1.1 -1.1 -1.1 -1.1 -1.1 -1.1 -1.1 -1.1 -1.1 -1.1 -1.1 -1.1 -1.1 -1.1 -1.1 -1.1 -1.1 -1.1 -1.1 -1.1 -1.1 -1.1 -1.1 -1.1 -1.1 -1.1 -1.1 -1.1 -1.1 -1.1 -1.1 -1.1 -1.1 -1.1 -1.1 -1.1 -1.1 -1.1 -1.1 -1.1 -1.1 -1.1 -1.1 -1.1 -1.1 -1.1 -1.1 -1.1 -1.1 -1.1 -1.1 -1.1 -1.1 -1.1 -1.1 -1.1 -1.1 -1.1 -1.1 -1.1 -1.1 -1.1 -1.1 -1.1 -1.1 -1.1 -1.1 -1.1 -1.1 -1.1 -1.1 -1.1 -1.1 -1.1 -1.1 -1.1 -1.1 -1.1 -1.1 -1.1 -1.1 -1.1 -1.1 -1.1 -1.1 -1.1 -1.1 -1.1 -1.1 -1.1 -1.1 -1.1 -1.1 -1.1 -1.1 -1.1 -1.1 -1.1 -1.1 -1.1 -1.1 -1.1 -1.1 -1.1 -1.1 -1.1 -1.1 -1.1
127.9 123.6 123.5 129.4 139.9 142.2 142.4 141.8 140.6 138.9 135.6 126.7 116.6 111.3 107 106 105.8 107.4 108 107.9 107.3 108.7 115.3 123.9 126.7 126.2 125.7 124.8 123.5 122.1 117.6 108.4 104.9 104.8 106.7 111.8 115.7 119.5 122.2 125.6 130.2 132.9 133.5 133.6 132.6 131.3 130.6 131.8 136.2 140.9 141.4 138.1 117 103.4 100.8 92.5 84.4 75.6 69.9 67.6 66.7 64.4 63.3 62.9 59.6 57.3 57.7 46 37.9 29.3 29.6 30.6 27.3 23.2 19.2 18.1 18.4 17.1 16.3 17.6 13.2 1 -1.1 -1.1 -1.1 -1.1 -1.1 -1.1 -1.1 -1.1 -1.1 -1.1 -1.1 -1.1 -1.1 -1.1 -1.1 -1.1 -1.1 -1.1 -1.1 -1.1 -1.1 -1.1 -1.1 -1.1 -1.1 -1.1 -1.1 -1.1 -1.1 -1.1 -1.1 -1.1 -1.1 -1.1 -1.1 -1.1 -1.1 -1.1 -1.1 -1.1 -1.1 -1.1 -1.1 -1.1 -1.1 -1.1 -1.1 -1.1 -1.1 -1.1 -1.1 -1.1 -1.1 -1.1 -1.1 -1.1 -1.1 -1.1 -1.1 -1.1 -1.1 -1.1 -1.1 -1.1 -1.1 -1.1 -1.1 -1.1 -1.1 -1.1 -1.1 -1.1 -1.1 -1.1 -1.1 -1.1 -1.1 -1.1 -1.1 -1.1 -1.1 -1.1 -1.1 -1.1 -1.1 -1.1 -1.1 -1.1 -1.1 -1.1 -1.1 -1.1 -1.1 -1.1 -1.1 -1.1 -1.1 -1.1 -1.1 -1.1 -1.1 -1.1 -1.1 -1.1 -1.1 -1.1 -1.1 -1.1 -1.1 -1.1 -1.1 -1.1 -1.1 -1.1 -1.1 -1.1 -1.1 -1.1
127.5 125 129.8 140.6 143 143.1 142.8 141.2 139.9 136.4 131.8 121.3 113.6 109.8 108.1 108.8 112 114.7 121.9 120.1 114.7 113.3 116.4 122.8 126.2 125.6 124.8 123.8 122.9 121.6 119.9 114.4 109.2 106.2 106.5 109.2 113.4 116.3 118.1 120.4 124.1 125.8 126.4 127.5 128 128.8 130 133.7 139.5 122.6 108 91.8 75.8 73.3 70.7 71.2 71.4 69.9 64.9 62.3 56.2 52.3 47.6 52.2 52.2 51.8 43.6 36.1 27.9 26.5 25.2 20.3 18.6 18.5 17.5 17.1 15.9 15.6 18.1 -1.1 -1.1 -1.1 -1.1 -1.1 -1.1 -1.1 -1.1 -1.1 -1.1 -1.1 -1.1 -1.1 -1.1 -1.1 -1.1 -1.1 -1.1 -1.1 -1.1 -1.1 -1.1 -1.1 -1.1 -1.1 -1.1 -1.1 -1.1 -1.1 -1.1 -1.1 -1.1 -1.1 -1.1 -1.1 -1.1 -1.1 -1.1 -1.1 -1.1 -1.1 -1.1 -1.1 -1.1 -1.1 -1.1 -1.1 -1.1 -1.1 -1.1 -1.1 -1.1 -1.1 -1.1 -1.1 -1.1 -1.1 -1.1 -1.1 -1.1 -1.1 -1.1 -1.1 -1.1 -1.1 -1.1 -1.1 -1.1 -1.1 -1.1 -1.1 -1.1 -1.1 -1.1 -1.1 -1.1 -1.1 -1.1 -1.1 -1.1 -1.1 -1.1 -1.1 -1.1 -1.1 -1.1 -1.1 -1.1 -1.1 -1.1 -1.1 -1.1 -1.1 -1.1 -1.1 -1.1 -1.1 -1.1 -1.1 -1.1 -1.1 -1.1 -1.1 -1.1 -1.1 -1.1 -1.1 -1.1 -1.1 -1.1 -1.1 -1.1 -1.1 -1.1 -1.1 -1.1 -1.1 -1.1 -1.1 -1.1 -1.1
128.4 128.4 139.9 143.2 142.5 142 141.6 140.2 138.6 135.2 125.7 116.8 112.1 110.2 110.7 112.5 119.5 126.7 128.5 127.3 125.5 123.4 119.5 123.7 125.1 124.5 123.7 122.4 122 121.1 119.5 117.8 114.8 110 108.5 108.6 110.9 113.7 114.9 116.1 118 119.4 120.9 122.1 122.9 124.9 119 100.5 81.3 71.6 72.4 69.2 69.1 67.8 65.7 62.7 60.1 58.3 57.1 52.5 48.7 45.9 44 45 44.2 39.7 35 26.4 21.6 19.8 19.6 18.9 21.1 21.2 21.1 22.6 21.1 4.3 -1.1 -1.1 -1.1 -1.1 -1.1 -1.1 -1.1 -1.1 -1.1 -1.1 -1.1 -1.1 -1.1 -1.1 -1.1 -1.1 -1.1 -1.1 -1.1 -1.1 -1.1 -1.1 -1.1 -1.1 -1.1 -1.1 -1.1 -1.1 -1.1 -1.1 -1.1 -1.1 -1.1 -1.1 -1.1 -1.1 -1.1 -1.1 -1.1 -1.1 -1.1 -1.1 -1.1 -1.1 -1.1 -1.1 -1.1 -1.1 -1.1 -1.1 -1.1 -1.1 -1.1 -1.1 -1.1 -1.1 -1.1 -1.1 -1.1 -1.1 -1.1 -1.1 -1.1 -1.1 -1.1 -1.1 -1.1 -1.1 -1.1 -1.1 -1.1 -1.1 -1.1 -1.1 -1.1 -1.1 -1.1 -1.1 -1.1 -1.1 -1.1 -1.1 -1.1 -1.1 -1.1 -1.1 -1.1 -1.1 -1.1 -1.1 -1.1 -1.1 -1.1 -1.1 -1.1 -1.1 -1.1 -1.1 -1.1 -1.1 -1.1 -1.1 -1.1 -1.1 -1.1 -1.1 -1.1 -1.1 -1.1 -1.1 -1.1 -1.1 -1.1 -1.1 -1.1 -1.1 -1.1 -1.1 -1.1 -1.1 -1.1 -1.1
128.5 136 142.4 142.1 141.4 140.7 139.9 138.3 136.5 133.7 122.5 114.2 112.4 111.5 113.3 120.6 128.3 129.5 128.8 128.3 127.3 126 122.6 123.4 123.6 123.3 122.6 121.4 120.6 120.3 119.1 117.8 116.3 112.5 109.1 108.1 110 111.5 112.3 113.3 113.3 114.2 115.6 116.7 117.3 89.4 77.8 74 72.2 68.8 67.3 64.1 59.9 58.4 55.7 53.9 51.9 50.1 45.9 43.3 40.8 42.1 38.1 36.6 37.7 32.4 25.4 21.2 19.7 20 23.7 25.8 20 21.7 20.3 17.9 13 -1.1 -1.1 -1.1 -1.1 -1.1 -1.1 -1.1 -1.1 -1.1 -1.1 -1.1 -1.1 -1.1 -1.1 -1.1 -1.1 -1.1 -1.1 -1.1 -1.1 -1.1 -1.1 -1.1 -1.1 -1.1 -1.1 -1.1 -1.1 -1.1 -1.1 -1.1 -1.1 -1.1 -1.1 -1.1 -1.1 -1.1 -1.1 -1.1 -1.1 -1.1 -1.1 -1.1 -1.1 -1.1 -1.1 -1.1 -1.1 -1.1 -1.1 -1.1 -1.1 -1.1 -1.1 -1.1 -1.1 -1.1 -1.1 -1.1 -1.1 -1.1 -1.1 -1.1 -1.1 -1.1 -1.1 -1.1 -1.1 -1.1 -1.1 -1.1 -1.1 -1.1 -1.1 -1.1 -1.1 -1.1 -1.1 -1.1 -1.1 -1.1 -1.1 -1.1 -1.1 -1.1 -1.1 -1.1 -1.1 -1.1 -1.1 -1.1 -1.1 -1.1 -1.1 -1.1 -1.1 -1.1 -1.1 -1.1 -1.1 -1.1 -1.1 -1.1 -1.1 -1.1 -1.1 -1.1 -1.1 -1.1 -1.1 -1.1 -1.1 -1.1 -1.1 -1.1 -1.1 -1.1 -1.1 -1.1 -1.1 -1.1 -1.1 -1.1
133.6 141.5 141.9 140.8 140.1 139.3 138.1 136.7 134.2 129.5 118.3 109.7 111.4 113.3 119.8 129.4 129.8 129.2 128.2 127.5 126.8 125.3 123.7 123.4 122.2 121.5 121.6 120.3 119.3 119 117.8 116.9 115.4 112.1 110.1 110.7 110.5 110.2 110.4 109.6 109 107.7 109.3 85.5 76.8 76.6 73.1 67.9 62.6 59.1 58.5 55 51.5 50.9 49.1 46.3 42.6 41.5 38.2 38.6 38.6 34.5 30.7 26.8 24.1 21.2 22 21.2 20.3 20.9 23.1 22.6 27.6 33.1 31.2 28.8 -1.1 -1.1 -1.1 -1.1 -1.1 -1.1 -1.1 -1.1 -1.1 -1.1 -1.1 -1.1 -1.1 -1.1 -1.1 -1.1 -1.1 -1.1 -1.1 -1.1 -1.1 -1.1 -1.1 -1.1 -1.1 -1.1 -1.1 -1.1 -1.1 -1.1 -1.1 -1.1 -1.1 -1.1 -1.1 -1.1 -1.1 -1.1 -1.1 -1.1 -1.1 -1.1 -1.1 -1.1 -1.1 -1.1 -1.1 -1.1 -1.1 -1.1 -1.1 -1.1 -1.1 -1.1 -1.1 -1.1 -1.1 -1.1 -1.1 -1.1 -1.1 -1.1 -1.1 -1.1 -1.1 -1.1 -1.1 -1.1 -1.1 -1.1 -1.1 -1.1 -1.1 -1.1 -1.1 -1.1 -1.1 -1.1 -1.1 -1.1 -1.1 -1.1 -1.1 -1.1 -1.1 -1.1 -1.1 -1.1 -1.1 -1.1 -1.1 -1.1 -1.1 -1.1 -1.1 -1.1 -1.1 -1.1 -1.1 -1.1 -1.1 -1.1 -1.1 -1.1 -1.1 -1.1 -1.1 -1.1 -1.1 -1.1 -1.1 -1.1 -1.1 -1.1 -1.1 -1.1 -1.1 -1.1 -1.1 -1.1 -1.1 -1.1 -1.1 -1.1
139.9 141.3 140.7 139.8 138.8 137.5 136.3 134.3 131.2 120.1 112.7 103.2 108.9 115.2 124.6 129.6 129.4 128.5 127.6 126.7 125.5 124.8 123.2 122.6 120.9 117.9 105.1 91.9 88 89.7 92.1 99.3 115.1 88 77.7 77.4 73.9 73.7 76.5 77 74.6 70.1 70 68.9 69.7 67.7 63.4 62.7 55.1 49.5 47.7 43.2 40.5 39.6 36.6 36.7 35 35.2 34.4 31.5 28.3 21.7 21.5 20.7 19.5 20.9 22.8 22.2 21.9 20.6 23.8 29.3 33.2 30.9 14 -1.1 -1.1 -1.1 -1.1 -1.1 -1.1 -1.1 -1.1 -1.1 -1.1 -1.1 -1.1 -1.1 -1.1 -1.1 -1.1 -1.1 -1.1 -1.1 -1.1 -1.1 -1.1 -1.1 -1.1 -1.1 -1.1 -1.1 -1.1 -1.1 -1.1 -1.1 -1.1 -1.1 -1.1 -1.1 -1.1 -1.1 -1.1 -1.1 -1.1 -1.1 -1.1 -1.1 -1.1 -1.1 -1.1 -1.1 -1.1 -1.1 -1.1 -1.1 -1.1 -1.1 -1.1 -1.1 -1.1 -1.1 -1.1 -1.1 -1.1 -1.1 -1.1 -1.1 -1.1 -1.1 -1.1 -1.1 -1.1 -1.1 -1.1 -1.1 -1.1 -1.1 -1.1 -1.1 -1.1 -1.1 -1.1 -1.1 -1.1 -1.1 -1.1 -1.1 -1.1 -1.1 -1.1 -1.1 -1.1 -1.1 -1.1 -1.1 -1.1 -1.1 -1.1 -1.1 -1.1 -1.1 -1.1 -1.1 -1.1 -1.1 -1.1 -1.1 -1.1 -1.1 -1.1 -1.1 -1.1 -1.1 -1.1 -1.1 -1.1 -1.1 -1.1 -1.1 -1.1 -1.1 -1.1 -1.1 -1.1 -1.1 -1.1 -1.1 -1.1 -1.1
140.7 140.1 139 138.2 137.2 136 134.5 132.3 120.2 109.3 102.3 102.3 109.2 118.9 128.8 128.7 128.2 127.3 126.4 125.3 124.2 123.9 100.4 92.3 81.3 83.2 79.9 78.7 79.2 78.2 75 73.8 72.8 70.1 66 62.6 59.1 58.8 59.6 61.9 63 62.3 60.1 56.1 56.4 62.9 52.9 47 43.6 40.9 36 30.6 28.8 26.7 25.9 26.9 27 27.2 25.5 25.2 19.1 18.6 18.4 18.3 17.5 22.4 21.9 19 2.9 0.9 1.2 -1.1 -1.1 -1.1 -1.1 -1.1 -1.1 -1.1 -1.1 -1.1 -1.1 -1.1 -1.1 -1.1 -1.1 -1.1 -1.1 -1.1 -1.1 -1.1 -1.1 -1.1 -1.1 -1.1 -1.1 -1.1 -1.1 -1.1 -1.1 -1.1 -1.1 -1.1 -1.1 -1.1 -1.1 -1.1 -1.1 -1.1 -1.1 -1.1 -1.1 -1.1 -1.1 -1.1 -1.1 -1.1 -1.1 -1.1 -1.1 -1.1 -1.1 -1.1 -1.1 -1.1 -1.1 -1.1 -1.1 -1.1 -1.1 -1.1 -1.1 -1.1 -1.1 -1.1 -1.1 -1.1 -1.1 -1.1 -1.1 -1.1 -1.1 -1.1 -1.1 -1.1 -1.1 -1.1 -1.1 -1.1 -1.1 -1.1 -1.1 -1.1 -1.1 -1.1 -1.1 -1.1 -1.1 -1.1 -1.1 -1.1 -1.1 -1.1 -1.1 -1.1 -1.1 -1.1 -1.1 -1.1 -1.1 -1.1 -1.1 -1.1 -1.1 -1.1 -1.1 -1.1 -1.1 -1.1 -1.1 -1.1 -1.1 -1.1 -1.1 -1.1 -1.1 -1.1 -1.1 -1.1 -1.1 -1.1 -1.1 -1.1 -1.1 -1.1 -1.1 -1.1 -1.1 -1.1 -1.1 -1.1
139.4 138.7 137.7 136.6 135.5 132.8 119.8 107 101 98 92.5 95.5 105.5 119.4 129.2 126.1 127.1 116.2 108.1 100.1 96.1 91.5 83.3 77 71.6 67.8 70.2 69.2 69 69.1 65.3 65.2 62.1 59.3 59.5 53 51.9 50.5 50.5 49.1 49.1 48.6 47.6 44.1 44 50.9 41.5 35.7 32.1 29.1 22.8 22.6 22.8 21.6 23.4 21.5 21.2 22.1 20 16.6 15.5 17.8 18.6 17.1 15.6 16.1 21 -1.1 -1.1 -1.1 -1.1 -1.1 -1.1 -1.1 -1.1 -1.1 -1.1 -1.1 -1.1 -1.1 -1.1 -1.1 -1.1 -1.1 -1.1 -1.1 -1.1 -1.1 -1.1 -1.1 -1.1 -1.1 -1.1 -1.1 -1.1 -1.1 -1.1 -1.1 -1.1 -1.1 -1.1 -1.1 -1.1 -1.1 -1.1 -1.1 -1.1 -1.1 -1.1 -1.1 -1.1 -1.1 -1.1 -1.1 -1.1 -1.1 -1.1 -1.1 -1.1 -1.1 -1.1 -1.1 -1.1 -1.1 -1.1 -1.1 -1.1 -1.1 -1.1 -1.1 -1.1 -1.1 -1.1 -1.1 -1.1 -1.1 -1.1 -1.1 -1.1 -1.1 -1.1 -1.1 -1.1 -1.1 -1.1 -1.1 -1.1 -1.1 -1.1 -1.1 -1.1 -1.1 -1.1 -1.1 -1.1 -1.1 -1.1 -1.1 -1.1 -1.1 -1.1 -1.1 -1.1 -1.1 -1.1 -1.1 -1.1 -1.1 -1.1 -1.1 -1.1 -1.1 -1.1 -1.1 -1.1 -1.1 -1.1 -1.1 -1.1 -1.1 -1.1 -1.1 -1.1 -1.1 -1.1 -1.1 -1.1 -1.1 -1.1 -1.1 -1.1 -1.1 -1.1 -1.1 -1.1 -1.1 -1.1 -1.1 -1.1 -1.1
138.3 137.3 136.4 134.6 130.7 104.5 100.6 96.7 93.1 89.9 89 91 99.5 108.2 116.4 103.4 97.9 91.7 89.7 85.1 84.7 80.5 76.5 69.8 64.3 61 58.3 59.5 59.5 59.6 58.6 56 50.8 54.1 54.7 55.2 49.5 48 48.2 45.3 43.7 41.1 38.9 35.3 34.8 37.6 33.8 29.7 24.6 20.5 20.4 22.7 22 22.6 25.3 22.9 18.7 18.7 15.8 13.7 14.1 16.1 17.5 17.3 15.2 10.4 -1.1 -1.1 -1.1 -1.1 -1.1 -1.1 -1.1 -1.1 -1.1 -1.1 -1.1 -1.1 -1.1 -1.1 -1.1 -1.1 -1.1 -1.1 -1.1 -1.1 -1.1 -1.1 -1.1 -1.1 -1.1 -1.1 -1.1 -1.1 -1.1 -1.1 -1.1 -1.1 -1.1 -1.1 -1.1 -1.1 -1.1 -1.1 -1.1 -1.1 -1.1 -1.1 -1.1 -1.1 -1.1 -1.1 -1.1 -1.1 -1.1 -1.1 -1.1 -1.1 -1.1 -1.1 -1.1 -1.1 -1.1 -1.1 -1.1 -1.1 -1.1 -1.1 -1.1 -1.1 -1.1 -1.1 -1.1 -1.1 -1.1 -1.1 -1.1 -1.1 -1.1 -1.1 -1.1 -1.1 -1.1 -1.1 -1.1 -1.1 -1.1 -1.1 -1.1 -1.1 -1.1 -1.1 -1.1 -1.1 -1.1 -1.1 -1.1 -1.1 -1.1 -1.1 -1.1 -1.1 -1.1 -1.1 -1.1 -1.1 -1.1 -1.1 -1.1 -1.1 -1.1 -1.1 -1.1 -1.1 -1.1 -1.1 -1.1 -1.1 -1.1 -1.1 -1.1 -1.1 -1.1 -1.1 -1.1 -1.1 -1.1 -1.1 -1.1 -1.1 -1.1 -1.1 -1.1 -1.1 -1.1 -1.1 -1.1 -1.1 -1.1 -1.1
137.4 136.5 125.6 110.6 102 98.2 96.2 93.2 90.5 87.3 85.5 86.2 87.3 91 87.5 84.2 85.4 86.2 83.8 80 76.2 72 66.2 61 57.2 54.1 53.1 51.9 51.3 52.9 53.1 48.2 42.8 40.8 47.1 40.5 40.1 42.6 43.2 38.9 36.6 33 29.4 27.1 24.8 29.9 28.7 23.3 19.3 19.5 20.4 21 22.1 23.6 24 20 16 14.7 12.8 13.2 14 0.9 1 20.9 8.5 -1.1 -1.1 -1.1 -1.1 -1.1 -1.1 -1.1 -1.1 -1.1 -1.1 -1.1 -1.1 -1.1 -1.1 -1.1 -1.1 -1.1 -1.1 -1.1 -1.1 -1.1 -1.1 -1.1 -1.1 -1.1 -1.1 -1.1 -1.1 -1.1 -1.1 -1.1 -1.1 -1.1 -1.1 -1.1 -1.1 -1.1 -1.1 -1.1 -1.1 -1.1 -1.1 -1.1 -1.1 -1.1 -1.1 -1.1 -1.1 -1.1 -1.1 -1.1 -1.1 -1.1 -1.1 -1.1 -1.1 -1.1 -1.1 -1.1 -1.1 -1.1 -1.1 -1.1 -1.1 -1.1 -1.1 -1.1 -1.1 -1.1 -1.1 -1.1 -1.1 -1.1 -1.1 -1.1 -1.1 -1.1 -1.1 -1.1 -1.1 -1.1 -1.1 -1.1 -1.1 -1.1 -1.1 -1.1 -1.1 -1.1 -1.1 -1.1 -1.1 -1.1 -1.1 -1.1 -1.1 -1.1 -1.1 -1.1 -1.1 -1.1 -1.1 -1.1 -1.1 -1.1 -1.1 -1.1 -1.1 -1.1 -1.1 -1.1 -1.1 -1.1 -1.1 -1.1 -1.1 -1.1 -1.1 -1.1 -1.1 -1.1 -1.1 -1.1 -1.1 -1.1 -1.1 -1.1 -1.1 -1.1 -1.1 -1.1 -1.1 -1.1 -1.1 -1.1
111.9 107.9 104.6 100.7 95.7 93.6 91.1 90.8 83.2 80.8 81.8 79.5 81.4 86.1 84.4 81.7 81.4 80.6 78.6 75.2 71.1 62.7 60.8 56.5 50.9 46.6 43.6 41.9 41.5 42.3 39.6 34.7 27 22.7 20.3 24.6 24.9 25.2 27 24.4 24.3 19.6 17.8 16.2 16.7 23.2 23.9 18.2 19.1 20.3 20.7 21.6 21.2 23.2 20.3 18.9 15.9 13.7 10.7 0.8 0.4 -0.3 -1.1 -1.1 -1.1 -1.1 -1.1 -1.1 -1.1 -1.1 -1.1 -1.1 -1.1 -1.1 -1.1 -1.1 -1.1 -1.1 -1.1 -1.1 -1.1 -1.1 -1.1 -1.1 -1.1 -1.1 -1.1 -1.1 -1.1 -1.1 -1.1 -1.1 -1.1 -1.1 -1.1 -1.1 -1.1 -1.1 -1.1 -1.1 -1.1 -1.1 -1.1 -1.1 -1.1 -1.1 -1.1 -1.1 -1.1 -1.1 -1.1 -1.1 -1.1 -1.1 -1.1 -1.1 -1.1 -1.1 -1.1 -1.1 -1.1 -1.1 -1.1 -1.1 -1.1 -1.1 -1.1 -1.1 -1.1 -1.1 -1.1 -1.1 -1.1 -1.1 -1.1 -1.1 -1.1 -1.1 -1.1 -1.1 -1.1 -1.1 -1.1 -1.1 -1.1 -1.1 -1.1 -1.1 -1.1 -1.1 -1.1 -1.1 -1.1 -1.1 -1.1 -1.1 -1.1 -1.1 -1.1 -1.1 -1.1 -1.1 -1.1 -1.1 -1.1 -1.1 -1.1 -1.1 -1.1 -1.1 -1.1 -1.1 -1.1 -1.1 -1.1 -1.1 -1.1 -1.1 -1.1 -1.1 -1.1 -1.1 -1.1 -1.1 -1.1 -1.1 -1.1 -1.1 -1.1 -1.1 -1.1 -1.1 -1.1 -1.1 -1.1 -1.1 -1.1 -1.1 -1.1 -1.1
99.2 96.9 94.3 94.1 90.3 85.3 84.2 82.4 79.7 79.1 78.1 74.8 77 77.5 79.3 76.9 76.4 74.1 69.8 66.2 66.2 62 59 49.3 43.4 35.3 29.2 27.4 27.8 28.7 22.4 18.7 17.7 15.2 17 22.2 26.1 21.8 17.9 14.8 14.8 9.9 8.6 7.7 6.4 4.8 11.9 18.7 19.6 20 17.9 19.4 20.1 17.8 18.9 17.7 13.9 1.1 0 -1.1 -1.1 -1.1 -1.1 -1.1 -1.1 -1.1 -1.1 -1.1 -1.1 -1.1 -1.1 -1.1 -1.1 -1.1 -1.1 -1.1 -1.1 -1.1 -1.1 -1.1 -1.1 -1.1 -1.1 -1.1 -1.1 -1.1 -1.1 -1.1 -1.1 -1.1 -1.1 -1.1 -1.1 -1.1 -1.1 -1.1 -1.1 -1.1 -1.1 -1.1 -1.1 -1.1 -1.1 -1.1 -1.1 -1.1 -1.1 -1.1 -1.1 -1.1 -1.1 -1.1 -1.1 -1.1 -1.1 -1.1 -1.1 -1.1 -1.1 -1.1 -1.1 -1.1 -1.1 -1.1 -1.1 -1.1 -1.1 -1.1 -1.1 -1.1 -1.1 -1.1 -1.1 -1.1 -1.1 -1.1 -1.1 -1.1 -1.1 -1.1 -1.1 -1.1 -1.1 -1.1 -1.1 -1.1 -1.1 -1.1 -1.1 -1.1 -1.1 -1.1 -1.1 -1.1 -1.1 -1.1 -1.1 -1.1 -1.1 -1.1 -1.1 -1.1 -1.1 -1.1 -1.1 -1.1 -1.1 -1.1 -1.1 -1.1 -1.1 -1.1 -1.1 -1.1 -1.1 -1.1 -1.1 -1.1 -1.1 -1.1 -1.1 -1.1 -1.1 -1.1 -1.1 -1.1 -1.1 -1.1 -1.1 -1.1 -1.1 -1.1 -1.1 -1.1 -1.1 -1.1 -1.1 -1.1 -1.1 -1.1
87.7 90.9 86.3 85.9 84.7 80.2 83.7 81.3 76.6 75.9 73 70.3 68.2 68.7 71.3 71 69.6 64.3 63.4 62.4 60.7 59.5 54.5 41.6 32.6 31 27.6 26.3 24 21.8 17.5 13.2 10.8 6.8 4.5 6.5 7.9 11.6 11.1 4.2 2.9 0.9 -1.1 -1.1 0.4 -1.1 0.8 2.7 9.6 10.2 9.8 12.8 6.1 1.2 0.9 0.4 -1.1 -1.1 -1.1 -1.1 -1.1 -1.1 -1.1 -1.1 -1.1 -1.1 -1.1 -1.1 -1.1 -1.1 -1.1 -1.1 -1.1 -1.1 -1.1 -1.1 -1.1 -1.1 -1.1 -1.1 -1.1 -1.1 -1.1 -1.1 -1.1 -1.1 -1.1 -1.1 -1.1 -1.1 -1.1 -1.1 -1.1 -1.1 -1.1 -1.1 -1.1 -1.1 -1.1 -1.1 -1.1 -1.1 -1.1 -1.1 -1.1 -1.1 -1.1 -1.1 -1.1 -1.1 -1.1 -1.1 -1.1 -1.1 -1.1 -1.1 -1.1 -1.1 -1.1 -1.1 -1.1 -1.1 -1.1 -1.1 -1.1 -1.1 -1.1 -1.1 -1.1 -1.1 -1.1 -1.1 -1.1 -1.1 -1.1 -1.1 -1.1 -1.1 -1.1 -1.1 -1.1 -1.1 -1.1 -1.1 -1.1 -1.1 -1.1 -1.1 -1.1 -1.1 -1.1 -1.1 -1.1 -1.1 -1.1 -1.1 -1.1 -1.1 -1.1 -1.1 -1.1 -1.1 -1.1 -1.1 -1.1 -1.1 -1.1 -1.1 -1.1 -1.1 -1.1 -1.1 -1.1 -1.1 -1.1 -1.1 -1.1 -1.1 -1.1 -1.1 -1.1 -1.1 -1.1 -1.1 -1.1 -1.1 -1.1 -1.1 -1.1 -1.1 -1.1 -1.1 -1.1 -1.1 -1.1 -1.1 -1.1 -1.1 -1.1 -1.1
68.8 74.3 72.9 72.1 71.3 74.3 74.6 74.7 74.4 73.4 71.2 65.8 61.8 62.5 62 61.4 61.2 59.1 59 55.7 54.1 46.6 34.2 26.6 21.8 19.9 21.2 18.2 13.6 13.3 9.4 0.6 -1.1 -1.1 -1.1 0 0.1 0.2 0.3 0.1 -0.2 -0.1 -1.1 -1.1 -1.1 -1.1 -1.1 -1.1 -1.1 -1.1 0.5 0.3 -1.1 -1.1 -1.1 -1.1 -1.1 -1.1 -1.1 -1.1 -1.1 -1.1 -1.1 -1.1 -1.1 -1.1 -1.1 -1.1 -1.1 -1.1 -1.1 -1.1 -1.1 -1.1 -1.1 -1.1 -1.1 -1.1 -1.1 -1.1 -1.1 -1.1 -1.1 -1.1 -1.1 -1.1 -1.1 -1.1 -1.1 -1.1 -1.1 -1.1 -1.1 -1.1 -1.1 -1.1 -1.1 -1.1 -1.1 -1.1 -1.1 -1.1 -1.1 -1.1 -1.1 -1.1 -1.1 -1.1 -1.1 -1.1 -1.1 -1.1 -1.1 -1.1 -1.1 -1.1 -1.1 -1.1 -1.1 -1.1 -1.1 -1.1 -1.1 -1.1 -1.1 -1.1 -1.1 -1.1 -1.1 -1.1 -1.1 -1.1 -1.1 -1.1 -1.1 -1.1 -1.1 -1.1 -1.1 -1.1 -1.1 -1.1 -1.1 -1.1 -1.1 -1.1 -1.1 -1.1 -1.1 -1.1 -1.1 -1.1 -1.1 -1.1 -1.1 -1.1 -1.1 -1.1 -1.1 -1.1 -1.1 -1.1 -1.1 -1.1 -1.1 -1.1 -1.1 -1.1 -1.1 -1.1 -1.1 -1.1 -1.1 -1.1 -1.1 -1.1 -1.1 -1.1 -1.1 -1.1 -1.1 -1.1 -1.1 -1.1 -1.1 -1.1 -1.1 -1.1 -1.1 -1.1 -1.1 -1.1 -1.1 -1.1 -1.1 -1.1 -1.1 -1.1 -1.1 -1.1
68.2 65.5 67.5 68.4 68.3 67.7 68.3 66.5 65.6 67.5 62.1 58.4 56.2 56.2 54.6 52.7 54.1 54.8 53 49.7 48.4 35.5 21.7 19.5 13.8 10.8 7.3 0.9 0.6 0.7 0 -1.1 -1.1 -1.1 -1.1 -1.1 -1.1 -1.1 -1.1 -1.1 -1.1 -1.1 -1.1 -1.1 -1.1 -1.1 -1.1 -1.1 -1.1 -1.1 -1.1 -1.1 -1.1 -1.1 -1.1 -1.1 -1.1 -1.1 -1.1 -1.1 -1.1 -1.1 -1.1 -1.1 -1.1 -1.1 -1.1 -1.1 -1.1 -1.1 -1.1 -1.1 -1.1 -1.1 -1.1 -1.1 -1.1 -1.1 -1.1 -1.1 -1.1 -1.1 -1.1 -1.1 -1.1 -1.1 -1.1 -1.1 -1.1 -1.1 -1.1 -1.1 -1.1 -1.1 -1.1 -1.1 -1.1 -1.1 -1.1 -1.1 -1.1 -1.1 -1.1 -1.1 -1.1 -1.1 -1.1 -1.1 -1.1 -1.1 -1.1 -1.1 -1.1 -1.1 -1.1 -1.1 -1.1 -1.1 -1.1 -1.1 -1.1 -1.1 -1.1 -1.1 -1.1 -1.1 -1.1 -1.1 -1.1 -1.1 -1.1 -1.1 -1.1 -1.1 -1.1 -1.1 -1.1 -1.1 -1.1 -1.1 -1.1 -1.1 -1.1 -1.1 -1.1 -1.1 -1.1 -1.1 -1.1 -1.1 -1.1 -1.1 -1.1 -1.1 -1.1 -1.1 -1.1 -1.1 -1.1 -1.1 -1.1 -1.1 -1.1 -1.1 -1.1 -1.1 -1.1 -1.1 -1.1 -1.1 -1.1 -1.1 -1.1 -1.1 -1.1 -1.1 -1.1 -1.1 -1.1 -1.1 -1.1 -1.1 -1.1 -1.1 -1.1 -1.1 -1.1 -1.1 -1.1 -1.1 -1.1 -1.1 -1.1 -1.1 -1.1 -1.1 -1.1 -1.1 -1.1 -1.1
64.9 56.1 59.9 62.3 61.8 60.9 62.4 60.1 59.7 57.1 56 54.3 51.1 48.5 45.3 41 43.6 47.7 48.2 43.9 42 24.2 16.9 9.9 0.7 0.2 -1.1 -1.1 -1.1 -1.1 -1.1 -1.1 -1.1 -1.1 -1.1 -1.1 -1.1 -1.1 -1.1 -1.1 -1.1 -1.1 -1.1 -1.1 -1.1 -1.1 -1.1 -1.1 -1.1 -1.1 -1.1 -1.1 -1.1 -1.1 -1.1 -1.1 -1.1 -1.1 -1.1 -1.1 -1.1 -1.1 -1.1 -1.1 -1.1 -1.1 -1.1 -1.1 -1.1 -1.1 -1.1 -1.1 -1.1 -1.1 -1.1 -1.1 -1.1 -1.1 -1.1 -1.1 -1.1 -1.1 -1.1 -1.1 -1.1 -1.1 -1.1 -1.1 -1.1 -1.1 -1.1 -1.1 -1.1 -1.1 -1.1 -1.1 -1.1 -1.1 -1.1 -1.1 -1.1 -1.1 -1.1 -1.1 -1.1 -1.1 -1.1 -1.1 -1.1 -1.1 -1.1 -1.1 -1.1 -1.1 -1.1 -1.1 -1.1 -1.1 -1.1 -1.1 -1.1 -1.1 -1.1 -1.1 -1.1 -1.1 -1.1 -1.1 -1.1 -1.1 -1.1 -1.1 -1.1 -1.1 -1.1 -1.1 -1.1 -1.1 -1.1 -1.1 -1.1 -1.1 -1.1 -1.1 -1.1 -1.1 -1.1 -1.1 -1.1 -1.1 -1.1 -1.1 -1.1 -1.1 -1.1 -1.1 -1.1 -1.1 -1.1 -1.1 -1.1 -1.1 -1.1 -1.1 -1.1 -1.1 -1.1 -1.1 -1.1 -1.1 -1.1 -1.1 -1.1 -1.1 -1.1 -1.1 -1.1 -1.1 -1.1 -1.1 -1.1 -1.1 -1.1 -1.1 -1.1 -1.1 -1.1 -1.1 -1.1 -1.1 -1.1 -1.1 -1.1 -1.1 -1.1 -1.1 -1.1 -1.1 -1.1 -1.1
58.3 51.2 48.1 49.8 49.2 51.4 57.2 54.2 54.5 51.9 49.5 43.1 35.2 25.1 22.5 25.9 27 28.7 31.7 31.6 25 15.9 11.4 0.5 -1.1 -1.1 -1.1 -1.1 -1.1 -1.1 -1.1 -1.1 -1.1 -1.1 -1.1 -1.1 -1.1 -1.1 -1.1 -1.1 -1.1 -1.1 -1.1 -1.1 -1.1 -1.1 -1.1 -1.1 -1.1 -1.1 -1.1 -1.1 -1.1 -1.1 -1.1 -1.1 -1.1 -1.1 -1.1 -1.1 -1.1 -1.1 -1.1 -1.1 -1.1 -1.1 -1.1 -1.1 -1.1 -1.1 -1.1 -1.1 -1.1 -1.1 -1.1 -1.1 -1.1 -1.1 -1.1 -1.1 -1.1 -1.1 -1.1 -1.1 -1.1 -1.1 -1.1 -1.1 -1.1 -1.1 -1.1 -1.1 -1.1 -1.1 -1.1 -1.1 -1.1 -1.1 -1.1 -1.1 -1.1 -1.1 -1.1 -1.1 -1.1 -1.1 -1.1 -1.1 -1.1 -1.1 -1.1 -1.1 -1.1 -1.1 -1.1 -1.1 -1.1 -1.1 -1.1 -1.1 -1.1 -1.1 -1.1 -1.1 -1.1 -1.1 -1.1 -1.1 -1.1 -1.1 -1.1 -1.1 -1.1 -1.1 -1.1 -1.1 -1.1 -1.1 -1.1 -1.1 -1.1 -1.1 -1.1 -1.1 -1.1 -1.1 -1.1 -1.1 -1.1 -1.1 -1.1 -1.1 -1.1 -1.1 -1.1 -1.1 -1.1 -1.1 -1.1 -1.1 -1.1 -1.1 -1.1 -1.1 -1.1 -1.1 -1.1 -1.1 -1.1 -1.1 -1.1 -1.1 -1.1 -1.1 -1.1 -1.1 -1.1 -1.1 -1.1 -1.1 -1.1 -1.1 -1.1 -1.1 -1.1 -1.1 -1.1 -1.1 -1.1 -1.1 -1.1 -1.1 -1.1 -1.1 -1.1 -1.1 -1.1 -1.1 -1.1 -1.1
40.5 39.8 37.6 33.9 31.7 34.2 39.6 43.5 46.5 46.2 41.4 24 10 5.3 7 14.8 16.5 19.6 20.9 20.3 15.2 8.9 1 -1.1 -1.1 -1.1 -1.1 -1.1 -1.1 -1.1 -1.1 -1.1 -1.1 -1.1 -1.1 -1.1 -1.1 -1.1 -1.1 -1.1 -1.1 -1.1 -1.1 -1.1 -1.1 -1.1 -1.1 -1.1 -1.1 -1.1 -1.1 -1.1 -1.1 -1.1 -1.1 -1.1 -1.1 -1.1 -1.1 -1.1 -1.1 -1.1 -1.1 -1.1 -1.1 -1.1 -1.1 -1.1 -1.1 -1.1 -1.1 -1.1 -1.1 -1.1 -1.1 -1.1 -1.1 -1.1 -1.1 -1.1 -1.1 -1.1 -1.1 -1.1 -1.1 -1.1 -1.1 -1.1 -1.1 -1.1 -1.1 -1.1 -1.1 -1.1 -1.1 -1.1 -1.1 -1.1 -1.1 -1.1 -1.1 -1.1 -1.1 -1.1 -1.1 -1.1 -1.1 -1.1 -1.1 -1.1 -1.1 -1.1 -1.1 -1.1 -1.1 -1.1 -1.1 -1.1 -1.1 -1.1 -1.1 -1.1 -1.1 -1.1 -1.1 -1.1 -1.1 -1.1 -1.1 -1.1 -1.1 -1.1 -1.1 -1.1 -1.1 -1.1 -1.1 -1.1 -1.1 -1.1 -1.1 -1.1 -1.1 -1.1 -1.1 -1.1 -1.1 -1.1 -1.1 -1.1 -1.1 -1.1 -1.1 -1.1 -1.1 -1.1 -1.1 -1.1 -1.1 -1.1 -1.1 -1.1 -1.1 -1.1 -1.1 -1.1 -1.1 -1.1 -1.1 -1.1 -1.1 -1.1 -1.1 -1.1 -1.1 -1.1 -1.1 -1.1 -1.1 -1.1 -1.1 -1.1 -1.1 -1.1 -1.1 -1.1 -1.1 -1.1 -1.1 -1.1 -1.1 -1.1 -1.1 -1.1 -1.1 -1.1 -1.1 -1.1 -1.1 -1.1
26.1 27.6 27.3 25.7 21.5 18.7 20.7 27 33.2 34.6 22.2 1.1 0.3 -1.1 -1.1 0.1 0.8 1 4.3 6.9 7 0.9 0.2 -1.1 -1.1 -1.1 -1.1 -1.1 -1.1 -1.1 -1.1 -1.1 -1.1 -1.1 -1.1 -1.1 -1.1 -1.1 -1.1 -1.1 -1.1 -1.1 -1.1 -1.1 -1.1 -1.1 -1.1 -1.1 -1.1 -1.1 -1.1 -1.1 -1.1 -1.1 -1.1 -1.1 -1.1 -1.1 -1.1 -1.1 -1.1 -1.1 -1.1 -1.1 -1.1 -1.1 -1.1 -1.1 -1.1 -1.1 -1.1 -1.1 -1.1 -1.1 -1.1 -1.1 -1.1 -1.1 -1.1 -1.1 -1.1 -1.1 -1.1 -1.1 -1.1 -1.1 -1.1 -1.1 -1.1 -1.1 -1.1 -1.1 -1.1 -1.1 -1.1 -1.1 -1.1 -1.1 -1.1 -1.1 -1.1 -1.1 -1.1 -1.1 -1.1 -1.1 -1.1 -1.1 -1.1 -1.1 -1.1 -1.1 -1.1 -1.1 -1.1 -1.1 -1.1 -1.1 -1.1 -1.1 -1.1 -1.1 -1.1 -1.1 -1.1 -1.1 -1.1 -1.1 -1.1 -1.1 -1.1 -1.1 -1.1 -1.1 -1.1 -1.1 -1.1 -1.1 -1.1 -1.1 -1.1 -1.1 -1.1 -1.1 -1.1 -1.1 -1.1 -1.1 -1.1 -1.1 -1.1 -1.1 -1.1 -1.1 -1.1 -1.1 -1.1 -1.1 -1.1 -1.1 -1.1 -1.1 -1.1 -1.1 -1.1 -1.1 -1.1 -1.1 -1.1 -1.1 -1.1 -1.1 -1.1 -1.1 -1.1 -1.1 -1.1 -1.1 -1.1 -1.1 -1.1 -1.1 -1.1 -1.1 -1.1 -1.1 -1.1 -1.1 -1.1 -1.1 -1.1 -1.1 -1.1 -1.1 -1.1 -1.1 -1.1 -1.1 -1.1 -1.1
16 18.9 19.8 18.5 16.4 16.3 14.1 13.8 15.5 15 -1.1 0.1 -1.1 -1.1 -1.1 -1.1 -1.1 -1.1 -1.1 -1.1 -1.1 -0.3 -0.4 -1.1 -1.1 -1.1 -1.1 -1.1 -1.1 -1.1 -1.1 -1.1 -1.1 -1.1 -1.1 -1.1 -1.1 -1.1 -1.1 -1.1 -1.1 -1.1 -1.1 -1.1 -1.1 -1.1 -1.1 -1.1 -1.1 -1.1 -1.1 -1.1 -1.1 -1.1 -1.1 -1.1 -1.1 -1.1 -1.1 -1.1 -1.1 -1.1 -1.1 -1.1 -1.1 -1.1 -1.1 -1.1 -1.1 -1.1 -1.1 -1.1 -1.1 -1.1 -1.1 -1.1 -1.1 -1.1 -1.1 -1.1 -1.1 -1.1 -1.1 -1.1 -1.1 -1.1 -1.1 -1.1 -1.1 -1.1 -1.1 -1.1 -1.1 -1.1 -1.1 -1.1 -1.1 -1.1 -1.1 -1.1 -1.1 -1.1 -1.1 -1.1 -1.1 -1.1 -1.1 -1.1 -1.1 -1.1 -1.1 -1.1 -1.1 -1.1 -1.1 -1.1 -1.1 -1.1 -1.1 -1.1 -1.1 -1.1 -1.1 -1.1 -1.1 -1.1 -1.1 -1.1 -1.1 -1.1 -1.1 -1.1 -1.1 -1.1 -1.1 -1.1 -1.1 -1.1 -1.1 -1.1 -1.1 -1.1 -1.1 -1.1 -1.1 -1.1 -1.1 -1.1 -1.1 -1.1 -1.1 -1.1 -1.1 -1.1 -1.1 -1.1 -1.1 -1.1 -1.1 -1.1 -1.1 -1.1 -1.1 -1.1 -1.1 -1.1 -1.1 -1.1 -1.1 -1.1 -1.1 -1.1 -1.1 -1.1 -1.1 -1.1 -1.1 -1.1 -1.1 -1.1 -1.1 -1.1 -1.1 -1.1 -1.1 -1.1 -1.1 -1.1 -1.1 -1.1 -1.1 -1.1 -1.1 -1.1 -1.1 -1.1 -1.1 -1.1 -1.1 -1.1
17.6 16.3 15.9 14.3 12.9 15.4 14.2 11.4 3.1 1.2 -1.1 -1.1 -1.1 -1.1 -1.1 -1.1 -1.1 -1.1 -1.1 -1.1 -1.1 -1.1 -1.1 -1.1 -1.1 -1.1 -1.1 -1.1 -1.1 -1.1 -1.1 -1.1 -1.1 -1.1 -1.1 -1.1 -1.1 -1.1 -1.1 -1.1 -1.1 -1.1 -1.1 -1.1 -1.1 -1.1 -1.1 -1.1 -1.1 -1.1 -1.1 -1.1 -1.1 -1.1 -1.1 -1.1 -1.1 -1.1 -1.1 -1.1 -1.1 -1.1 -1.1 -1.1 -1.1 -1.1 -1.1 -1.1 -1.1 -1.1 -1.1 -1.1 -1.1 -1.1 -1.1 -1.1 -1.1 -1.1 -1.1 -1.1 -1.1 -1.1 -1.1 -1.1 -1.1 -1.1 -1.1 -1.1 -1.1 -1.1 -1.1 -1.1 -1.1 -1.1 -1.1 -1.1 -1.1 -1.1 -1.1 -1.1 -1.1 -1.1 -1.1 -1.1 -1.1 -1.1 -1.1 -1.1 -1.1 -1.1 -1.1 -1.1 -1.1 -1.1 -1.1 -1.1 -1.1 -1.1 -1.1 -1.1 -1.1 -1.1 -1.1 -1.1 -1.1 -1.1 -1.1 -1.1 -1.1 -1.1 -1.1 -1.1 -1.1 -1.1 -1.1 -1.1 -1.1 -1.1 -1.1 -1.1 -1.1 -1.1 -1.1 -1.1 -1.1 -1.1 -1.1 -1.1 -1.1 -1.1 -1.1 -1.1 -1.1 -1.1 -1.1 -1.1 -1.1 -1.1 -1.1 -1.1 -1.1 -1.1 -1.1 -1.1 -1.1 -1.1 -1.1 -1.1 -1.1 -1.1 -1.1 -1.1 -1.1 -1.1 -1.1 -1.1 -1.1 -1.1 -1.1 -1.1 -1.1 -1.1 -1.1 -1.1 -1.1 -1.1 -1.1 -1.1 -1.1 -1.1 -1.1 -1.1 -1.1 -1.1 -1.1 -1.1 -1.1 -1.1 -1.1 -1.1
17.2 17.3 15 12.9 11.2 13.3 6.3 0.6 -1.1 -1.1 -1.1 -1.1 -1.1 -1.1 -1.1 -1.1 -1.1 -1.1 -1.1 -1.1 -1.1 -1.1 -1.1 -1.1 -1.1 -1.1 -1.1 -1.1 -1.1 -1.1 -1.1 -1.1 -1.1 -1.1 -1.1 -1.1 -1.1 -1.1 -1.1 -1.1 -1.1 -1.1 -1.1 -1.1 -1.1 -1.1 -1.1 -1.1 -1.1 -1.1 -1.1 -1.1 -1.1 -1.1 -1.1 -1.1 -1.1 -1.1 -1.1 -1.1 -1.1 -1.1 -1.1 -1.1 -1.1 -1.1 -1.1 -1.1 -1.1 -1.1 -1.1 -1.1 -1.1 -1.1 -1.1 -1.1 -1.1 -1.1 -1.1 -1.1 -1.1 -1.1 -1.1 -1.1 -1.1 -1.1 -1.1 -1.1 -1.1 -1.1 -1.1 -1.1 -1.1 -1.1 -1.1 -1.1 -1.1 -1.1 -1.1 -1.1 -1.1 -1.1 -1.1 -1.1 -1.1 -1.1 -1.1 -1.1 -1.1 -1.1 -1.1 -1.1 -1.1 -1.1 -1.1 -1.1 -1.1 -1.1 -1.1 -1.1 -1.1 -1.1 -1.1 -1.1 -1.1 -1.1 -1.1 -1.1 -1.1 -1.1 -1.1 -1.1 -1.1 -1.1 -1.1 -1.1 -1.1 -1.1 -1.1 -1.1 -1.1 -1.1 -1.1 -1.1 -1.1 -1.1 -1.1 -1.1 -1.1 -1.1 -1.1 -1.1 -1.1 -1.1 -1.1 -1.1 -1.1 -1.1 -1.1 -1.1 -1.1 -1.1 -1.1 -1.1 -1.1 -1.1 -1.1 -1.1 -1.1 -1.1 -1.1 -1.1 -1.1 -1.1 -1.1 -1.1 -1.1 -1.1 -1.1 -1.1 -1.1 -1.1 -1.1 -1.1 -1.1 -1.1 -1.1 -1.1 -1.1 -1.1 -1.1 -1.1 -1.1 -1.1 -1.1 -1.1 -1.1 -1.1 -1.1 -1.1
16 15.7 10 8.1 2.8 0.7 -1.1 -1.1 -1.1 -1.1 -1.1 -1.1 -1.1 -1.1 -1.1 -1.1 -1.1 -1.1 -1.1 -1.1 -1.1 -1.1 -1.1 -1.1 -1.1 -1.1 -1.1 -1.1 -1.1 -1.1 -1.1 -1.1 -1.1 -1.1 -1.1 -1.1 -1.1 -1.1 -1.1 -1.1 -1.1 -1.1 -1.1 -1.1 -1.1 -1.1 -1.1 -1.1 -1.1 -1.1 -1.1 -1.1 -1.1 -1.1 -1.1 -1.1 -1.1 -1.1 -1.1 -1.1 -1.1 -1.1 -1.1 -1.1 -1.1 -1.1 -1.1 -1.1 -1.1 -1.1 -1.1 -1.1 -1.1 -1.1 -1.1 -1.1 -1.1 -1.1 -1.1 -1.1 -1.1 -1.1 -1.1 -1.1 -1.1 -1.1 -1.1 -1.1 -1.1 -1.1 -1.1 -1.1 -1.1 -1.1 -1.1 -1.1 -1.1 -1.1 -1.1 -1.1 -1.1 -1.1 -1.1 -1.1 -1.1 -1.1 -1.1 -1.1 -1.1 -1.1 -1.1 -1.1 -1.1 -1.1 -1.1 -1.1 -1.1 -1.1 -1.1 -1.1 -1.1 -1.1 -1.1 -1.1 -1.1 -1.1 -1.1 -1.1 -1.1 -1.1 -1.1 -1.1 -1.1 -1.1 -1.1 -1.1 -1.1 -1.1 -1.1 -1.1 -1.1 -1.1 -1.1 -1.1 -1.1 -1.1 -1.1 -1.1 -1.1 -1.1 -1.1 -1.1 -1.1 -1.1 -1.1 -1.1 -1.1 -1.1 -1.1 -1.1 -1.1 -1.1 -1.1 -1.1 -1.1 -1.1 -1.1 -1.1 -1.1 -1.1 -1.1 -1.1 -1.1 -1.1 -1.1 -1.1 -1.1 -1.1 -1.1 -1.1 -1.1 -1.1 -1.1 -1.1 -1.1 -1.1 -1.1 -1.1 -1.1 -1.1 -1.1 -1.1 -1.1 -1.1 -1.1 -1.1 -1.1 -1.1 -1.1 -1.1
8.5 0.6 -1.1 -1.1 -1.1 -1.1 -1.1 -1.1 -1.1 -1.1 -1.1 -1.1 -1.1 -1.1 -1.1 -1.1 -1.1 -1.1 -1.1 -1.1 -1.1 -1.1 -1.1 -1.1 -1.1 -1.1 -1.1 -1.1 -1.1 -1.1 -1.1 -1.1 -1.1 -1.1 -1.1 -1.1 -1.1 -1.1 -1.1 -1.1 -1.1 -1.1 -1.1 -1.1 -1.1 -1.1 -1.1 -1.1 -1.1 -1.1 -1.1 -1.1 -1.1 -1.1 -1.1 -1.1 -1.1 -1.1 -1.1 -1.1 -1.1 -1.1 -1.1 -1.1 -1.1 -1.1 -1.1 -1.1 -1.1 -1.1 -1.1 -1.1 -1.1 -1.1 -1.1 -1.1 -1.1 -1.1 -1.1 -1.1 -1.1 -1.1 -1.1 -1.1 -1.1 -1.1 -1.1 -1.1 -1.1 -1.1 -1.1 -1.1 -1.1 -1.1 -1.1 -1.1 -1.1 -1.1 -1.1 -1.1 -1.1 -1.1 -1.1 -1.1 -1.1 -1.1 -1.1 -1.1 -1.1 -1.1 -1.1 -1.1 -1.1 -1.1 -1.1 -1.1 -1.1 -1.1 -1.1 -1.1 -1.1 -1.1 -1.1 -1.1 -1.1 -1.1 -1.1 -1.1 -1.1 -1.1 -1.1 -1.1 -1.1 -1.1 -1.1 -1.1 -1.1 -1.1 -1.1 -1.1 -1.1 -1.1 -1.1 -1.1 -1.1 -1.1 -1.1 -1.1 -1.1 -1.1 -1.1 -1.1 -1.1 -1.1 -1.1 -1.1 -1.1 -1.1 -1.1 -1.1 -1.1 -1.1 -1.1 -1.1 -1.1 -1.1 -1.1 -1.1 -1.1 -1.1 -1.1 -1.1 -1.1 -1.1 -1.1 -1.1 -1.1 -1.1 -1.1 -1.1 -1.1 -1.1 -1.1 -1.1 -1.1 -1.1 -1.1 -1.1 -1.1 -1.1 -1.1 -1.1 -1.1 -1.1 -1.1 -1.1 -1.1 -1.1 -1.1 -1.1
-1.1 -1.1 -1.1 -1.1 -1.1 -1.1 -1.1 -1.1 -1.1 -1.1 -1.1 -1.1 -1.1 -1.1 -1.1 -1.1 -1.1 -1.1 -1.1 -1.1 -1.1 -1.1 -1.1 -1.1 -1.1 -1.1 -1.1 -1.1 -1.1 -1.1 -1.1 -1.1 -1.1 -1.1 -1.1 -1.1 -1.1 -1.1 -1.1 -1.1 -1.1 -1.1 -1.1 -1.1 -1.1 -1.1 -1.1 -1.1 -1.1 -1.1 -1.1 -1.1 -1.1 -1.1 -1.1 -1.1 -1.1 -1.1 -1.1 -1.1 -1.1 -1.1 -1.1 -1.1 -1.1 -1.1 -1.1 -1.1 -1.1 -1.1 -1.1 -1.1 -1.1 -1.1 -1.1 -1.1 -1.1 -1.1 -1.1 -1.1 -1.1 -1.1 -1.1 -1.1 -1.1 -1.1 -1.1 -1.1 -1.1 -1.1 -1.1 -1.1 -1.1 -1.1 -1.1 -1.1 -1.1 -1.1 -1.1 -1.1 -1.1 -1.1 -1.1 -1.1 -1.1 -1.1 -1.1 -1.1 -1.1 -1.1 -1.1 -1.1 -1.1 -1.1 -1.1 -1.1 -1.1 -1.1 -1.1 -1.1 -1.1 -1.1 -1.1 -1.1 -1.1 -1.1 -1.1 -1.1 -1.1 -1.1 -1.1 -1.1 -1.1 -1.1 -1.1 -1.1 -1.1 -1.1 -1.1 -1.1 -1.1 -1.1 -1.1 -1.1 -1.1 -1.1 -1.1 -1.1 -1.1 -1.1 -1.1 -1.1 -1.1 -1.1 -1.1 -1.1 -1.1 -1.1 -1.1 -1.1 -1.1 -1.1 -1.1 -1.1 -1.1 -1.1 -1.1 -1.1 -1.1 -1.1 -1.1 -1.1 -1.1 -1.1 -1.1 -1.1 -1.1 -1.1 -1.1 -1.1 -1.1 -1.1 -1.1 -1.1 -1.1 -1.1 -1.1 -1.1 -1.1 -1.1 -1.1 -1.1 -1.1 -1.1 -1.1 -1.1 -1.1 -1.1 -1.1 -1.1
-1.1 -1.1 -1.1 -1.1 -1.1 -1.1 -1.1 -1.1 -1.1 -1.1 -1.1 -1.1 -1.1 -1.1 -1.1 -1.1 -1.1 -1.1 -1.1 -1.1 -1.1 -1.1 -1.1 -1.1 -1.1 -1.1 -1.1 -1.1 -1.1 -1.1 -1.1 -1.1 -1.1 -1.1 -1.1 -1.1 -1.1 -1.1 -1.1 -1.1 -1.1 -1.1 -1.1 -1.1 -1.1 -1.1 -1.1 -1.1 -1.1 -1.1 -1.1 -1.1 -1.1 -1.1 -1.1 -1.1 -1.1 -1.1 -1.1 -1.1 -1.1 -1.1 -1.1 -1.1 -1.1 -1.1 -1.1 -1.1 -1.1 -1.1 -1.1 -1.1 -1.1 -1.1 -1.1 -1.1 -1.1 -1.1 -1.1 -1.1 -1.1 -1.1 -1.1 -1.1 -1.1 -1.1 -1.1 -1.1 -1.1 -1.1 -1.1 -1.1 -1.1 -1.1 -1.1 -1.1 -1.1 -1.1 -1.1 -1.1 -1.1 -1.1 -1.1 -1.1 -1.1 -1.1 -1.1 -1.1 -1.1 -1.1 -1.1 -1.1 -1.1 -1.1 -1.1 -1.1 -1.1 -1.1 -1.1 -1.1 -1.1 -1.1 -1.1 -1.1 -1.1 -1.1 -1.1 -1.1 -1.1 -1.1 -1.1 -1.1 -1.1 -1.1 -1.1 -1.1 -1.1 -1.1 -1.1 -1.1 -1.1 -1.1 -1.1 -1.1 -1.1 -1.1 -1.1 -1.1 -1.1 -1.1 -1.1 -1.1 -1.1 -1.1 -1.1 -1.1 -1.1 -1.1 -1.1 -1.1 -1.1 -1.1 -1.1 -1.1 -1.1 -1.1 -1.1 -1.1 -1.1 -1.1 -1.1 -1.1 -1.1 -1.1 -1.1 -1.1 -1.1 -1.1 -1.1 -1.1 -1.1 -1.1 -1.1 -1.1 -1.1 -1.1 -1.1 -1.1 -1.1 -1.1 -1.1 -1.1 -1.1 -1.1 -1.1 -1.1 -1.1 -1.1 -1.1 -1.1
-1.1 -1.1 -1.1 -1.1 -1.1 -1.1 -1.1 -1.1 -1.1 -1.1 -1.1 -1.1 -1.1 -1.1 -1.1 -1.1 -1.1 -1.1 -1.1 -1.1 -1.1 -1.1 -1.1 -1.1 -1.1 -1.1 -1.1 -1.1 -1.1 -1.1 -1.1 -1.1 -1.1 -1.1 -1.1 -1.1 -1.1 -1.1 -1.1 -1.1 -1.1 -1.1 -1.1 -1.1 -1.1 -1.1 -1.1 -1.1 -1.1 -1.1 -1.1 -1.1 -1.1 -1.1 -1.1 -1.1 -1.1 -1.1 -1.1 -1.1 -1.1 -1.1 -1.1 -1.1 -1.1 -1.1 -1.1 -1.1 -1.1 -1.1 -1.1 -1.1 -1.1 -1.1 -1.1 -1.1 -1.1 -1.1 -1.1 -1.1 -1.1 -1.1 -1.1 -1.1 -1.1 -1.1 -1.1 -1.1 -1.1 -1.1 -1.1 -1.1 -1.1 -1.1 -1.1 -1.1 -1.1 -1.1 -1.1 -1.1 -1.1 -1.1 -1.1 -1.1 -1.1 -1.1 -1.1 -1.1 -1.1 -1.1 -1.1 -1.1 -1.1 -1.1 -1.1 -1.1 -1.1 -1.1 -1.1 -1.1 -1.1 -1.1 -1.1 -1.1 -1.1 -1.1 -1.1 -1.1 -1.1 -1.1 -1.1 -1.1 -1.1 -1.1 -1.1 -1.1 -1.1 -1.1 -1.1 -1.1 -1.1 -1.1 -1.1 -1.1 -1.1 -1.1 -1.1 -1.1 -1.1 -1.1 -1.1 -1.1 -1.1 -1.1 -1.1 -1.1 -1.1 -1.1 -1.1 -1.1 -1.1 -1.1 -1.1 -1.1 -1.1 -1.1 -1.1 -1.1 -1.1 -1.1 -1.1 -1.1 -1.1 -1.1 -1.1 -1.1 -1.1 -1.1 -1.1 -1.1 -1.1 -1.1 -1.1 -1.1 -1.1 -1.1 -1.1 -1.1 -1.1 -1.1 -1.1 -1.1 -1.1 -1.1 -1.1 -1.1 -1.1 -1.1 -1.1 -1.1
-1.1 -1.1 -1.1 -1.1 -1.1 -1.1 -1.1 -1.1 -1.1 -1.1 -1.1 -1.1 -1.1 -1.1 -1.1 -1.1 -1.1 -1.1 -1.1 -1.1 -1.1 -1.1 -1.1 -1.1 -1.1 -1.1 -1.1 -1.1 -1.1 -1.1 -1.1 -1.1 -1.1 -1.1 -1.1 -1.1 -1.1 -1.1 -1.1 -1.1 -1.1 -1.1 -1.1 -1.1 -1.1 -1.1 -1.1 -1.1 -1.1 -1.1 -1.1 -1.1 -1.1 -1.1 -1.1 -1.1 -1.1 -1.1 -1.1 -1.1 -1.1 -1.1 -1.1 -1.1 -1.1 -1.1 -1.1 -1.1 -1.1 -1.1 -1.1 -1.1 -1.1 -1.1 -1.1 -1.1 -1.1 -1.1 -1.1 -1.1 -1.1 -1.1 -1.1 -1.1 -1.1 -1.1 -1.1 -1.1 -1.1 -1.1 -1.1 -1.1 -1.1 -1.1 -1.1 -1.1 -1.1 -1.1 -1.1 -1.1 -1.1 -1.1 -1.1 -1.1 -1.1 -1.1 -1.1 -1.1 -1.1 -1.1 -1.1 -1.1 -1.1 -1.1 -1.1 -1.1 -1.1 -1.1 -1.1 -1.1 -1.1 -1.1 -1.1 -1.1 -1.1 -1.1 -1.1 -1.1 -1.1 -1.1 -1.1 -1.1 -1.1 -1.1 -1.1 -1.1 -1.1 -1.1 -1.1 -1.1 -1.1 -1.1 -1.1 -1.1 -1.1 -1.1 -1.1 -1.1 -1.1 -1.1 -1.1 -1.1 -1.1 -1.1 -1.1 -1.1 -1.1 -1.1 -1.1 -1.1 -1.1 -1.1 -1.1 -1.1 -1.1 -1.1 -1.1 -1.1 -1.1 -1.1 -1.1 -1.1 -1.1 -1.1 -1.1 -1.1 -1.1 -1.1 -1.1 -1.1 -1.1 -1.1 -1.1 -1.1 -1.1 -1.1 -1.1 -1.1 -1.1 -1.1 -1.1 -1.1 -1.1 -1.1 -1.1 -1.1 -1.1 -1.1 -1.1 -1.1
-1.1 -1.1 -1.1 -1.1 -1.1 -1.1 -1.1 -1.1 -1.1 -1.1 -1.1 -1.1 -1.1 -1.1 -1.1 -1.1 -1.1 -1.1 -1.1 -1.1 -1.1 -1.1 -1.1 -1.1 -1.1 -1.1 -1.1 -1.1 -1.1 -1.1 -1.1 -1.1 -1.1 -1.1 -1.1 -1.1 -1.1 -1.1 -1.1 -1.1 -1.1 -1.1 -1.1 -1.1 -1.1 -1.1 -1.1 -1.1 -1.1 -1.1 -1.1 -1.1 -1.1 -1.1 -1.1 -1.1 -1.1 -1.1 -1.1 -1.1 -1.1 -1.1 -1.1 -1.1 -1.1 -1.1 -1.1 -1.1 -1.1 -1.1 -1.1 -1.1 -1.1 -1.1 -1.1 -1.1 -1.1 -1.1 -1.1 -1.1 -1.1 -1.1 -1.1 -1.1 -1.1 -1.1 -1.1 -1.1 -1.1 -1.1 -1.1 -1.1 -1.1 -1.1 -1.1 -1.1 -1.1 -1.1 -1.1 -1.1 -1.1 -1.1 -1.1 -1.1 -1.1 -1.1 -1.1 -1.1 -1.1 -1.1 -1.1 -1.1 -1.1 -1.1 -1.1 -1.1 -1.1 -1.1 -1.1 -1.1 -1.1 -1.1 -1.1 -1.1 -1.1 -1.1 -1.1 -1.1 -1.1 -1.1 -1.1 -1.1 -1.1 -1.1 -1.1 -1.1 -1.1 -1.1 -1.1 -1.1 -1.1 -1.1 -1.1 -1.1 -1.1 -1.1 -1.1 -1.1 -1.1 -1.1 -1.1 -1.1 -1.1 -1.1 -1.1 -1.1 -1.1 -1.1 -1.1 -1.1 -1.1 -1.1 -1.1 -1.1 -1.1 -1.1 -1.1 -1.1 -1.1 -1.1 -1.1 -1.1 -1.1 -1.1 -1.1 -1.1 -1.1 -1.1 -1.1 -1.1 -1.1 -1.1 -1.1 -1.1 -1.1 -1.1 -1.1 -1.1 -1.1 -1.1 -1.1 -1.1 -1.1 -1.1 -1.1 -1.1 -1.1 -1.1 -1.1 -1.1
-1.1 -1.1 -1.1 -1.1 -1.1 -1.1 -1.1 -1.1 -1.1 -1.1 -1.1 -1.1 -1.1 -1.1 -1.1 -1.1 -1.1 -1.1 -1.1 -1.1 -1.1 -1.1 -1.1 -1.1 -1.1 -1.1 -1.1 -1.1 -1.1 -1.1 -1.1 -1.1 -1.1 -1.1 -1.1 -1.1 -1.1 -1.1 -1.1 -1.1 -1.1 -1.1 -1.1 -1.1 -1.1 -1.1 -1.1 -1.1 -1.1 -1.1 -1.1 -1.1 -1.1 -1.1 -1.1 -1.1 -1.1 -1.1 -1.1 -1.1 -1.1 -1.1 -1.1 -1.1 -1.1 -1.1 -1.1 -1.1 -1.1 -1.1 -1.1 -1.1 -1.1 -1.1 -1.1 -1.1 -1.1 -1.1 -1.1 -1.1 -1.1 -1.1 -1.1 -1.1 -1.1 -1.1 -1.1 -1.1 -1.1 -1.1 -1.1 -1.1 -1.1 -1.1 -1.1 -1.1 -1.1 -1.1 -1.1 -1.1 -1.1 -1.1 -1.1 -1.1 -1.1 -1.1 -1.1 -1.1 -1.1 -1.1 -1.1 -1.1 -1.1 -1.1 -1.1 -1.1 -1.1 -1.1 -1.1 -1.1 -1.1 -1.1 -1.1 -1.1 -1.1 -1.1 -1.1 -1.1 -1.1 -1.1 -1.1 -1.1 -1.1 -1.1 -1.1 -1.1 -1.1 -1.1 -1.1 -1.1 -1.1 -1.1 -1.1 -1.1 -1.1 -1.1 -1.1 -1.1 -1.1 -1.1 -1.1 -1.1 -1.1 -1.1 -1.1 -1.1 -1.1 -1.1 -1.1 -1.1 -1.1 -1.1 -1.1 -1.1 -1.1 -1.1 -1.1 -1.1 -1.1 -1.1 -1.1 -1.1 -1.1 -1.1 -1.1 -1.1 -1.1 -1.1 -1.1 -1.1 -1.1 -1.1 -1.1 -1.1 -1.1 -1.1 -1.1 -1.1 -1.1 -1.1 -1.1 -1.1 -1.1 -1.1 -1.1 -1.1 -1.1 -1.1 -1.1 -1.1
-1.1 -1.1 -1.1 -1.1 -1.1 -1.1 -1.1 -1.1 -1.1 -1.1 -1.1 -1.1 -1.1 -1.1 -1.1 -1.1 -1.1 -1.1 -1.1 -1.1 -1.1 -1.1 -1.1 -1.1 -1.1 -1.1 -1.1 -1.1 -1.1 -1.1 -1.1 -1.1 -1.1 -1.1 -1.1 -1.1 -1.1 -1.1 -1.1 -1.1 -1.1 -1.1 -1.1 -1.1 -1.1 -1.1 -1.1 -1.1 -1.1 -1.1 -1.1 -1.1 -1.1 -1.1 -1.1 -1.1 -1.1 -1.1 -1.1 -1.1 -1.1 -1.1 -1.1 -1.1 -1.1 -1.1 -1.1 -1.1 -1.1 -1.1 -1.1 -1.1 -1.1 -1.1 -1.1 -1.1 -1.1 -1.1 -1.1 -1.1 -1.1 -1.1 -1.1 -1.1 -1.1 -1.1 -1.1 -1.1 -1.1 -1.1 -1.1 -1.1 -1.1 -1.1 -1.1 -1.1 -1.1 -1.1 -1.1 -1.1 -1.1 -1.1 -1.1 -1.1 -1.1 -1.1 -1.1 -1.1 -1.1 -1.1 -1.1 -1.1 -1.1 -1.1 -1.1 -1.1 -1.1 -1.1 -1.1 -1.1 -1.1 -1.1 -1.1 -1.1 -1.1 -1.1 -1.1 -1.1 -1.1 -1.1 -1.1 -1.1 -1.1 -1.1 -1.1 -1.1 -1.1 -1.1 -1.1 -1.1 -1.1 -1.1 -1.1 -1.1 -1.1 -1.1 -1.1 -1.1 -1.1 -1.1 -1.1 -1.1 -1.1 -1.1 -1.1 -1.1 -1.1 -1.1 -1.1 -1.1 -1.1 -1.1 -1.1 -1.1 -1.1 -1.1 -1.1 -1.1 -1.1 -1.1 -1.1 -1.1 -1.1 -1.1 -1.1 -1.1 -1.1 -1.1 -1.1 -1.1 -1.1 -1.1 -1.1 -1.1 -1.1 -1.1 -1.1 -1.1 -1.1 -1.1 -1.1 -1.1 -1.1 -1.1 -1.1 -1.1 -1.1 -1.1 -1.1 -1.1
-1.1 -1.1 -1.1 -1.1 -1.1 -1.1 -1.1 -1.1 -1.1 -1.1 -1.1 -1.1 -1.1 -1.1 -1.1 -1.1 -1.1 -1.1 -1.1 -1.1 -1.1 -1.1 -1.1 -1.1 -1.1 -1.1 -1.1 -1.1 -1.1 -1.1 -1.1 -1.1 -1.1 -1.1 -1.1 -1.1 -1.1 -1.1 -1.1 -1.1 -1.1 -1.1 -1.1 -1.1 -1.1 -1.1 -1.1 -1.1 -1.1 -1.1 -1.1 -1.1 -1.1 -1.1 -1.1 -1.1 -1.1 -1.1 -1.1 -1.1 -1.1 -1.1 -1.1 -1.1 -1.1 -1.1 -1.1 -1.1 -1.1 -1.1 -1.1 -1.1 -1.1 -1.1 -1.1 -1.1 -1.1 -1.1 -1.1 -1.1 -1.1 -1.1 -1.1 -1.1 -1.1 -1.1 -1.1 -1.1 -1.1 -1.1 -1.1 -1.1 -1.1 -1.1 -1.1 -1.1 -1.1 -1.1 -1.1 -1.1 -1.1 -1.1 -1.1 -1.1 -1.1 -1.1 -1.1 -1.1 -1.1 -1.1 -1.1 -1.1 -1.1 -1.1 -1.1 -1.1 -1.1 -1.1 -1.1 -1.1 -1.1 -1.1 -1.1 -1.1 -1.1 -1.1 -1.1 -1.1 -1.1 -1.1 -1.1 -1.1 -1.1 -1.1 -1.1 -1.1 -1.1 -1.1 -1.1 -1.1 -1.1 -1.1 -1.1 -1.1 -1.1 -1.1 -1.1 -1.1 -1.1 -1.1 -1.1 -1.1 -1.1 -1.1 -1.1 -1.1 -1.1 -1.1 -1.1 -1.1 -1.1 -1.1 -1.1 -1.1 -1.1 -1.1 -1.1 -1.1 -1.1 -1.1 -1.1 -1.1 -1.1 -1.1 -1.1 -1.1 -1.1 -1.1 -1.1 -1.1 -1.1 -1.1 -1.1 -1.1 -1.1 -1.1 -1.1 -1.1 -1.1 -1.1 -1.1 -1.1 -1.1 -1.1 -1.1 -1.1 -1.1 -1.1 -1.1 -1.1
-1.1 -1.1 -1.1 -1.1 -1.1 -1.1 -1.1 -1.1 -1.1 -1.1 -1.1 -1.1 -1.1 -1.1 -1.1 -1.1 -1.1 -1.1 -1.1 -1.1 -1.1 -1.1 -1.1 -1.1 -1.1 -1.1 -1.1 -1.1 -1.1 -1.1 -1.1 -1.1 -1.1 -1.1 -1.1 -1.1 -1.1 -1.1 -1.1 -1.1 -1.1 -1.1 -1.1 -1.1 -1.1 -1.1 -1.1 -1.1 -1.1 -1.1 -1.1 -1.1 -1.1 -1.1 -1.1 -1.1 -1.1 -1.1 -1.1 -1.1 -1.1 -1.1 -1.1 -1.1 -1.1 -1.1 -1.1 -1.1 -1.1 -1.1 -1.1 -1.1 -1.1 -1.1 -1.1 -1.1 -1.1 -1.1 -1.1 -1.1 -1.1 -1.1 -1.1 -1.1 -1.1 -1.1 -1.1 -1.1 -1.1 -1.1 -1.1 -1.1 -1.1 -1.1 -1.1 -1.1 -1.1 -1.1 -1.1 -1.1 -1.1 -1.1 -1.1 -1.1 -1.1 -1.1 -1.1 -1.1 -1.1 -1.1 -1.1 -1.1 -1.1 -1.1 -1.1 -1.1 -1.1 -1.1 -1.1 -1.1 -1.1 -1.1 -1.1 -1.1 -1.1 -1.1 -1.1 -1.1 -1.1 -1.1 -1.1 -1.1 -1.1 -1.1 -1.1 -1.1 -1.1 -1.1 -1.1 -1.1 -1.1 -1.1 -1.1 -1.1 -1.1 -1.1 -1.1 -1.1 -1.1 -1.1 -1.1 -1.1 -1.1 -1.1 -1.1 -1.1 -1.1 -1.1 -1.1 -1.1 -1.1 -1.1 -1.1 -1.1 -1.1 -1.1 -1.1 -1.1 -1.1 -1.1 -1.1 -1.1 -1.1 -1.1 -1.1 -1.1 -1.1 -1.1 -1.1 -1.1 -1.1 -1.1 -1.1 -1.1 -1.1 -1.1 -1.1 -1.1 -1.1 -1.1 -1.1 -1.1 -1.1 -1.1 -1.1 -1.1 -1.1 -1.1 -1.1 -1.1
