ncols 200
nrows 97
xllcorner 270000
yllcorner 691100
cellsize 50
12.7 12.6 12.6 10.3 5 8.4 8.5 9.4 8.7 9.4 10.7 10.9 10.3 9.6 10.1 11.5 11.5 11.5 10.7 10.9 11.2 11.3 11.2 11.2 11 10.8 10.6 10.8 10.9 11.5 10.9 11.2 10.9 10.9 10.9 10.2 10.3 9.5 5.3 9.7 10.3 9.7 10 9.7 8.3 5.4 9.9 10.2 10.3 10.5 10.6 10.8 10.9 10.1 10.2 8.3 8.5 9.3 9.3 9.3 9.2 9.4 8.3 7.9 4.5 6 10.7 11.1 11.1 10.8 10.8 10.8 10.8 10.9 11.1 11.1 11.3 11.4 11.5 11.5 11.6 11.6 11.5 11.5 11.5 11.4 10.6 10.6 10.7 10.7 11.2 11.1 10.9 10.8 10.6 10.6 10.9 10.5 10.7 11.1 10.8 10.6 10.5 11.1 10.6 11.1 10.6 10.2 11.3 11.2 10.8 11.2 10.3 10.3 10.7 10.8 10.4 10.1 10.3 11.1 11.1 11.2 10.7 10.6 10.6 10.4 10.9 10.6 9.5 10.8 10.7 8.9 8.8 9.9 9.1 9.5 9.6 8 4 7.4 8.4 9.1 7.4 8.2 7.4 6.3 5.9 4.6 4.3 7.9 9 9.4 8.9 8.3 8.5 7.8 6.4 0.2 0.2 0.2 0.2 0.2 0.2 6.8 7.6 7.7 7.9 8 7.6 7.2 7.2 7 6.3 0.2 0.2 0.2 0.2 0.2 8.8 8.9 9 8.3 8.8 8.2 8.9 9.7 10 9.1 9.1 9.1 9.5 9.6 9.8 9.5 9.2 9.7 9.9 10 9.7 9.9
12.6 12.8 12.7 12.5 11.7 10 7.7 5.3 6.1 10 10.6 10.7 10.1 9.4 10.6 11.6 11.3 10.9 11 11.1 11.3 11.4 11.4 11.2 11 10.8 11.4 11.2 11.2 11.3 11.1 10.9 11.1 11.1 10.8 11 10.6 7.2 7.8 10.1 10.1 9.9 10.3 10.1 8.8 5.4 9.6 9.8 9.6 9.4 9.7 10.1 9.1 8.7 8.9 8.4 5.1 9.3 9.4 9.4 9 9.2 9 8 7.3 4.3 10 11.3 11.5 11 10.9 10.9 10.9 10.9 10.8 10.9 11.3 11 11.3 11.5 11.4 11.4 11.3 11.4 11.4 10.8 10.5 10.5 10.5 10.5 10.4 10.8 10.9 10.9 10.9 10.9 10.9 10.8 10.5 10.8 10.4 10.9 10.7 10.9 10.8 10.9 10.9 10.9 11.4 11 11 10.6 10.3 11 11 10.6 10.5 10.3 10.2 11.1 10.9 10.7 11.2 10.9 10.6 10.3 10.4 10.4 10.4 10.6 9.5 10 9.4 9.5 10.7 10.5 10.2 8.4 4 8 8.8 9.1 8.4 8.3 7.8 6.2 5.7 4.1 4.2 8.6 9 9.6 8.8 8.4 8.5 7.6 6.5 0.2 0.2 0.2 0.2 0.2 7.8 8.1 8.3 8.2 7.7 7.3 7 7.1 7.3 6.9 6.4 5.9 4.8 0.2 0.2 0.2 8.1 9.2 7.7 8.5 8.2 8.4 8.1 9.2 9.9 10.1 9.3 9.3 9.4 9.6 9.5 9.6 9.2 9.2 9.7 10 9.4 9.7
12.6 12.8 12.4 12.4 12.2 11.2 11.6 10.7 8.4 5.5 10.1 10.2 9.9 9.1 10.6 11.8 11.9 11.7 10.4 11.1 11.6 11.1 11.5 11.3 11 10.8 11.2 10.8 11.2 11 11.1 11.4 10.8 11 11.3 11 10.5 5 9.6 10.5 10.2 10.6 10.1 10.2 9.4 5 9.4 9.6 9.9 9.4 9.7 9.6 9.5 9.6 9.2 8.6 7.7 9.1 9.5 9.6 9 9.3 8.5 7.6 6.6 9.9 10.7 10.9 11 10.9 11.1 11.1 11 11 10.9 10.8 11.4 11 11.6 11.5 11.2 11.2 11.2 11.2 10.9 10.5 10.5 10.5 10.5 10.5 10.4 10.8 11 11 11 11 11 10.5 10.3 10.6 10.7 10.9 10.8 10.6 10.7 10.5 10.7 10.8 11.1 10.9 10.4 10.3 10.7 11.1 11.3 10.8 10.7 10.7 10.6 11.1 10.9 10.5 10.3 10.9 10.6 10.3 10.5 9.7 10.2 10.1 9.8 10 9.8 10.5 10.7 10.3 10.6 8.9 4.1 8.2 8.9 9.3 8.2 8.3 8.1 6.3 5.5 4.2 4.6 8.5 8.8 9.6 8.7 8.5 7.8 6.5 3.3 0.2 0.2 0.2 0.2 7.2 8.4 8.7 8.4 8.1 7.9 8.2 7.7 7.7 7.4 7 6.5 5.9 5.8 5.2 0.2 0.2 7.8 8.4 7.7 8.6 8.2 7.9 8.6 9.3 9.7 9.6 8.6 9.5 9.5 9.4 9.3 9.4 9.4 8.3 8.5 8.1 8.7 9.5
12.6 12.5 12.2 12.4 12.2 11.7 11.9 11.9 10.9 7.5 9.6 10.3 9.5 8.6 10.7 11.7 11.7 11.6 11 10.5 10.9 11.6 11.4 11 10.8 10.5 10.4 11.1 11.5 11.2 11.3 11.4 10.8 11.1 11.1 11 8.1 8.8 10 10.4 10.8 10.3 10.8 10.5 9.7 5 8.2 8.9 8.7 7.9 4.9 4.8 4.5 5.1 5 4.2 6.2 9.7 9.5 9.7 9.2 7.9 6.1 4.5 10.2 10.8 11.2 11.4 11.3 11.2 11.2 11.2 11.1 10.9 10.8 10.7 11.2 11.3 11.7 11.5 11.2 10.9 10.7 10.6 10.5 10.5 10.5 10.5 10.5 10.4 10.7 11.1 11 11 11 11.1 11.1 10.8 10.5 11 11 10.9 11 10.8 10.8 11 11.1 10.8 10.4 10.4 10.9 10.9 10.9 10.6 11.2 11.2 11 10.8 10.5 10.5 11 10.5 10.5 10.7 10.5 10.2 10.3 10.4 8.9 10.1 10 10 10.1 10.3 10.1 9.9 10.6 10.2 5.3 3.9 8.8 9 8.2 8.2 7.8 5.8 5.2 4.2 5.8 8.2 8.8 10 8.8 8.1 6.8 4.1 3.6 3.2 0.2 0.2 8.6 8.2 9 8.5 8.5 8.6 8.4 7.8 7.9 7.9 7.5 7.1 6.5 5.9 5.2 5.3 0.2 0.2 8.4 7.9 8.1 8.4 9.2 8.9 8 8.2 9 8.6 9.4 8.9 7.7 7.5 8.7 8.5 8.1 8.2 9.5 10.1 10 9.6
12.6 12.7 12.6 12.6 12.4 11.9 11.5 11.6 10.8 10 4.8 9.3 8.8 8.1 9.8 11.5 11.2 10.6 10 10.9 10.5 11.4 11.2 10.8 10.7 10.5 10.6 11.1 11.2 11.5 11.2 10.6 11 11.1 10.7 9.6 5 9.6 10.1 10.5 10.4 10.7 10.7 10.6 10.7 9 6.6 4 5.1 8.7 8.8 8.9 9 8.7 9.2 9.5 9.4 9.7 10 9.7 8.5 4.3 10.4 10.8 11.1 11.3 11 10.8 11.3 11.2 11 11 11 10.8 10.7 10.6 10.7 11 11.4 11.6 11.4 10.8 10.7 10.6 10.8 10.6 10.5 10.5 10.5 10.8 10.5 11.1 11.1 11.1 11.1 11.1 11.1 10 10.9 10.8 11.2 11.2 11.1 11.1 11.1 10.8 11.1 11.1 10.9 11.2 11 11 11.1 11.2 11.1 11 11.1 11.2 10.9 10.4 10.5 10.3 10.6 10.5 10.2 10.2 10.4 10.3 10.1 12.1 11.4 11.1 10.5 10.3 10.2 9.9 8.9 10.3 10 3.9 7.9 9.2 8.2 8.5 7.7 5.6 5.3 4.2 5.7 7.7 7.6 9.8 7.5 6.9 6.3 4.4 4.4 5.8 7.9 8.9 8.8 8.5 8.7 8.7 8.6 8.6 8.6 8 8.1 7.9 7.5 7 6.1 5.2 5.1 5.1 0.2 0.2 9.7 10.2 8.8 9.4 9.3 9.1 8.6 9.5 8.9 8.2 7.9 8.4 10 9.2 9.1 9.3 8.6 9.7 9.6 9.4 9.2 9.3
12.6 12.5 12.5 12.5 12.6 12.7 12.6 12.1 11 11.3 10.4 4.9 7.9 7.4 8.7 9.5 10.1 10.4 9.7 11.3 11.1 10.8 11.2 11.2 10.7 10 10.6 11.3 11.2 11.3 10.9 10.5 10.5 10.4 9.5 5 9.7 10.5 10.7 10.5 10.7 10.4 10.4 10.9 10.7 10.6 9.6 9 9.5 9.7 9.8 9.1 8.6 8.7 9.2 9.6 9.6 9.7 9.8 9.7 4.3 9.2 10.1 10.6 11 11 11.1 10.8 10.7 10.9 10.5 10.7 10.7 10.7 10.6 11.2 11.2 11.2 11.1 11.2 11 10.9 10.6 10.7 10.9 10.8 10.6 10.5 10.4 10.6 10.8 11 11 10.6 10.9 11 10.6 10.5 10.4 10.8 11 11 10.6 10.4 10.5 10.7 10.8 11.2 11.3 11.2 11 10.9 11.1 11 11 10.9 10.9 10.9 10.9 10.3 10.2 10.4 10.6 10.3 10.2 10.3 10.5 10.4 11.8 14 14.9 15.1 14.2 10.9 10.3 9.5 9.3 9.2 8.9 7.2 4.6 8.9 8.7 8.9 8.2 5.8 5.1 4.2 5.3 7.5 7.7 9.3 7.7 6.9 5.7 4.2 4.3 7.5 8.7 9 8.7 8.5 8.6 8.4 8.4 8.4 8.4 8 8.1 7.8 7.2 6.4 5.6 5 4.9 4.8 0.2 0.2 9.1 8.9 9.2 8.7 8.9 9.3 8.6 9 8.6 8.8 8.9 9.3 9.3 9 9.3 9.3 9.3 9.5 9.8 9.5 9.1 9.6
12.5 12.6 12.4 12.4 12.5 12.5 12 12.2 11.2 12 11.9 11.7 9.5 4 6.1 7.2 6.1 4.8 7.2 10.2 10.1 10.4 10.8 10.7 10.9 10.7 10.4 10.4 10.7 10.6 10.7 10.5 10.1 9.8 5.6 8.6 10.5 10.7 10.9 10.6 10.8 11 10.5 11.1 10.6 10.5 10.8 10.2 10.3 9.6 9 8.7 8.7 8.8 9.2 9.5 9.5 9.5 9.6 9.7 4.5 8.4 9.9 10.4 11.1 11.1 11.1 10.5 10.6 10.7 10.5 10.4 10.5 10.5 10.9 11.2 11.2 11.1 10.9 11.4 11.4 10.8 10.6 10.9 11.1 11 10.6 11 11 10.6 10.8 10.9 10.9 10.7 10.8 11 10.5 10.6 10.4 10.5 11.1 11.1 11.2 10.8 10.9 10.8 10.7 11.1 11.4 11.2 10.9 10.8 11.2 10.9 10.8 10.7 11 11.4 10.7 10.2 10.3 10.5 10.7 10.1 10.2 10.3 10.3 10.5 11.8 14.2 14.4 15.5 16.1 13.6 10.6 10.2 9.8 9.8 9 6.6 3.9 9.1 9 8.6 8.3 7.1 4.4 4.2 6 7.2 7.2 9.4 8 6.7 5.3 4.2 4.7 8.1 9.7 9.6 9.5 9.1 9 8.1 8.9 8.3 7.3 7.8 8.2 7.5 6.7 5.9 5.1 4.8 4.8 0.2 0.2 0.2 8.5 8.6 8.9 8.6 8.9 9.3 8.5 8.5 8.8 8.7 9.2 9.5 9.1 8.6 9.7 9.2 9.4 9.2 9.4 9.4 9.1 10.1
12.9 12.8 12.6 12.8 12.2 12.2 12.2 12.6 11.8 12.2 12.1 11.9 11.9 11.6 11 10.8 10.7 9.8 9.3 6.9 4.5 9 10.8 10.6 10.3 10.7 10.3 10.5 10.9 10.4 10.8 10.3 9.7 4.8 9 10 10.1 10.1 10.8 11 11 11.2 10.6 11 10.9 10.5 10.6 10.3 8.5 7.9 9.1 8.8 8.7 8.9 9.2 9.4 9.3 9.3 9.4 9.4 9.2 6.6 9.5 10.6 11.1 11.1 11.1 10.5 10.5 10.4 10.4 10.5 10.6 11.2 11.3 10.6 10.9 10.9 10.9 11.3 11 10.8 11 11.1 11.3 10.7 10.8 10.8 10.8 10.5 10.7 10.8 10.6 10.4 10.2 10 10.2 10.3 10.5 10.8 10.7 10.6 11.1 10.8 11.2 11 10.7 11 11.3 11.1 11.2 10.8 11.1 10.8 11.3 11.2 11.3 11 10.5 9.8 10.4 10.6 10.3 10.5 10.2 10.3 10.3 11.4 12.6 12.8 13.9 14.6 16.2 15.8 12.5 10.6 10.4 10.2 8.6 7.6 3.9 8.2 9.2 9.3 8.8 8.7 5 4 4.2 6.5 6.9 8.9 7.7 6 5.6 4.8 5.1 9.6 10 9.7 9.5 9.3 9 8.5 8.4 9.4 8.3 7.3 6.7 6 6 5.2 4.4 4.2 0.2 0.2 0.2 7.9 8.5 8 8.4 7.7 8.1 8.2 8.5 8.8 8.6 8.9 9.3 8.5 9.7 9.4 9.5 9.1 9.9 9.2 9.5 9.6 8.8 9.6
12 12.7 12.5 12.5 12.5 12.3 12.7 12.1 11.9 12.4 12.3 12.3 12.2 12.1 11.7 11.6 11.3 10.7 9.7 9.6 9.7 5.7 6.7 8.9 10.3 10.5 10.2 10.7 10.7 10.2 10.6 10.7 10.6 8.7 9.5 10.5 10.7 10.6 10.7 10.9 10.9 11.1 10.7 11 11.2 11.4 11.1 9.6 8.7 7.2 8.2 8.8 8.7 8.9 9.1 9.2 9.2 9.1 9.2 9.2 9.3 8.5 8.1 10.7 11.2 11.2 11.2 10.3 10.8 11 10.7 10.7 10.8 11.2 11.2 10.6 10.6 10.7 11.2 11 10.8 10.5 10.6 11 11.1 10.5 10.5 10.6 10.6 10.7 10.7 10.6 10.1 9.6 10.1 10.2 10.3 10.4 10.6 10.7 10.6 10.4 10.3 10.7 11.1 11 10.9 10.9 11.1 11.2 11.3 11.3 11.3 11.1 11.2 11.1 11.1 10.6 10.1 9.8 10.1 10.5 10.3 10.7 10.2 10.4 10.5 11.3 10 10 10.5 11.1 11.3 12.5 12.3 12.1 10.1 9.8 9.3 8 3.8 7.1 8.6 10.1 9.5 9.6 7.7 4 4.1 4.6 5.5 7.9 7.9 5.4 6.2 5.2 5.7 9.3 9.9 9.6 9.5 9.3 10.3 9.4 8.5 9.7 8.9 7.8 5.9 4.9 4.7 4.2 4.7 0.2 0.2 0.2 0.2 8.3 7.7 7.5 7.6 8.1 7.7 7.8 8.2 8.4 8.1 8.5 9.1 9.1 8.6 8.6 9.7 8.7 9.3 8.6 8.9 8.7 8.1 9.2
12.6 12.5 12.4 12.6 12.7 12.5 12.7 12.6 12.6 12.5 12.5 12.4 12.4 12.3 12 11.7 11.5 11.4 11.1 10.6 10.7 10 9.3 5.7 6.4 9.2 10.6 10.9 10.6 10.6 10.6 10.7 11 10.4 5 9.7 10.8 11 10.7 11.1 10.8 10.8 10.8 11.3 11 10.7 10.5 9.2 9.4 7.8 7.1 8 8.6 8.8 9 9.1 9 8.9 9 9.1 9.2 9.3 6.6 9.5 11.3 11.2 11.1 10.5 10.6 11.2 10.8 10.9 11 11.1 11 10.6 10.6 10.6 10.9 11.1 10.5 10.5 10.7 10.9 10.8 10.3 10.4 10.3 10.4 10.4 10.5 10.2 9.9 9.8 10.1 10.1 10.3 10.4 10.6 10.7 10.8 10.6 10.4 10.3 11.1 11 11 11.1 10.7 11.3 11.4 11.2 10.7 11.3 11.1 10.9 11.1 10.9 10.8 10.4 9.5 10.7 10.7 10.6 10.1 10.3 10.5 10.1 9.6 9 8.5 8.3 8.4 9 9.5 10.9 9.9 9.4 9.1 7.3 5.5 6.2 8.4 9.6 9.9 10.4 9.6 8.3 4.5 4.5 5 5.2 5.4 5 5.4 6 6.9 9.5 9.6 9.7 9.6 9.6 8.7 7.2 9.3 9.1 8.7 6.9 5.5 4.6 4.3 0.2 0.2 0.2 0.2 5.8 7.3 8.8 8.2 8.2 7.9 7.6 7.6 7.6 8.7 8.3 8.4 8.1 8.6 8.5 8.9 8.8 9.1 9.2 8.7 9.4 8.8 9.6 9.5 9
13 13.2 13.1 13.1 12.8 13.1 13 12.5 12.8 12.4 12.6 12.6 12.4 12.4 12 11.7 11.5 11.5 11.9 11.5 11.1 10.4 9.9 9.7 8.5 4.4 9.9 10.9 11 10.9 10.3 10.9 10.5 9.9 8.3 6.5 10.5 11.1 11.3 11.2 11.4 10.5 11.1 11.3 11.1 10.6 10.9 10 10.3 4.5 4.5 4.4 6.2 8.2 8.9 8.9 8.8 8.9 8.9 9 9.1 8.7 7.8 4.5 10.3 10.4 10.1 10.4 10.7 10.9 11 11 11.1 11.1 10.8 10.6 10.6 10.6 10.6 10.6 10.4 10.5 10.7 10.8 11 10.7 10.5 10.3 10.2 10.2 10 9.9 9.8 10.2 10 10.1 10.2 10.4 10.5 10.7 10.8 10.9 10.7 10.5 10.8 11.2 10.8 11.2 11 11.1 11 11.4 11.2 10.4 11.2 10.8 11.1 11.1 11.1 11 10.6 10.5 10.7 10.5 10.2 10.2 10.3 10 9.5 8.9 9.5 9.6 10.6 10.8 9.5 8.8 9.4 9.1 7.7 6.6 6.4 6.5 9.6 9.4 9.9 9.8 9.9 12.5 13.9 7.7 4.9 4.9 4.9 4.9 6.3 9 9.2 9.6 9.7 9.9 9.9 9.5 9.9 9.9 9.7 9.8 7.6 5.5 4.8 0.2 0.2 0.2 0.2 0.2 6.6 6.6 7.6 8.5 8.4 8.7 7.9 7.8 7.9 7.9 8.1 7.5 8.1 8 8.3 8.4 8.4 8.6 9.1 8.7 9 8.6 8.9 9.6 9.2 9
13.3 13.5 13.1 13 12.8 12.8 13 13.1 12.8 13.2 12.2 12.7 12.1 12.7 11.9 11.7 11.8 11.7 11.8 11.9 11.5 10.8 10.6 10.4 10.3 9.1 4.5 10.5 10.9 10.8 10.5 10.4 10.6 10.2 9.1 7.6 8.9 10.7 10.8 11 11.2 10.9 11.1 11 11.2 10.6 10.7 10.8 10.8 4.8 7.8 8.7 7.9 4.3 3.7 8.8 8.9 9.3 9 8.9 8.6 8 6.1 4.1 10.1 10.6 10.2 10.8 11 11 11.1 11.1 11 10.9 10.5 10.6 10.7 10.6 10.6 10.6 10.3 10.5 10.6 10.8 10.9 10.8 9.9 10.4 10.2 10.1 10 10 9.9 10.2 10 10.1 10.2 10.4 10.5 10.7 10.8 10.8 10.9 10.7 10.7 10.6 11.1 10.7 11.1 11.2 10.9 10.9 11.1 11.2 10.8 10.8 11 11.1 11 11 10.8 10.6 10.2 10.3 10.2 10.1 10.2 10 9.8 10.7 10.7 10.6 10.6 10.8 9.7 9.8 9.8 9.5 8.8 8.4 5.3 7.3 8.5 8.7 9.2 9.1 10 13.4 14 15.5 13.4 8.7 10.2 9.8 10.1 10.1 9.7 10.1 10.5 10.4 10.3 9.7 10.1 10.2 10.9 9.8 8.7 0.2 0.2 0.2 0.2 0.2 7.4 6.7 5.6 6.1 7.2 8.7 8 8.8 7.8 7.8 8.3 6.8 6.9 7.9 8.3 8.1 7.8 8.2 8.1 8.1 8.2 8.7 8.7 9 8.4 9.1 9.2 9.6
13 12.8 13.3 13.2 13 12.9 12.9 12.7 13 13.1 12.4 12.1 12.7 12.9 11.9 12.1 12.4 12 11.8 11.8 12 11.4 11.2 11.2 11 9.9 9.1 5.1 10.2 10.8 10.9 11 10.4 9.8 10 9.3 6.9 9 10.4 10.5 10.2 9.8 10.1 10.8 11.4 10.5 10.5 10.5 10.5 10.7 5.3 8.4 9.3 9.4 8.5 4.9 8.6 8.9 9.1 8.8 6.2 6 10 10.5 10.7 10.9 10.8 10.7 10.9 11 11 10.9 10.8 10.6 10.4 10.7 10.7 10.7 10.7 10.7 10.2 10.4 10.5 10.6 10.6 10.2 9.4 10.4 10.4 10 10.2 10.1 10.3 10.2 10 10 10.2 10.3 10.5 10.6 10.8 10.8 10.9 10.9 10.6 10.7 10.9 10.9 11.2 11.3 11 11 11 11.1 10.7 11 10.9 11.1 11 11 10.5 10.4 10.2 10.6 10.2 10.2 10.2 10.2 10.3 10.5 10.8 10.7 10.6 10.2 9.5 9.8 9.7 9.5 8.7 8.3 4.1 3.8 4 4.5 5.6 4.3 8.2 11.5 14.1 11.6 9.4 17.4 10.4 10.1 9.9 9.7 9.7 10.2 10.9 10.7 10.1 10.2 10.3 10.5 11.1 10 7.4 0.2 0.2 0.2 6.3 6.7 6.9 7.2 6.5 6.2 7.2 7.6 8.8 8.6 7.1 7.3 6.9 7.3 6.9 7.8 7.2 8 8.2 7.7 8.5 8.2 7.7 8.4 8.4 9 8.4 8.4 8.9 8.7
13.1 13.1 13.3 13.1 12.8 12.9 13 13 13.2 13.1 12.9 12.5 12.2 12.6 12.4 12.6 12.2 12.4 11.7 11.7 11.9 12 11.7 11.5 11.5 11.1 10.6 10.9 3.9 10.3 10.1 10.8 10 9.7 10 9.7 8.7 4.6 9.6 11.1 11.4 10.9 11.4 10.4 11.3 10.5 10.6 10.8 11.3 11.2 9.5 4.5 8.8 9.1 9.5 9.2 4.5 8.6 9 8.5 4.5 9.8 10.4 11 10.5 10.3 10.3 11 10.7 11 10.8 10.7 10.5 10.4 10.4 10.7 10.7 10.8 10.7 10.1 10.1 10.2 10.2 10.2 10.3 10 10.3 11.1 10.7 10 10.1 10.2 10.3 10.2 10.5 10 10.2 10.3 10.5 10.6 10.7 10.8 10.9 10.7 10.6 10.3 10.7 10.4 11 11 11.1 11 11.1 10.7 10.7 10.7 10.9 11.1 11 10.9 10.7 10.4 10.1 9.8 10.5 10.4 10.2 10.3 9.9 10.3 10.9 10.8 10.6 10.4 10 9.3 9.3 9.7 9.7 8.6 9.1 7.7 5.8 5.6 6.3 5.2 6.1 7.3 14.1 9.2 9.5 9.9 10.5 16.1 10.1 10 9.6 10.1 10.1 10.1 10.5 11.4 10.2 10.6 10.3 10.3 0.2 0.2 0.2 5.9 6.2 6.3 6.6 6.8 6.7 6.8 6.9 7.7 7.2 7.4 7.1 6.7 6.9 6.9 7 7.8 7 6.7 7.4 7.7 7.6 8.2 7.1 8.7 8.2 8.7 8 8.4 8.7 8.3
13.4 13.4 13.4 13.4 12.7 13.3 12.8 13.4 13.2 13.4 13.3 12.9 12.4 12.8 12.7 12.7 12.4 12.6 12.5 12.5 11.7 11.8 11.6 11.9 11.6 11.4 11.5 11.6 11.6 9.2 9.7 10.4 9.9 10.2 10.4 9 7.5 5 8.4 9.1 10 10.5 11 10.3 9.8 10.5 10.7 11.3 11.1 10.8 10.6 4.9 7.7 9.1 9.3 9.4 4.9 8.4 8.9 8.2 7.8 9.6 10.2 10.5 10.5 10.6 10.7 10.8 10.5 10.6 10.9 10.7 10.6 10.4 10.4 10.7 10.4 10.2 10.6 10.7 10.3 10.1 9.9 9.8 9.6 9.1 9.8 10 10.1 9.9 10.2 10.3 9.9 9.8 10.7 10.7 10.1 10.3 10.4 10.6 10.7 10.8 10.4 10.8 10.3 10.9 10.7 10.5 10.5 10.8 11.1 11 10.9 10.9 10.8 10.8 11 11.1 10.6 10.5 10.6 10.3 10.2 10.3 9.8 10.1 10.6 10.6 10.3 10.2 10.6 10.2 10.2 10.4 10.3 9.7 9.3 10 9.3 9.3 9.3 9 8.3 7.2 7 6.2 6.5 4.4 13.7 9.3 9.8 10.3 10.5 10.2 15 10.9 10 10.1 10.2 9.6 9.8 10.2 10.2 10.1 10.2 10.2 0.2 0.2 0.2 6 5.8 5.8 6.3 6.2 5.9 6 6.7 6.9 7.1 7.5 6.7 6.6 6.5 7.3 7.4 7.8 7 7.2 6.1 7.6 7.9 7.1 7.8 7.7 7.8 8 9.9 8.8 8.5 8.2
12.9 12.3 12.6 12.5 12.9 13.2 13.1 13.2 13 12.9 13 13 12.7 13 13 13 13 13 12.7 13.1 12.4 12.1 12.5 12.1 11.7 11.9 11.5 11.4 11.8 4.9 10 10.1 9.5 8.8 7.9 4.8 8.5 8.7 7.4 8.4 9.1 9.4 11.1 11.2 10.3 10.3 10.3 10.5 11 10.6 10.5 8.4 5.4 8.9 9.1 9.3 8.8 8.1 8.4 6.3 8.7 9.1 9.3 9.1 10.3 10.5 10.3 10.5 10.5 10.6 10.9 10.8 10.6 10.4 10.4 10.5 10.7 10.4 10.7 10.8 10.8 10.8 10.7 10.2 9.8 9.3 7.2 9.9 10.3 9.8 10.4 10 9.5 10.5 10.6 10.7 10.8 10.2 10.4 10.5 10.4 10.8 10.7 10.6 10.6 10.6 10.6 10.8 10.8 10.7 10.8 11 11 11 11 11 11.1 11.1 11 10.5 10.4 10.7 10.4 10 9.9 9.9 10.3 10.6 10.8 10.7 10.1 10.2 10.5 10.5 10.1 9.9 10.1 9.7 9.3 9.9 9.7 9.4 9.1 8.5 7.8 7.2 4.2 6.8 10.8 10.4 10.3 10.4 11.4 10.6 10.3 10.4 9.5 9.6 9.4 9.5 10.1 9.6 10 9.8 10.2 9.6 0.2 0.2 0.2 5.7 5.6 5.6 5.8 5.5 5.2 5.2 5 5.2 5 5.4 6.5 6.2 6.9 6.6 6.4 6.8 7.4 7 6.3 7.1 7.6 7.5 7.4 7.7 7.6 8.5 8.4 7.8 8.1 8.6
13 12.9 12.9 12.9 12.4 12.3 12.9 12.9 12.7 12.8 12.8 12.8 12.7 12.5 12.6 12.9 12.9 12.8 12.7 12.9 12.4 11.9 11.6 12.3 12.2 11.8 11.8 11.4 11.6 7.6 4.9 8.6 8.3 4.8 9.2 9.8 10.3 10.8 10.7 10.1 10.1 9.4 10.5 10.6 10.4 10.4 10.2 10.2 10.8 10.7 10.6 10.4 7.2 6.9 8.4 9.3 9.1 3.9 4.1 4.1 9 9.1 9.2 9.8 10.3 10.1 10.1 10.7 10.8 10.9 10.8 10.9 10.6 10.4 10.3 10.2 10.5 10.6 10.7 10.3 10 10.4 9.9 10.3 9.9 4.4 7.4 4.5 9.9 10.1 10.4 9.8 10 10.4 10.5 10.6 10.6 10.8 10.4 10.9 10.9 10.5 10.2 10.9 10.3 10.9 10.7 10.4 10.7 10.8 10.6 11 11.1 11.1 11.1 11.1 11.1 11.1 10.7 11 10.7 10.7 10.3 10 10 9.8 9.6 10.1 10.7 10.2 9.8 9.7 9.6 9.8 9.9 9.6 9.9 10.2 10 9.3 9.9 9.4 8.9 7.8 4.2 4.4 8 9.1 9.7 11.6 10.6 10.2 11.6 11 10.3 10.6 10.2 10.7 11 9.9 9.7 9.7 10.5 9.4 10 8.8 0.2 0.2 0.2 5.3 5.4 5.4 5.3 4.6 4.3 4.8 0.2 0.2 0.2 0.2 0.2 0.2 0.2 0.2 0.2 0.2 0.2 0.2 6.4 5.7 7.1 7.3 7.5 7.7 8.6 8.6 8.7 10.5 8 7.7
12.9 12.8 12.8 13 12.6 12.5 12.6 12.7 12.6 12.7 12.7 12.6 12.6 11.6 12.1 12.3 12.7 11.5 9.7 10.6 12 11.8 11.4 11.6 11.1 10.7 10.9 11.3 11.5 11.9 10.3 8.6 8.8 7 9.6 10.4 10.9 10.9 10.8 11.2 10.7 9.2 10.7 11 10.3 10.5 9.8 10.4 10.7 10.8 10.6 10.4 9.8 7.8 5 8.3 9.3 9.3 9.4 9.4 9.1 9.1 9 10 9.7 10 10.3 10.7 10.2 10.1 10.1 10.6 10.7 10.7 10.8 10 10 10.1 10.5 10.3 10.6 10.1 9.6 9.1 9.1 5.5 8.1 7.1 9.4 10.1 10.1 9.7 10.5 10.2 10.3 10.3 10.5 10.7 10.5 10.3 10.8 10.8 10.6 10.3 10.6 10.7 10.8 10.5 10.4 10.9 10.5 10.9 11 11.1 11 10.9 10.9 11.1 10.6 10.4 10.8 10.7 10.1 10 10.1 10.1 10 10 10.4 10.1 10 9.9 9.9 9.8 9.7 9.7 9.7 9.9 10.1 9.7 9.2 8.9 7.8 4.9 7.6 8.9 9.7 9.3 9.7 10.6 11.2 11.4 11.5 11.2 10.7 10.4 10.4 11.5 11.4 11 9.1 9.2 10.4 10.1 9.7 9.5 0.2 0.2 0.2 0.2 4.9 4.5 0.2 0.2 0.2 0.2 0.2 0.2 4.2 4.6 3.1 1.3 0.2 0.2 0.2 0.2 0.2 0.2 0.2 0.2 6.3 7 7 6.8 7.4 8.2 8.6 8.3 7.8 7.8
12.9 12.8 13 13 13 12.7 12.9 12.4 12.5 12.5 12.5 12.5 11.8 11.6 12.2 12.1 11.5 10.4 11 12.1 11.9 10.5 11.2 10.1 9.8 9.8 10 10.6 10.4 9.2 8.2 10.9 11.3 8.6 6.8 8.9 9.8 10.4 11 11.2 10.2 9.8 10.4 11 10.8 11.4 11.4 10.8 10.5 10.8 10.6 10 9.5 8.8 9.2 4.5 9.2 9.5 9.8 9.8 9.5 9.2 9.4 9.6 10 9.9 10.4 10.6 10.5 10.2 10.4 9.9 10.5 10.4 10.5 10.8 10.5 9.8 10.5 11 10.6 10.4 10 9.5 8 4.5 8.4 7.1 6.4 8.5 8.8 10.3 10.5 10 10.1 10.1 10.3 10.6 10.7 10.8 10.3 10.6 10.3 10.4 10.4 10.3 10.8 10.7 10.3 10.5 10.4 10.5 11 10.7 10.6 10.7 10.9 10.6 10.7 10.9 10.7 10.6 10.3 10.1 10 10 10 9.9 9.8 10.2 10.2 10.2 9.7 9.6 9.8 9.9 9.6 9.8 10.1 9.3 9.2 8.4 4.4 9 9.1 9.5 10 10 10.3 10.4 10.9 11.3 11 10.7 11 11 11.4 11.4 10.9 10.7 9.7 9.6 10.2 10.3 9.8 9.4 9.7 0.2 0.2 0.2 1.2 1.3 0.2 0.2 0.2 0.2 9.1 9.3 9.4 8.1 7.3 6.9 6.3 6.9 6.4 0.2 0.2 0.2 0.2 0.2 0.2 6.8 7 6.4 7.4 8.1 8.8 8.2 7.9 8.2
12.9 12.9 13.1 13.2 12.9 12.7 12.7 12.8 12.8 12.5 12.5 12.5 11.5 12.6 13 12.6 12.5 12.1 11.2 12.2 9.6 10.3 9.3 9.5 8.1 7.2 9.3 7.7 7.4 8.9 8.7 9.7 9.9 7.1 10.2 9.2 9.7 11 11.5 11.3 10.7 10.2 10.9 11.3 10.4 11.5 11.1 10.8 11 9.9 10.3 10.1 9.5 8.3 8.2 8.3 7.1 9.4 10 10 9.5 10.1 10.2 10.4 10.4 10.6 10.5 10.5 10.2 9.7 8.9 9.4 10 10.4 10 10.7 10.6 10.5 10.3 10.5 10.9 10 10.2 9.2 7.7 7.4 6.2 8.6 6.7 7.7 8 8.8 9.5 10.3 10.3 10.1 10.6 10.5 10.4 10.8 10.3 10.5 10.4 10.6 10.7 10.7 10.7 10.2 10.9 10.4 10.3 10.4 10.6 11 10.5 10.4 10.5 10.4 10.9 10.6 10.9 11 10.8 10 10 9.9 9.9 9.9 9.8 10.4 10.4 10.3 9.7 9.8 10.1 10.1 9.8 9.8 9.9 9.4 9 8.9 4.8 8.8 22.1 55.2 43.5 32.1 15.7 10.4 10.8 11.2 11.4 10.3 11.7 10.9 10.6 11.4 10.8 10 9.7 10.2 10.2 10.5 10.1 9.6 10.2 9.9 9.7 0.2 0.2 0.2 8.4 9.1 9.5 9.2 9.4 9.5 9.1 8 8.6 7.7 7.1 6.8 6 6.9 6.4 5.9 0.2 0.2 0.2 0.2 0.2 0.2 6.5 7.1 8.4 8.3 7.9 7.5
12.9 13 13.2 12.8 12.8 13 13 12.9 13.1 12.5 12.7 12.9 12.2 12.6 12.9 12.5 12.4 12.2 10.8 11.5 11.7 12.6 11.7 11.7 11.8 11.6 12.4 11.7 11.2 11.8 11 7.9 5.8 8.2 9.9 10.2 11 11.2 11.5 11.4 11.7 11.2 10.4 11 10.6 11.7 11.6 11.4 11.2 11.2 9.8 9.6 6.2 8.7 8.8 8.7 9.2 9.1 9.6 10 9.9 10.5 10.2 10.3 10.4 10.4 10.4 10.3 10.1 8.4 9.2 10.1 10.2 10.2 9.8 10.5 10.5 10.1 9.8 10.1 10.3 10 10 9.1 7.9 8 5 9.2 8.4 4.5 7.9 8.3 8.4 9.2 9.8 10.5 10.4 10.2 10.1 10.7 10.7 10.4 10.5 10.7 10.5 10.4 10.2 10.5 10.1 9.9 10.3 10.6 11 10.6 10.7 10.6 10.4 10.8 10.6 10.8 10.6 11 10.8 10.3 9.9 9.9 9.9 9.8 10 10.5 10.4 10.1 10 10 9.9 10.3 10.3 9.7 9.7 9.9 9.6 7.9 5 9.4 43.6 59.3 59.5 48.6 30.6 11.4 11.3 12 11.4 11.2 10.1 12.2 10.8 10.6 10.2 10 10 10.4 10.2 9.9 9.9 9.7 9.6 9.3 10.1 10.1 9.6 9.4 9.8 9.3 9.8 9.7 9.4 9.7 8.6 9.4 9.5 8.7 9.3 8.1 7 7 6.4 6.8 6.7 7 7.5 0.2 0.2 0.2 0.2 7.6 7.6 7.5 7.4 8.2
12.9 13.3 12.7 12.9 13.2 13.4 13.3 13.1 13 12.9 12.7 12.4 12.5 12.3 12.4 12.3 11.9 11.2 11.1 11.7 12 12.3 11.3 12.7 12.6 12.7 12.5 12.7 12 12.3 8.8 10.6 10.3 10.2 10.4 10.6 11 11.4 11.8 11.4 11.4 11.1 11 11.4 11.6 11.1 11.1 11.6 11 11 10 9 4.5 8.5 8.8 8.9 9 9.2 9.2 9.4 9.5 10.1 10.2 10.1 10.2 10.3 10.2 9.3 8.9 5.1 4.5 9.4 10.2 10.3 10.1 10.6 10.4 10 9.5 10.2 10.1 9.6 9.4 8.7 8.3 8 5.4 9 9.2 8.4 7.1 4.5 7.3 7.7 8.8 9.9 9.9 9.9 9.8 10.5 10.6 10.4 10.8 10.8 10.5 10.3 10.4 10.5 10.4 9.9 10.3 10.6 10.9 10.9 10.8 10.7 10.5 10.4 10.2 10.4 10.3 10.1 10.5 9.7 9.5 10.3 10 10.2 10.4 10.3 10.2 9.9 10.2 10.2 10.2 10.4 10.1 9.4 9.4 9.7 9.5 6.5 4.3 9.8 49 61.1 56.3 42.3 28.4 20.4 15.1 12.5 11.3 11 10.1 9.9 11.1 10.4 10.2 10 10 9.9 9.6 9.5 9.5 9.7 10.2 9.2 9.6 9.8 10.3 9.7 9.8 9.3 9.8 9.7 9.6 10.1 9.6 9.3 9.4 10.1 9.2 8.8 7.8 7.8 7.1 6.6 7.3 6.8 7.2 6.7 0.2 0.2 0.2 6.6 7.1 7.3 9.1 7.5
13.5 12.8 12.9 13.1 13.4 13.4 13.4 13.3 13.1 13 13.1 13.2 13 12.9 12.1 11.9 11.7 11.6 11.9 12.3 12.6 12 12.6 13 12.7 12.4 12.8 12.7 12.4 12.4 9.1 10.7 10.3 10.2 10.4 10.7 10.9 11.2 11.6 11.7 11.8 11.3 10.8 11.2 11.8 11.4 11.4 11.2 11.8 11 11.3 10.5 4.5 9.2 7.8 8.4 8.4 8.7 8.9 9.5 9.2 9.7 9.5 9.7 9.6 9.1 8.5 5.3 6.7 7.9 7.5 4.5 10 10.2 10.3 9.9 9.3 9.4 8.9 9.9 9.7 9.2 8.6 6.7 4.6 7.8 8.6 9.2 9.2 9.4 8.9 8.7 6.8 4.6 7.9 9.2 9.2 9.3 9.7 10.1 10.3 10.7 10.9 11 10.4 10.7 10.8 10.3 10 9.9 10.2 10.5 10.8 10.8 10.8 10.7 10.5 10.1 10.1 10.4 10 8.7 8.8 8.7 9.8 9.7 9.9 10 10.5 10.4 10.2 10.3 10.3 10.3 10 10 9.8 9.5 9.6 9.3 8.8 7.5 4.2 10 48.3 62.8 56.1 42 29.7 24.3 16.8 10.9 11.7 10.1 9.8 9.7 11.6 10.6 10.3 10 10 9.8 9.5 9.6 9.7 9.8 9.5 9.6 9.4 10 9.6 9.6 9.8 9.7 9.8 10.6 9 9.3 9.8 10.1 9.8 10.3 9 9.2 8.7 8.8 6.8 6.5 6.7 7.4 6.6 6.8 7.1 0.2 0.2 0.2 7.3 6.7 9.9 7
13.3 12.9 13 13.3 13.3 13.2 13 12.9 13.4 13.3 13.6 13.3 13.3 12.5 12.1 12 12.2 12.3 12.6 12.3 12.3 12.4 12.9 13 13.2 13.1 13 12.3 12.6 12.8 9.7 10.4 10.4 10.1 10.4 10.7 10.9 11.2 11.3 11.4 11.4 11.3 11.7 10.9 11.4 11.6 11.6 11.6 11 11 10.7 11.7 10.1 9 9.6 9.8 7.5 7.5 8.4 8.9 8.5 8.8 9.2 8.5 8.6 8.7 7.2 7.4 8.6 8.3 7.9 4.7 9.3 9.6 9.5 9.1 9.3 9.5 8.7 9.7 8.8 8.3 5.1 6.9 8 9.1 9.3 9.3 9.1 8.8 9.5 9.2 9 7.6 4.5 8 9.3 10 10.5 10.1 10.4 10.4 10.8 10.9 10.4 10.2 10.2 9.9 9.8 9.9 10.1 10.4 10.7 10.8 10.7 10.6 10.5 10.4 10.6 10.1 8.6 8.1 9.5 10.3 10.2 10 9.9 10.2 10.1 9.7 9.6 9.9 10.2 9.7 9.9 9.5 9.1 9.8 9.4 8.8 7.9 7.2 4.2 10.8 38.5 63.4 56.5 43.9 32.7 22.8 14 11 11.1 10.5 9.8 9.5 10.1 10.1 8.7 10.5 10.6 10.4 9.5 9.5 9.4 9.6 9.3 9.5 9.6 10 10.5 9.9 10 10.1 9.9 10.2 9.9 9.7 10.2 10.1 9.9 9.3 9.6 9.5 9.3 8.4 8.3 7.4 7.7 6.1 6.5 6.9 6.7 7 0.2 0.2 6.3 6.4 9.9 6.2
13.1 13.6 13.6 13.4 13.6 14 13.1 13.6 13.8 13.4 13.8 14 12.6 12.8 12.8 12.4 11.8 12.4 12.3 11.7 12.2 12.5 13.2 13.2 13.3 13.4 13.2 12.7 13.2 13 10.8 10.4 10.2 10.3 10.7 11.1 11.4 11.8 11.6 11.5 11.5 11.8 11.8 12.1 12 11.4 11.5 11.5 10.4 10.1 10.1 10.7 10.6 10.8 11.8 10.8 9.3 8 4.5 7.6 4.5 4.7 7.4 8.4 8.8 7.7 4.5 9.2 9.1 8.5 7.9 4.5 9.3 9.4 9.8 9.9 9.8 8.7 8.8 9.7 8.3 7.3 8.2 8.7 9.1 9.2 9.3 9.3 9.1 8.9 9.3 10 9.7 8.9 7.9 4.7 7 9.5 10.4 10.2 10.3 9.9 10.4 10.5 10 10 10 9.9 9.9 10 10.1 10.3 10.6 10.7 10.7 10.4 10.4 10.3 10 8.4 8.1 9.8 9.8 9.8 9.9 10.2 9.5 9.5 10.2 9.8 10 10.3 9.9 9.9 9.6 9.2 9.5 9.7 8.3 7.2 7 5.8 8.9 11.6 24.5 61.8 54.7 43.1 28.5 21.1 10.9 10.1 10.9 9.6 9.5 9.4 9.2 9.2 8.3 10.1 10.3 10.2 10.5 9.5 9.3 9.8 10.1 9.8 9.7 9.5 10.1 10.2 10.2 10.5 10.2 10.6 10.6 10.1 10 9.8 9.6 9.4 8.7 8.8 8.2 7.9 7.3 8 7.6 7.5 7.1 7.2 6.7 6.9 0.2 0.2 6.3 6.5 7.8 10
22.2 21.4 17.8 15.7 17.2 22.8 19.4 16.2 13.8 14.3 13.7 14.7 14.2 13.6 13.1 12.9 12.4 11.8 11.6 12.5 12.7 12.6 12.8 12.7 12.4 12.5 12.1 12.1 12.7 13 11.1 10.5 10.4 10.8 11.2 11.7 12 12.4 12.1 11.8 12.1 12.4 12.4 12.4 11.7 11.7 11.7 11.2 10.7 11.1 11.1 10 9.4 10.4 11.1 10.5 8.4 11.2 10.3 9.5 7.4 9.7 6.9 4.5 4.5 4.6 8.8 9.8 9.1 8.2 7.6 6.8 9.7 9.9 10.1 10 9.9 8.8 8.9 9.1 8.5 7 7 7.2 8 8.9 9.2 9.2 9 8.8 8.7 9.5 9.7 9.3 8.7 8.1 6.7 7.5 9.8 9.8 9.9 10 10.1 9.9 9.9 10 10 9.9 9.9 10 10.2 10.3 10.5 10.6 10.4 10.3 10.2 9.9 9.5 8.6 9.7 10.3 10 9.3 9.5 10.2 10.1 9.8 9.9 10 10.3 10.4 9.9 9.3 8.6 9.8 9.8 9.1 7.7 7 4.5 8.7 10 11.1 14.3 49.9 48.1 39.3 25 16.1 9.3 9.8 10.7 9.5 9.6 9.8 9.3 8.8 8.3 9.2 9.5 9.9 10.2 10.1 9.9 9.9 10.1 10.1 10.2 9.9 9.9 9.8 10.1 11 11.3 10.7 10.4 10.1 10.2 10.4 9.8 9.3 9 9 9 10.4 8.9 9.5 9 9.2 6.7 6.7 7.1 6.4 0.2 0.2 5.6 5.9 6.1 6.3
31.8 34.8 35.2 34.1 35.9 38.1 34.5 24 19.7 18.8 14.4 14.5 14.2 13.7 13.6 13.3 12.9 12.3 12 12.3 12.3 12 12.4 13.5 13.1 16.4 16.7 16.1 14.7 12.4 11.8 11.5 11.5 11.5 11.7 12.1 12.5 12.8 12.5 12.2 12.4 13 12.8 12.2 11.9 11.7 11.4 11.3 11.8 11.4 11 10.9 10.2 10.7 10.3 8.8 10 11.2 11.3 9.3 9.7 9.9 10.3 10.3 9.5 9.7 10.3 10.1 9.6 8.9 7.5 7.5 9.5 9.3 9.8 9.8 9.3 9.4 8.9 8.6 8.7 4.7 8.8 8.9 8.4 7.8 8.3 8.6 9.1 9.4 8.9 9.5 9.7 9.3 9 8.3 7 4.6 9.7 9.9 10 10.2 10.4 10.5 10.3 10 10 9.9 10 10.1 10.2 10.4 10.5 10.4 10.2 10 9.7 9.4 9.4 9.9 10 10.1 10.1 9.5 9 10 9.8 10.2 10.4 10.1 10.4 10 10.2 9.1 8.3 4.2 4.2 6.6 7.4 4.3 8 9.2 10.2 10.4 11.3 39.9 43.3 34.7 21.4 13.8 9.6 10.4 9.6 9.5 9.6 9.4 9.1 7.6 8.8 9.1 9.3 9.7 10.1 10.2 10.3 9.4 9.5 9.9 10.5 10.6 10 10.5 10.2 10.2 11.6 11.1 10.7 10.2 9.9 11.1 11 11.3 11.5 11.3 9.8 9.9 9.4 9.8 10 9.2 8.1 7.4 8.1 0.2 0.2 0.2 6.6 6.7 10.2 6
40.5 43.6 45.3 43.6 42.1 40 37.3 31.7 21.5 20.1 16.6 15.3 15.1 15.5 14.4 14.1 13.7 13.4 13.2 12.9 14.7 16.9 18.4 19.2 18.2 18.8 19.2 19.9 19.1 17.7 15.1 13.6 12.5 12.6 12.4 12.2 12.5 13.2 12.9 12.9 12.9 13.2 12.8 12.3 12.6 12.1 12 11.9 12.2 12 11.8 11.1 10.4 11 10.3 10.9 11.3 11.3 11 10 8.2 9.9 11.3 11.4 11.2 10.2 10.5 10.1 9.8 7.7 7.4 8.6 9.3 9.1 9.3 9.2 9.2 9.1 9 8.9 8.4 4.5 9 9.5 9.5 9.3 8.5 8.7 9.5 9.7 9.1 9.6 9.7 9.4 9.1 8.3 6 4.5 9.7 10.3 9.8 10.1 10.3 10.5 10.7 10.5 10.4 10.1 10.6 10.3 10.2 10.3 10.2 10.1 10.2 10 9.8 9.7 10 10 10.1 9.9 10 9.8 9 9.1 10 10.3 10.4 10.6 10.3 10.5 10.3 8.5 4.2 6.9 7 6.9 6.6 8 8.7 9.9 10.2 10.5 10.9 33 39.3 30.4 19.8 11 9.5 10.5 9.3 9.5 8.5 7.9 9.4 9.5 9.9 9.5 9.7 10 10.2 10.4 10.2 10.4 10 10.1 10.6 10.6 10 10 10.4 10.7 10.6 10.9 10.2 10.7 11.4 12 12.9 11.6 12 12.3 12.4 12 11.3 10.4 12.9 9.9 10.6 9.6 8.7 0.2 0.2 5.4 6 7.4 8.6 6.1
41.1 43.5 42.7 40.5 39.1 37.6 36.9 33.5 26.2 20.9 18.5 16.1 16.1 16 15.7 14.8 14.9 14.6 15.3 16.9 18.4 20.8 23.5 24.9 24.8 25.4 24.6 23.7 21.7 20.7 20.6 17.2 13.5 13.4 13.1 12.8 12.6 13.6 13.5 13.3 13.4 12.9 12.9 12.7 12.9 12.4 12.4 12.5 12.5 12.2 12 11.3 11.4 11.5 10.6 11.5 11.6 11.6 10.2 8.7 10.3 10.7 11.1 11.6 11.2 11.1 10.8 9.4 9 9.5 7.4 8.3 8.8 9 8.9 8.4 8.2 7.9 7.5 4.5 5.7 7.6 9 9.6 9.6 9.5 9.1 8.3 8.9 9.3 9 10 9.6 9.5 9.1 7.8 5.9 9.2 9.5 10.2 10.1 9.9 10.1 10.4 10.7 10.9 10.5 10.1 10.6 10.2 10.1 10 10.1 10.1 10.3 10.5 10.6 9.9 9.8 9.8 9.8 10 10.1 9.9 8.9 9.5 9.6 10.2 9.9 10.2 9.6 9.4 10 8.8 5.3 7.3 8 8.3 8.7 8.8 9.6 10.3 10.4 10.7 10.5 16.2 32.1 24.7 15.6 10.1 9.5 10.4 8.9 8.6 9.2 9.1 9.8 9.5 10 10 9.7 10 10.2 10 10.2 10.5 10.2 9.9 9.9 10.4 10.5 9.8 9.7 10.1 11 10.2 10.5 11.9 12 13.1 13 14 13.2 12.8 12.8 14.9 26.7 16 14 14.5 12.2 10.4 8.5 0.2 0.2 0.2 7.7 11.5 5.6 5.4
44.3 45.3 43.7 42 40.2 38.8 37 35.3 32.9 25.4 20.8 18.8 16.8 16.7 16.1 16.3 16.7 17.1 18.9 20.3 25.2 28.6 33 34.4 36.5 36.5 35.7 33.5 28.6 25.6 23 20.6 16.3 14.1 13.8 13.5 13.4 14 14 14.3 13.1 12.9 13.4 13.2 13.3 12.6 12.9 13.1 12.5 12.7 12.8 12.7 12.3 11.8 11.7 12.2 11.9 11.7 10.4 9.2 10.8 11.3 11.6 11.5 11.2 10.8 11.8 9.8 10.7 10.4 9.2 5 7.7 7.7 7.7 7.4 6 4.5 8.1 8.6 9.2 9.3 8.3 8.7 9.2 9.6 8.9 8.5 8.8 9 9.2 10 9.5 9.2 8.9 8 6 8.8 9.8 10.1 10 9.9 9.9 10.3 9.9 10.6 10.2 10.2 10.4 10 10.1 10.2 10.1 10.1 10.4 10.6 10.3 10.2 10.2 9.8 10 10 9.7 9.9 10.3 10.5 9.8 9.8 9.5 8.6 8.8 8.9 8 6.4 6.9 7.8 8.3 8.7 9.1 9.5 10.4 10.3 10 10.1 10.1 10.5 12.2 17.9 12.5 9.8 9.4 10.2 10 9.7 9.8 9.8 9.8 9.6 9.8 10 10 10 9.6 9.7 10 10.3 10.3 10.3 10.3 10.8 9.8 9.8 10.2 10.1 10.3 10.1 10.7 10.6 12.3 13.2 13 14.1 15.2 17 19.2 32.7 52.3 39.3 16 14.1 11.6 11 9.5 0.2 0.2 0.2 5.6 11.4 5.4 5.7
43.8 42.9 41.3 39.8 39.4 38.8 38 35.9 34 28 23.1 19.2 17.6 18 17.5 18.7 19.9 21.9 25.1 30.3 34.5 39.1 44.1 46.9 48.6 48.7 46.4 45.2 39.1 32.2 25.1 20.6 17.3 15.1 14.8 14.4 14.3 14.6 15.9 15.2 13.6 13.4 12.9 13.3 13.3 13 13 13.3 12.8 13.1 13.1 13.3 13.3 12.5 12.2 12.1 12.1 11.7 10.2 11.2 10.8 11.7 11.8 11.8 11.8 11.8 11 10.1 11 11.1 11 9.9 5.5 6.2 8.4 8.5 9.7 9.4 9.5 9.9 10 9.7 8.4 8.8 9.4 9.5 8.5 9.1 9.2 9.1 9.2 9.8 9.4 9 8.5 7.7 4.5 8.6 9.7 9.9 10 9.9 9.9 10.1 10.2 10.2 9.9 9.9 10.2 10.4 9.2 10.1 10.1 10 10.5 10.6 10.2 9.9 10.4 10.1 10.5 10 9.7 9.7 10.1 10.3 10.4 9.6 9.2 8.9 9 9.1 8.2 7.5 4.7 8.1 8.4 8.4 8.7 10.2 10.6 10 9.9 10 10.4 11 11.3 10.3 9.6 8.7 8.4 9.9 9.6 9.7 9.7 10 10 9.7 9.6 10.1 10.2 9.4 9.7 9.8 10.8 11.6 11.5 10.2 10.5 10 10.1 10.4 10.6 9.9 10.1 10.3 10.9 10.6 13.1 14.3 15.6 19.2 28.6 33.9 44.9 38.8 41.8 33.8 16.3 13.5 12.7 11.7 10.5 0.2 0.2 0.2 0.2 0.2 5.1 4.8
36.4 36.4 37.1 37.1 38.3 39.6 38.6 36.9 35 33.8 28.6 21.6 19.1 19.2 21 26.8 30.6 32 35 39.4 43.9 47.6 49.6 52.1 50.6 49 45 41.8 37.5 33.5 28.6 22.2 17.4 16.7 16 16.1 16.5 17.1 17.2 16.1 14 13.7 13.1 12.9 13.5 12.8 13.2 13.5 13.2 13.4 13.4 13.4 13.3 13.5 13.1 12.3 12.3 12.1 11 12.2 12.1 12 11.9 11.8 11.8 11.7 10.6 10.7 11 11.2 11.1 9.2 10.7 10.2 9.3 9.8 10.5 9.9 9.8 9.8 9.6 9.1 9.2 9.4 9.8 9.3 8.7 9.6 9.6 9.5 9.4 9.9 9.4 8.9 8.1 7.1 4.9 9.3 9.4 9.5 9.5 10 9.9 9.7 9.7 10.2 9.8 9.6 10.1 10.5 8.9 9.8 9.8 9.9 10.6 10.1 10.2 9.9 9.9 9.9 10.2 10.4 10.6 10.2 10.2 10.4 10.2 9.7 8.7 9 9.6 9.3 9.2 8.5 4.2 7.6 7.9 8.7 9.9 10.4 10.4 9.8 9.8 9.9 9.4 9.5 10 10.3 9.2 7.9 8.3 9.9 9.5 9.7 9.9 10.2 10.2 9.7 9.6 9.8 10.3 10.4 10.4 9.9 10.1 10.2 11.6 11.4 10.4 10.5 10.4 9.7 10.3 10.4 10.3 12.2 10.3 10.7 15.4 19.4 35.6 50 65.6 68.6 62.2 43.9 38.1 28.6 15.4 14 12.9 11.9 10.9 10.2 0.2 0.2 0.2 0.2 0.2 0.2
36.5 40.4 40.9 40.3 41.3 41.7 41.9 39.1 37.4 35.4 31.9 26.8 19.3 20.9 26.3 28.8 31.6 34.9 36.4 40.7 45.9 49.6 53.3 54.1 52.4 49.9 43.9 38.8 35.2 30.7 26.3 20.9 21 20.7 20 20.1 20.4 20.4 19.5 17.2 14.8 13.8 13.8 13.7 13.7 13.3 12.9 13.6 13.6 13.7 13.7 13.5 13.4 13.4 13 12.6 12.5 12.4 11.1 12.6 12.6 12.3 12 11.8 11.7 11.6 10.3 11.1 11.5 11.3 11.1 8.3 11 10.8 10.1 11.2 11.6 10.2 10.1 9.9 9.8 9.7 10 10.2 10 9.5 9 9.6 10 10.1 9.8 10.1 9.8 8.8 5.1 4.8 8.4 9.4 9.3 9.2 9.2 9.8 9.5 10 10.2 10.3 10 9.5 9.8 10.3 9.6 10.3 10.2 10.2 10.3 10.6 10.4 10.6 10.4 10.5 10.3 9.9 10.1 10.4 10 10 9.8 9 8.5 8.7 9.1 9.5 10.6 9.5 7.1 5.9 8.6 9.4 10.1 10 9.1 9 8 8.3 8 8 8.4 8.8 7.8 8.7 9.2 10.3 9.6 9.9 10.2 10.4 10.4 10.2 10.3 10.1 10.7 10.9 9.5 10 10.2 10.1 10.6 11.4 11.6 10.3 10.4 10.8 10.4 10.8 10.6 11.1 10.6 14 22.6 45 68.9 80.4 74.9 73.2 69.2 58.2 43 22.6 15.8 14.3 13 12.8 11.8 10.7 10.8 11.8 0.2 0.2 0.2 0.2
44.3 44.8 48.2 49 51 49.2 48 44 38.4 36.7 25.9 20.4 29.9 22.4 29 31.2 33.2 34.5 36.5 39.9 42.7 47.1 52.7 54 51.2 46.6 41.1 36.7 32.1 26.2 24.8 27.1 28.1 27.4 26.2 25.4 23.6 23.4 22.6 25.2 22.5 19.6 18.6 17.1 15.7 16.3 17 16.4 15.2 13.7 14.4 13.6 13.6 13.1 13.3 12 12.1 12 11.4 12.7 12.7 12.8 12.5 12.4 11.8 10.9 11.4 11.5 12.1 11.5 9.6 10.7 11.1 11.3 10.8 10.7 10.5 11.1 11.9 10.5 10.1 10 10.6 10.6 9.9 9.4 9.3 9.7 9.9 10.2 10.8 10.1 9.6 4.6 7.9 9 8.7 8.8 9.7 9.5 9.2 9.6 9.3 10 9.6 10.2 9.5 9.4 9.5 9.6 9.7 9.9 10.4 10.3 10.3 10.6 10.4 10.3 10.3 9.9 10 9.6 10.1 9.7 10.1 9.8 9.6 9.1 9.8 10.1 10.3 9.2 10.3 10 8.1 4.2 8.7 9.6 10.1 8.9 7.2 8.8 10.2 9.5 8.8 9.1 8.1 8.5 9.2 9.9 9.8 10.3 9.1 9.8 10.1 10.5 10 9.9 10.1 10.2 10.4 10.1 9.5 10.2 10.2 10.1 10.1 11.3 11.3 10.7 10.3 11 12.2 11.1 11.5 12.9 14.2 31.8 48.5 54.9 76.2 76.1 81.9 73.1 66 56 44.7 30.8 17 13.3 12.7 13 12.1 10.2 11.5 12.2 9.5 7.4 6 4.4
50.5 51.2 48.2 45.6 42.3 42 42 40.3 33 24.9 23.7 28.8 26.5 28.8 30.1 30.5 32.4 34.4 36.3 38.5 40.8 43.7 46.1 47.4 45.2 42 37.4 32.9 29.5 30.8 32.7 32.6 32.4 30.5 31.7 32.1 34.5 33.3 26 36.3 33 31 31.5 31.9 31.3 30.5 30.5 30.6 28.9 23.3 18.4 15.8 14.6 13.7 14.4 13.9 13.5 12.1 12 12.8 13.3 13.3 12.5 12.9 12.4 10.7 11.9 12.3 12.5 12.1 11.7 11.8 11.6 11.4 10.9 11.4 11.2 12 11.7 11.4 11.1 10.9 11 10.9 9.8 9.5 9.9 10.1 10.1 9.7 9.9 9.9 8.7 6.2 8.4 9 9 9 9.3 9.4 9.4 9.3 8.5 9.9 9.9 9.8 9.8 10.2 10 10 9.9 9.2 9.9 10.3 10.1 10.6 10.3 10.4 10.5 10.2 10.1 9.7 10 9.8 10.3 10 10.1 9.8 10.2 9.9 10 9.7 10.3 10 7.5 5.6 4.2 9.7 8.2 7.8 9.5 9.7 10.8 10.6 10.5 9.8 10.1 10.3 10.6 9.9 10.3 10.2 9.6 8.5 9.3 10.1 9.8 10 10.9 10.4 9.9 9.5 9.7 10.2 10.2 10.1 10.1 10.3 11.1 10.4 10.7 12.1 12.8 14.9 19.2 22.9 30.4 50.1 85.4 76 76.6 82.1 73.4 74.7 64.5 54.7 41.7 28.6 17.9 13.5 12.8 12.8 12 11.5 11.8 12.4 10.2 8.2 6.8 6.9
47.9 45.9 43.4 40.3 38.8 34.7 31.9 30.8 25.9 25.5 29.2 32.9 27.9 32 36.1 35.3 36.3 37.1 39.7 40.3 43 43.4 45.8 44.4 41.3 39 35.9 33.4 35.5 37 37.2 36.5 36.5 36.1 36.8 39.6 43.1 45.9 32.1 48.6 48 45.4 45.3 45.6 45 44 44.2 43.7 42.7 37.3 33.1 25.3 22.3 19.1 16.6 15.4 13.5 12.6 12.6 12.4 12.6 12.7 13.3 13 12.5 11.3 11.9 12.3 12.4 11.5 10.5 12.4 12.3 11.8 11.8 11.7 11.8 11.8 11.7 11.3 10.5 11.2 10.8 10.9 9.8 10.1 10.3 10.4 10 9.7 9.3 9.3 7.1 7.9 8.7 8.6 8.9 9 9.5 9.9 9.9 9.8 8.4 9.3 9.5 10 10.1 10.1 10 10.2 10 8.1 10.1 10.2 10.1 10.3 10.2 10.6 10 10 10.3 9.8 9.6 9.5 10.2 9.6 9.5 9.7 10 10.2 9.9 9.8 10 9.9 9 7.7 6.3 7.9 6.5 9 10 9.7 10.9 10.6 11 10.5 10.7 10.7 10.5 9.8 10.4 10.5 9.5 9.2 9 9.9 10.2 10 10.2 10.5 10.1 9.5 10.1 10.1 10 10.1 10.1 10.2 10.4 11.4 11.8 12.6 12.7 16 25.9 29.8 35.1 52.7 85.5 90.7 68.9 75.4 81.8 73 59.4 53.7 42 29.8 21.7 14.4 12.9 13.1 13.1 12.3 12.6 12 11 10 7.7 7.2
43.7 41.4 36.7 35 32.1 31.1 30.5 34 31.1 25 33.4 33.1 31.3 36.4 37.8 37.7 39.3 40.8 42.9 46.7 48 48.7 49.4 47.8 45.4 41.2 40.7 39.6 42.8 41.9 42.6 42.9 45.9 47.3 46.7 51.4 54.4 54.8 39.2 55.9 58.5 59.3 59.2 58.2 57.7 57.2 56 55.1 51.6 46.8 44.3 37 33.9 22.4 17.7 15.9 14.8 12.6 12.5 12.5 13.1 13.7 12.8 12.5 12.4 12.4 12.5 12.6 12.2 10.5 12 12.4 12.2 12.1 11.9 11.7 11.3 11.6 11.7 11.8 11.5 11.3 11.1 10.5 10.9 10.9 11.3 10.7 10.5 10.2 9.8 9.4 7.6 7.2 8.7 7.9 8.9 9.2 9.6 9.5 9.9 9.7 8.6 8.9 9.4 9.8 9.6 9.9 10 10.1 9.9 9 9 9.5 9.4 9.4 9.5 10.2 9.1 10.2 10.2 9.5 9.8 10.1 10 9.9 9.4 9.8 10.1 10 9.7 9.1 9.9 9.9 8.9 7.9 7.3 4.4 6.9 9.9 10.4 10.1 10.7 10.6 10.7 10.1 10.7 10.6 10.2 10 10.4 10.7 9.8 9.3 9.8 10.1 11 9.9 9.9 10.1 10.4 10.1 10 10 10 10 10 10.3 11.1 11 11.1 12.6 13 12.3 20.3 26.2 29.8 45.9 92 91.3 85.7 68.4 79.5 75.7 63.7 49.4 41.7 31.7 24.3 17.1 14.7 13.8 13.4 12.5 12.6 12 11.5 10.5 9.4 6.8
42.4 42.4 41.3 39.6 39.2 37.5 37.2 38.2 33.5 29.8 35.2 34 34.5 40.1 40.5 41.8 44.7 47.4 49.7 50.6 52.3 52.5 51.2 49.4 48 48.1 46.9 46.6 51 53.6 54.6 56.2 57.5 57.4 57.2 61.9 62.3 58.6 50.1 59 61.2 62.7 63.1 64.5 63.7 62.3 60.2 57.9 54.7 51.1 48.2 43.5 31.1 24.1 25.6 20.6 15.4 13.2 12.6 12.6 12.7 14.1 13 12.4 12.3 13 13.3 12.7 11.5 12.1 12.8 12.4 12.3 12.2 12 11.7 12 11.7 12 12.1 11.9 11.9 11.5 11.6 11.6 11.6 11.1 10.6 10.5 10.7 10.3 9.6 9.1 5.3 7.6 7.4 8 8.5 9 9.7 9.5 8.3 8.8 9.4 9.4 9.2 8.9 9.1 9.4 9.3 9.4 8.8 8.9 9.5 9.3 9 9.6 8.9 9 9.7 9.7 10.1 9.5 9.5 9.7 9.9 9.3 9.9 9.9 9.9 9.7 8.9 9.8 9.2 8.4 7.7 7.2 4.2 8.7 10 10.5 10.3 10.7 10.8 10.4 10 10.4 10.6 10.4 10.3 10.4 10.1 8.5 9.7 10 10.1 10.3 10.4 10.5 10.4 10.4 9.8 9.7 9.9 9.9 10 10 10 9.3 11.3 11.8 11.2 11 11.2 14.3 22.3 27.2 33 65.4 100.4 97.5 80.9 68.9 68.7 65.9 55.5 45.1 33.7 28.4 21.6 15.9 14.1 13.5 12.7 12.5 11.3 11.6 10.9 9.9 8.1
53.3 54.7 51.3 50.4 50.1 47.2 42.8 41.5 32.5 39.4 39.9 40.2 36.1 44.1 45.6 48.6 51 52.4 54.1 54.1 54.8 54.7 52.9 51.1 50.4 51.1 52.4 53.3 58 62.9 65.5 67 67.9 64.8 63.9 64.5 62.5 62.2 54.9 61.6 62.7 64.4 65.7 67 66.3 64.9 63.4 62.3 60.3 56.8 52.5 43.2 28.8 32.2 31.9 29.7 26.5 20.6 16.1 13.7 13.3 13.8 13.5 13.2 13.6 13.8 14 13.6 13.2 11.9 12.7 13 12.5 12.4 12.4 12.1 12 12.2 12.3 12.3 12.1 11.9 11.4 11.6 11.9 11.3 11.8 11.6 11 11.1 10.4 9.9 9.6 6.2 6.2 6.6 4.9 7.1 8.4 9.4 9.8 9 9.7 9.6 9.8 9.7 9.1 9.2 9.9 9.5 8.8 9.3 8.4 8.5 8.1 7.4 4.9 4.9 5.7 9.4 9.3 9.9 9.4 10.1 9.9 9.6 9.5 9.6 9.6 9.6 9.5 8.7 9.6 9.5 8.4 7.6 7.4 6.2 9.5 10.1 10.6 10.3 9.6 10.5 10.1 10.2 10.7 10.5 10.7 10.4 10.3 10 10 10.9 10.1 9.9 10 10.8 10.7 10.6 10.3 10.3 9.7 9.7 9.9 9.9 9.9 9.9 9.4 11.4 10.6 10.7 10.8 11 12.2 18.3 26 29.6 49.5 97.9 96.3 92 74.3 63.2 57.7 57 43 38.7 30.3 24.2 18.4 15.9 14.4 13.8 12.4 12.1 12.1 10.9 10.6 10.9
63.6 64 63.7 61.6 58.5 53.2 46.8 45 36.6 43 44.7 45.1 42.1 48.3 50.3 52.7 54.2 55.6 55.5 55.8 56.8 55.8 55.1 55.5 55.9 57.4 62.3 63.5 66.1 70.6 71.8 70 69.4 68.9 68.1 66 65.2 64.2 63.5 63.5 64.4 66.4 67 68.8 68.4 68 66.7 65.4 64 61 55 35.9 41.3 39.8 40.6 36.9 36.4 34.7 30.9 26.7 17.7 15.9 14.4 14.6 15.1 14.2 14.8 14.6 13.2 12.9 13.2 13.3 13.4 13.2 12.9 12.8 12.5 12.4 12.6 12.4 12.2 12.1 11.2 11.9 11.7 11.6 11 11.6 11.4 11.8 11.4 10.8 9.8 7.4 9.3 8.9 8.5 6.4 4.9 7.9 7.7 9 9.3 9.6 9.3 9.5 9.4 8.5 9.2 8.9 8.3 8.3 7.7 7.7 7.1 5 7.8 7.6 7.5 7 9.3 8.9 9.1 9.1 9.4 9.5 9.9 9.6 9.2 9.1 8.8 8.6 8.9 8.4 7.7 7.4 4.2 6.7 9.6 10.1 10.5 10.4 10.3 10.2 10.4 10.6 10.8 10.8 10.9 10.2 10.4 10.7 10.3 9.3 10.1 9.9 9.9 10.7 10.4 10.1 10.1 10.1 10.1 9.8 9.7 9.8 9.8 10.5 10.3 10.6 10.7 10.7 10.8 11 12.9 18.9 24.2 27 37.4 66.6 96.1 85.7 86.5 71.5 66.1 52.7 47.5 41 33.3 26.8 22.1 17.7 15.1 13.1 12.7 12.8 11.7 12.1 11.3 11.1
72.9 71.1 68.3 64.4 60 54.2 48.5 45.7 42.9 47.5 49 49.6 47.7 48 52.8 54.4 56.4 56.9 57.6 58.8 59.7 60.8 62.9 62.7 65.4 68.1 72.4 75.5 76.3 75.7 72.8 72.3 72.2 71.5 70.5 70.3 69.8 68.2 68.4 68.7 70.5 71.4 70.5 71.9 71.6 71.2 69.9 68.5 66.8 64.1 49.5 53.1 53.7 48.9 47 44.5 43 41.4 39.8 37.4 34.3 26.3 27.5 22.3 22.4 20.7 19.2 21.2 24 26.3 28.9 29.5 27.6 22.5 22.5 16.7 14.3 12.3 12.6 12.5 12.3 12.1 11.9 12 11.9 12 11.1 11.4 10.5 9.5 10.3 8.6 9.7 8.4 9.8 9.5 9 8.5 7.3 4.2 7.2 7.8 8.1 8.4 7.6 7.6 7.6 7.7 8.2 8 7.3 7.2 6.8 5 7.1 8.3 8.2 7.6 6.9 5.6 8.5 9.2 9.3 9.3 9.2 9.5 9.8 8.9 9.4 9.3 9.1 9 8.4 7.5 6.7 4.2 8.7 9.2 9.2 10.3 10.4 10.2 10.1 9.9 10.1 10.4 10.6 10.4 10.3 10.1 10.7 9.7 10.3 9.3 9.7 10 10 10.2 10 9.9 9.9 9.9 9.9 10.1 9.8 10 10.8 10.5 10.2 10.4 10.6 10.8 11 11.5 14.3 14.9 20.3 23 28.3 47.9 73.7 77.4 85 81.2 65.5 58.5 49 40.1 38.7 28.8 24.2 18.4 14.3 13.1 12.9 12.9 12.3 11.7 11.5 0.2
80.4 78.4 74.8 69.8 64.5 58.5 52 47 47.4 52 53.8 54.1 53.7 50 57.2 60.9 63.3 64.5 67.4 69.5 67.5 71.1 75.5 70.3 78.3 80.4 81.2 82.2 81.4 79.1 77.2 76.3 76.2 74.9 75.9 75.8 75.2 74.1 74.1 76.5 75.8 76.4 77.3 76.8 77.5 77.1 75.6 73.1 71 62 59.1 62.8 57.8 57.6 52.7 52.7 49.9 47.9 46.5 45.3 43.2 42.8 45.8 40.6 36 33.9 37.9 39.8 43 42.5 43.1 41.7 45 44.5 42.9 36.3 28.8 19.1 14.5 12.1 12.2 12.5 12.7 11.9 11.9 12 12.2 11.6 11.5 11.3 9.9 11 9.2 10.3 11.1 10.7 9.7 8.5 9.2 8 6.2 4.6 4.6 5.7 7.4 7.3 6.5 6.8 6.7 5 4.9 6.9 7.4 8.3 8.2 8 8.4 8.5 8 7.6 5.8 7.9 8.5 9.2 8.8 8.9 8.7 8.7 9.1 8.9 8.8 8.6 7.9 7 7.1 7.9 9.7 9.1 9.6 10.4 10.3 10.1 9.9 10.3 10.4 10.4 10 10.8 10.6 10.4 9.4 9.5 10.4 10.2 9.9 10.2 10.7 10.4 9.7 9.7 9.7 9.9 10 10.5 10.5 10.8 10.9 10.8 10.5 10.5 10.7 10.9 11 11.4 13.9 14.7 14.9 17.9 23.4 38.6 69.6 74 78.9 81.3 75.4 59.4 49.4 43.6 42 34.2 25.2 20.7 13.9 13 12.8 12.7 12.8 12.2 10.4 0.2
91.3 88.6 84.8 79.2 71.5 62.7 54.9 47.7 54 58.3 59.6 60.9 63.5 57.5 64.6 71.6 74.6 77.6 80.5 81.4 73.8 76.9 82.5 73.4 85.4 85 84.3 83.6 83.1 83.1 81.1 79.1 78.1 76.6 76.7 76.5 75.7 75.4 74.5 76.8 77.7 78.6 80.8 81.3 81.5 81.3 79.1 77.2 75.2 62.7 70.4 67.5 66.6 64.8 63.5 62.2 60.6 58.9 56.8 54.3 53.7 52.2 52.1 52.1 51.3 50.2 56.2 55.8 54.7 54.6 55.3 55.7 57.8 56.8 56.5 53.4 48.3 42.9 36.8 29.4 19.1 15.1 13.2 12.4 11.8 12.6 12.9 12.1 12 11.7 11.3 9.6 10.5 11.6 11.7 11.4 11.3 11.5 10.3 10.1 8.8 9.4 9.3 8.5 6.3 6.9 5.9 6.3 8.3 9.2 9.6 9.6 8.9 9.4 9.5 9.5 9.3 9.1 8.5 7.9 5.3 6.7 7.7 8 8.1 8.3 8.3 8.4 8.3 8.3 8.3 8.2 7.6 6.8 4.2 9.2 9.5 9.2 10.1 10.4 10.2 10.1 10.5 10.6 10.5 10.2 10.1 10.1 10 9.8 9.8 9.3 10.8 10.5 10.2 10.6 10.7 10 9.6 9.8 9.9 10 10.2 10.9 10.9 10.7 10.8 10.8 10.6 10.6 10.8 11 11.2 11.5 13.4 16.4 16.3 16.8 21.5 29.5 51.1 72.2 72.3 73.1 71.5 67.9 57.6 45.7 42 37.6 28.3 21.5 14.2 13.5 12.8 12.6 13.1 13.2 0.2 0.2
97.5 94.9 89.9 84.3 75.3 65.3 57.1 54.8 61.2 65.6 67.7 69.1 73 72.6 61.4 77.9 84.3 87.3 88.7 88.5 83.3 84.2 86.3 82 85.6 86.5 85.6 85.4 85.4 85.3 83.3 81.5 80.3 79 78.2 77.8 76.6 76.4 77.5 78.4 79 80.9 83.1 85.3 86.6 85.4 85 81.9 69.1 76 75.7 72.6 72 70.2 70.5 69.8 68.2 67.5 66.9 65.5 65.2 63.1 59.6 59.4 60.5 59.8 62.7 66.3 70.4 73.5 74.3 73.1 73 71.2 71 66.4 63.8 58.9 54.7 48.1 37.7 34.5 29.9 28.5 28.6 15.1 14.4 13.6 13.2 11.5 10.5 9.5 10.7 11.8 11.6 11.6 10.7 11.1 11.1 11.5 11.1 10.3 10.1 9.8 9.8 8.7 8.3 8.4 9.1 9.8 10 10.1 8.9 9.7 10 9.9 9.8 9.6 9.4 8.1 7.3 5.3 6.6 7.1 6.9 6.9 6.4 6.5 6.3 7.2 7.6 7.8 7.2 5 7.4 9.7 9.6 9.2 10.5 10.5 10.4 10.3 10.3 10.1 10.5 10.4 10.1 10.1 10.1 9.9 9.4 9.8 11.2 10.2 9.9 10.4 10.6 10.2 9.8 10.3 10.6 10.6 10.6 10.4 10.8 10.5 10.7 10.8 10.6 10.6 10.7 11 11.3 11.9 18 16.3 17.5 18.6 19.7 22.7 34 70.9 76.1 73.4 69.6 67.1 60.7 54 42.3 38.1 27.9 21 15.5 13.8 12.7 16.3 14.7 12.4 9.9 0.2
101.2 97.3 92.2 86.5 79.2 69.1 60.3 63.8 68.8 72.8 76.8 78.3 81.3 84.3 79.8 75 90.6 94.4 93.3 91.8 88.5 88.4 87.6 86.7 87 87.1 87.1 88.7 89.8 88.5 87.3 85.5 84.1 82.1 81.4 79.9 78.7 78.4 79.5 80.7 83.5 86.1 88.2 89.1 92 91.9 91.8 79.4 82.6 82.6 82.1 78.1 78.8 76.7 76.9 76.7 75.8 75.6 74.2 72.8 72 71.8 70.1 69.3 70.6 70.2 71.6 75.8 80.8 85.6 89.1 89.4 86.9 83.3 79.8 77.3 76.1 74.2 67.3 62.7 60 52.3 49.6 45.6 36.2 26.2 18.2 22.9 22.3 22.3 24.1 23.4 24.8 21.8 20 16.9 12.5 11.6 11.6 11.5 11.3 11.4 11.3 10.9 10.2 8.6 8.5 9.2 9.7 9.8 9.9 9.7 9 9.7 10.1 10.1 10.2 10.2 9.9 10.1 9.1 8.9 6.7 4.2 4.2 4.2 5.5 7.5 6.7 6 4.2 4.2 7.2 8.5 9.9 10.2 10 9.7 10.7 10.7 10.6 10.6 10.4 10.5 10.4 9.9 9.9 10 10 10 9.5 10.1 11.5 10.1 9.9 9.9 10.3 10.8 10.2 10.5 10.9 11 10.8 10.8 10.6 10.4 10.5 10.9 10.6 10.6 10.9 10.8 11.5 16.2 18.5 17.6 18.7 19.8 20.2 20.9 24.9 50.8 76.7 74 66.9 61.3 58.3 55 51.5 35.4 29 21.1 17.6 15.2 12.7 12.6 13.5 13.9 11.5 0.2
101.8 98.3 94.8 89.1 81.6 67.3 68.3 75.6 81.5 85.1 86 87.5 90.2 92.9 81.5 83.8 95.7 95.7 94.5 92.3 90.9 92.1 90.5 89.7 88.5 89.5 89.6 91.7 92.4 91.1 89.5 88.5 88 85 84.6 86.2 86.9 86.4 88.8 90.8 91.4 94.2 96.7 98.9 98.2 98.4 88.3 91.4 92.6 91.4 89.2 87.4 85.4 83.6 83.8 83.7 83.4 83.2 82.1 82.5 82.7 82.5 80.4 79.1 81 81.1 83.2 86 90.7 93.3 94.6 94.1 90.8 87.8 84.6 81.1 75.7 73.9 73.7 73.1 69.5 63.6 57.8 48.7 40.5 31.7 35.7 38.1 40.7 45.2 46.5 43.6 43.7 39.2 34.5 28 19.9 14.9 13.2 12.5 16.3 11.6 11 11.4 10.8 8.2 8.8 9.6 10.3 9.8 9.8 9.4 9.3 9.8 9.8 9.7 9.6 9.5 9.3 8.7 9.1 9.2 8.5 7.5 9.5 10.5 9.9 10.3 10.1 9.7 9.9 9.7 9.9 10.2 10.5 10.5 9.9 9.7 10.6 10.7 10.7 10.7 10.4 10.2 10.4 10.1 10.1 10 10 9.8 8.5 10.2 10.7 10.2 10.4 10.6 10 10.8 10.6 11 10.7 11.4 10.6 11.1 10.9 10.9 11.1 11.3 11.3 11.2 11.6 11.7 11.6 14.6 20.9 18.7 20 22.9 22.9 21 25.4 30.2 50.7 71.6 70 61.7 54.6 51.8 51.6 44.6 30.5 21.7 17 15.3 12.5 12.6 12.8 12.4 12 0.2
106.4 101.5 98.9 90.2 75.4 77.8 80.5 87.3 91.6 95.1 97.2 98.1 100.8 100 79.8 89.3 98.1 97.7 96.8 97.3 97.9 98.1 95.8 95.2 94.2 94.8 92.7 94.9 97.6 97.5 94.8 93.2 94.5 90.6 92.6 96.1 97.7 97.4 100 100.8 103.2 105.1 107.6 106.9 104.2 101.6 96.6 100.3 100.4 97.6 94.7 92.9 93.4 91.3 92.2 92.6 92.5 93.5 94.3 96.2 97.5 96.1 95.2 93.4 94.2 93.8 94.6 97.2 96.5 96.3 96 95.6 94.4 91.7 88.3 81.6 74.5 70.6 69.1 62.8 55.9 48.2 47.9 48.6 48.2 51.2 52.5 62.2 63.5 67 66 63.7 60.2 55 40.1 33 25.4 21.7 19.5 17.5 17.3 13 11.5 11 10.2 9.9 10.8 10.6 11 10.1 9.9 9.8 9.7 9.6 9.6 9.7 8.7 6.6 6.1 5.3 6.3 6.7 5.8 8.2 9.5 10.1 9.9 10.6 10.6 10 10 9.7 10 10.3 10.6 10.6 10.6 9.6 10.6 10.7 10.8 10.8 10.2 9.9 10.1 10.3 10.2 10.1 9.9 9.7 9.6 10 11 11 10.4 10.3 10.5 11.2 10.8 11.3 11.1 11.7 11.2 11.1 11.3 11.2 10.7 10.7 11.2 10.9 11 11.2 12 24.8 27.9 24.2 22.4 23.7 24.2 24.3 23.6 27.4 32.8 55.6 67.5 62.8 55.8 48.1 45.2 41.1 35.4 26.9 18.3 15.5 7.5 12.8 12.4 12.3 12 9.1
106 94.6 87.1 84 87.8 91.1 94.6 97.3 100.5 104.4 108.3 112.3 111.7 106.6 85 98.8 101.2 101.6 101.1 100.5 100.5 100.5 100.9 100.8 101.7 103.5 104.1 104 105.5 106.9 107.9 106.4 106.2 103.3 104.7 106.4 107.7 108.8 110.7 112.5 115.5 116.6 115 113.7 111.1 106.5 105 106.8 106.8 106.7 104.9 104.5 102.5 100.4 102.7 105.5 106.2 106.9 106.3 108.2 108.5 109 106.3 104.2 102.8 101.7 100.3 101.2 99.9 98 96.6 94.4 92.7 87.3 84.5 76.3 67.6 61.8 66.3 71 70.5 70.5 71.9 70 62.3 60.6 70.8 75.7 80 80.9 74.8 70.9 65.2 55.1 44.1 41.7 35 26.2 19.8 17.7 16.4 14.1 12.3 11.4 9.8 10.2 11 10.9 11.1 11.9 10.4 10.2 10.3 9.9 9.8 8.8 7.9 9.5 10 10.5 9.9 9.2 6.4 9.2 9.8 10.3 10.1 11 10.7 10.2 10.2 10.1 9.5 10.5 10.7 10.7 10.4 10.2 10.1 10.4 10.7 10.9 11 10.4 10.3 10.8 10.4 10.5 10.3 10.3 10.6 9.3 10.3 11.6 12.7 14.3 15.6 14.1 11.2 11 10.4 10.4 10.7 11.2 11.1 10.9 10.7 11.1 11.2 11.5 11.9 12.8 17.4 29.5 29 26.7 25 24.5 25 24.4 25.9 25.7 28.3 33.8 63.4 62.1 56.6 49.3 43 37.4 35.2 29.6 20.4 17.1 13.4 13.3 12.9 12.5 12 11.7
102.3 99 105 103.1 101.7 102.3 103.6 107.2 110.6 114.3 118 121 119.2 108.3 94 105.7 108.5 109.4 109.3 111.6 109.7 109 109.1 110.8 112.4 112.5 112.2 114.7 116.9 117.7 122.8 124.3 123.6 119.6 119.7 120.5 119.7 121.9 124 125.9 127.5 127 123.5 121.8 118.4 115.4 112.1 116 117.6 116.6 115 113.4 113.5 111 114.6 116.7 117.5 118.1 118.6 116.9 115.4 116.2 115.3 112.5 110.7 108.3 105.5 104.6 102 99.1 94.1 86.1 79.9 79.9 84.6 94 93.3 87.2 84.8 83.2 87.7 86 80.5 74.5 79.2 79.4 79 82.7 84.5 82.7 78 74.8 65.3 60.4 54.4 43.7 33 28.8 22.4 17 14.4 12.2 12.6 9.7 10.6 11.2 11.5 11.2 10.9 11.1 10.7 10.6 10.7 11.3 10.5 9.3 8.3 10.3 10 10.7 10.4 9.7 7.7 9.3 10.2 10.4 10.4 10.9 10.8 10.7 10.5 10.3 8.8 10.3 10.6 9.7 10.1 10.6 10.4 10.4 10.4 10.9 11 10.8 10.6 10.6 10.3 10.8 10.5 11.4 12.5 12 10.7 11.7 11.5 10.9 10.9 10.4 10.5 10.5 10.4 10.4 10.4 11.2 11.2 13.8 18.9 23.7 28 31.3 32.7 37.4 38.4 32.5 30.3 28.3 26.2 25.8 25.7 25.6 26.1 26 26.3 28 33 44.4 50.5 50.4 44.1 37 31.2 29.4 24 18.6 15.5 7.3 13.1 12.7 11.9 12.4
101.5 111.7 111.8 112.1 112.3 110.9 113.7 114 118.6 120.8 120.2 122.4 114.6 97 104.4 114.1 116.8 118.2 120.4 123.2 123.4 119.7 118.8 120.5 122.3 122.8 124.6 127.8 129.6 131 134.6 135.7 136.3 133 132.3 124.4 132.8 133.9 137.1 138.2 133.9 132 129.5 127.3 124.4 122 122 122.8 124 124.6 122.3 121.3 120.2 121.6 124 125.8 127.2 128.7 126.6 129.8 132.8 130.9 131 126.7 116.4 113.3 111.2 112.4 108.7 103.2 100.8 103.6 108 108.7 106.8 106.3 107.1 102.5 95.9 92.5 91 92.5 93.4 94.5 87.5 82.1 87.4 86.1 86.3 86.1 85.4 77.6 66.3 62.2 52.4 40.9 34.2 29.9 22.6 17.5 15.8 14.9 11.8 11.4 11.5 11.7 12 11.4 11.3 11.4 11.1 11 10.6 8.6 8.9 8.4 4.9 5.8 10 10.4 10.1 9.7 8.1 10.1 10.4 10.3 10.8 10.8 10.7 10.7 10.6 10.7 9.5 10.3 10.6 10.7 10.4 10.6 10 10.3 10 10.8 10.8 10.7 10.1 11 10.6 10.8 10.5 10.5 10.4 9.8 10.4 11.9 10.9 10.8 10.8 10.7 10.9 10.8 10.5 14.7 15.2 18.9 33.9 40.6 37.9 36.2 34.9 33.8 33.8 33.7 34.2 35 30.4 30.4 30.3 28.9 27.4 26.4 26.9 26.1 25.2 26.7 26.1 26.9 30.5 50.1 43.8 40.7 32.8 26.7 24.7 18.3 15.9 12.4 10.4 12.9 12.6 12.2
118.7 118.6 117.9 117.8 118.2 118.4 119 120.3 120.7 121.7 119.6 114.9 107.2 114.2 115.8 121.5 127.4 126.5 127.8 129.9 128.5 128.4 129.1 130.4 132.1 133.9 135.6 139.5 140.8 142.6 143.8 144.4 145.2 144.5 144.1 145.3 146.2 146.9 146.8 141.6 138.6 137.5 135.7 131.8 130.1 129.6 128.8 130.1 130.3 130.3 126 126.8 129 133.2 136.6 144.8 147.7 150.2 150.1 147.4 144.8 140.8 134.8 131.4 131.6 129 130.8 125.5 126 127.9 127.1 125.1 126.4 122.6 119 118.5 122.4 126.6 126.4 117.5 111.6 107.2 102.9 100.6 99.5 98.5 88.8 90.3 92.5 92.4 91.8 80.2 69.3 61.7 54.9 45.9 36.3 30.3 23.1 20.6 18.8 17.2 12.6 11.9 11.7 11.6 11.9 11.8 11.8 11.6 11.3 10.5 9.7 6.1 5.8 5.2 5.9 5.4 9.3 10.5 10.1 8 9.3 10.2 10.6 10.5 10.4 10.5 10.8 11 10.9 10.8 9.5 10.6 10.7 10.7 10.7 10.8 10 10.1 10.2 9.6 10.2 10.5 9.9 10.9 10.6 10.2 10.6 10.5 10.4 9.8 10.1 10.4 11.7 10.8 10.9 11.5 11.2 11.8 25.7 40.2 42.5 42.8 43 41.7 39.3 37.7 35.5 33.2 31.9 30.3 29.8 29.9 29.9 30.5 31.5 31.6 30.5 27.3 26.5 26 25.7 23.9 23.3 23.2 23.5 23.3 33.5 37 29.5 26.4 22.4 18.8 15.5 12.7 11.6 12.7 13 12.4
122.6 122.4 122.9 123 123.1 123.9 124.7 123.9 123.7 124.5 124.7 123.6 113.7 122 124.9 124.3 129 132.3 133.8 134.8 136 138.4 139.4 140.5 142 142.3 146.3 149.7 150.7 152.1 152.9 152.7 152.9 152.5 152.2 152.4 152.4 150.9 151.4 154.5 159.9 158.9 152.3 143.8 136.9 137.6 135.9 136.4 138.7 136.6 143.7 147.8 147.2 148.3 146.4 150.4 154.9 158.7 158.4 157 153.2 149.1 144.9 143.3 142.3 135.2 136.9 146.8 152.1 150.5 142.5 137.3 138.3 138.6 137.9 140.1 140 140.7 141.4 132.6 131.4 131.6 120.7 116.6 106.3 98.6 97.1 97.2 98.5 97 95.7 84.4 73 63.1 53.8 47.1 38.2 30 25.7 23.4 21.2 19.1 15 12.4 12.2 12.2 11.9 12 11.9 11.6 11.2 10.9 9.1 8.1 10.1 10.2 9.2 6.5 9.7 10.5 8.4 8.6 9.8 10.3 10.8 10.7 10.5 10.4 10.7 11 11 10.8 10.6 10.5 10.6 10.7 10.7 10.3 10.8 10.5 10.2 10.8 9.8 10.6 10 10.9 10.6 10.3 10.7 10.4 10.2 10 10.7 11.3 12.4 11 10.9 11.2 11.8 29.1 40.5 45.4 45.6 45.5 44 42.5 40.8 39.3 37.6 35.4 33.1 31 30 29.9 31.9 32.8 30.2 30.3 29.5 26.7 25.6 25.7 23.4 23.9 24.1 23.4 22.3 21.3 21.9 24.8 28.4 27.5 22.9 18.8 16.1 13.4 11.2 10.1 12.9 12.7
127.4 127.5 127.7 127.1 128.8 130.5 129.7 129.2 128.3 128.2 129.5 129.5 127 125.3 130.1 130.7 136.9 139.8 141.3 144.2 144 148 149.9 150.9 152 153.7 157.2 159.8 158.8 158 157 154.8 154.6 154.3 153.7 153.6 151.9 149.9 150.9 150.3 148.4 144.9 145.3 146.9 147.7 149.5 151.5 158.9 165.7 171.5 170 166.5 163.3 162 162.3 162.6 165.1 165.2 163.9 163.3 160.2 155.4 154.3 143.9 140 146.2 156.4 161.7 160.2 156.8 159.2 161.1 161.2 155.7 156.7 160.8 160.6 157.1 153.8 145.8 135 133.1 127.1 122.5 112.8 106.6 100 101.3 100.9 100.6 94.8 86.5 74 65.9 61.1 53.8 44.1 36.3 29.9 26.8 22.8 19.3 16.3 14 12.5 12.5 11.9 12 11.9 11.6 11.3 10.6 7.1 7.2 10.5 11.2 11.1 11 11.1 10.8 9.7 8.3 10.3 10.5 11 10.9 10.6 10.3 10.6 10.9 11.1 10.9 10.5 10.2 10.2 10.7 10.7 11.8 10.7 10.6 10.3 11 10.6 10.8 10.1 10.2 10.6 10.6 10.8 10.4 10.2 10.6 10.5 11.4 12.5 11 11.4 11.2 29.7 46.1 45.9 45.2 47.9 48.6 47.7 46.6 43.8 41.4 39.9 38.3 36.1 33.5 31.4 29.3 29.5 28.6 27.2 27.8 29.3 27.3 25.2 26.4 25.5 26.4 26.3 26.9 25 24.4 21.4 20.2 21.3 25.6 20.9 18 15.6 13.8 11.1 10.4 10.9 13
135.2 133.6 136.8 135.5 134.2 134.7 137.8 136.8 135.9 137.6 139 139.6 139 134.6 141.6 143.6 145.4 148.7 150.8 153.6 155.8 159.9 160.6 161.6 162.2 162.9 163.3 161.4 159.7 158 156.9 155.5 155.4 156.5 157.1 155.1 153.9 151.9 148.1 156.2 155.9 162.3 168.4 172.4 172.4 170.8 172.4 175.1 177.8 182.1 183.2 181.1 176.4 170.2 170.8 173.2 170.4 167.3 164.9 157.3 153.3 146.7 153.2 157.2 162.6 160.8 166.5 168.1 169.2 171.9 171.2 176.5 177.6 179.2 176.1 171.8 168.3 163.2 156.5 149.7 138.1 129.8 127.5 124.3 115.3 107.3 104.9 109.7 104.6 98.3 92 84.2 84.2 75.9 70 62.7 54.3 45.2 35.6 30.4 25 21.3 18.6 16.9 14.1 11.7 11.5 11.3 11.4 11.6 11.5 11.1 10.7 7.9 8.4 10.8 11.4 10.8 11.1 11 10.2 8.6 10.6 10.9 11.1 11 10.7 10.4 10.5 10.8 11.1 10.9 10.4 9.8 10.3 10.1 10.5 10.4 10.9 10.9 10.4 10.4 10.9 10.8 11 10.9 10.7 10.4 10.8 10.6 10.7 10.9 10.8 11.2 11.5 11.9 11.2 11.7 25.6 53 53.7 49.6 50 51 51.7 51.5 50 48.1 45.6 42.9 39.3 36.4 34.1 30.3 29.3 28.3 29.9 26.5 27.9 28.2 27.7 27.8 27 26.9 28 26.7 25.3 24.3 21.5 20.6 21.1 20.1 20.2 18.3 18.1 15.2 11.5 10.9 10.4 12.7
144.6 142 144 143.1 141.4 144.6 144.8 148.5 147.4 147.8 147.8 148.7 150 143.9 150 153.9 155.3 157.4 160.2 164.8 166 169.2 169.8 170.8 169.3 167.7 165.1 162.6 162.7 161.6 161.1 160.8 160.8 161.8 161.6 166.7 162.4 167.2 174.4 181.6 184 185.9 186.9 186.4 183.1 179.9 180.7 183.8 186.1 187.5 188.3 185.9 179.7 175.7 175.9 171.7 167.9 160.2 155.3 153.5 160.3 176.9 174 170.2 167.2 167 173.3 177.1 180.9 192.6 194.2 195.4 193.4 190.8 185.5 177.5 169.6 161.7 153.6 148.2 144.1 135.3 125.3 124 119.3 118.5 112.2 106.8 104 100.1 95.2 89.9 91.2 82.6 72.8 64.2 55.2 47.4 38.9 35.2 28.5 23.7 20.4 19.2 16.7 12.5 11.4 11.6 11.6 11.1 10.9 8.7 9.2 7.7 7.3 9.3 10.6 11 11.3 11.2 10.7 7.2 10.5 10.6 10.5 11.1 11.1 10.8 11 10.9 10.6 10.7 10.2 9.9 10.2 10.3 10.6 10.3 10.8 11.1 11.2 11.2 11.3 11.4 11.3 11.2 11.1 11.3 10.4 11.1 10.7 10.7 11 11.6 11.2 12.4 11.3 11.9 13.5 29 59.2 57.6 55.2 55.1 54.8 54.5 53.8 52.1 50.1 47.3 43.8 39.3 36.4 32 30.6 29.9 30.9 28.9 27.8 28.1 30.2 29.3 29 29.9 31.8 28.4 26.1 24.5 21.9 23.4 23.2 22.9 20.4 19.3 20.4 13.9 11.9 11.8 10.8 12.1
149.9 149.4 150.3 149.7 151.4 153.1 155.3 157.6 157.7 158.5 157.8 158.5 160.9 160.8 155.5 165.4 164.7 168.7 171.9 174.1 174.9 175.1 175.5 174.6 175 173.8 170.7 169.1 168.4 173.5 169.4 170.4 174.1 178.8 189.3 198 204.8 199.9 201.1 198.5 195.6 195.6 192.7 189.9 192.1 189.6 190.3 190.8 193.3 193.7 187 183.5 176.3 172.3 169.3 166.5 168.3 180.2 179.1 176.2 180 180.2 176.1 176.3 176.9 179.9 180.4 192.4 205.5 206.9 207.4 203.2 196.8 193.2 183.8 176 168.2 159.1 156.5 148.4 141.3 136.5 131 127.8 124 118.8 116.9 109 105.2 100.8 94.4 95.5 92.2 85.2 74.8 67 57.4 49.6 41.7 39 33.1 26.7 21.1 19.1 18.5 14.4 11.9 12.2 12 10.7 9.9 10.3 7 8.9 7.7 10.9 10.6 11.1 11.6 10.3 10.1 7.8 9.4 9.2 10.3 11.1 11.2 10.9 10.9 11.1 10.8 10.5 10.2 10.1 10.1 10.6 10.5 10.5 11.1 11.2 11.2 11.2 11.6 11.5 11.8 10.8 11.4 11.5 11.4 11 10.7 10.7 11.1 11.3 11.3 13.2 11.9 12.4 14.6 16.2 43 62.6 60.5 58.8 57.7 57.4 57 55.7 53.3 50.7 48.5 44.8 39.4 35.2 31.8 30.9 32.4 33.2 32.9 30.3 32.4 32.6 33.9 31.8 33.3 28.6 25.1 23.4 22.9 24.3 25.3 24.5 21.3 19.9 20.2 16.4 12.3 12.2 11.1 11.7
157 156.6 158.4 161.6 162.3 164.8 164.1 166.6 169 168.8 170.2 169.3 171.1 173.6 150.1 174.6 172.3 178.3 185.1 186.5 185.5 184 181.1 182.5 174.7 176.2 178.5 183.5 191 194.8 210.8 216.5 219.4 219.1 214.3 211.8 210.8 207.8 206.1 207.1 206 204.4 201.6 200.7 198.1 195.6 196.3 196.2 206.1 199.6 194.1 179.4 175.8 173.8 180.9 188.9 186.2 182.4 181.1 186.6 188.7 189 190.4 187.5 190.9 186.1 192.2 207.9 211 212.3 212.6 206.3 199.4 190.3 182.1 176.6 171.6 165.3 155.8 146.3 142.5 142.5 135.5 130.6 123 117.9 119.1 109.2 105.7 101.1 95.7 95.2 92.2 87 77.8 68.1 59.2 52 44.6 38.5 36.1 30 25.3 17.9 16.9 13.4 12.5 11.8 10.4 10.1 7.7 8.5 11.4 11.1 11.4 12.1 11.7 11.3 10.9 10.6 11.3 10 10.6 8.5 10.9 11.3 11.3 11 11.2 11.3 11.1 10.8 10.8 10.8 10.7 10.6 10.5 10.5 10.5 11.2 11.2 11.2 11.7 11.5 11.8 11.2 11.6 11.6 11.6 11.5 11.1 10.8 11.1 11.1 11.5 12.2 13.6 15.4 16.6 16.8 27.1 55.1 65 62.9 60.7 58.8 58.4 57.6 56.4 54.2 51.9 48.5 42.1 37.6 34.9 31.8 33.5 34.4 34.8 29.9 33.2 33.9 34.3 33.5 31.8 30.4 27.3 24.6 23.9 25.2 25.2 23.1 20.6 21.6 20.2 17.5 15.9 12.2 12 12.2
165.3 167.7 172.3 173.5 175.4 175.1 177.2 176.5 178.3 180 180.9 181.7 179.4 183.9 175.8 177.8 183 199.6 198 193.4 190.4 194.7 196.9 198.5 201 208.5 215.6 227.4 233.9 233.3 235.4 238.2 236.6 235.8 236.1 233.1 227.6 223.3 219.8 214.1 210.1 205.7 205.5 205.2 204.1 204.1 203.8 206.3 208.1 200.2 205.6 214 205.3 197.7 196.3 190.3 185.1 187.4 188.9 193.6 197.4 198.9 197.4 195.1 192.5 189.2 197.6 205.5 209.9 214.1 212.4 206.9 200 188 183.7 179.9 174.5 170.3 162.5 161.4 151.2 143.7 139.4 132.1 125.6 121.3 112 107.5 104.7 102.1 96.4 94.6 93.4 85.2 77.5 67 59.4 48.8 41.4 36.6 34.7 31.7 24 20.5 17.9 12.1 11.3 11.2 9.6 10.1 8.2 7.7 9.2 11.2 12.4 13 11.7 11.3 11.2 11 11.2 11.4 11.1 7.9 11.3 11.2 11.3 11.2 11.5 11.1 11 11.2 11.1 11 11 10.7 10.7 12.8 14.4 14.8 11.8 11.9 11.8 11.7 11.9 11.2 11.6 11.7 11.8 11.4 11.5 11.4 11.9 11.5 11.9 12.3 14.6 15.9 17.4 19.3 25.3 32.4 58.3 65.5 63.6 62.8 60.6 59.4 59.7 57.1 54.5 49.9 46.2 41.5 38.2 35 34.6 34.5 34.6 34.8 34.7 34.2 34.8 32.1 31.7 33.2 28.8 25.6 25.1 23.3 23.6 24.4 21.3 21.3 19.1 16.6 16.2 13.8 9.5 11.8
176.6 177.3 180.9 182.8 183.5 185.4 187 188.9 189 190.3 192.2 192 191.5 190.5 184.8 192.3 198.3 205.1 212.5 214.1 215.6 217.6 217.6 226.4 244.9 245.1 246 250.3 248.5 251.3 253.5 252.6 248.9 244.1 239.8 234.5 232.8 229 226.5 222.5 218.9 214.7 211.9 211.2 210.8 209.6 210.4 208.6 206.7 224.3 225.9 226.5 222.6 215.6 208.6 199.9 189.3 189.1 194.4 201.4 205.5 204.2 202.1 207.7 209.2 200.5 193.9 201.6 203.4 207.9 207.5 203.3 195.8 188.3 186.1 180.8 180.3 179.2 178.4 169 160.9 155 146.5 139 129 124.6 122.8 117.3 107.7 101 101.5 100.9 94 87.7 78.4 68.5 56.4 47.7 40.4 35.5 31.9 29.7 25.3 23 18.1 11.8 11 10.1 10.2 10.3 10.1 9.9 8.7 10.6 11.8 12.8 12 11.8 11.7 11.5 11.3 11.5 11.6 10.3 10.6 11.1 11.4 11.7 11.3 10.9 10.6 11 10.9 11.7 17 23.7 28.8 31 30.3 28.8 26.9 23.7 19.5 14.4 11.9 11.8 11.9 11.9 11.8 11.4 11.5 11.5 12.9 13.8 13.9 15.9 15.6 17.5 18.6 23.1 29.2 33 35.1 39.4 54.2 64.6 63.1 60.5 60.4 57.7 53.7 51.4 50.1 44.5 40.4 35.3 35.5 34.7 34.8 35 34.6 34.5 33.2 31.2 31.3 32.3 30 26.1 25.1 23.7 25.6 25.9 23.5 20.6 18.1 15.8 12.5 11.8 11.4 10.7
184.2 187 189.5 190.2 193.7 196.4 198.9 200.3 201.2 201.4 201.5 201.2 200.6 205.4 216.4 222.4 233.6 244.7 250.9 258.1 264.2 269.6 274.3 271.6 273.4 271.6 269.5 264.5 265.8 263 259.9 255 249.7 245.2 241.4 236.9 232.5 225.8 223.7 222 219.7 218.2 215 213.5 211.3 210.2 219.1 220.2 230.4 229.9 231.9 233.4 231.4 223.3 215.3 201.9 194.3 197.9 201.9 203.5 204.3 206.2 212.8 213.8 217.4 211 195.9 194.2 199.2 198 202.2 198.1 191.7 185.8 185.4 178.7 186.6 187 178.9 170.7 162.4 153.6 145 139.2 133 132 137.4 138.3 126.4 108.9 103.6 105.2 98.2 85.1 77.5 68.7 57.3 47.8 40.9 35.8 30.5 23.3 21.2 19.4 16.9 11.5 11.1 10.4 10.2 11.4 9 9.3 9.3 11.6 11.5 11.9 12.7 12.3 12.2 11.9 11.7 11.7 10.7 10 11.4 11.2 11.3 11.4 11.6 10.9 16.2 21.2 26.2 30.6 34.5 36.9 34.1 32.2 30.9 29.5 28.7 26.7 23.5 17.9 12.1 12.1 12.5 12.4 12.3 12 11.6 12.4 13 15.8 16.4 17.8 18 17.3 22.4 27.5 31.4 33.3 35 35.6 36.2 40.4 54.1 62.2 60.5 58.6 56.9 53 49.5 46.1 41.2 37.4 35.8 35.3 34.9 35.1 34.6 34.2 33 32.3 32.6 31.4 32.7 28.8 26.1 26 26.3 23.4 21.8 18 15.1 13.1 12.8 12 11.7 12.1
193.8 199.2 200.9 202.6 205.3 209.5 211.5 212.3 213.2 220.1 234.1 236.2 239.5 239.9 242.7 250.1 254.7 266.1 276.6 287.4 292.9 293.3 291.1 287.4 284.9 281.1 276.2 272.5 269.6 266.3 262.9 257.7 253.2 248 242.3 240.2 236.3 233.4 231.3 227 223.8 220.1 217.2 221 227 234.8 236.9 235.7 234.1 234.9 233.7 238.1 228.7 223.8 219.3 207.1 206 204.1 205.6 213.5 214.5 213.4 214 214.3 213.9 213.7 208 201.3 197.2 187.1 189 191.8 191 184 185.2 179.7 188.2 184.5 176.2 167.8 160.2 151.1 148.3 149.1 138.7 139.1 142.6 137.9 131 122.4 111.7 104.4 96.5 86.4 74 67.8 58.3 49.6 44.7 37.6 28.5 25 25 16.7 13.1 11.6 11.2 10.8 10.8 10.9 8.8 11.6 12.2 11.5 11.5 11.4 11.9 12.7 12.7 12.4 12.2 11.7 10.6 10 10.8 11 11.4 11.2 12.8 24.4 33.4 39.3 43.5 42.9 41.7 39.6 35.4 32.5 30.9 29.2 28.3 27.5 24.7 21.4 15.1 12.7 12.8 12.8 12.4 12.2 12.4 13.2 14.3 16.4 17.7 17.8 18 18.1 25.7 29.3 33.7 34.5 35.7 35.5 35.8 36.7 37.1 40.1 52.2 55.8 55.7 52.9 49.9 46 42 39.4 36.7 35.7 35.4 35.2 34.8 34.4 34.3 33.5 34.6 35.2 35.4 30.1 28 27.2 26.7 26.6 23.1 17.9 17 13.4 13.1 12.6 12.1 12.5
208.5 211.8 214.9 216.7 219.7 223.4 230.6 242.2 258.6 266.1 271.7 271.9 271.1 269.9 268.5 270.9 276 282.4 293 298.7 300.4 299.2 296.5 292.7 288.7 283.7 279.9 277 273.4 270.1 266.3 263.1 256.3 250 247.3 242.2 241.2 235 229.4 228.4 235.1 244.4 245.8 245.7 242.9 238.8 240.9 235.9 241.8 245.3 235.2 232.2 226.7 221.1 217.7 217.4 217.6 213.2 218.9 217.4 215.1 218 218.8 214.2 212.8 211.6 199.2 200.3 205.5 191.8 184 183.7 183.8 178.6 187 184.5 187.6 182.8 174.2 170.4 168.4 162.8 157.1 149.1 141.7 143.2 144.7 136.4 130.3 121.8 114.2 104 95.9 87.4 75.8 66.2 60.4 52.9 46.1 36.9 30.5 32.1 29.8 24.5 16.3 13.2 12.3 11.4 11 10.9 10.6 12 12.3 12.3 12 11.9 11.5 11.4 12.1 12.1 11.6 11.6 11.4 10.1 9.4 10.4 10.9 12.8 28 36 42.3 44.7 44.8 43.9 42.1 39.4 34.7 31.9 30.9 28.9 28 27.5 25.2 22.1 19.4 16.2 13.4 12.7 12.5 12.6 13.8 16.6 16.9 17.3 18.5 18.4 20.5 22.4 23.8 34.8 35.1 34.5 33.7 34.3 36.3 36.7 37.4 37.9 38.3 41 48.3 51.8 52.1 45.6 44.6 40.8 37.3 36.3 36.7 36.4 35.2 35.1 35.2 34.6 35.3 35.7 35.1 31.8 29 28.2 26.8 27.7 29 27.1 19.9 13.9 13.3 12.8 11.9 12.9
225.3 228.6 230.7 245.9 250.2 261.9 270.8 277.7 288.9 293.5 291.6 287.9 282.6 278.3 275.6 280.4 283.7 292.1 298.7 303 303.4 302 299.4 297.3 294.1 289.5 285 281.1 277 273.2 270.7 266.9 258.6 253.8 249.1 247.7 246.4 245.7 251.4 257.4 257.3 253.6 252.2 254.4 251 250.1 244.7 235.2 247.4 244.9 241.7 237.6 240.1 235.6 225.3 225.3 223.9 221.3 220.2 217.5 219.3 222.3 223.4 224 221.2 215.5 205.9 197.9 197.6 193.4 190.3 179.7 174.8 174.2 182.3 181.2 186 185.4 174.5 175.6 173.6 166.8 159.3 151 145 146.8 141.9 136.5 129.7 120.9 112.7 105 97 88.1 77.9 67 60 54.4 45.7 40.3 38.9 35.3 32.7 28 20.6 14.1 13.3 12.4 11.6 11.1 11.2 12.1 12 12.1 12.4 12.4 12.1 11.7 11.1 11.1 11.1 11.2 11.2 10.2 9.9 11.3 12.3 14.7 23.9 32.4 37.8 41.9 44 43.7 40.8 37.1 33.2 30.3 30 28.2 27.6 27.2 25.2 22.1 19.3 15.8 13.4 13.5 13.1 14.2 15.7 15.4 17.1 17.5 18.8 19 21.1 24.4 21.5 31.8 32.6 32.4 31.6 33 36 35.8 37.9 37.7 35.3 35.9 36.6 38.7 43.4 49.2 44.5 42.3 40.9 37.1 36.4 36.1 35.6 36 35.3 35.3 35.6 34.9 35.5 32.6 29.7 27.7 28 28.3 29.7 29.7 23.9 14.7 13.8 13.1 12.5 12.5
251.6 262.1 266.8 274 280.7 287.8 290.6 293.5 295.1 293.8 290.6 287.9 286.9 284.9 284.7 284.6 288.9 295.4 302.1 308.3 311.9 306.3 303.9 308.4 302 293.4 287.8 283.9 279.6 279.3 277.4 280.6 282.9 279 277.7 275 270.2 266 264.3 264.8 264.5 262.6 265.4 262.4 258.5 255.1 250.2 249.4 251 249.7 262.2 252.4 245.6 244.6 229.1 226.9 224.7 230 224.4 219.1 225.2 225.3 226 227.1 226 220.1 207.8 196.8 195.9 194.4 189.8 185.3 175.9 170.3 172.8 173.4 176.2 180.6 173.7 176.8 173.6 168 160.4 150.1 144.7 145.1 143.7 137.6 131 122 112.6 104.4 96.7 88.1 78.1 67.8 60.4 48.4 43.9 45.7 44.7 40.1 32.8 26.9 19.6 15.3 14.3 13.4 12.6 11.8 11.2 12 11.9 12.1 12 12.5 12.7 12.2 11.5 11.6 11.9 12 11.8 10.6 10.4 12.1 12.2 13.7 19.5 28.5 34.3 37.9 38 37.4 35.5 35.9 31.8 29 28.1 26.8 27.4 26.3 25.6 22.3 18.2 14.8 14.9 15.9 13.8 14.7 15.7 15.2 17.3 18.6 18.4 20 22.7 25 27 26.7 31 31.1 32 34.1 36.7 37.6 39.1 35.8 34.3 34.3 34.3 35.9 37 38.4 45.4 44.6 43.4 38.7 36.3 36.3 37 36.6 35.7 36 35.4 35.1 34.1 32.3 30.7 27.8 28.7 29.7 31.6 30.9 23.8 15.9 14.3 13 12.5 12.5
283.3 292.1 293.9 300.1 301.8 301.4 299.5 298.3 296.4 294.8 293.5 291 289.4 292.9 289.7 294.9 294 303.7 314.7 320.7 323.5 323.2 320.6 315 315.4 315.5 313 309.6 304.6 299.5 291.6 290.1 289.1 285.6 285.2 282 280.5 276.6 279.3 275 273.2 269.5 271.3 268 264.5 255.7 251.2 250.6 255 265.2 264.2 254.4 245.7 241.8 231.8 227 224.1 226.9 229.2 224 224.9 225.9 229.8 230.2 225.7 217.9 209.6 200.2 194.5 196.8 197.2 192.5 186.1 177.7 167 170.1 167.6 174.7 167.7 177 173.3 165.5 156.4 148.6 148.1 145.3 143.9 138.2 132 121.5 111.5 103.2 95 88.6 76.7 66.2 56.8 43.9 50.3 51.7 47.2 39.6 32.2 26.3 18.7 17 15.9 14 13.2 12.3 11.9 11.8 12.1 12.6 12.5 12.4 13 12.7 11.9 11.3 12 11 11.2 9.5 11.7 12.5 12.6 12.5 15 26.5 31.9 34.3 33.4 32.4 30.9 32.6 31.7 28.9 27.4 25.8 24.3 24.6 23.5 19.2 17.1 15.8 15.9 16 14 14.9 14.1 15.4 17 18.4 20.1 23.3 24.9 25.4 28.2 25.7 30.2 31.2 32.2 34.9 35.4 37.6 38.7 36.4 34.5 33.5 34.7 37 37.2 36.2 37 40.5 44.6 39.7 36.7 36.6 36.4 36.1 36.3 36 36.1 35.4 34.1 32.6 30.7 31.5 30.8 31.9 32.6 34.3 30.7 21.2 14.2 12.5 12.4 12.7
298.3 302.9 304.1 305.8 307.2 305.2 303 301.4 297.7 295.7 294.8 297.3 299.4 304.7 303.1 308.1 312.3 316.1 320.2 325.7 333.2 337.5 329.9 323 320.8 317 314 311 306.2 303.8 306.9 304.1 307.4 302.4 296.9 293 290.5 287.6 281.6 277.8 283.7 278.5 272.1 266.9 259.5 255.8 252.8 268.7 274 265.7 260.7 259.2 248.8 244.5 233.6 227.7 224.6 225.8 224.7 224.6 225.1 223.7 229.3 228.2 220.6 211.8 203.4 201.4 199.3 196.3 199 197.9 194.6 190.2 175.8 163.5 161.4 161.1 163.5 168.1 168.8 160.9 152.2 149.5 148.7 144.5 142.9 137.8 130.8 118.8 109.1 101.4 94.7 89.3 77.7 65.3 50.5 51.4 58.6 52.6 47.6 40.4 32.9 27.5 21.7 18.4 17.5 14.8 13.4 12.8 12.2 11.9 12.5 12.9 12.9 12.7 13 12.9 12.4 11.6 11.2 11.6 11.1 11.9 12.6 12.6 13 12.9 13.1 20.4 29 31.8 30.7 29 30.4 30.2 31.4 31 29.7 28.5 27.4 26.4 25.1 23.9 21.9 18.7 17.1 15.2 14.6 16.4 15.9 16.3 17.5 18.5 22.4 23.4 24.3 27.2 29.5 30.6 29.6 32.3 35.6 36.1 35.2 36.1 36.9 36 34.3 33.8 36.4 37.3 37.5 37.5 37.4 36.5 36.9 37.5 36.9 36.6 35.9 36.2 35.5 35.6 36.8 36.2 34.1 32.2 32.6 32.1 33 33.8 34.8 35 33.2 23.3 13.5 12.9 12.5 13.6
305.2 305.7 306.6 307.5 313.4 314.9 317.6 319.2 318.5 313.9 311.4 314.5 314.7 321.4 322 323.2 328.3 330.8 335.2 337.5 338.2 341.1 339.5 337.2 333.9 329 325.8 323.8 319.6 317.9 313.4 309.4 305.1 299.6 296.9 298.9 297.1 293.4 288.5 284.4 281 274.3 268.9 265.9 260.2 268.5 272.8 277.6 273.1 269.4 270.2 263.7 256.6 248.5 240.9 231.8 226.9 224.6 225.5 225.1 223.2 220.2 224.8 220.7 213.7 207.1 207.1 200.6 199.7 198.5 196.3 197.9 192.4 184.4 177.4 166.3 153.8 148.7 152.6 157.2 163.1 156.2 147.8 147.9 146.2 140.1 134.8 134.8 131.4 117 104.9 98.8 91.2 83.8 75 58.1 52.6 66.3 61.9 55.5 48.8 41.2 35.2 30.3 24.4 19.3 17.1 15.1 14.2 13.2 12 12.1 12.7 12.7 13.2 13.1 12.7 11.9 11.6 11.4 12.2 11.5 11.3 12.6 12.7 12.5 12.7 12.8 12.9 17.2 24.8 28.1 28.4 29.1 30.9 30.8 32.4 33.7 34 34.3 33.9 32.4 31.3 29.9 26.3 22.6 19.1 18 16.6 16.6 18 19.1 19.3 20.3 20.4 24.2 28.3 29.2 31.6 33 28.9 36.7 36.5 36.5 37.5 36.4 34.9 34 33.6 34.5 36.1 37.2 36.7 37 37.4 37.6 37.3 38.1 37.1 36.8 35.3 34.7 34.3 34.7 35.8 34.9 33.2 33.8 35.4 34.2 34.5 35.7 35.4 36.3 35.7 31.2 13.9 12.9 12.4 13.2
308.7 317.9 323.1 330.8 333.3 336.3 337.9 341.3 338.5 333.2 331.2 328.2 326.7 330.5 331.5 332.9 336.9 338.5 339.7 342.8 342.5 343.8 343.8 342.3 339.8 335.8 332.5 327.8 323.8 323.6 319 319.1 314.8 311.7 307.8 301.7 295.3 294.2 293.3 287.2 275.8 272.9 268.3 269.5 282.1 283.6 281 279.6 277.1 274.5 273.9 256.9 251.6 237.8 234.5 228.8 226.1 228.5 224.8 224.2 220.6 221.4 219.6 216 215.7 210.5 208.7 203.2 200.9 199.5 198.9 196 189.9 184.2 176.9 174.9 166.4 157.9 145.7 144.3 152.3 151.6 142.4 143.9 141.9 138.3 130.2 125.6 125.5 118.8 99.4 89.3 82.2 72.3 60.7 56.5 71 69.4 63.4 56.1 48.5 42 37.5 32 26.3 20.9 17.2 16 14.7 13.8 12.1 12.3 12.7 12.6 12.4 13.2 12.6 11.9 11.5 11.4 11.3 10.7 11.2 12.6 12.6 12.4 12.1 12.7 13.2 14.6 21.4 24.1 26.3 28.7 31.3 32.1 33.3 35.7 39.7 42.6 41.4 40 38.3 36.6 34.4 30.4 27.8 21.9 21.1 20.5 20.7 21.4 23.1 24.2 22.2 26.9 31.9 30.3 33.1 35.2 36.3 30.6 34.3 34.8 36.1 34.7 33.4 33 32.6 32.8 34.6 36.1 37.3 37.6 37.9 37.7 41.9 42.9 40.4 39 35.7 34.7 34.2 33.9 33.5 34.1 34.9 36.3 34.6 34.2 35.1 36.7 36.3 36.1 36.5 30.4 13.7 12.4 12.7 12.8
328.5 332.6 337.3 342.2 347.8 348.3 347.2 346.8 345.4 343.3 339.9 336.4 333.9 335.5 337.9 339.5 343.5 344.9 344.3 343.8 344.6 344.6 345.2 347.4 344.3 341.2 337.1 329.7 330.5 328.9 328.8 321.6 320.9 315.8 311.5 309.1 301.5 297.6 292.4 283.8 277.9 274.8 289.8 293.4 289.2 281.4 280.6 281.5 279.1 278 272.4 257.5 245.4 235.7 235.5 233.7 233.3 229.7 224.8 221.3 224 221.7 215.4 217.7 212.9 215.4 211.8 204 201.2 200.4 201.5 195.8 186.6 178.5 174.1 171.7 165.1 156.8 150.3 141.9 129.6 139.8 138.1 134.1 128.9 125.3 117.8 106.6 105.9 112.6 92.4 79.3 74.3 72.9 77.3 75.6 75.7 70.8 65.2 58.9 48.8 43.5 39.3 33.1 27.6 26.4 18.3 19.1 17.3 13.8 12.7 12.6 12.6 12.8 12.8 13.4 13.3 12.6 11.6 11.7 12.5 12.3 11 10.9 12.5 12.5 12.3 12.8 12.7 13.8 17.5 23.2 28.5 31.1 34.2 34.9 37.9 40.1 46.1 47.8 50.8 52.3 49 45.1 42.3 41.6 37.5 33 28.3 26.6 31.6 26.6 29.6 29.7 27.9 26.8 27.7 32.5 32.5 36.4 35.1 31.3 32.9 34.2 33.9 34 34 33.3 33 32.7 32.4 34.6 36.3 37.2 37.4 39.9 45.2 49.3 48.4 45.2 38.2 35.3 33.6 34.1 35.2 38.6 37.2 37.7 36.4 36.4 35.1 37.4 38.1 37 35.8 28.7 15.4 13 12.8 12.4
344 345.9 349.2 353 353.9 354.4 355.9 355.2 352.8 351.4 354 352.9 350 347.3 347.1 349.4 350.3 351.7 351.3 348.8 345.7 346.4 346.8 349.1 347.3 344.4 340.9 342.1 336.9 335.3 331.1 328.9 324.6 320.7 318.5 318.7 316.8 307.2 295.9 289.6 295.6 301.6 298.8 292.3 283.8 281.9 286.5 283.2 280.8 276 260.5 253.4 244.2 237.1 234.9 235.6 233.5 230.7 230.8 228.2 227.1 221.2 217.4 214.7 214 213.3 209.8 204.6 197.9 196.2 201.7 193.9 183.9 176.9 172.7 169.6 162 160.4 158.8 153.1 144.4 142.4 136.6 131 128.6 124.4 116.4 122.2 103.8 94.8 93.7 96.7 93 87.7 88.4 81.7 77.9 72.7 66.7 59.5 52.1 46.4 40.9 35.6 32.1 30.1 20.2 29 26.5 22.1 19.1 16.5 14 12.8 14.2 14.3 13.7 12.4 11.5 11.6 12.3 12.6 12.8 12.5 11.5 11.3 12.3 12.1 12.4 14.1 18.5 24.2 29.7 33 37.5 41.2 44.4 46.1 48.3 52.6 55.9 55.6 54.1 51.7 48.2 46.8 45.7 44.4 39.4 36.1 33.4 32.8 33.4 34.9 34.5 34.5 35.1 33.9 32.8 34.4 33.5 31.6 32.9 33.8 34.1 35.6 36.3 35 35.3 34.4 32.8 34.2 34.7 34.7 36.2 40.6 41.8 42.6 46.6 49.1 40.6 34.2 32.8 34 37.7 39 39 38.6 38.5 37.1 35.8 36.4 37.9 38 37 34.7 16.3 13.5 12.4 13.1
354 354.6 355.8 357.3 361.1 362.8 365.6 370.9 371.6 369.5 366.6 363.5 359.7 359 360.5 362.4 360.2 356.6 352.6 349.8 347.8 347.9 348.8 352.3 350.4 350.2 347.4 346.7 343.6 339.5 337.2 333.9 333.4 333.8 336.3 335.8 333 328.1 318.6 309.7 316.1 310 299.9 288.5 285.1 285.3 289.5 286.5 279.2 264.1 256.4 250.1 240.2 238.5 236.5 233.3 239.9 236.8 233.1 231.8 222.5 219.7 216.8 216.9 211.4 208.7 208.3 202.8 195 194 198 190.9 181.5 176.1 173.2 168.9 162 161.4 159.8 151.8 153.8 145.2 144.8 147.8 150.3 147 144.4 140.3 128.2 110.4 108.3 107.1 108.5 101.9 94.4 88.4 79.3 73.5 66.9 59.3 53.6 48.6 42.2 39.4 34.9 31.4 24 35.8 36.6 32.3 29.1 25.6 23.2 22.3 23.1 23.8 22.8 18.3 14.8 12.9 12.4 12.8 12.9 12.1 11.6 11.7 11.9 12 12.7 14.3 20.2 25.8 31.9 38.5 46.4 50.8 53.5 54.2 55.7 56.6 54.7 52.9 52 54.7 54.6 53 51.3 51.7 49.8 48.3 43 40.2 39.7 39.5 39.6 39.4 39 37.7 33.1 30.9 30.6 31 33.4 33.9 35.6 37.2 38.7 38.3 36.1 35.6 34.2 33.8 35.6 36.8 35.5 40.7 41.5 42.7 43.1 42.5 40.9 34.5 31.8 33.2 34.2 36.1 39 38.6 38.4 36.3 35.3 35.6 38.1 37.5 37.1 32.4 18.1 14.8 12.7 12.6
356.9 359.1 362.2 363.9 368.1 378.5 379.2 375.6 372.4 370.8 367.7 364.2 362.6 361.6 368.2 372.3 370.1 369.8 361.4 351.8 350.6 350.3 350.3 352.2 352 351.5 355.3 355.7 354.3 352.7 350.6 346.4 344.4 343.4 342.1 343.5 341.4 333 318.2 314.8 309.6 305.4 298.9 291.6 287.7 289.4 288.8 283.3 271 256.5 252.2 245.8 238.6 238.4 238.1 243.4 238.7 237.9 233.8 226.1 223.7 220.3 220.3 216.8 218.2 213.3 206.8 203.1 195.8 191.6 194.6 189.3 182.3 177.9 175.8 174.7 170 163.1 157.2 160.7 155.8 149.9 150.3 155.8 158 154.7 148 142.5 139 130.4 114.9 112.3 112 105.4 97.5 91.8 84 75.4 68.3 62.1 57.4 50.5 43.9 41.7 38.3 32 29.7 39.1 38.6 39.1 38.2 34.4 31.8 29.9 30.1 30.8 30.9 28.9 22.9 19.7 17.5 14.3 12.1 12.7 12.2 11.9 12 12.3 13.1 15.7 22.2 27.6 35.2 45 55 59.7 60.8 60.1 61.3 59.9 58.3 58 57.5 57.4 57.8 55.5 52.5 51.2 50.7 51.5 48.6 46.8 42.5 41.4 41 40.1 39.7 38 33.7 31.9 32.7 31.7 33.2 34.2 37.6 39.1 39.3 38.6 36.5 36.5 38.5 37.9 41.7 40.3 37.7 36.2 40.3 41.2 41.1 40 38.9 37.8 34.4 33.3 32.6 33.2 37.4 38.5 39.5 36.5 36.9 36.5 37.4 37.6 36.3 32 32.8 17.3 13.6 13.2
368.3 372.2 377.4 379.2 382.5 383.4 381.8 377.8 375.6 374.2 374.1 372.7 374.7 375.2 378.9 381.9 381 379.7 377.6 375.3 368.2 364.4 364.2 363 362 360.6 365 363.1 360.3 356.5 352.8 349.3 344.9 342.2 338.5 337.6 333.1 323.5 317.4 310.9 301.9 298.9 295.4 293.6 290.6 290.9 285.1 276 262.3 254.8 250.4 244.5 238.3 241.1 249.8 238.4 236.8 243.2 241 236 232.1 232 220.2 223.2 224.1 218.3 210.5 202.7 194.9 192.7 195.4 188.6 180.8 184.5 184.8 179.3 173.7 165.4 164 164.4 160.2 157.7 158.2 157.6 159.8 157.2 151.1 144.3 141.6 137.4 128.9 116.6 112.6 109.4 101.8 93.7 84.6 75.8 70.6 66.7 59.5 51.7 46.7 43.7 40.4 31.1 33.5 37.8 38.5 39.9 40.6 39.4 38 35.3 34.8 33.5 32.7 32.1 30.6 25.3 22 17.3 14.7 13.8 12.5 12.4 12.4 12.5 13.6 17.5 23.6 30.5 40.3 50.2 60.2 66.1 65.4 64.6 63.7 65 64.7 64.2 62.8 61.4 60.1 58.5 55.1 52 50.9 49.9 49.9 47 46.4 45 42.1 42 41.8 39.7 37.8 33.2 33.3 33 33.2 35.2 34.8 38.3 38.1 35.3 35.2 38.4 41.4 42.7 42.8 43.2 40.8 36.2 39.4 41.3 43 43.1 42.8 42.5 40.4 35.7 34 33.5 36.7 39.6 38.1 36.8 36.8 37.1 37.1 37.1 36.3 33.6 26 18.5 14.3 12.8
376.9 378.6 388.4 388.6 386.9 387.6 388.1 388 390.4 381.9 379.3 376.2 374.3 379.7 381.6 385.3 386.5 387.5 383.7 379.7 377.7 376.2 377.3 378.8 375.3 365.4 369.4 365 358.6 353.5 352 348.9 343.5 343.5 337.6 332.8 324 316.6 314.9 308.8 305.4 299.8 298.6 289 295 290.1 279.2 269.6 258.7 254.1 248.2 242.3 238.2 240.6 248.4 243.3 241 244.2 239 233.8 239.8 240.2 232.6 220.7 225.4 219.5 210.6 202 194.9 193.4 194.4 196.2 198.4 194.8 190.5 185.9 178.2 173 172.5 169.6 170 165.3 161.6 161.5 158 158.4 154.8 149 145.5 141.3 132.5 124.1 116.3 110.3 100 90.5 83.6 77.6 69.5 63.3 57 54.2 52 48.3 38.9 41.9 40.9 38.3 38.3 39.3 40.4 40.2 40.6 39.4 37.3 35 33.6 33.4 31.9 30.2 24.9 20.6 16.7 13.5 11.7 12.7 12.5 12.6 14.9 20.7 26.6 34.3 43.8 53.4 64.5 71.1 71.6 71.3 69.2 69.2 69.7 68 68.2 65.6 64.2 61.4 56.6 54.7 53.2 52.1 51.4 50.2 51 50.8 48.4 43.8 43.8 41.4 39.6 36.2 35.8 35.8 34.3 35.7 37.7 34.7 34.7 34.4 35 39 41.7 42.6 42.4 40.8 40.8 38.9 39.4 40 43.8 43.1 42.7 41.9 42 39.8 36.8 34.2 35 38.8 38.3 37.4 36.2 36.8 37.6 37.4 36.9 36.3 35.8 28.3 15.8 12.9
381.3 392.5 394.4 400.5 399 391.8 392.3 394.2 391 388.2 379.1 374.9 377.6 381.3 381.2 387.1 401.8 399.1 400.4 395.3 393 390.3 385.4 382.7 379.9 377.3 369.1 361.9 359.6 355 356.6 355.5 351.1 347.4 342.5 334.6 323.7 314.8 309.2 306.3 303.9 296.6 290.5 287.4 291.3 283.1 274.3 263.6 256.9 251.8 245.9 240.6 239.5 241.6 243.8 245.9 245.9 242.5 237.7 234.3 235.3 235.3 232.9 222.5 224.4 219.8 208.4 203.4 197.5 193.7 198.1 201.9 201.9 200.1 197.3 191 183.6 177.6 177.7 174 173.3 170 165.8 162.5 160.1 155.9 155.2 151.1 144.9 137.2 130.7 124.6 115.6 105.5 98.3 91.6 83.2 74.7 69.6 66.7 62.6 60.7 56.2 47.8 41.9 48.3 43.9 42.1 40.7 39.4 40 42.1 41.1 38.1 37.5 36.9 35.2 33.2 31.3 32 28.2 23.7 19.3 16.6 14.4 13.1 13.4 14.5 18.6 23.8 30.2 38.1 46.4 56.2 67.1 74.8 76.2 75.4 72 71.6 72 73.4 81.1 69.6 67.6 75.4 73.8 71.3 69.3 65.6 64.6 61.7 57.6 54.5 52.9 50.9 46.6 43.8 41.4 40 39.2 37.2 37.3 38.8 39.4 35.6 35.5 34.9 35.8 38.3 40.6 42.7 43.5 41.5 40.3 39.2 37.7 39.1 41.6 43.1 42.9 42.9 42.2 41.3 40 38.1 36.3 38.8 38.5 37.9 36.8 36.8 37.2 36.6 36.4 36.5 35.4 30.4 18.6 13.6
400.8 401.5 400.8 400.8 398.1 395.2 394.1 391.7 389.6 385.5 381.6 377 380.7 380.9 384.7 398 402.1 401.3 396.1 395.1 391.1 389.2 388.2 387.1 379.7 380 370.4 366.4 358.7 355.9 354 353.2 349.1 344.9 338 330.8 320.9 315.2 306.2 302.8 300 300.6 291.8 284.8 282.5 276.7 271.1 264.5 262.4 249.8 246.5 241 240 246.9 243 242 244.9 241.2 234.9 232.1 233.2 231.9 228.9 223.6 221.8 217.1 212 206 199.4 204.3 202.2 207.1 209.9 206.8 202.6 195.7 187.6 181.2 185.5 178.8 178.7 177.1 172 166.8 161.3 157.6 152.6 147.3 144.6 138.1 131.4 126.1 110.9 107.6 97.3 89.5 82.4 78.6 73.7 72.5 70 63.8 56.8 45.5 52.2 54.5 48.6 47.5 45.1 42.2 39.4 40.7 39.7 36.7 35.8 35.9 36.1 32.9 30.7 31.6 29.5 26.1 21.9 18.7 16.6 14.1 13.8 18.7 22.1 25.3 33 41.5 49.7 59.2 68.7 76.7 76.6 73.9 71.8 74.7 78.9 91.5 96.4 100 94.2 87.4 83.1 79.5 77.3 74.6 71.8 67.8 64.1 60.1 57.3 56 53 49.2 45.2 42.3 41.3 40.7 40.8 40.6 41.7 41 36.1 36.6 36.8 37.1 40.6 43.1 43.6 40.2 38.8 37.1 37.1 37.8 41.4 42.1 42.2 42.2 42 41.5 40.7 40.6 39.6 39.2 38.5 38.1 36.9 37.2 36.8 36.6 37.2 36.4 36.7 33.2 19.2 14.1
411.2 408.5 406.7 404.9 405.7 404.3 399.7 391.8 389.1 384.1 380.4 379.1 380.7 382.7 391.5 401.5 399.7 398.4 394.9 390.2 390 385.8 383.7 377.6 375.9 379.1 376.6 374.3 370.2 358.4 353.8 351.8 348.2 341.7 334.6 325.9 315.5 314.4 306.6 300 298.8 292.7 292.6 287.8 282.1 275.7 269.8 265.6 261 257.6 246.8 241.2 239.8 246.6 239.9 246.6 243.8 238.6 233.7 236 234.7 225.5 226.3 221 218.1 218 212.1 210.4 215.4 210.3 201.6 208.8 211.2 211.5 207.5 200.8 199 191.3 190 190.3 188.9 181 176.5 170.8 164.5 158.7 153.4 150.9 148.4 140 135.4 130.3 114.4 107.5 99.2 92.5 84.5 79.3 76.8 74.9 69.3 64.8 53.8 52.8 57.2 57.6 52.6 51.6 47.9 43.7 41.8 39.8 38.3 36.2 34.7 35.2 34.4 32.1 29.6 29.5 28.2 25.8 23 19.7 18.7 15.3 15 20.8 23.8 27.3 35.3 45 53.3 60.1 67.4 74.1 73.5 70.8 79.6 79.5 81.8 83.3 102.8 102.6 99.1 93.4 89.3 85.5 82.3 79.9 76.5 72.5 68.6 64.6 61.3 60.3 58.2 54.4 49.5 45.9 43.6 41.6 41.1 40.6 41.5 41.7 40.6 38 38.8 40.4 39.8 43.3 43.9 39.9 37.7 36.6 37.8 37.5 38.3 42.3 42 41.7 42.5 41.8 40.7 40.4 40 39.4 39 38.1 37 36.8 36.8 37.4 37.1 36.6 36.8 35 23.5 16.7
418 413.7 412.9 410.1 407.2 409.2 405.7 396.6 392.9 387.4 384.6 382.3 387.7 388.3 401.3 400.6 397.7 394.8 391.7 388.2 386.2 383 379.8 370.5 366.5 367.7 370.1 368.8 363.2 360.8 360.3 353 343.8 335 322.6 316.5 312.6 307.3 301 299.7 295.8 300.3 294.4 286.9 280.7 275 270.1 267.2 261.9 255.9 244.5 240.9 241.5 249.8 240.8 241.6 243.6 239.8 233.4 235.2 236.5 229.3 221.5 220.2 218.2 216.9 219.4 221.7 222.2 215.3 203.5 212.6 217.8 217.7 214.6 207.7 201.4 197.9 198.1 194.8 190.5 185.8 179.3 173 168.9 164.8 160.2 155.4 150 145.9 142.4 136.5 123.6 109 100.8 95.1 88.4 83.2 75 67.8 66.6 63.5 60.1 59.2 60.1 58.6 56.8 54 49.4 46.3 44.1 43.2 40.5 38 35.3 33.6 32.5 30.6 28.6 26.7 25 23.3 21.9 20.2 19.2 19.8 19.9 20.3 25.2 29.8 37.4 46.9 55.8 62.2 68.1 73.2 80.7 76.6 84.8 86.5 85.1 86.3 87.5 103.7 102.8 98.8 94.8 91 87.2 83.2 79.3 75.2 71.1 67.4 63.9 63.5 63.7 61.2 57.6 51.3 46.6 44.6 42.1 41.1 40.6 40.8 43.5 36.6 42.4 41.7 39.5 41.5 43.9 40.6 37.1 38 38 37.9 38.9 41.5 41.6 41.6 41.6 40 40 39.9 39.7 39.5 39.1 38.6 37.3 37.4 37 36.7 37.1 37.3 35.4 34.3 21.7 15.5
425.7 422.3 418.4 413.5 411.2 408.7 405.8 401.9 397.8 393.3 388.8 387.8 388.8 394.7 400.4 398.9 396.8 393.3 389 385.5 384.5 381.2 376.6 364.1 360.7 367.5 365 366.5 359.9 358.6 355 350 338.6 325.3 314.3 306.3 303.5 301.3 302.1 298.9 302.3 300.5 292.9 285.9 281.2 275.2 269.6 264.5 262.4 257.3 244.9 243.6 240.5 245.3 239.9 241.8 240.1 238.7 235.8 239.3 235.4 231.7 226.2 219.5 216.8 216.7 221.5 229.3 224.3 214.8 205.9 214.6 218 217.7 214.3 209.5 203.9 203.1 202.2 197 192.1 186.3 179.5 176.6 173.1 168.7 163.7 158.4 153.6 150.2 146.2 138.9 126.3 111.2 105 97.8 91.2 83.5 76.6 72.4 69.6 66.5 62.5 62.7 63.1 61.5 59.7 56 51.3 49.4 47.1 45.3 43.6 38.8 36.3 35.7 34.3 31.9 28.9 25.6 23.7 22.6 21.3 20.1 21 22.9 24.8 24.8 24.5 30.2 38 48.5 57.7 64.5 69.6 73.9 80.7 84.7 96 91.6 89.1 90 97 110.5 106.5 102.6 98 93.9 89.9 85.9 81.8 77.8 73.4 70.4 67.8 66.2 66.6 65.2 62.2 56.2 50.8 47.2 44.3 43 41.7 40.9 40.6 43.3 37 43.1 41.3 42.3 43.7 40.5 40.1 37.6 39.8 41.4 41.1 40.7 40.4 40.2 40.1 39.6 39.4 39.6 39.3 39.1 39 38.5 37.8 38.5 37.5 36.9 36.1 35.5 32.3 27.4 23 13.5
424.7 421.7 419.5 416 412.1 409.4 403.9 398.2 395.1 390.8 389 388.6 397.5 399.3 399.2 398.1 394.8 391.5 386.3 382.9 382.3 378.9 374.2 364.9 363.3 357.7 357.6 363.2 360.1 354.9 348.3 345.2 334.9 317.6 310.7 305.1 302.2 304.1 304.1 306.5 304 298.3 293.5 284.5 280.1 273.3 269.3 266.5 261.7 255.6 250.5 244 240.6 239.4 238.6 238.4 237.4 236.7 240.7 236.7 235.2 231 221 223.9 219.7 225.4 223.2 228.9 227.2 218.2 206.9 217.4 219.4 221 217.8 216.4 210.3 206.2 204.2 200.7 196.3 190.1 181.7 178.6 174.8 171 166.6 161.3 155.8 151.7 145.9 136.3 124.7 115.7 108.4 100.4 91.7 88.1 83 76.2 71.4 68.3 67.1 65.8 67.1 64.4 60.4 56.6 53.8 52.5 50 48.1 45.6 41.1 38.6 38 36.6 34 30.1 26.5 24.9 23.8 22.4 21.7 22.7 24.9 27.5 27.9 27.3 30.3 38.8 50.6 60.5 67.2 71.4 75.8 85.7 98.5 121.2 122.4 121.8 120.1 117.6 114.3 110.3 106.3 101.7 96.9 92.6 88.9 84.7 80.4 75.3 72.4 69.7 69.3 69.2 68.4 66.4 62.4 57.6 52.2 47 44.9 42.2 41.6 41.3 44.3 39.8 42.3 42.4 41.4 43.1 40.7 41 40.4 41.4 40.9 40.6 40.9 40.1 40 40.1 39.5 39.2 39.2 39.1 38.8 39 39.4 38.6 38.5 38.2 37.2 36.5 35.7 29.7 25.6 16.7 13.9
425.7 425.8 425.3 426.4 418.7 407.5 405.6 401.5 394.4 391 389.7 390.6 397.6 399.1 397.7 396.5 394.2 387.6 382.3 379.7 378 375.5 370.6 365.1 364.1 356.4 353.1 353.3 352.9 347.9 341.9 338.5 326.1 316.2 308.2 305.2 308.5 308.5 308.6 308.9 306.6 300 292 287.5 280.2 273.4 269.5 266.3 262.2 255.6 252.3 244.9 240.9 242.4 238.9 238.2 237.5 242 241 238.7 231.2 226.8 222.6 224.6 228.2 228.9 230.7 228.8 226.4 219.3 209 217.2 219.5 222.3 222.1 218.7 214.2 208 205.8 203.1 198.6 192 186.1 180.7 176.5 171.7 167.6 163.8 156.8 152.4 143.6 131.2 121.7 114.6 109.8 104.6 97.7 92.4 84 76.6 73.6 73.6 71.1 69.8 71.2 67.6 62.5 57.8 56.9 56 53.2 49.9 46.6 43.4 42.3 39.9 40.2 36.9 33.3 28.6 26.7 26.3 25.4 25.1 25.4 28 30.7 31.6 31.1 30.8 40.9 51.5 62.8 69.5 74.2 83 100.9 121.4 130 127.9 126.6 124.2 121 117.7 113.8 110.1 104.7 98.7 94.9 91.6 87.1 81.7 77.3 74 72.1 72 71.7 70.9 69.8 67.3 63.1 58.3 52.4 46.5 44.1 42.7 41.7 41.7 41.1 38.2 42.1 41.5 40.7 40.4 40.6 41.5 40.8 40.7 39.9 39.8 40.4 40.3 39.8 39.7 39.7 38.9 39 39.2 38.6 39.6 38.3 38.3 38.2 37.4 37.3 36.1 29.4 25.7 18.3 17.4
438.5 435.9 428.9 424.3 421.1 415.1 403.9 399.2 392.4 390.2 389.9 393.1 396.9 394.7 394.6 394 391.3 385.6 380.8 376.8 373.9 370.7 367.7 363.3 361.4 354.5 349.8 346.8 343.4 338.6 333 328.6 320.9 316.6 312.9 311.9 315.1 311.4 310.9 308.3 305.7 299.3 290 285.6 280.4 274.8 270.6 270.3 264.2 259.2 252.5 246.6 243.5 240.2 241.7 238.4 238.2 238.6 240.5 236.3 229.5 224.3 228.7 225.6 232.4 238.1 237.4 228.8 219.4 216.3 209 208.9 214.5 222.1 224 221.2 215.3 212.4 208.7 204.3 197.6 192 186.8 182.4 176.6 171.5 170.3 164.6 157.9 151.1 141.1 132.2 121.9 120.7 115.5 110.1 102.8 94.8 88.9 82.7 79.9 79.8 76.9 73.7 74.1 71.8 67 61.6 59.7 59.4 55.2 51.3 47.4 44.8 45.8 44 42.7 40.9 38.7 31.5 31.8 30.4 29 28.9 29.2 30.9 32.8 35.3 35 33.3 39.7 53.8 68.1 74.7 80 89.2 116.7 140.2 134.8 130.6 126.5 123.5 120.7 118.7 115 111.8 106.1 99.3 93.6 88.5 84.3 83.2 79.4 75.6 74.8 74.1 73.2 72.5 71.6 70 66.4 62.3 57.7 52.4 48.2 45.2 43.4 43.6 41.3 40.9 40.5 41.9 41.4 40.9 40.1 40 40 39.9 39.6 39.5 40.2 40 39.7 39.1 39.3 39.4 39.2 39.1 38.5 38.9 38.7 37.4 36.9 36 36.6 32.7 33.4 29.6 35.3 24.6
434.8 431.5 425.6 422.2 416.4 411 403.9 399.3 392.7 390.9 391.2 391 392.2 392 392.4 389.7 387.6 384.6 380.8 374.6 372.8 368.5 366.3 362.4 359.7 355.9 348 342.6 332.2 330.4 324.2 323.2 318.5 319.6 321.7 321.8 317.6 316.2 312.2 305.3 303.4 296.8 290.3 284.9 278.8 272.8 267.1 267.5 266.8 263.2 256.5 247.7 245.6 240.8 242.5 244.2 239.8 238.6 241 234.4 227.9 227.9 230.7 228 232.2 237.8 238 230.2 217.4 214.6 212.7 211.5 214.2 224.5 223.7 221.5 217.9 215.4 211.2 207 197.3 189.9 188.5 181.7 176.4 170.2 170.2 164.6 152.6 147 142.7 137.1 126.7 125.1 119.9 114 108.9 103.9 96.8 89 87 85.2 81.4 78.4 76.7 73.6 71.3 66.3 63.9 62.5 59.5 52.8 48.6 47.8 48.7 46.1 45.3 43.6 40.6 38.8 38.4 38.1 36.7 35.9 35.8 36.9 39.1 40.7 41.1 40.2 39.2 52.9 74.4 80.8 86.5 95.4 120.1 144.5 141.7 136.8 133.2 129.7 125.8 117.7 113.1 107.4 100.5 94 92.5 98.1 99.6 97.1 92.7 85.6 77.1 74.3 73.6 72.9 70.5 70.2 69.3 65.4 61.6 57.8 53.1 49.4 46.9 47.1 44.9 42.8 39.8 42.4 42.2 42.3 40.3 39.7 39.7 39.7 40.1 39.9 39.4 39.4 39.1 38.9 38.9 39.3 38.8 38.6 38.4 38.5 37.9 38.3 36.9 36.5 36.2 37.1 36.4 36.4 35.1 29
431.9 426.9 421.7 418.3 409.9 405 401.8 396.5 393.5 391.8 391.5 392.1 392.4 391.6 390 387.6 385.7 383.4 378.9 374.5 372.4 368.9 365.8 361.6 359.8 355.7 347.3 337.7 346.3 336.9 332 327.2 329.5 328.7 326.8 325.1 322.5 319.9 315.8 309.7 299.4 293.6 287.2 282.9 278.4 270.2 273.4 271.2 268.3 265.1 255.9 247.8 245.6 242.5 244.6 244 241.9 238.8 241.6 235.6 229.3 232.6 232.5 229.2 234.4 241 238 230.7 218.6 214.1 215.9 213.7 214.6 213 223.9 220.5 219 216.6 209.8 203.2 196.3 190.7 184.8 180.7 177.5 172.1 163.1 159.1 152.7 145.8 142.1 136.3 133 129.5 123.6 119 117.8 112 102 93.9 90.9 87.4 85.9 82.1 78.8 76.1 74.4 69.1 67.1 66.8 61.1 53.3 52.7 53.8 51 48.8 46.1 43.7 44.6 44.3 44.2 48 43.8 42.1 42.4 41.4 41.3 43.2 45.1 42.3 39 51.7 72.9 86.9 93.8 101.7 119 148.3 144.4 139 133.9 125.2 118 113.2 108.9 106.8 107.8 108.1 104.7 108.2 109.7 105.3 100.3 93.1 84 86.1 76.2 71.9 65.5 65.9 66.9 65.2 63.6 60.3 57 53.5 51.5 49.6 48.5 46.2 42.5 43.1 42.8 41.1 40.1 39.8 40.5 43.6 43.4 41.8 40.6 39.6 40.1 39.4 38.5 36.6 37.2 37.9 37.4 37.9 38.1 37.9 37.5 37.1 35.8 36.2 36.9 35.1 34.1 35
429.8 424.1 419.8 416.2 408.6 404.6 402.2 400.5 400 396.1 392.8 392.5 391.3 389.9 388.7 386.2 384.8 384.2 384.7 377.1 372.3 366.1 364.5 367.3 365.9 360.6 358.7 356 350 344 338.2 334.4 333.9 334.9 332.3 330.4 327.4 323.4 319.4 312.2 305.8 295.5 284.2 278.5 275.8 280.4 279.3 274.6 270.8 266.4 258 253.4 247.7 244.3 246.2 244.2 243.4 238.8 241.6 236.2 227.9 236.2 232.8 228.7 235.2 232.8 236 231.4 223.8 220.5 216.3 216.5 222.1 215.7 211.4 215.6 218.5 213 209.6 203.1 197.5 193.4 184.7 177.7 172.8 170.2 164.7 156.7 152.6 144.8 139.5 137.6 136.7 135.2 129.7 124.8 122.5 118.1 106.2 102.2 99 93.8 88.5 85.8 81.4 78.6 76.9 71.5 68.9 67.1 59.1 61.3 60 59.6 54.5 50.7 49.4 48 49.9 49.8 50.4 52.6 49 46.5 45.5 43.9 43.7 46 48.3 46.9 40.8 50.9 67.8 89.2 99.1 106.9 119.2 135.3 137.9 134.8 131.3 130.7 129.9 129.2 127 124.8 124.4 119.8 116.7 112.7 108.3 109.4 105.2 98.6 96.8 93.9 89 83.6 78.2 69.9 62.2 62.9 62.8 60.8 58.5 56.3 54 51.2 50.1 49 47.6 41.4 43.8 43 41.2 44.2 51.5 54.3 53.7 49.1 48.2 44.4 41.3 40.3 38.7 38 37.7 36.1 37.4 37.2 38.8 38 36.5 37.3 35.7 34.9 35.8 36.2 36.5 36.3
429 423.7 419 416.3 410.2 408.3 405.5 403.6 400.6 396.4 394 392.4 391.2 389.7 389.2 388.4 391.3 389.4 386.5 382.8 378.6 378.6 377.2 377.7 374.2 369.3 364.9 359.5 354.6 345.5 339.8 337.6 338.4 339.4 337.2 335.2 332.6 328.7 323.9 319.1 308.5 296.3 288.8 281.7 278.6 282.6 278 274.6 273.2 266.8 259.9 254.5 249.7 245.7 247.1 247.9 243.9 238.7 241.5 235.9 228.7 231.9 230.2 230.9 229.2 231.6 233 231.2 226.8 226.8 215 220 221 217.1 213.9 208.4 209.1 210.9 203.5 200.1 195.3 189.9 183.1 178.7 172.8 168.6 162.4 153.7 144.7 144 138.8 137 137.7 136.5 134.4 132.3 125.7 118.9 113.8 109.1 103.3 98.9 94.3 90.4 87.1 82.2 79.4 74.2 70.9 66.8 64.4 68.8 66.6 63.7 57 55.9 54.4 53.5 54.3 54.7 53.7 57.1 52.5 48.8 48.7 46.1 46.5 48.9 50.6 50.6 43.5 49.8 61.5 87.5 100.4 109.2 117.2 149.8 152.8 148.9 144 139.6 143.5 145.7 142.3 137.3 133.4 128 122.9 119.3 114.7 108.7 105.7 102.3 100.1 96.1 91.5 86 80 74.5 66.4 60.7 60.4 60.5 58.4 56.8 55.4 53.4 51.3 50.4 49.2 42.4 44.5 43.8 44.1 52.2 60.7 61.1 62.4 61.9 59.7 55.5 49.6 44.9 40.5 39.1 38.3 36.9 35.6 36.5 36.3 38 37.3 35.6 34.6 31.1 31 29.6 29.3 34.4
427.1 423.5 419.2 416.8 413.7 414.6 408 412.1 406.7 402.8 395.6 392.5 390.8 391.6 394.3 393.5 393.1 388.9 384.9 382.7 383.5 381.1 378.5 375.5 373.2 369.9 365.2 361.2 354.8 348 340.7 338.7 341.8 341.7 338.6 335.8 333.6 328 323.6 319.7 312.5 302.6 295.1 296.1 287.8 284.6 279.1 275.3 272.1 265.9 257.8 252.7 248.6 247.4 245.7 249.5 243.9 239.1 242.2 235.8 231.7 231.8 229.6 228.7 226.8 230.6 226.8 232 226.8 226.8 223 215 215 218.5 212.2 210.5 208 207.7 201.1 193.4 190.6 186.3 186.2 181.9 172.8 167 158 154.3 154.3 150.9 145.5 142.4 139.1 137.7 135.5 133.9 130.9 128.7 123.9 120.8 111.8 103.6 98.5 93.8 90.9 87.9 83.5 77.4 71 67.9 71 71.2 68 64 61.5 62 62.6 62.9 62.6 62 58.8 60.6 56.4 53.2 51.8 49.3 48.5 49.3 50 49.2 46.7 47.9 59.5 81.8 98.6 108.4 122.7 148.2 155.5 154.5 145.4 147.1 155.4 155.6 150.9 144.3 138.2 132.5 128.3 124.3 119.3 112.9 106.7 103.3 103.1 101.9 93.2 86.3 75.5 71.8 71.4 65 59.9 58 56.9 55.8 54.7 53.6 51.4 50 49.1 47.5 44.5 44.1 44.8 49.8 63.2 65.9 65.7 65.7 64.8 62.2 57.4 54.7 47.1 41.4 39 37.9 36.7 34.3 32.3 31.4 31 33.9 29.8 27.6 25.4 24 24.2 30.3
434.3 430.4 422.4 417.1 417.1 418.8 412.8 410.1 407.9 404.5 401 393.3 395.2 396.4 395.1 394.8 392.3 388.8 387.3 386.7 384.4 379.9 376 372.8 369.5 367.4 364.4 360.2 354.2 348 340.6 339.7 340.1 339.1 337.7 333.5 330 326.2 322.1 318.4 311.7 303.9 302.7 300.5 296.8 287.6 286.5 283 275.1 259.5 258.6 253.2 249.4 248.4 246.9 243.5 243.7 239.5 241 238.2 232.1 229.4 230.3 231.6 226.8 229.1 226.8 226.8 226.8 226.8 227.3 219.3 215 215 214.5 209.5 206.8 203.4 201.6 195.6 186.4 180 178.6 176.7 170.2 167.1 168.1 165.5 159.5 153.7 148.2 144.4 143 143.5 139.9 137.9 137.9 132.6 129.1 124.3 119.8 108.1 101.1 97.9 94.1 90.9 85.6 79.2 73 70.3 73.7 71.6 71 68 68.7 70.5 73.5 70.7 70 68 64.5 64.8 61.1 57.6 55.4 52.5 51 51.6 52.5 51.7 49.2 47.9 58 78.2 95.9 106.7 118.9 158.9 144.5 123 133.7 144.7 153.3 155 153.5 148.9 142.7 137 133 128.1 121.8 119 114.1 110.3 106.3 103.1 92.6 83.6 78.2 80.3 77.4 73.8 66.9 59.9 55 54.3 53.5 52.2 51.2 50 49 46.8 43.9 45.5 45.9 49.2 63.1 68.1 68.6 68.1 66.4 63.5 60.7 56.8 53.5 47.1 42 39.3 38.2 37.4 32.2 34.4 35.3 36.1 35.6 35.8 35.5 35 29.4 22.8
432.7 429.8 424 421.9 420 419 415 409.6 407.1 404.1 401.1 394.1 397.8 398.4 397.5 395 393.9 395.5 392.9 390.8 386.2 379.5 374.8 369.6 365 362.2 360.1 357.1 353 346.9 341.4 339.6 338.6 338.4 335.9 330.1 328.2 324.1 320.8 315.8 312.3 307.8 306 301 299.2 295.3 288.5 283.7 279.6 271.6 266.5 258.5 252.7 248.4 242.7 239.8 238.3 237.4 235.9 235.3 231.4 230.2 230.8 231.9 227.2 226.8 226.8 226.8 226.8 226.8 235.6 229.8 215 215 215 209.8 204.9 197.8 194.2 189.9 186.9 187.3 189.4 186.7 181.8 182.8 175.6 167.7 160.5 158.1 157.6 155 153.5 150.9 147.3 145.4 141.2 136.7 131.4 125 120.9 113.8 104.9 101.8 98.8 92.7 86.1 81.3 78.3 76.6 75.5 72.2 73.6 72.1 74.1 79 82.8 78.3 77.2 75 75 75 70.6 65.4 60.5 56.5 54.3 54.1 55 54.5 51.3 48.9 57 74.3 92.4 104.7 110.9 142.5 143.2 124.3 113.9 115.4 144.3 149.4 156 139.7 142.8 143.4 137.3 131.3 125 122.4 114.1 112.5 106.5 98.5 92.7 89.5 88.1 84.4 79.5 75.2 70.3 64.9 58.4 52.9 52.4 51.5 51.9 50.5 47.8 45.2 44.8 46.8 45.6 48.3 57.8 68 70.4 69.5 67.6 63.9 60.1 58.1 56.9 53.1 48.1 40.2 37.5 36.7 36.7 36.8 37 37.4 37.4 35.5 34.4 33.6 31.1 32.2
431.1 427.5 425.2 423 421.8 422.2 416.8 409.5 408.7 404.3 399.5 397.9 398.1 403.1 403.2 402.9 399.8 396.6 392.8 388.3 384.2 378 372 368 364.8 362.1 359.1 355.6 352.8 347.7 341.3 338.1 337.9 336.4 330.9 328 325.4 321.3 318.6 315.7 312.7 308.5 307.8 305.3 303.7 299.3 292.3 287.2 281.8 275.3 270 265.1 258.1 251.9 247.3 239.8 236.5 235.1 233.8 231.6 230.7 236.5 237.2 234.2 226.8 228 229.2 232.7 232.3 239.9 237.9 232.5 220.3 215 214 205.4 201.8 197.2 194.8 195 192.6 195.3 194.5 191.6 184.1 181.4 175.3 168.5 167.1 165.9 163.4 172.9 174.7 163.9 154 150 145.7 142.2 137.6 130.3 122.1 116.5 108.9 104.6 103.6 92.7 86.4 83.2 83.6 82.4 79.3 80.1 82.2 77.3 79.1 87.6 92.8 88.2 84.3 85.5 85.5 82.4 79.4 75.6 67.5 61.3 59.5 58.2 61 59.4 54.3 50.7 55.6 70 88.7 103.4 107.2 117.6 150.9 144.3 128.1 113.9 113.9 141.9 138.9 139.5 140.5 149.2 143.1 135.7 130.6 123.9 119 112.7 107.5 100.5 97.7 95.2 90.3 85 79.9 75.2 71.9 67.7 63.6 56.2 52.1 51.9 51.3 50.7 49.6 48.2 47.6 48.1 46.2 48 51.5 62.3 70 69.5 68.6 64.4 61 57.4 54.2 52.9 49.3 42.1 37.7 36.8 37.7 36.9 36.9 36.9 36.7 35.8 35.1 31.3 30.5 29.6
429.8 426.8 425.8 424 422.7 421 417.7 414.3 412.3 409.2 402.5 402 407.7 409.3 406.9 404.4 399.8 397.4 395.7 389.2 385 376.4 371.3 369 364.6 362.3 360 355.5 352.4 347.8 341.9 337.9 336.2 337 330.3 326.7 325.1 321.2 317.6 314.8 312.4 312.3 314.5 308 305.4 301.3 295.3 290.3 282.8 276.8 271.5 265.8 265.8 265.8 255.5 250.4 245.8 242.1 236.5 235 236.4 241.6 242.2 242.4 235.9 229.4 231.3 236.7 238.8 242.9 239.3 235.1 228.2 216.2 217.3 213 209 208.8 205.9 200.5 197.5 198.4 198.1 192.9 187.2 181.3 181.7 176.6 174.2 172.2 168.5 168.1 179.4 176.8 169.5 165.9 158.8 145.9 141.4 135.3 125.9 117.6 111.6 105.2 98.4 94.8 93.2 91.5 89.8 87.4 87.1 84.5 82.6 82.4 83.7 93.1 102.4 98.6 98.4 100 92.9 88.4 86.2 84.2 75.7 72.4 69 63.8 65.9 64.8 59.5 54.9 54.7 66.8 86.3 102.2 108.4 112.6 126.2 161.3 139.7 131 121.2 131.3 139.8 142.7 149.4 149.6 140.2 137.4 133.7 124.7 119.6 116.5 111.3 107.3 104.6 99.8 92.5 85 80.3 76.7 73.6 70.3 66.5 61.9 56.6 51.7 51.5 50.7 50.8 49.6 49 47 48.8 45.7 48.8 57.1 67.7 70 68.4 64.4 60.9 58.1 53.8 51 48.7 43.7 39.1 38.2 37.2 37.5 37 37.4 37.1 37 37 35 30.8 29.9
429 427.1 426.4 425.8 422 419.1 416.3 414.8 412.5 410.4 408.7 411.8 411.8 410.7 409.5 409.2 401.1 398 394.1 389 384.6 379.4 371.8 368.6 365 363.5 360.6 354 350.8 348.2 344.1 337.9 334.7 334.3 331 326.3 326.4 325.5 318 315 314.6 317.9 313.5 309.6 305.9 301.7 296.3 292.2 284.1 275.6 270.2 265.8 265.8 265.8 267.8 255.6 250.5 247.7 245.7 240.3 245 245.5 244.2 242.3 240.9 236.5 239.4 236.8 243 244.5 241.6 237.3 231.2 223.9 216.1 215.1 210.3 209.2 208 205 202.1 199.4 200.6 195.3 190.2 187.4 187.8 182.3 178.2 178.6 173.2 166.8 168.4 170.2 168.3 165.4 164 162.6 157.2 142.3 132.9 121.6 110.1 105.5 107.2 109.6 107.5 102.9 100.1 95.9 94.4 88.5 85.2 88 88.5 92 98.4 107.5 110.1 109.8 103.3 98.6 95 93.6 88.9 80.8 74.8 70.3 69.2 67.6 65.8 60.7 56 61.9 78.5 100.5 109.9 111.8 115.6 136.1 169.7 134.6 131 132.2 135.9 144.7 145.3 146.9 145.1 140.7 133.7 126.9 125.7 120.8 115.3 109.1 104.5 99.2 94.1 90.3 84.2 79.6 76.1 73.6 71.2 66.9 62.5 56.2 51.5 50.6 51.1 50.7 50.6 47.6 50.4 49.1 47.7 52.1 63.8 67.8 67.1 65.7 60.7 56.6 54.8 51 48 44.8 39.7 38 37.9 37.7 37.7 37.5 38 37.9 38.2 38.1 37 34.6
432.2 428.1 428.5 424.8 420.9 418.1 416.5 414.7 415.4 415.1 415.7 415.7 412.6 412.3 415.4 412.1 402.4 398.1 394.5 391.5 386.2 381.9 375 372.5 369.1 367 364.8 360.2 352.7 347.2 344 339.9 334.3 334.8 328.8 327.3 325.2 324.1 319.1 316.7 316.8 315.3 314 308.2 304.6 300 297.1 291.7 283.3 277.1 271.9 268.2 265.8 265.8 266.9 261.2 253.2 248.7 247.3 249.3 249.6 247.9 246.8 250 243.9 244.2 239.2 237.7 245.7 251.4 244.9 238.3 232.9 222.9 218.1 216.7 214.5 212.7 210.3 207.8 205.2 202.4 201.4 194.8 194.1 190.4 188.1 185 181.5 180.4 174.4 172.8 177.1 174.8 173.4 169.3 163.5 161.5 159 146.7 139.2 125.5 113.4 114.3 117 117.7 116 113.1 109.8 104.7 102.8 95 93.5 93.4 97.2 95.2 94.4 112.8 116.1 113.5 112.4 106.7 99.7 99 95.5 88.5 78 75.1 72 71.2 71.3 68.3 63.1 61.1 73.7 93.6 107.7 112 113.2 114.2 136 135.9 132.2 131.6 130.2 143.6 144.4 145.7 150.5 142.8 139.3 132.7 129.9 123.9 115.9 108.1 102.9 98.5 96.6 93.9 89 83.8 79.8 78.2 75 70.7 66.2 61.1 54.7 51.3 51.3 51.2 52.2 48.5 52 51.2 50.2 49.9 53.7 62.9 64.5 63.1 59.1 56.4 52.7 51.3 47.1 44.8 42.5 39 38.5 38.5 38.8 38.3 39.6 39.6 39.5 40.7 39.7 37.5
434.1 427.3 426.4 423.1 420.4 418.6 418.7 421.2 421.2 419.4 418.9 417.4 419.2 420 417.2 414.3 409.6 405.3 401.7 393.5 390.9 382.7 376.8 374.2 371.1 368.7 367.1 364.3 359.1 349.4 345 340.2 335.2 334.1 331 328.6 326 321.3 317.9 317.8 316.9 315.2 312.4 306.7 302.3 299.4 297.8 291.3 282.5 278.7 274.7 268.1 265.8 265.8 267.2 264.3 258.7 252 248 253.9 254.3 256.5 259.6 256.9 250.8 250 250.1 245.9 240.4 246.9 247.5 240.3 231.1 224.1 220.8 219.5 220 219 215.7 211.2 207.5 203.3 199.5 196.5 198.7 196.2 192.9 188.8 184.5 180.4 180.3 182.1 179.8 177 173.2 167.6 164.6 161.8 158.8 151.7 141.1 131.2 123.6 120.4 126.7 123.6 120 117 112.7 110.2 106.2 102.9 100 102.5 105.9 103 98.7 101 118.5 121 116 109 101.9 98.2 94.5 89.6 81.6 77.7 74.6 74.3 74 73 69.7 63.2 68.8 85.5 100.6 110.5 113.3 111.1 117.6 133.5 137.6 131.4 130.2 130.4 129.5 130.9 145.3 146.1 137.9 131.8 128.2 121.6 113.1 106 102.4 99.7 98.4 96.4 92.7 87.5 83.1 80.6 78 74 69.8 65 59 53.6 51.8 51.2 52.2 51.4 53.1 52.5 51.9 51.7 50.9 58.3 61.1 61 57.9 55.4 52.2 48.5 48.1 44.8 42.4 41.2 39.2 38.6 39.2 38.6 39.4 40.7 43.6 42.7 42.3 42.5
429.5 426.8 425.7 423.2 421.5 422.1 423.6 423.1 421.9 423.4 425.9 424.2 422.8 422 419.8 416 414.1 411 406.8 401.2 394.6 385.2 380.7 378.9 374.9 370.8 368.5 364.8 361.6 354.1 345.7 339.9 337.1 335.4 330.8 328.5 324.9 321.6 320 318.3 317.5 312.5 309.7 304.7 301.1 298.4 297.5 290.9 285.4 279.5 275.7 271.1 265.8 265.8 265.8 266.7 262.7 257.1 249.2 259.9 258.9 264.9 268.8 270.4 266.5 262.6 259.7 256.5 249.9 245.6 241.6 239.9 231.1 226.8 225.7 223.8 224 222.5 219.7 215.9 212.1 207.3 203.8 200.3 199.1 196.8 192 189.9 190.1 191.5 191.6 188 185.3 184.2 179.9 176.3 172.3 168.9 164 156 145.4 138.9 131.7 127.7 135.4 133.1 129.6 122.8 118.9 113.2 109.5 106.4 103.3 106.8 110.7 109.1 104.9 100.8 109.4 119.4 114.8 109 103.8 101.7 97.7 93.4 88.5 83 79.1 77.6 76.1 74.2 73.1 67.7 68.4 79 93.9 105.4 111.3 111.9 111.8 120.1 141.3 157.3 130.6 130 129.9 130.8 143.3 140.8 133.1 127.3 121.4 118.4 114 110.2 105.3 103.2 100.6 97.7 94.2 89.1 84.4 81.2 78.6 75.3 72.2 69.3 63.4 57.2 52.8 51.6 51.9 53.4 51.2 53.5 54.1 55.1 54 51.4 53.8 57.7 56.7 53.9 52.5 49.3 46.9 44.8 43.5 42.7 41.1 40 39.6 39.2 40 42.9 46 45.6 44.5 43.9
428.5 428.2 429.9 426.8 425.5 425 425.3 424.9 425 427.1 426.1 425.4 424 423 421 420.3 417.4 413.8 409.8 403.6 398.3 392 383.6 380.1 377.6 374.3 370.7 365 362.1 358.2 348.1 342.3 339.9 335.8 331.5 328.6 325.9 323.5 321.3 318.2 313.9 311.2 307.9 303.5 300.8 297.3 294.2 290.9 284.9 279.8 275.1 268.7 265.8 265.8 265.8 268.7 265 260.1 254.3 257.4 263.8 269.4 276.5 276.6 275.5 273.9 269.3 267.9 266.2 261.2 243.7 234.8 235.8 229.4 228.4 226.6 225.3 226.6 223.5 221.9 217.2 215.7 214.2 207.1 204.4 205.7 206.8 203.9 203 206.5 207.6 203.5 199.2 196.2 190.8 188 184.4 180 164.7 155.8 153 147.4 140.9 139.7 143.3 141.1 136 130.1 126.7 120.6 114.8 110.1 108.3 110.2 110 109.2 105.7 103.5 102.8 112.6 114.4 112.1 110.1 109 102.9 96.7 93.3 87.5 81.6 80.9 77.2 72.6 71.7 69.9 69.5 73.8 85.7 99.2 108.4 111.6 111.8 110.9 119.6 157.4 148.7 129.7 130.1 138.4 139.4 131.7 127.7 123.6 120.7 119.7 116.6 113.5 109.7 105.6 102.1 98.7 95.4 90.5 85.7 81.5 78.6 75.2 71.7 68.8 64.2 59.1 54.8 52.7 52.4 53.4 51.1 55.1 55.3 55.8 55.5 54.6 50 54 54 53.2 52.2 49 47.6 45.3 43.4 42.3 43.7 42.6 42.2 40.4 40.4 41.1 43.9 47 46.9 47.4
429.1 432.3 430 427.5 425.9 425.5 425.1 425.1 427.5 429 430 427.1 424.8 422.9 422.6 423.1 419.8 416.9 411.7 405.5 399.5 394.3 387.8 380.7 377.1 373.8 369.9 366.6 362.1 356.8 352.7 346.9 343 340.1 334.8 333.5 329.5 327.3 324.5 315.6 313.3 310.5 308.2 303.6 301.2 299 295.1 289 284.4 279.9 276.3 265.8 265.8 265.8 265.8 265.8 265.5 261.3 256.8 254.2 267.9 272.5 279 282.2 285.2 287.1 278.1 274.9 271.6 266.6 255.8 247.6 244.1 239.3 238.3 234.9 236.2 236.1 235.2 238.5 237.3 235 224.9 220.9 219.3 216.3 211.3 213.7 213.3 215.3 210.7 211.2 210 207 203.4 197.7 191.9 182.2 166 166.3 163.4 157.9 154.1 152.4 153.3 148.1 140.1 136.7 133.4 129.3 123.8 116.4 113.3 113.9 114.5 112.6 109.7 106.4 105.2 104 115.9 117.1 114.7 112.3 106.1 98.2 95.3 86.9 89 85.6 81.3 78 72.7 70.9 70.7 72.6 79.6 91.7 100.7 108.2 110.5 109.6 119.6 131.8 158.8 153.8 147.8 136 130.6 127.9 125.1 124.6 123.4 122.5 119.9 116.8 113.1 108.3 103.4 99.8 95.5 91.6 86.8 81.9 78.2 75.3 71.4 68.3 65.6 61.9 59.2 56.6 54 54.9 51.9 55.9 55.3 54.2 55.4 54.5 52.2 49.8 51.6 51.9 52 51.4 48 45.8 44.8 44.9 44.8 48.1 45.4 44.5 40.9 40.5 41.9 43.3 45.5 47.4
