ncols 200
nrows 98
xllcorner 420000
yllcorner 1143950
cellsize 50
36.2 29.5 24.4 22.6 22.5 22.3 23.9 26.6 29.4 30.3 30 31.1 35.8 36.3 33 29.5 22.5 19 22.8 28.8 34 34.8 38.6 37 32.8 27.4 24.5 23.8 23.3 18.3 20.9 23.3 32.2 40.8 46.9 54.2 49 46.6 41.6 36.5 32 26.8 22.7 17.4 12.2 5.9 4.7 4.7 4.6 6.5 4 2.2 0.5 -0.6 -0.6 3.2 8.2 9.4 13.9 15.7 16.9 14.8 14.4 14.6 18.7 21.8 27.7 30.2 34.9 37 31.7 29.7 26.5 21.2 15.2 6.5 -0.6 -0.6 -0.6 -0.6 -0.6 -0.6 -0.6 -0.6 -0.6 3 5.4 6.2 11.1 18.6 22.6 21.5 22.9 22.5 20.7 17.3 13.7 8.8 2.8 5.3 9.2 13.8 17.3 17.2 17.2 16.9 18.6 21 22.5 20.7 18.5 16.3 16.9 17.5 19 19.7 23.4 25 25.9 28.4 28.7 27.6 27.2 25.4 23.4 22.1 19.3 16.2 13.2 7.9 4.1 -0.6 -0.6 -0.6 -0.6 -0.6 -0.6 -0.6 -0.6 -0.6 -0.6 -0.6 -0.6 -0.6 -0.6 -0.6 -0.6 -0.6 -0.6 3.4 7 13.8 20.9 25.7 29.4 33.5 37.1 40.9 44.9 48.9 51.9 55.3 60.9 63.6 65.5 65.8 64.6 62.5 61.8 63.3 65.2 63.2 59.6 57.8 53.9 52 50 47.4 45.6 42.9 35.9 31.4 29.3 24.7 22.9 20.2 15.9 10.4 6.2 5.1 4 5.6 3.3 4.6 5.2 7.2 8.2 7.7 8.6 10.9
40.1 34.4 29.8 26.5 23.8 23.5 23.8 28.3 28.9 31.7 30.7 31.8 40.6 38 32.4 29.1 24.3 17.8 16.4 17.6 20.1 23.4 25.8 26.4 24 22.4 23.7 26 28.5 19.8 16.5 23.5 23.2 33.8 42.6 51.7 48.2 41.4 38.5 36.7 34 28 22.7 16.6 8.8 4.7 4.6 4.5 7.3 11.2 8.7 5.5 1.4 -0.6 -0.6 -0.6 2.7 6 8.2 10.1 11 11.5 12.8 15.3 17.7 22.6 24.6 27.6 31.8 35.4 28.2 26 22.3 19.8 15.2 6.7 -0.6 -0.6 -0.6 -0.6 -0.6 -0.6 -0.6 -0.6 -0.6 -0.6 3.1 6.7 7.7 12.1 18.5 19.8 21.5 19.3 17.3 12.8 6.8 1.5 -0.6 3.3 7 9 13 16.4 18.4 22.9 26.7 27.9 30.2 29.6 28.4 26.5 25.4 24.9 23.8 26.3 28.6 31.2 32.4 33.3 32.2 31.4 30.1 27.5 25.2 22 20.5 17.4 14.6 10.9 5.7 1.8 -0.6 -0.6 -0.6 -0.6 -0.6 -0.6 -0.6 -0.6 -0.6 -0.6 -0.6 -0.6 -0.6 -0.6 -0.6 -0.6 -0.6 3.7 6.7 12.8 19.6 24.6 28.7 31.8 35 38.5 43.1 49.9 55.5 59 63.3 66.7 68.6 66.6 63.8 61.7 59.1 59.4 60.7 59.7 57.2 55.1 52 48.7 47.3 44.6 42.1 38 30.7 27 23.2 21 18.2 13 9.2 4.7 -0.6 1.1 1.6 2 2.5 3.3 3.8 4.4 8.3 10.4 11.6 13.5
45.1 39.4 35.3 31.2 27.6 25.9 27.3 32.6 30.6 34.2 35.2 37.7 42.4 39.6 34.3 30.1 26.5 20.8 14.5 9.8 10.2 14.8 20.8 25 21.9 20.8 23.3 23.8 26.9 19.7 12.6 21.7 21 26.5 34.4 40.8 43.8 38.6 35.3 33.5 30.7 25.3 18.8 11.5 8.7 6 5.8 6.3 17.1 19.7 13.9 8.1 3.6 2.7 -0.6 -0.6 -0.6 1.9 4 3.4 5.4 5.8 7.9 12.5 16.4 19.4 23.5 21.1 25.7 28.6 23.8 18.9 20.4 19.3 15.3 9.6 -0.6 -0.6 -0.6 -0.6 -0.6 -0.6 -0.6 -0.6 -0.6 -0.6 -0.6 6.3 7.8 10.5 14.5 16.9 18 15.5 11.2 7 2.2 -0.6 -0.6 3 3.5 6.6 11.2 15.8 23.4 31.2 34.2 37.7 38.5 38.9 37.6 36.1 32.8 30.5 30.6 31.4 31.3 32.9 34.7 36.5 36.5 36.2 33.9 29.8 26.9 22.6 20.5 18.5 16 11.4 7.4 3.5 -0.6 -0.6 -0.6 -0.6 -0.6 -0.6 -0.6 -0.6 -0.6 -0.6 -0.6 -0.6 -0.6 -0.6 -0.6 -0.6 -0.6 6.3 11.4 13.6 18 23.6 27.8 31.1 34.2 37.9 44.4 52.7 59.1 63.2 67.4 70.2 69.8 66.7 63.5 60.4 57.5 54.8 55.2 57 55.1 52.4 48.1 46.2 43.1 41.6 38.7 33.1 26.1 22.1 18.7 16.5 12.3 7.7 4.5 2.1 -0.6 1 0.9 1.8 1.6 2.7 3.4 8.6 12.3 14.5 16.4 15.7
50 43.5 39.7 36.4 33 31.9 33.6 35.7 38.8 45 44.2 43.2 43.8 42 38.1 34.1 29.5 24.2 16.9 10.6 8.3 10.7 14.5 20.2 24 20.7 22 26.5 21 22 12.6 14.9 15.3 22.8 29.4 38.8 42.9 40.2 35.7 31.6 27.7 21 11.9 6.6 8.5 15.4 16.8 11.3 11.2 17.8 22.5 12.8 5.9 5.9 -0.6 -0.6 -0.6 -0.6 -0.6 -0.6 -0.6 -0.6 3 7.7 12.6 16.9 19 19.9 18.3 17.3 14.5 15.3 17.9 17.7 13.9 6.3 -0.6 -0.6 -0.6 -0.6 -0.6 -0.6 -0.6 -0.6 -0.6 -0.6 -0.6 -0.6 2.3 5.7 10.4 11 11.2 11.1 8 4.6 -0.6 -0.6 -0.6 2.5 2.6 6.5 11 18.7 26.4 30.8 38.4 44.1 47.9 45.2 43 43.1 42.6 41.9 40.6 41.3 39.5 38.7 38.4 36 36.7 36.8 33.5 33.7 30 26.9 23.5 20.5 17.3 13.8 9.8 4.6 -0.6 -0.6 -0.6 -0.6 -0.6 -0.6 -0.6 -0.6 -0.6 -0.6 -0.6 -0.6 -0.6 -0.6 -0.6 -0.6 -0.6 7.2 12.7 15.1 18.3 23.9 27.9 31.6 35.7 39.1 45.6 54.6 61.5 66.6 70.6 72.3 71.4 68.2 63.6 59.1 55.6 53.7 52.3 52.1 51.1 47.9 45.6 43 37.7 35.3 33.1 27.5 22.1 17 13.8 10.6 6.6 3.6 1.5 0.8 -0.6 1.1 1.4 2.7 6.6 9 10 11.9 17.3 18.2 18.7 19.7
52.4 47.7 45 42.6 39.9 37 36.8 38.1 42.8 46.9 48.4 50.8 53.4 52.6 47.7 40.2 34.4 27.9 19 11.3 8.1 8.3 11.1 12.8 16.3 18.7 19.1 25.3 15.7 21.7 12.3 10.6 13.9 17 24.5 29.2 35.6 36.8 34.8 27.8 22.2 12.7 5.1 6.6 11 18.1 23.4 19.7 14.6 14.8 21.3 15.1 10.9 17.9 12.4 4.8 -0.6 5.3 -0.6 -0.6 -0.6 -0.6 -0.6 -0.6 6.9 11.9 16.2 17 15.8 13.7 13.5 15.6 16.6 18.6 9.9 -0.6 -0.6 -0.6 -0.6 -0.6 -0.6 -0.6 -0.6 -0.6 -0.6 -0.6 -0.6 -0.6 -0.6 -0.6 -0.6 4.1 6.7 2.8 1.4 -0.6 -0.6 -0.6 -0.6 2.2 1.5 7 13.2 18.4 23.5 28.5 37.6 44.4 48.5 48.3 44.4 44 45.9 48.4 49.4 48.9 46.3 43.5 41 38.6 36.9 36.5 36 36.2 33.5 31.8 29.5 26.2 20.5 18.1 14.1 7.7 -0.6 -0.6 -0.6 -0.6 -0.6 -0.6 -0.6 -0.6 -0.6 -0.6 -0.6 -0.6 -0.6 -0.6 -0.6 -0.6 -0.6 5.8 13.5 16 19.9 23.8 28.8 34 39.3 42.3 48.2 54.3 60.7 67 71.6 73.5 70.7 66.5 61.8 57.1 53.1 50.6 49.3 46.4 46.8 43.3 41.9 40.3 35.3 29.6 26.1 20.5 15.5 12.8 9.2 6 -0.6 -0.6 -0.6 0.4 -0.6 1 5 9.5 14.4 17.4 18.2 19.8 23.2 24.4 25.3 25.7
50.2 47.3 46 44.2 44.4 47.8 46 42.7 45.7 48.7 54.4 60.9 61.8 55.8 47.7 43.7 37.3 29.9 20.1 12.6 7.9 7 7.6 9.3 10.8 10 11.1 13.2 11.3 10.6 7.3 11.8 14.5 14.9 19.2 19 27 29.4 28.8 21.8 11.5 5.3 -0.6 4.5 9.6 14.7 18.1 22.6 24 20.5 12.1 14.6 17.2 15 16 10.8 4.9 1.9 -0.6 -0.6 -0.6 -0.6 -0.6 -0.6 -0.6 5.1 8 8.8 14.7 16 14.4 17.6 11.8 10.4 -0.6 -0.6 -0.6 -0.6 -0.6 -0.6 -0.6 -0.6 -0.6 -0.6 -0.6 -0.6 -0.6 -0.6 -0.6 -0.6 -0.6 0 1.7 -0.6 -0.6 0.7 1 -0.6 -0.6 1.1 4.9 3.8 10.7 16.7 19.6 27.3 35.8 44 47 48.1 48.1 49.1 51.9 54 53 50.9 48.8 48.1 45.4 41 40.2 38 37.6 37.6 33.6 33.3 30.4 30.7 29.6 25.1 19.6 12.4 3.5 -0.6 -0.6 -0.6 -0.6 -0.6 -0.6 -0.6 -0.6 -0.6 -0.6 -0.6 -0.6 -0.6 -0.6 -0.6 -0.6 -0.6 11.1 17.6 22.3 24.6 28 34.2 39.9 45.6 51.8 57 60.7 67.3 71.1 71 66.7 60.3 56 52.9 50.7 48.1 43.4 41.4 41.1 40.3 38.7 33.9 29.5 25.8 20.5 15.8 12.1 8.8 5.5 2.6 -0.6 -0.6 -0.6 -0.6 -0.6 5.7 9.8 16.2 23.7 25.4 28.3 29.8 31.3 32.1 32.4 30.9
54.3 51.6 46.9 47.8 47.7 51.3 52.5 54.1 53.8 53.1 60.3 64.3 63.5 53.4 49.6 47.3 41.3 30.6 21 14.6 7.9 6.4 6 6.6 8.5 9.1 8.9 7.7 6 6.1 7.4 4.9 10 9.8 15.7 15.8 22.4 26.6 18.3 15.3 6.4 -0.6 -0.6 -0.6 -0.6 8.8 12.5 16.5 22.9 20 16.2 11.2 14.5 14.7 13.5 16 13.1 3.7 -0.6 -0.6 -0.6 -0.6 -0.6 -0.6 -0.6 -0.6 -0.6 6.9 12.3 14.1 17.5 22.8 8.2 -0.6 -0.6 -0.6 -0.6 -0.6 -0.6 -0.6 -0.6 -0.6 -0.6 -0.6 -0.6 -0.6 -0.6 -0.6 -0.6 -0.6 -0.6 -0.6 -0.6 -0.6 1 3.2 3.9 -0.6 -0.6 3.6 6.3 7.1 6.9 12.4 21.1 29 36 40.1 46.2 47.1 49 53.9 55.9 56.6 56.4 54.6 53.1 51.1 46.2 43.6 43.5 41.9 39.2 37.1 34.2 35 33.9 35.9 33.9 29.5 24.1 15.4 6.1 -0.6 -0.6 -0.6 -0.6 -0.6 -0.6 -0.6 -0.6 -0.6 -0.6 -0.6 -0.6 -0.6 -0.6 -0.6 -0.6 -0.6 13.3 20.6 24.4 27.4 29.5 33.6 39.4 45 51.7 56 61.7 67.8 68.4 64.1 58.9 54.2 51.7 49.4 46.9 41.7 37.9 37.1 37.7 35.7 32.7 27.1 23.9 19.5 15.1 12.3 8.8 7.1 3.2 -0.6 -0.6 -0.6 -0.6 -0.6 2.6 8.9 14 19.2 25.5 30 35.5 37.5 37.5 38.2 39.9 40
61.7 55.8 50.6 47.7 48.4 52.9 57.8 60.7 59.5 61 65.1 62.8 58.3 54.3 54.4 47.2 38.4 30.1 22.4 16.4 11.2 6.3 5.8 8.9 8.9 8.8 8.9 8.9 11.9 6 7 2.5 -0.6 3.6 6.7 9.7 13.1 19.9 15.9 6.3 -0.6 -0.6 -0.6 -0.6 -0.6 -0.6 -0.6 7.3 7 8.9 12.3 10.9 10.3 11.1 14.8 13.1 9.4 6.2 -0.6 -0.6 -0.6 -0.6 -0.6 -0.6 -0.6 -0.6 -0.6 -0.6 4.7 11.6 13.7 9.3 3.4 -0.6 -0.6 -0.6 -0.6 -0.6 -0.6 -0.6 -0.6 -0.6 -0.6 -0.6 -0.6 -0.6 -0.6 -0.6 -0.6 -0.6 -0.6 -0.6 4.1 4.8 3.9 3.3 4.5 4.3 5.1 9.6 13.6 15.8 15.9 16.3 19.6 29.6 34.9 38.4 40.3 43.2 47.2 48.8 50.9 52.9 52.4 49.5 48.2 45.4 42 40 38.9 39.8 36.2 32 33.2 35 34 33.6 32.5 29.2 24.2 15.3 6.1 -0.6 -0.6 -0.6 -0.6 -0.6 -0.6 -0.6 -0.6 -0.6 -0.6 -0.6 -0.6 -0.6 -0.6 -0.6 -0.6 -0.6 14.2 20.9 24.1 25.5 32.1 36.5 42.1 45.6 49.8 55.1 61 66.3 62.5 56.7 52.8 50.4 47.3 44.8 42 35.3 32.2 32.1 30.6 28 23.2 21.7 18.4 12.7 9.5 8.7 4.9 4 -0.6 -0.6 -0.6 -0.6 -0.6 -0.6 7.5 15.8 21.8 24 33 40.5 42.7 44.7 45.2 44.9 45.5 46.3
62.8 60.3 55.6 52 55.4 53.2 62.3 61.4 63.8 66.3 66.8 61.3 59.3 56.3 54.2 46 41.1 35.8 29.5 22.2 15.4 10.8 6.9 8.6 8.9 8.9 8.9 8.9 8 5.6 5 5.7 -0.6 -0.6 -0.6 -0.6 8.2 13.1 14.5 6.5 -0.6 -0.6 -0.6 -0.6 -0.6 -0.6 -0.6 -0.6 -0.6 -0.6 -0.6 4.6 6.3 13.1 8.6 10.5 8.1 6.6 -0.6 -0.6 -0.6 -0.6 -0.6 -0.6 -0.6 -0.6 -0.6 -0.6 -0.6 -0.6 7.3 -0.6 5.7 5.5 -0.6 -0.6 -0.6 -0.6 -0.6 -0.6 -0.6 -0.6 -0.6 -0.6 -0.6 -0.6 -0.6 -0.6 -0.6 -0.6 -0.6 -0.6 2.1 5.1 7.1 6.7 4.7 7.4 10.8 14.7 15.3 18.9 24.1 26.5 29.7 32.3 37.4 41.1 39.6 39.2 42.5 44.2 44 44.6 43.9 43.9 41 38.2 35.2 33.8 33.1 32.7 31.1 31.3 31.8 34.1 33.7 32.3 29.4 25.2 19.3 10.5 -0.6 -0.6 -0.6 -0.6 -0.6 -0.6 -0.6 -0.6 -0.6 -0.6 -0.6 -0.6 -0.6 -0.6 -0.6 -0.6 -0.6 -0.6 -0.6 18.3 21.6 24.9 33.2 40.2 43.7 47.2 50.9 55.5 58.4 59.2 54.7 49.1 48.1 45.9 42.5 39.8 34.5 29.1 25.2 24.4 23.7 19.6 15.7 13.4 10.4 8 6.7 4.6 2.4 -0.6 -0.6 -0.6 -0.6 -0.6 -0.6 -0.6 14.4 27.9 37.4 36.6 43.5 49.8 56.4 54.6 54.6 53.5 51.1 50.8
58.4 58.3 58.8 59.5 66.9 56.7 59.1 62.3 60.6 62.6 67 59.3 56.5 56.8 52.6 45.2 43.2 36.6 28.7 19.8 15.4 13.1 9.3 8.8 8.9 8.9 8.9 8.9 7.8 9.7 5.7 10.4 -0.6 -0.6 -0.6 -0.6 -0.6 -0.6 8.3 12.5 -0.6 -0.6 -0.6 -0.6 -0.6 -0.6 -0.6 -0.6 -0.6 -0.6 -0.6 -0.6 -0.6 -0.6 -0.6 -0.6 -0.6 -0.6 -0.6 -0.6 -0.6 -0.6 -0.6 -0.6 -0.6 -0.6 -0.6 -0.6 -0.6 -0.6 -0.6 -0.6 -0.6 -0.6 -0.6 -0.6 -0.6 -0.6 -0.6 -0.6 -0.6 -0.6 -0.6 -0.6 -0.6 -0.6 -0.6 -0.6 -0.6 -0.6 -0.6 -0.6 2.9 5.4 5.9 5.2 3 4.8 10.6 15 19.9 23.4 26.6 29.6 34.1 37.9 39.3 40.8 43.4 41.7 39.7 38.9 38.5 39.1 38 37.5 36.1 32.4 29.7 29.3 26.3 25.6 25.9 29 31.6 32.4 28.9 27.3 26 21.9 14.3 6.7 -0.6 -0.6 -0.6 -0.6 -0.6 -0.6 -0.6 -0.6 -0.6 -0.6 -0.6 -0.6 -0.6 -0.6 -0.6 -0.6 -0.6 -0.6 -0.6 16.9 24.3 29.2 30.8 34.1 37.3 41.3 49.5 55.8 58.5 52.2 48.4 46.3 44.2 40.3 35.9 33 28 24.7 20.8 16.5 15.1 11.9 9.6 7.4 5.7 2.9 -0.6 -0.6 -0.6 -0.6 -0.6 -0.6 -0.6 -0.6 -0.6 -0.6 15 26.4 35.3 41.5 48.3 52.9 60 63.7 62 59.6 57 54.9
57.1 59.5 62.3 66 68.6 60.9 55 57.7 57.4 55.7 59.8 56.7 54.5 53.9 49.6 43.2 38.3 32.8 26.6 20 18.1 16.2 15.4 17 16.8 11.9 7.8 8.9 8.4 8.6 7.6 7 1.9 -0.6 -0.6 -0.1 -0.6 -0.6 0.5 2.2 -0.6 -0.6 -0.6 -0.6 -0.6 -0.6 -0.6 -0.6 -0.6 -0.6 -0.6 -0.6 -0.6 -0.6 -0.6 -0.6 -0.6 -0.6 -0.6 -0.6 -0.6 -0.6 -0.6 -0.6 -0.6 -0.6 -0.6 -0.6 -0.6 -0.6 -0.6 -0.6 -0.6 -0.6 -0.6 -0.6 -0.6 -0.6 -0.6 -0.6 -0.6 -0.6 -0.6 -0.6 -0.6 -0.6 -0.6 -0.6 -0.6 -0.6 -0.6 -0.6 3.2 1.8 3 2.1 2.3 3.3 9 18.6 24.4 28.9 33.9 37.9 37.8 40.1 41.8 45.2 47.6 45.1 41.3 38.8 38.1 37.5 36.1 36.1 32.7 31 28.1 25.5 21.9 21.3 21.8 22.6 26.2 28.7 25.7 26.4 21.5 16.8 9.1 -0.6 -0.6 -0.6 -0.6 -0.6 -0.6 -0.6 -0.6 -0.6 -0.6 -0.6 -0.6 -0.6 -0.6 -0.6 -0.6 -0.6 -0.6 -0.6 7.6 14.7 21.7 28 30.9 30.3 28.2 35.1 41.3 45.7 45.7 47.6 47 41.9 37.3 32.7 27.8 25 21.8 18.1 14.1 10.9 9.7 6.3 4.9 1.4 -0.6 -0.6 -0.6 -0.6 -0.6 -0.6 -0.6 -0.6 -0.6 -0.6 -0.6 9.3 18.6 27.2 36.1 48.4 56.8 61.5 64.9 67.7 66.5 63.5 60.5 58.5
55.8 57.7 65.7 69.3 66.6 62.1 58.1 52.5 59 59 52.3 58.4 56.8 54.1 48.9 44.7 39.3 33.4 26.9 23.3 24.5 23.7 23 27.4 28 17 13.2 12.5 13.9 13.5 7.4 6.2 3.2 -0.6 -0.6 4.7 3.4 -0.6 -0.6 -0.6 -0.6 -0.6 -0.6 -0.6 -0.6 -0.6 -0.6 -0.6 -0.6 -0.6 -0.6 -0.6 -0.6 -0.6 -0.6 -0.6 -0.6 -0.6 -0.6 -0.6 -0.6 -0.6 -0.6 -0.6 -0.6 -0.6 -0.6 -0.6 -0.6 -0.6 -0.6 -0.6 -0.6 -0.6 -0.6 -0.6 -0.6 5.1 -0.6 -0.6 -0.6 -0.6 -0.6 -0.6 -0.6 -0.6 -0.6 -0.6 -0.6 -0.6 -0.6 -0.6 -0.6 -0.6 -0.6 1.2 2 4.9 9.3 16.1 24.5 28.5 31.8 34.4 40 43.9 45.7 46.7 48.3 45.6 41.8 38.9 39.8 35.8 33.2 31.2 29.6 25.9 21.7 16.4 14.4 16.8 18.7 24.2 27.3 24.5 18.3 16.2 13.5 8.9 -0.6 -0.6 -0.6 -0.6 -0.6 -0.6 -0.6 -0.6 -0.6 -0.6 -0.6 -0.6 -0.6 -0.6 -0.6 -0.6 -0.6 -0.6 -0.6 -0.6 11 16.3 20 24.5 26.1 23.8 21.1 26.3 31.7 31.4 41.5 40.9 38.9 33.7 29.8 25.3 18.3 15.1 13.6 9.4 6 4 -0.6 -0.6 -0.6 -0.6 -0.6 -0.6 -0.6 -0.6 -0.6 -0.6 -0.6 -0.6 -0.6 -0.6 -0.6 12.4 22.7 33 42.8 51.2 61.2 68.1 70.7 69.5 68.9 66.4 63.1 60.2
56.3 64 70.7 72.6 71.9 69.4 67.9 55.5 59 59 59 60 61 57.6 55 50.2 45.4 40.2 32.6 24.3 24.5 28 25.7 27.1 28.5 23.3 23 26.6 28.4 25 18.2 14.3 11.3 8.4 5.8 5.3 4.5 -0.6 -0.6 -0.6 -0.6 -0.6 -0.6 -0.6 -0.6 -0.6 -0.6 -0.6 -0.6 -0.6 -0.6 -0.6 -0.6 -0.6 -0.6 -0.6 -0.6 -0.6 -0.6 -0.6 -0.6 -0.6 -0.6 -0.6 -0.6 -0.6 -0.6 -0.6 -0.6 -0.6 -0.6 -0.6 -0.6 -0.6 -0.6 -0.6 -0.6 3.8 8.4 10.4 10.7 -0.6 -0.6 -0.6 -0.6 -0.6 -0.6 -0.6 -0.6 -0.6 -0.6 -0.6 -0.6 -0.6 -0.6 -0.6 3.3 4.1 9.8 18.2 20.2 22.6 26.7 34.3 39.7 46.5 50.4 52.4 52.9 48.9 42.7 37.3 36.4 32 29.9 25.8 22.4 17.4 13 6.9 6.5 10.4 14.5 17.5 23.4 20.5 14.8 10.9 6.6 -0.6 -0.6 -0.6 -0.6 -0.6 -0.6 -0.6 -0.6 -0.6 -0.6 -0.6 -0.6 -0.6 -0.6 -0.6 -0.6 -0.6 -0.6 -0.6 -0.6 -0.6 14.4 21 25.8 28.5 25.8 19.6 15.1 18.6 23.5 25.1 33.1 32.8 28.9 23.6 21.7 16.3 7.7 4 -0.6 -0.6 -0.6 -0.6 -0.6 -0.6 -0.6 -0.6 -0.6 -0.6 -0.6 -0.6 -0.6 -0.6 -0.6 -0.6 -0.6 1.6 6.6 14.4 26.6 33.9 46.7 55.1 62.4 70.2 73.2 72.1 69.5 64.9 62.7 60.5
63.1 63.9 61 66.8 73.7 74.2 69.6 58.7 59 59 59 53.2 65.8 68.2 67.2 59.9 51.4 43.7 36.7 28.1 25.3 28.5 33.6 29.5 28.2 30.9 34.3 31.4 32.3 28.4 27.9 23.9 20.3 18.6 15.5 8.4 7.3 4.2 5.1 -0.6 -0.6 -0.6 -0.6 -0.6 -0.6 -0.6 -0.6 -0.6 -0.6 -0.6 -0.6 -0.6 -0.6 -0.6 -0.6 -0.6 -0.6 -0.6 -0.6 -0.6 -0.6 -0.6 -0.6 -0.6 -0.6 -0.6 -0.6 -0.6 -0.6 -0.6 -0.6 -0.6 -0.6 -0.6 5.5 8.4 6.3 5.3 8.7 8.5 6.3 -0.6 -0.6 -0.6 -0.6 -0.6 -0.6 -0.6 -0.6 -0.6 -0.6 -0.6 -0.6 -0.6 -0.6 -0.6 4.3 5.4 8.4 12.7 18.2 20 22.8 26.4 33.9 42.1 47.4 49.8 49.3 45.4 42.6 38.1 31.3 26.9 25 22 16.8 10.4 -0.6 -0.6 -0.6 -0.6 -0.6 -0.6 14 12 9.9 -0.6 -0.6 -0.6 -0.6 -0.6 -0.6 -0.6 -0.6 -0.6 -0.6 -0.6 -0.6 -0.6 -0.6 -0.6 -0.6 -0.6 -0.6 -0.6 -0.6 -0.6 -0.6 -0.6 21.6 33.1 34.7 29.3 20.7 13.8 10.1 13.1 15 19 20.6 20.9 17.6 13.4 11.8 8.4 -0.6 -0.6 -0.6 -0.6 -0.6 -0.6 -0.6 -0.6 -0.6 -0.6 -0.6 -0.6 -0.6 -0.6 -0.6 -0.6 -0.6 -0.6 2.2 4.6 9.2 15.4 30.5 38.6 48.1 58.6 65.7 71.1 72.3 72.5 69.1 63.8 61.2 58.9
59.8 58.3 57 59.7 65 70.1 69.3 60.3 57.8 57 59 56.8 59.1 62.4 65.5 65.9 58.3 46.8 41.3 34.8 28.3 29.5 32.2 30.9 30.3 34.8 38.4 35.1 28.5 28.5 28.5 30.1 25.5 25.8 22.1 17 8.7 8.2 11.7 6.7 -0.6 -0.6 -0.6 -0.6 -0.6 -0.6 -0.6 -0.6 -0.6 -0.6 -0.6 -0.6 -0.6 -0.6 -0.6 -0.6 -0.6 -0.6 -0.6 -0.6 -0.6 -0.6 -0.6 -0.6 -0.6 -0.6 -0.6 -0.6 -0.6 -0.6 -0.6 -0.6 -0.6 4.8 6.9 7.3 6.7 8 6.2 6 6.1 2.5 -0.6 -0.6 -0.6 -0.6 -0.6 -0.6 -0.6 -0.6 -0.6 -0.6 -0.6 -0.6 -0.6 -0.6 3.6 7.5 10 13.5 16.8 17.6 19 20.6 27.2 36.3 39.2 40.7 42.8 44.7 39.3 35.5 31 24.2 20.1 20.7 13.4 -0.6 -0.6 -0.6 -0.6 -0.6 -0.6 -0.6 -0.6 0.1 -0.6 -0.6 -0.6 -0.6 -0.6 -0.6 -0.6 -0.6 -0.6 -0.6 -0.6 -0.6 -0.6 -0.6 -0.6 -0.6 -0.6 -0.6 -0.6 -0.6 -0.6 -0.6 -0.6 10.7 26 32.4 33.4 23.5 15.7 9.7 6.1 5.7 5.6 -0.6 11.3 9.6 -0.6 -0.6 -0.6 -0.6 -0.6 -0.6 -0.6 -0.6 -0.6 -0.6 -0.6 -0.6 -0.6 -0.6 -0.6 -0.6 -0.6 -0.6 -0.6 -0.6 -0.6 1.1 2.7 7.6 13.7 20.2 30.5 42.6 54.6 62.2 66.8 70.7 70.7 68.9 66.2 62.4 59.6 58.8
45.3 47 46.3 48.3 54.7 60.6 65.1 59.6 58.8 59 59 52.1 51.6 53.7 56.9 59.4 61.1 50.8 45.2 39.3 33.2 26.9 29.8 30.2 33.2 33.6 32.4 29.5 27.9 30 31.3 27.5 28.4 29.1 27.5 23.4 15.3 10.4 10.2 8.8 -0.6 -0.6 -0.6 -0.6 -0.6 -0.6 -0.6 -0.6 -0.6 -0.6 -0.6 -0.6 -0.6 -0.6 -0.6 -0.6 -0.6 -0.6 -0.6 -0.6 -0.6 -0.6 -0.6 -0.6 -0.6 -0.6 -0.6 -0.6 -0.6 -0.6 -0.6 -0.6 -0.6 1.7 2.9 3.5 5.3 6.4 10.2 7 -0.6 -0.6 -0.6 -0.6 -0.6 -0.6 -0.6 -0.6 -0.6 -0.6 -0.6 -0.6 -0.6 -0.6 -0.6 -0.6 3.5 6.8 6.1 10.8 18.3 20.4 20.6 21.1 23 31.3 34.9 34.6 36.4 37.2 33.7 31.1 24.9 18.6 13.4 11.3 -0.6 -0.6 -0.6 -0.6 -0.6 -0.6 -0.6 -0.6 -0.6 -0.6 -0.6 -0.6 -0.6 -0.6 -0.6 -0.6 -0.6 -0.6 -0.6 -0.6 -0.6 -0.6 -0.6 -0.6 -0.6 -0.6 -0.6 -0.6 -0.6 -0.6 -0.6 -0.6 -0.6 10 21.4 25.1 24.2 14.8 9.9 5.7 -0.6 -0.6 -0.6 -0.6 -0.6 -0.6 -0.6 -0.6 -0.6 -0.6 -0.6 -0.6 -0.6 -0.6 -0.6 -0.6 -0.6 -0.6 -0.6 -0.6 -0.6 -0.6 -0.6 -0.6 1 2.1 1.6 2.5 4.5 10.8 16.7 23.6 32 43.1 52.9 63.2 68.3 68 67.2 65.1 62.3 59.9 59.6 59.4
31.1 30.2 34.6 38.5 46.5 54.1 54.3 53.5 52 55.9 55 57.6 53.3 49 49 53.4 53.7 48.6 39.5 38.9 36.4 26 28.5 27.6 25.6 26 25.5 24.5 28.4 30.7 29.6 29.4 28.2 29.2 29.4 25.2 18.1 14 11.6 11.3 12.5 -0.6 -0.6 -0.6 -0.6 -0.6 -0.6 -0.6 -0.6 -0.6 -0.6 -0.6 -0.6 -0.6 -0.6 -0.6 -0.6 -0.6 -0.6 -0.6 -0.6 -0.6 -0.6 -0.6 -0.6 -0.6 -0.6 -0.6 -0.6 -0.6 -0.6 -0.6 -0.6 7.1 7.3 7.5 7.1 6 6.2 6.6 -0.6 -0.6 -0.6 -0.6 -0.6 -0.6 -0.6 -0.6 -0.6 -0.6 -0.6 -0.6 -0.6 -0.6 -0.6 -0.6 3.5 4.9 6.4 7.3 15 20.7 21 19.9 23.3 26.9 29.4 30.6 31 32.1 30.1 24.4 18.5 15.2 7.3 -0.6 -0.6 -0.6 -0.6 -0.6 -0.6 -0.6 -0.6 -0.6 -0.6 -0.6 -0.6 -0.6 -0.6 -0.6 -0.6 -0.6 -0.6 -0.6 -0.6 -0.6 -0.6 -0.6 -0.6 -0.6 -0.6 -0.6 -0.6 -0.6 -0.6 -0.6 -0.6 -0.6 -0.6 5.7 11.5 15 12.7 8.1 -0.6 -0.6 -0.6 -0.6 -0.6 -0.6 -0.6 -0.6 -0.6 -0.6 -0.6 -0.6 -0.6 -0.6 -0.6 -0.6 -0.6 -0.6 -0.6 -0.6 -0.6 -0.6 -0.6 -0.6 -0.6 3.2 3.8 4.4 6.1 6.3 9.6 13 20.3 27.9 35.4 44.8 53.3 59.8 63.8 63.5 63.2 61.9 59.5 59.2 59.5 59.6
20 24.3 27.6 35.3 42.9 46.9 46.5 40.8 38.7 43.1 51.1 57.7 58.8 51 49 49 48.7 45.6 35.2 28.2 28.4 21.2 23.5 26 21.1 20.3 21.5 24.1 23.6 24.8 27.3 29.3 30.7 30.2 32.8 33.7 28.9 19.8 14.9 14.8 17.6 13.7 7.1 -0.6 -0.6 -0.6 -0.6 -0.6 -0.6 -0.6 -0.6 -0.6 -0.6 -0.6 -0.6 -0.6 -0.6 -0.6 -0.6 -0.6 -0.6 -0.6 -0.6 -0.6 -0.6 -0.6 -0.6 -0.6 -0.6 -0.6 -0.6 -0.6 4.5 6.2 12 21 16.9 12.5 9.5 6.8 -0.6 -0.6 -0.6 -0.6 -0.6 -0.6 -0.6 -0.6 -0.6 -0.6 -0.6 -0.6 -0.6 -0.6 -0.6 2.7 4.1 6.5 7 7.5 13.2 17 19.1 19.5 21.9 30.4 34.6 33.3 32.2 27.6 27.2 18.9 14.4 9.2 -0.6 -0.6 -0.6 -0.6 -0.6 -0.6 -0.6 -0.6 -0.6 -0.6 -0.6 -0.6 -0.6 -0.6 -0.6 -0.6 -0.6 -0.6 -0.6 -0.6 -0.6 -0.6 -0.6 -0.6 -0.6 -0.6 -0.6 -0.6 -0.6 -0.6 -0.6 -0.6 -0.6 -0.6 -0.6 -0.6 -0.6 -0.6 -0.6 -0.6 -0.6 -0.6 -0.6 -0.6 -0.6 -0.6 -0.6 -0.6 -0.6 -0.6 -0.6 -0.6 -0.6 -0.6 -0.6 -0.6 -0.6 -0.6 -0.6 -0.6 -0.6 2.3 3.4 2.5 3.9 5.3 7.7 9.6 10.7 12.8 14.5 18.2 22.8 28.7 36.4 44.7 51.5 56.3 59.1 59.1 59.5 59.8 57.7 58.9 59.2 59.1
13 15.9 21.6 29.4 35.4 38.9 38.4 34.1 32.2 32.2 38.3 50.5 56.2 61.6 55.6 51.5 46.5 40 28.4 24.5 22.3 20.4 21.6 22.3 20.4 20.4 20.4 25.6 25.7 23.3 24.8 30.3 35.9 38.6 36.6 35 31.5 24.5 19.8 15.4 17.7 23.4 15.1 5.5 2.4 -0.6 -0.6 -0.6 -0.6 -0.6 -0.6 -0.6 4.2 -0.6 -0.6 -0.6 -0.6 -0.6 -0.6 -0.6 -0.6 -0.6 -0.6 -0.6 -0.6 -0.6 -0.6 -0.6 -0.6 -0.6 -0.6 -0.6 -0.6 9.5 18.7 26.1 25.7 19.8 15.7 12.1 6.8 -0.6 -0.6 -0.6 -0.6 -0.6 -0.6 -0.6 -0.6 -0.6 -0.6 -0.6 4.2 7.4 9.9 10.6 10.6 10.2 10.7 10.2 12.2 15.6 18.6 19.9 22.1 28 33.2 33.2 31.5 27.9 21.8 12.6 8.6 -0.6 -0.6 -0.6 -0.6 -0.6 -0.6 -0.6 -0.6 -0.6 -0.6 -0.6 -0.6 -0.6 -0.6 -0.6 -0.6 -0.6 -0.6 -0.6 -0.6 -0.6 -0.6 -0.6 -0.6 -0.6 -0.6 -0.6 -0.6 -0.6 -0.6 -0.6 -0.6 1.7 -0.6 -0.6 -0.6 -0.6 -0.6 -0.6 -0.6 -0.6 -0.6 -0.6 -0.6 -0.6 -0.6 -0.6 -0.6 -0.6 -0.6 -0.6 -0.6 -0.6 -0.6 -0.6 -0.6 -0.6 5.3 5.8 7.1 8.5 10.3 8.6 7.8 9.4 8.8 9.3 14.7 20.5 18.9 17.9 19.3 22.9 28.7 28.5 36.9 42.5 48 50.8 53.5 55.5 57 58.4 57.6 58.4 59.9 59.6
9.4 12.5 16 22.5 26.5 31.6 29.9 27.9 26.5 27.1 27.5 33.7 47.3 54.9 55.9 54.2 46 42.6 36.1 23.8 20.6 23.8 18.7 19.4 20.4 20.4 20.1 24.6 25.7 25.7 23.9 34.5 41.8 43 43 38.7 33 29.5 20.7 16.8 16.8 24.6 28.7 14.7 9.9 -0.6 -0.6 -0.6 -0.6 -0.6 -0.6 -0.6 4.5 -0.6 -0.6 -0.6 -0.6 -0.6 -0.6 -0.6 -0.6 -0.6 -0.6 -0.6 -0.6 -0.6 -0.6 -0.6 -0.6 -0.6 -0.6 -0.6 -0.6 -0.6 17.6 24.6 26.7 23.2 21.6 17.3 10.9 -0.6 -0.6 -0.6 -0.6 -0.6 -0.6 -0.6 -0.6 -0.6 -0.6 -0.6 2 6.6 13.6 18.8 18.3 17.5 16.4 14.6 16.7 16.1 15.9 17.4 16.4 24.4 32.9 33 29.9 23.6 18.3 8.8 -0.6 -0.6 -0.6 -0.6 -0.6 -0.6 -0.6 -0.6 -0.6 -0.6 -0.6 -0.6 -0.6 -0.6 -0.6 -0.6 -0.6 -0.6 -0.6 -0.6 -0.6 -0.6 -0.6 -0.6 -0.6 -0.6 -0.6 -0.6 -0.6 -0.6 -0.6 -0.6 -0.6 -0.6 -0.6 -0.6 -0.6 -0.6 -0.6 -0.6 -0.6 -0.6 -0.6 -0.6 -0.6 -0.6 -0.6 -0.6 -0.6 -0.6 -0.6 -0.6 -0.6 -0.6 -0.6 -0.6 3.1 8.7 11.1 12.3 14 15.1 16.7 16.3 15.2 16.1 16.4 16.2 19.7 23.2 23.1 24.6 27.5 29.6 32.5 34.6 36.2 39.4 43.6 46 49.6 52.4 54.9 56.4 58.2 59.4 60.7 62.7
7.4 15.3 20.1 21.8 22 21.1 25.6 27.5 27.7 27.4 24 22.6 29.3 43.4 49 48.2 39 34.6 34.7 24.7 20.4 22.5 17.6 18.3 20.6 23.3 23.3 23.8 25.7 25.7 27.9 38.8 45.9 49.8 46.8 40.3 32.2 24.4 18.7 17.1 20.6 22.9 20.7 16.3 10 6.8 -0.6 -0.6 -0.6 -0.6 -0.6 -0.6 -0.5 -0.6 -0.6 -0.6 -0.6 -0.6 -0.6 -0.6 -0.6 -0.6 -0.6 -0.6 -0.6 -0.6 -0.6 -0.6 -0.6 -0.6 -0.6 -0.6 -0.6 -0.6 -0.6 11.1 25.7 24.2 21 18.4 14.1 5.2 -0.6 -0.6 -0.6 -0.6 -0.6 -0.6 -0.6 -0.6 -0.6 -0.6 4 7.8 13.9 20.9 23.4 22.7 20.9 19.3 20.3 19.7 17 16 15.8 16.2 20.3 24.1 23.3 20.9 14.8 7.9 -0.6 -0.6 -0.6 -0.6 -0.6 -0.6 -0.6 -0.6 -0.6 -0.6 -0.6 -0.6 -0.6 -0.6 -0.6 -0.6 -0.6 -0.6 -0.6 -0.6 -0.6 -0.6 -0.6 -0.6 -0.6 -0.6 -0.6 -0.6 -0.6 -0.6 -0.6 -0.6 -0.6 -0.6 -0.6 -0.6 -0.6 -0.6 -0.6 -0.6 -0.6 -0.6 -0.6 -0.6 -0.6 -0.6 -0.6 -0.6 -0.6 -0.6 -0.6 -0.6 -0.6 -0.6 -0.6 6.2 7.2 12.1 13.7 16.8 19.6 20.9 21.6 22.1 23.4 23.1 23.3 24.3 30.7 29.8 27.6 36.5 39.7 38.5 39.3 40.5 42.5 44.8 47 49.8 51 54.3 56.6 57.8 59.6 60.9 62.5 64.6
-0.6 -0.6 26.6 23.8 21.4 21.2 26.1 23.1 15.4 17.3 11.3 12.9 17.2 24.3 31.5 33.8 28.5 23 24 26.5 20.8 19.3 17 18.6 18.4 21.9 24.9 23.6 23.3 22.3 33.3 45 52.2 51.7 47.8 41 34.9 25 17.1 15.3 16.2 15.8 17.2 20.6 19.1 4.4 -0.6 -0.6 -0.6 -0.6 -0.6 -0.6 -0.6 -0.6 -0.6 -0.6 -0.6 -0.6 -0.6 -0.6 -0.6 -0.6 -0.6 -0.6 -0.6 -0.6 -0.6 -0.6 -0.6 -0.6 -0.6 -0.6 -0.6 -0.6 -0.6 -0.6 8.1 14.3 17.8 16.5 11.4 6.1 -0.6 -0.6 -0.6 -0.6 -0.6 -0.6 -0.6 -0.6 -0.6 -0.6 0.7 10.4 16.9 21.7 25.8 24.5 25.4 24.5 25.5 23.3 20.4 16.7 16.3 17.1 18.4 16.8 15.6 17.7 11.2 8.3 -0.6 -0.6 -0.6 -0.6 -0.6 -0.6 -0.6 -0.6 -0.6 -0.6 -0.6 -0.6 -0.6 -0.6 -0.6 -0.6 -0.6 -0.6 -0.6 -0.6 -0.6 -0.6 -0.6 -0.6 -0.6 -0.6 -0.6 -0.6 -0.6 -0.6 -0.6 -0.6 -0.6 -0.6 -0.6 -0.6 -0.6 -0.6 -0.6 -0.6 -0.6 -0.6 -0.6 -0.6 -0.6 -0.6 -0.6 -0.6 -0.6 6.4 7.7 8.3 10.2 10.6 11.2 13.6 15.7 16.5 19.8 23.1 25.8 27.1 28.7 30 30 29.9 29.7 29.9 31 32.1 33.4 43.5 46.3 45.7 46 47.7 48.6 50.6 51.8 54.3 55 57.3 59.3 60.5 61.7 62.8 64 65.9
-0.6 -0.6 -0.6 -0.6 23.6 24.8 28.7 22.5 12.2 -0.6 -0.6 -0.6 -0.6 9 23.4 25.9 20.2 16.8 18.5 21.6 18.8 14.9 13.9 13.6 15.5 20.9 20.9 22.9 28.4 36.9 45.4 51.5 57.3 54.7 53 46.9 36.6 29 23.8 17.7 14.4 14 13.6 21.1 24 7 -0.6 -0.6 -0.6 -0.6 -0.6 -0.6 -0.6 -0.6 -0.6 -0.6 -0.6 -0.6 -0.6 -0.6 -0.6 -0.6 -0.6 -0.6 -0.6 -0.6 -0.6 -0.6 -0.6 -0.6 -0.6 -0.6 -0.6 -0.6 -0.6 -0.6 -0.6 6 5.4 7 6.6 5.2 -0.6 -0.6 -0.6 -0.6 -0.6 -0.6 -0.6 -0.6 -0.6 -0.6 -0.6 7.5 12.6 18.4 25 26.6 28.3 28.3 27.9 24.8 21.5 20.3 20.2 19.5 17.1 15.8 14.8 14.2 9.4 -0.6 -0.6 -0.6 -0.6 -0.6 -0.6 -0.6 -0.6 -0.6 -0.6 -0.6 -0.6 -0.6 -0.6 -0.6 -0.6 -0.6 -0.6 -0.6 -0.6 -0.6 -0.6 -0.6 -0.6 -0.6 -0.6 -0.6 -0.6 -0.6 -0.6 -0.6 -0.6 -0.6 -0.6 -0.6 -0.6 -0.6 -0.6 -0.6 -0.6 -0.6 -0.6 -0.6 -0.6 -0.6 -0.6 -0.6 -0.6 7.2 10.9 14.7 17.1 16.9 19.2 20.1 21 21.1 23.8 25.3 26.4 28.3 30.8 34.7 35.9 34.9 36 36 36.6 36.9 35.9 34.7 37.5 45.9 51.9 50.2 52.5 54 54.7 56.6 56.8 58.4 59 60 61.9 64 64.6 65.2 66.5 67.6
-0.6 -0.6 -0.6 -0.6 0.5 20.5 18.2 17.1 9.9 -0.6 -0.6 -0.6 -0.6 -0.6 6.1 13.5 11.5 17 20.3 28.2 22.3 12.7 13.4 14.9 14.1 17.5 22.9 23.5 35 41.7 48 54.3 55.3 55.1 56.9 53.5 43.9 41.4 34.1 30.5 24.5 19.3 13.4 12.9 12.9 8.2 -0.6 -0.6 -0.6 -0.6 -0.6 -0.6 -0.6 -0.6 -0.6 -0.6 -0.6 -0.6 -0.6 -0.6 -0.6 -0.6 -0.6 -0.6 -0.6 -0.6 -0.6 -0.6 -0.6 -0.6 -0.6 -0.6 -0.6 -0.6 -0.6 -0.6 -0.6 -0.6 -0.6 -0.6 -0.6 6 -0.6 -0.6 -0.6 -0.6 -0.6 -0.6 -0.6 -0.6 -0.6 -0.6 3.5 8.1 12.8 19.7 28.5 30.1 31.4 31.7 27.6 25 21.6 17.5 17.5 15.8 13.8 15.6 17.5 16.7 7.9 -0.6 -0.6 -0.6 -0.6 -0.6 -0.6 -0.6 -0.6 -0.6 -0.6 -0.6 -0.6 -0.6 -0.6 -0.6 -0.6 -0.6 -0.6 -0.6 -0.6 -0.6 -0.6 -0.6 -0.6 -0.6 -0.6 -0.6 -0.6 -0.6 -0.6 -0.6 -0.6 -0.6 -0.6 -0.6 -0.6 -0.6 -0.6 -0.6 -0.6 -0.6 -0.6 -0.6 -0.6 -0.6 -0.6 5.2 11.6 14.5 16.4 21.7 24.2 24.5 25.7 27.1 28.3 29.5 29.8 30.6 31.4 32.5 35.2 41.2 41.3 40.2 41.9 41.8 42.3 41.4 39.1 36.9 38.4 43.2 48.6 55.7 56.8 60.2 62.2 61.7 62.6 61.5 62.3 63.9 65.7 66.5 67.1 68.2 70 71.4
-0.6 -0.6 -0.6 -0.6 -0.6 -0.6 -0.6 -0.6 -0.6 5.6 0.8 -0.6 -0.6 -0.6 -0.6 -0.6 6 21.2 28.9 32.1 28.2 18 11.8 13.7 17.3 20.2 16.4 25.2 37.7 42.2 48.3 52.1 53.4 54.9 54.3 52.8 48.4 49.7 40.1 33.9 31.7 24.1 15.3 21.2 22.3 15 8 -0.6 -0.6 -0.6 -0.6 -0.6 -0.6 -0.6 -0.6 -0.6 -0.6 -0.6 -0.6 -0.6 -0.6 -0.6 -0.6 -0.6 -0.6 -0.6 -0.6 -0.6 -0.6 -0.6 -0.6 -0.6 -0.6 -0.6 -0.6 -0.6 -0.6 -0.6 -0.6 -0.6 -0.6 -0.6 -0.6 -0.6 -0.6 -0.6 -0.6 -0.6 -0.6 -0.6 -0.6 -0.6 9.1 14 18.5 22.8 28 31.9 31.3 30.7 26.6 23.8 21 16.7 12.8 9.7 12.5 18.3 17.5 16.7 -0.6 -0.6 -0.6 -0.6 -0.6 -0.6 -0.6 -0.6 -0.6 -0.6 -0.6 -0.6 -0.6 -0.6 -0.6 -0.6 -0.6 -0.6 -0.6 -0.6 -0.6 -0.6 -0.6 -0.6 -0.6 -0.6 -0.6 -0.6 -0.6 -0.6 -0.6 -0.6 -0.6 -0.6 -0.6 -0.6 -0.6 -0.6 -0.6 -0.6 -0.6 -0.6 -0.6 -0.6 -0.6 -0.6 -0.6 12.1 15 18 21 27.5 30.4 31.7 32.2 33.6 34.2 35 33.8 34.6 35.4 35 37.4 40.8 42 41 42 43.2 43.7 42.4 40.6 35.9 35.9 41.8 50.1 55.9 64.8 69.1 68 66.6 67.1 66.8 66.8 66.9 67.9 69.2 69.4 71.1 72.7 73.8
-0.6 -0.6 -0.6 -0.6 -0.6 -0.6 -0.6 -0.6 -0.6 -0.6 -0.6 2.1 -0.6 -0.6 -0.6 -0.6 -0.6 8.6 16.7 26.9 28.8 20.2 7.3 8 11.4 11.8 16 24.8 33.9 40.6 47.8 48 47.7 43.6 40 42.7 45.9 45.6 38 31.7 38.4 24.6 14.8 26.4 30.3 17.4 5.4 -0.6 -0.6 -0.6 -0.6 -0.6 -0.6 -0.6 -0.6 -0.6 -0.6 -0.6 -0.6 -0.6 -0.6 -0.6 -0.6 -0.6 -0.6 -0.6 -0.6 -0.6 -0.6 -0.6 -0.6 -0.6 -0.6 -0.6 -0.6 -0.6 -0.6 -0.6 -0.6 -0.6 -0.6 -0.6 -0.6 -0.6 -0.6 -0.6 -0.6 -0.6 -0.6 -0.6 -0.6 -0.6 12.6 22 26.7 30.5 32.6 33.2 31.7 30.5 28 21.9 17.3 13.9 10.7 7.6 9.8 15.5 20.8 20.3 -0.6 -0.6 -0.6 -0.6 -0.6 -0.6 -0.6 -0.6 -0.6 -0.6 -0.6 -0.6 -0.6 -0.6 -0.6 -0.6 -0.6 -0.6 -0.6 -0.6 -0.6 -0.6 -0.6 -0.6 -0.6 -0.6 -0.6 -0.6 -0.6 -0.6 -0.6 -0.6 -0.6 -0.6 -0.6 -0.6 -0.6 -0.6 -0.6 -0.6 -0.6 -0.6 -0.6 -0.6 -0.6 -0.6 7.1 13.1 17.1 22 25.5 33.4 35.2 38.4 38.2 39.8 40.2 39.9 38.4 38.4 37 36.1 37.8 42 43.5 42 39.7 41 43.5 39.1 37 32.3 36 40.4 47.5 57.9 70.7 74.3 73 71.2 71.1 71.1 69.7 68.9 69.9 70.9 71.9 72.5 74 74.7
-0.6 -0.6 -0.6 -0.6 -0.6 -0.6 -0.6 -0.6 -0.6 -0.6 -0.6 -0.6 -0.6 -0.6 -0.6 -0.6 -0.6 1.1 10.6 14.1 18 16.6 8.7 8.5 8.5 8.5 10.4 19.5 32.5 40 44.2 44.1 42.8 33.3 25.7 31 36.7 38.1 35.5 25 18.5 -0.6 8.2 22 29.8 18.8 6.3 -0.6 -0.6 -0.6 -0.6 -0.6 -0.6 -0.6 -0.6 -0.6 -0.6 -0.6 -0.6 -0.6 -0.6 -0.6 -0.6 -0.6 -0.6 -0.6 -0.6 -0.6 -0.6 -0.6 -0.6 -0.6 -0.6 -0.6 -0.6 -0.6 -0.6 -0.6 -0.6 -0.6 -0.6 -0.6 -0.6 -0.6 -0.6 -0.6 -0.6 -0.6 -0.6 -0.6 -0.6 -0.6 16.8 27.3 35 37.5 40 39.4 35.2 31.5 28.4 23.9 17.1 12.3 8.2 6.5 8.2 7.8 11.8 15.7 -0.6 -0.6 -0.6 -0.6 -0.6 -0.6 -0.6 -0.6 -0.6 -0.6 -0.6 -0.6 -0.6 -0.6 -0.6 -0.6 -0.6 -0.6 -0.6 -0.6 -0.6 -0.6 -0.6 -0.6 -0.6 -0.6 -0.6 -0.6 -0.6 -0.6 -0.6 -0.6 -0.6 -0.6 -0.6 -0.6 -0.6 -0.6 -0.6 -0.6 -0.6 -0.6 -0.6 -0.6 -0.6 -0.6 8.4 15.1 20.5 25.4 32.1 36.6 40.6 43.7 43.4 43.6 43.8 42.6 40.5 39.1 37.5 35.4 36.7 41.1 45.4 44.1 39.1 35.3 36.3 33.9 30.4 30.6 33.3 40 47.5 57.8 64 72.8 74.2 75.7 75.7 74 72.3 71.1 71.1 70.8 72.8 74.1 75.2 73.9
-0.6 -0.6 -0.6 -0.6 -0.6 -0.6 -0.6 -0.6 -0.6 -0.6 -0.6 -0.6 -0.6 -0.6 -0.6 -0.6 -0.6 -0.6 -0.6 7.7 9.2 12.3 8.7 8.5 8.5 8.5 9.7 16.7 27.3 38.6 39.6 36.3 32.4 26.8 20 19.5 21.2 22.5 -0.6 -0.6 -0.6 -0.6 -0.6 -0.6 16.7 17.2 14.3 -0.6 -0.6 -0.6 -0.6 -0.6 -0.5 -0.6 -0.6 -0.6 -0.6 -0.6 -0.6 -0.6 -0.6 -0.6 -0.6 -0.6 -0.6 -0.6 -0.6 -0.6 -0.6 -0.6 -0.6 -0.6 -0.6 -0.6 -0.6 -0.6 -0.6 -0.6 -0.6 -0.6 -0.6 -0.6 -0.6 -0.6 -0.6 -0.6 -0.6 -0.6 -0.6 -0.6 -0.6 17.3 28.2 33.9 40 42 44.9 43.7 37.6 33.8 30.2 25.2 19 12.4 6.2 -0.6 8.8 6.5 9.5 20.6 15.2 -0.6 -0.6 -0.6 -0.6 -0.6 -0.6 -0.6 -0.6 -0.6 -0.6 -0.6 -0.6 -0.6 -0.6 -0.6 -0.6 -0.6 -0.6 -0.6 -0.6 -0.6 -0.6 -0.6 -0.6 -0.6 -0.6 -0.6 -0.6 -0.6 -0.6 -0.6 -0.6 -0.6 -0.6 -0.6 -0.6 -0.6 -0.6 -0.6 -0.6 -0.6 -0.6 -0.6 -0.6 6.2 13.2 17.8 23.1 30 36.4 41.3 44.7 46.6 47.7 47.7 46.1 43.3 39.9 38.5 35.7 32.1 33.7 37.3 44.1 37.8 32.1 29.4 28.1 28.3 28.2 25.2 29.9 36.2 44.8 55 59.1 64 72.5 76.2 77.8 77.8 74.9 71.7 69.8 69.7 71.7 71.6 71.2 71.8
-0.6 -0.6 -0.6 -0.6 -0.6 -0.6 -0.6 -0.6 -0.6 -0.6 -0.6 -0.6 -0.6 -0.6 -0.6 -0.6 -0.6 -0.6 -0.6 8 14.3 15.9 11.8 8.5 8.5 8.5 12.2 18.6 23.6 19.2 19.7 18.7 18.2 21.7 18.8 19.9 17.8 -0.6 -0.6 -0.6 -0.6 -0.6 -0.6 -0.6 -0.6 12.8 11.9 4.1 -0.6 -0.6 -0.6 -0.6 -0.6 -0.6 -0.6 -0.6 -0.6 -0.6 -0.6 -0.6 -0.6 -0.6 -0.6 -0.6 -0.6 -0.6 -0.6 -0.6 -0.6 -0.6 -0.6 -0.6 -0.6 -0.6 -0.6 -0.6 -0.6 -0.6 -0.6 -0.6 -0.6 -0.6 -0.6 -0.6 -0.6 -0.6 -0.6 -0.6 -0.6 -0.6 -0.6 18.4 29.1 33.9 39.8 42.4 45.6 43.1 38.1 35 31.6 24.5 17.4 11.2 -0.6 -0.6 -0.6 5.7 -0.6 -0.6 9.3 -0.6 -0.6 -0.6 -0.6 -0.6 -0.6 -0.6 -0.6 -0.6 -0.6 -0.6 -0.6 -0.6 -0.6 -0.6 -0.6 -0.6 -0.6 -0.6 -0.6 -0.6 -0.6 -0.6 -0.6 -0.6 -0.6 -0.6 -0.6 -0.6 -0.6 -0.6 -0.6 -0.6 -0.6 -0.6 -0.6 -0.6 -0.6 -0.6 -0.6 -0.6 -0.6 -0.6 5.5 9.4 16.1 21.2 25.7 32.5 39.4 43.5 44.6 45 45.9 46.4 45.5 42 35.8 32.3 29.9 27.8 28.1 30 28.5 28.7 25.4 24.6 24.8 23.8 22.3 18.2 26.1 30.6 39 44.7 52.7 58.8 66.2 71.8 75.3 76.5 75.9 73 70.2 67.8 67.1 68 66.7 66.5
-0.6 -0.6 -0.6 -0.6 -0.6 -0.6 -0.6 -0.6 -0.6 -0.6 -0.6 -0.6 -0.6 -0.6 -0.6 -0.6 -0.6 2 3.4 11.2 21.6 26.2 19.6 7.8 8.5 8.5 8.5 5.6 11.5 13.6 12.5 14.9 19.3 18.7 16.6 12.4 11.8 -0.6 -0.6 -0.6 -0.6 -0.6 -0.6 -0.6 -0.6 0.7 0.6 -0.6 -0.6 -0.6 -0.6 -0.6 -0.6 -0.6 -0.6 -0.6 -0.6 -0.6 -0.6 -0.2 -0.1 -0.6 -0.6 -0.6 -0.6 -0.6 -0.6 -0.6 -0.6 -0.6 -0.6 -0.6 -0.6 -0.6 -0.6 -0.6 -0.6 -0.6 -0.6 -0.6 -0.6 -0.6 -0.6 -0.6 -0.6 -0.6 -0.6 -0.6 -0.6 -0.6 -0.6 15.6 27.4 36.5 40.8 42 44.5 40.7 38.3 35.3 30.3 22.8 14.2 8.1 -0.6 -0.6 -0.6 -0.6 -0.6 -0.6 -0.6 -0.6 -0.6 -0.6 -0.6 -0.6 -0.6 -0.6 -0.6 -0.6 -0.6 -0.6 -0.6 -0.6 -0.6 -0.6 -0.6 -0.6 -0.6 -0.6 -0.6 -0.6 -0.6 -0.6 -0.6 -0.6 -0.6 -0.6 -0.6 -0.6 -0.6 -0.6 -0.6 -0.6 -0.6 -0.6 -0.6 -0.6 -0.6 -0.6 -0.6 -0.6 -0.6 -0.6 8.8 12.1 18.5 24.1 27.7 33.1 42.1 41.3 42.7 41 41.5 40.6 40.6 38.5 33.1 26.8 24.4 23.4 22.7 20.4 19.1 18.9 18.8 19.6 20.5 19.6 16.6 13.4 17.3 21.6 30.1 38.7 45.2 51.9 59.6 66.3 72.7 73.5 75.4 75.1 72.4 67 63.7 63.5 62.3 61.8
-0.6 -0.6 -0.6 -0.6 -0.6 -0.6 -0.6 -0.6 -0.6 -0.6 -0.6 -0.6 -0.6 -0.6 -0.6 -0.6 -0.6 0.8 7.4 9.2 21.4 29 23.8 12.1 8.5 13.2 19.9 13.1 10.2 3.2 -0.6 -0.6 -0.6 -0.6 -0.6 13.3 -0.6 -0.6 -0.6 -0.6 -0.6 -0.6 -0.6 -0.6 -0.6 -0.6 -0.6 -0.6 -0.6 -0.6 -0.6 -0.6 -0.6 -0.6 -0.6 -0.6 -0.6 -0.6 -0.6 3.7 6.1 4.2 -0.6 -0.6 -0.6 -0.6 -0.6 -0.6 -0.6 -0.6 -0.6 -0.6 -0.6 -0.6 -0.6 -0.6 -0.6 -0.6 -0.6 -0.6 -0.6 -0.6 -0.6 -0.6 -0.6 -0.6 -0.6 -0.6 -0.6 -0.6 -0.6 16.4 32.9 38.5 41.1 44.1 43.5 38 36.6 34.5 26.9 17.1 8.8 -0.6 -0.6 -0.6 -0.6 -0.6 -0.6 -0.6 -0.6 -0.6 -0.6 -0.6 -0.6 -0.6 -0.6 -0.6 -0.6 -0.6 -0.6 -0.6 -0.6 -0.6 -0.6 -0.6 -0.6 -0.6 -0.6 -0.6 -0.6 -0.6 -0.6 -0.6 -0.6 -0.6 -0.6 -0.6 -0.6 -0.6 -0.6 -0.6 -0.6 -0.6 -0.6 -0.6 -0.6 -0.6 -0.6 -0.6 -0.6 -0.6 -0.6 6.8 11.5 15.6 18.9 25.2 28.4 32.7 36.3 36.6 36.9 35.7 34.4 34 34.3 33.1 28.3 23.7 19.7 19.2 14.1 11.3 11.8 12.3 12.5 14 14.7 13.4 11.9 11.1 11 11.7 22.8 32.5 40 47.4 55.9 63.5 65.4 71 72.7 72.8 73 69.9 64 60.6 58.4 57.7
-0.6 -0.6 -0.6 -0.6 -0.6 -0.6 -0.6 -0.6 -0.6 -0.6 -0.6 -0.6 -0.6 -0.6 -0.6 -0.6 -0.6 -0.6 -0.6 5.6 11.5 16.7 17.4 8.7 8.6 21.5 26.7 16.3 15.3 12.6 -0.6 -0.6 -0.6 -0.6 -0.6 -0.5 -0.6 -0.6 -0.6 -0.6 -0.6 -0.6 -0.6 -0.6 -0.6 -0.6 -0.6 -0.6 -0.6 -0.6 -0.6 -0.6 -0.6 -0.6 -0.6 -0.6 -0.6 -0.6 7.8 9.1 9.7 8.9 8.1 8.4 7.4 6.1 5.4 -0.6 -0.6 -0.6 -0.6 -0.6 -0.6 -0.6 -0.6 -0.6 -0.6 -0.6 -0.6 -0.6 -0.6 -0.6 -0.6 -0.6 -0.6 -0.6 -0.6 -0.6 -0.6 -0.6 -0.6 18.8 30.9 36.8 41.1 43.9 42 39.3 36.2 32 24.4 14.6 7.2 -0.6 -0.6 -0.6 -0.6 -0.6 -0.6 -0.6 -0.6 -0.6 -0.6 -0.6 -0.6 -0.6 -0.6 -0.6 -0.6 -0.6 -0.6 -0.6 -0.6 -0.6 -0.6 -0.6 -0.6 -0.6 -0.6 -0.6 -0.6 -0.6 -0.6 -0.6 -0.6 -0.6 -0.6 -0.6 -0.6 -0.6 -0.6 -0.6 -0.6 -0.6 -0.6 -0.6 -0.6 -0.6 -0.6 -0.6 -0.6 -0.6 4.6 10.9 15 18.4 20.5 24.7 28.4 31.1 31 31.4 31.6 30.3 28.8 27.1 27.1 24.4 20.8 17.2 14.3 10.3 6.8 3.6 4.9 7.4 6.3 7.4 6.6 7.6 7.7 9 7.7 8.4 13.8 24.3 33.1 39.8 47.4 54.9 62.6 66.3 68.2 68.6 69.3 69 67.2 60.9 56.5 54.1
-0.6 -0.6 -0.6 -0.6 -0.6 -0.6 -0.6 -0.6 -0.6 -0.6 -0.6 -0.6 -0.6 -0.6 -0.6 -0.6 -0.6 -0.6 -0.6 2.4 15 13.8 8.9 8.5 13.3 23.5 29.4 21.7 19.6 16.9 11.1 -0.6 -0.6 -0.6 -0.6 -0.6 -0.6 -0.6 -0.6 -0.6 -0.6 -0.6 -0.6 -0.6 -0.6 -0.6 -0.6 -0.6 -0.6 -0.6 -0.6 -0.6 -0.6 -0.6 -0.6 -0.6 -0.6 9.7 17.4 17 16.3 14.4 16 17.8 18.9 15.3 13.1 11.9 11.1 6.4 -0.6 -0.6 -0.6 -0.6 -0.6 -0.6 -0.6 -0.6 -0.6 -0.6 -0.6 -0.6 -0.6 -0.6 -0.6 -0.6 -0.6 -0.6 -0.6 -0.6 -0.6 22.6 31.8 34.9 40.4 39.8 38 38.2 36.3 32.5 21.8 12.4 -0.6 -0.6 -0.6 -0.6 -0.6 -0.6 -0.6 -0.6 -0.6 -0.6 -0.6 -0.6 -0.6 -0.6 -0.6 -0.6 -0.6 -0.6 -0.6 -0.6 -0.6 -0.6 -0.6 -0.6 -0.6 -0.6 -0.6 -0.6 -0.6 -0.6 -0.6 -0.6 -0.6 -0.6 -0.6 -0.6 6.4 9.3 9 7 -0.6 -0.6 -0.6 -0.6 -0.6 -0.6 -0.6 -0.6 -0.6 -0.6 9 15.6 17.5 19.5 22.1 22.2 27.2 28.9 25.3 25 24.3 24.1 23 20 17.7 16.5 13.9 11.2 7.9 4.2 -0.6 -0.6 0.7 2.5 3.6 3.3 3.9 4.5 5 6.7 7.4 7.1 10.4 17.4 25 32.2 41.5 47.3 54.9 57.6 61.2 63.7 64.1 65.4 64.3 59.4 53.9 52
-0.6 -0.6 -0.6 -0.6 -0.6 -0.6 -0.6 -0.6 -0.6 -0.6 -0.6 -0.6 -0.6 -0.6 -0.6 -0.6 -0.6 6.3 13.6 16.2 20.3 15.4 11.3 9.2 14.2 26.1 -0.6 -0.6 22.4 19.8 14.2 -0.6 -0.6 -0.6 -0.6 -0.6 -0.6 -0.6 -0.6 -0.6 -0.6 -0.6 -0.6 -0.6 -0.6 -0.6 -0.6 -0.6 -0.6 -0.6 -0.6 -0.6 -0.6 -0.6 -0.6 -0.6 9.8 13.4 17.3 20.3 21.2 17.7 20 21.9 22.1 20.9 19.2 19.3 15.6 11.5 6.1 -0.6 -0.6 -0.6 -0.6 -0.6 -0.6 -0.6 -0.6 -0.6 -0.6 -0.6 -0.6 -0.6 -0.6 -0.6 -0.6 -0.6 -0.6 -0.6 -0.6 14.4 27.5 32.1 36.5 39.8 37.3 33.8 30.6 25.7 20.6 -0.6 -0.6 -0.6 -0.6 -0.6 -0.6 -0.6 -0.6 -0.6 -0.6 -0.6 -0.6 -0.6 -0.6 -0.6 -0.6 -0.6 -0.6 -0.6 -0.6 -0.6 -0.6 -0.6 -0.6 -0.6 -0.6 -0.6 -0.6 -0.6 -0.6 -0.6 -0.6 -0.6 -0.6 7.7 13 16.3 15.7 13.3 12.5 13.7 9.2 4.6 -0.6 -0.6 -0.6 -0.6 -0.6 -0.6 -0.6 -0.6 7.5 12.9 14.2 16.4 19.1 19.5 20.2 20.9 19.7 19.1 19.2 19.1 14.3 10.8 8.9 9.5 8.2 7.2 5.9 -0.6 -0.6 -0.6 -0.1 0.4 0.8 1.2 2.2 2.8 4.7 4.5 6.8 6.5 7.7 10 16.7 24.1 29.6 36.3 41.1 47.3 53.9 56.3 56.9 56.5 58.2 53.7 50 47.6
-0.6 -0.6 -0.6 -0.6 -0.6 -0.6 -0.6 -0.6 -0.6 -0.6 -0.6 -0.6 -0.6 -0.6 -0.6 -0.6 12.7 23.4 30.4 27.4 20 11.7 11.3 14.9 16.6 -0.6 -0.6 -0.6 0.4 -0.6 -0.6 -0.6 -0.6 -0.6 -0.6 -0.6 -0.6 -0.6 -0.6 -0.6 -0.6 -0.6 -0.6 -0.6 -0.6 -0.6 -0.6 -0.6 -0.6 -0.6 -0.6 -0.6 -0.6 -0.6 15 18.8 18.7 19.8 20.4 21.3 27.7 29.3 23.6 21.8 20 19.2 21.3 22.1 20.7 12.1 8.8 2.7 -0.6 -0.6 -0.6 -0.6 -0.6 -0.6 -0.6 -0.6 -0.6 -0.6 -0.6 -0.6 -0.6 -0.6 -0.6 -0.6 -0.6 -0.6 -0.6 8.4 20.3 30.2 36 38.7 36.7 33.1 27 20.7 -0.6 -0.6 -0.6 -0.6 -0.6 -0.6 -0.6 -0.6 -0.6 -0.6 -0.6 -0.6 -0.6 -0.6 -0.6 -0.6 -0.6 -0.6 -0.6 -0.6 -0.6 -0.6 -0.6 -0.6 -0.6 -0.6 -0.6 -0.6 9.1 16.2 16.2 16.9 13 8.6 4.1 17.4 18.1 25.1 26.4 22.5 25 19 15 10.6 5.5 -0.6 -0.6 -0.6 -0.6 -0.6 -0.6 -0.6 -0.6 7.3 11.4 13.1 16.5 16.7 15.1 13.6 14.2 13.7 13.5 10.3 4.6 -0.6 -0.6 -0.6 3.7 3.9 -0.6 -0.6 -0.6 -0.6 -0.6 0.1 0.7 2.5 3.8 3.5 5.6 6.9 7.8 8.6 8.3 9.4 12.6 17.1 21.1 25.9 32.3 37.6 42.9 45.4 47.9 47.7 48.8 49.5 47.5 43.7
-0.6 -0.6 -0.6 -0.6 -0.6 -0.6 -0.6 -0.6 -0.6 -0.6 -0.6 -0.6 -0.6 -0.6 -0.6 -0.6 10.7 22.7 36.2 35.5 32.5 18.6 14.9 17.8 19.6 -0.6 -0.6 -0.6 -0.6 -0.6 -0.6 -0.6 -0.6 -0.6 -0.6 -0.6 -0.6 -0.6 -0.6 -0.6 -0.6 -0.6 -0.6 -0.6 -0.6 -0.6 -0.6 -0.6 -0.6 -0.6 -0.6 -0.6 8.6 12.5 16.2 21.7 21 21.5 30.7 31.3 31.9 29.4 27.3 21.1 19.1 22 20.9 16.4 14.3 12.2 6.3 2.9 -0.6 -0.6 -0.6 -0.6 -0.6 -0.6 -0.6 -0.6 -0.6 -0.6 -0.6 -0.6 -0.6 -0.6 -0.6 -0.6 -0.6 -0.6 -0.6 5.4 12.6 23.6 33.1 35.1 34.6 34 28 16.4 -0.6 -0.6 -0.6 -0.6 -0.6 -0.6 -0.6 -0.6 -0.6 -0.6 -0.6 -0.6 -0.6 -0.6 -0.6 -0.6 -0.6 -0.6 -0.6 -0.6 -0.6 -0.6 -0.6 8.3 11.8 10.5 11.7 12.9 20.4 25.8 27.3 22.8 22.6 18 9.7 18.8 23.3 34.5 30.4 27.2 32 31.3 24.3 17.5 11.8 8.6 9.3 5.3 -0.6 -0.6 -0.6 -0.6 -0.6 -0.6 7.3 9.8 12.7 12.6 11.7 9.3 9.1 10.2 8 -0.6 -0.6 -0.6 -0.6 -0.6 -0.6 -0.6 -0.6 -0.6 -0.6 -0.6 -0.6 0.2 0.8 3 4.5 5.4 5.5 7.3 8.1 9.2 9.4 8.7 10.1 13.4 15.1 18.1 22.9 28.2 32.4 35.6 38.8 40.3 43.1 45.7 43.2 40.8
-0.6 -0.6 -0.6 -0.6 -0.6 -0.6 -0.6 -0.6 -0.6 -0.6 -0.6 -0.6 -0.6 -0.6 -0.6 -0.6 -0.6 -0.6 -0.6 36.4 -0.6 -0.6 33.2 25.4 20.9 -0.6 -0.6 -0.6 -0.6 -0.6 -0.6 -0.6 -0.6 -0.6 -0.6 -0.6 -0.6 -0.6 -0.6 -0.6 -0.6 -0.6 -0.6 -0.6 -0.6 -0.6 -0.6 10.6 -0.6 -0.6 -0.6 -0.6 9.6 14.5 15.1 15.6 22.5 29.3 30.7 36.4 35.6 31.6 22.9 18.8 19.8 21.4 20.5 17.3 12.1 8.6 5.2 3.2 -0.6 -0.6 -0.6 -0.6 -0.6 -0.6 -0.6 -0.6 -0.6 -0.6 -0.6 -0.6 -0.6 -0.6 -0.6 -0.6 -0.6 -0.6 -0.6 7.1 10.1 19.4 28.4 30.6 35.7 44 30.7 -0.6 -0.6 -0.6 -0.6 -0.6 -0.6 -0.6 -0.6 -0.6 -0.6 -0.6 -0.6 -0.6 -0.6 -0.6 -0.6 -0.6 -0.6 -0.6 -0.6 -0.6 -0.6 -0.6 -0.6 10.2 20.5 25.9 23.1 24.6 25.7 32 33 29.7 28.4 25.9 21.5 14.8 22.4 27.7 28.4 32 34 37.6 33.1 25.9 20.7 16.6 12.5 9.9 6 2.8 -0.6 -0.6 -0.6 -0.6 -0.6 -0.6 5.5 7.7 -0.6 -0.6 -0.6 -0.6 -0.6 -0.6 -0.6 -0.6 -0.6 -0.6 -0.6 -0.6 -0.6 -0.6 -0.6 -0.6 -0.6 0.9 2.3 4.1 5 5.8 5.7 6.3 7.4 8.5 8.9 10 10.7 10.8 11.2 14.4 18.5 21.6 23.9 30.1 33.1 34.9 36.8 39 37.7 36.1
-0.6 -0.6 -0.6 -0.6 -0.6 -0.6 -0.6 -0.6 -0.6 -0.6 -0.6 -0.6 -0.6 -0.6 -0.6 -0.6 -0.6 -0.6 -0.6 25.3 -0.6 -0.6 8.9 16.4 12.6 -0.6 0.8 -0.6 -0.6 -0.6 -0.6 -0.6 -0.6 -0.6 -0.6 -0.6 -0.6 -0.6 -0.6 -0.6 -0.6 -0.6 -0.6 -0.6 -0.6 -0.6 12.4 7.2 -0.6 -0.6 2.2 6.4 10.3 11.8 14.5 22.4 24.1 29.7 27.8 28.5 26.3 20.8 18.6 19.6 20.3 19.9 19.5 19.1 14.6 6.6 5.2 -0.6 -0.6 -0.6 -0.6 -0.6 -0.6 -0.6 -0.6 -0.6 -0.6 -0.6 -0.6 -0.6 -0.6 -0.6 -0.6 -0.6 -0.6 -0.6 -0.6 5 10.4 17.2 26 31.2 39.8 41.4 29.9 -0.6 -0.6 -0.6 -0.6 -0.6 -0.6 -0.6 -0.6 -0.6 -0.6 -0.6 -0.6 -0.6 -0.6 -0.6 -0.6 -0.6 -0.6 -0.6 -0.6 -0.6 -0.6 -0.6 -0.6 17.6 26.5 33.9 35.4 35.2 34.2 37.2 37.3 36.7 34.7 33.1 28.5 25.3 18.1 28.2 28.6 31.4 32.4 35.6 35.6 33.5 28.3 24 20.9 16.5 13.5 9.1 6.7 5 -0.6 -0.6 -0.6 -0.6 -0.6 -0.6 -0.6 -0.6 -0.6 -0.6 -0.6 -0.6 -0.6 -0.6 -0.6 -0.6 -0.6 -0.6 -0.6 -0.6 -0.6 -0.6 1 1.3 3.6 4.9 5.3 5.8 5.7 6 7.1 8.3 8.2 8.9 11 11.2 13.6 16 13.6 15.8 19.4 23.1 28.1 30.1 32.1 33.1 32.3 31.2
-0.6 -0.6 -0.6 -0.6 -0.6 -0.6 -0.6 -0.6 -0.6 -0.6 -0.6 -0.6 -0.6 -0.6 -0.6 -0.6 -0.6 -0.6 -0.6 -0.6 -0.6 -0.6 -0.6 -0.6 -0.6 -0.6 -0.6 -0.6 -0.6 -0.6 -0.6 -0.6 -0.6 -0.6 -0.6 -0.6 -0.6 -0.6 -0.6 -0.6 -0.6 -0.6 -0.6 -0.6 -0.6 -0.6 9.2 3.5 3.5 5.9 6.5 8.5 13.5 15.3 24.7 33.6 30.8 31.6 28.6 25.8 24 18.7 16.2 16.8 17.2 17.2 18.9 15.4 14.7 7 2.7 -0.6 -0.6 4.7 4.8 -0.6 -0.6 -0.6 -0.6 -0.6 -0.6 -0.6 -0.6 -0.6 -0.6 -0.6 -0.6 -0.6 -0.6 -0.6 7.5 8 8.3 14.3 24.8 31 38.2 39.2 24.9 -0.6 -0.6 -0.6 -0.6 -0.6 -0.6 -0.6 -0.6 -0.6 -0.6 -0.6 -0.6 -0.6 -0.6 -0.6 -0.6 -0.6 -0.6 -0.6 -0.6 -0.6 -0.6 -0.6 -0.6 11.3 29.8 38.5 43.1 48.1 46.1 46.1 45.3 44.4 41.3 38.8 36.8 32.5 30 28.5 28 30 32 35 37.4 37.6 36.5 31.9 29 27.1 21.5 16.5 13.3 9.7 5.3 2.7 -0.6 -0.6 -0.6 -0.6 -0.6 -0.6 -0.6 -0.6 -0.6 -0.6 -0.6 -0.6 -0.6 -0.6 -0.6 -0.6 -0.6 -0.6 -0.6 -0.6 0.9 1.9 2.9 4 4.4 4.6 6.7 7.7 8.2 8.1 9.9 11 13.1 12.8 16.2 18.2 17.9 19 16.7 19 22.5 25 27.6 29.7 29.2 27.5
-0.6 -0.6 -0.6 -0.6 -0.6 -0.6 -0.6 -0.6 -0.6 -0.6 -0.6 -0.6 -0.6 -0.6 -0.6 -0.6 -0.6 -0.6 -0.6 -0.6 -0.6 -0.6 -0.6 -0.6 -0.6 -0.6 -0.6 -0.6 -0.6 -0.6 -0.6 -0.6 -0.6 -0.6 -0.6 -0.6 -0.6 -0.6 -0.6 -0.6 -0.6 -0.6 -0.6 -0.6 -0.6 -0.6 8.3 3.7 3.3 5.4 6.4 12 15.2 19.9 23.7 28.1 30.6 33.9 33 28.1 26.4 20.3 17 15.5 15.3 17.8 19.5 15.1 10.6 6.4 2.6 3.5 5 6.6 8.6 -0.6 -0.6 -0.6 -0.6 -0.6 -0.6 -0.6 -0.6 -0.6 -0.6 -0.6 -0.6 5.9 4.3 8.2 9.2 11.2 11.4 12.4 22.9 28.4 38.7 36 18 -0.6 -0.6 -0.6 -0.6 -0.6 -0.6 -0.6 -0.6 -0.6 -0.6 -0.6 -0.6 -0.6 -0.6 -0.6 -0.6 -0.6 -0.6 -0.6 -0.6 -0.6 -0.6 -0.6 -0.6 7.3 22.2 36 48.3 59.6 59.3 55.2 53.8 53.3 49.6 46.6 44.5 40.2 36.4 34.8 33.5 29.9 33.7 38.1 39.7 39.6 40.9 38 36.9 35.1 32.6 27.7 20.6 14.9 10 6 4.3 2.4 -0.6 -0.6 -0.6 -0.6 -0.6 -0.6 -0.6 -0.6 -0.6 -0.6 -0.6 -0.6 -0.6 -0.6 -0.6 -0.6 -0.6 0.3 0.8 2.6 2.6 3.1 3.7 5.9 6.2 7.5 8.3 10.2 12 13.4 16.7 18.3 19.7 21 20.8 20.6 20.8 20.7 21.6 20.8 22.4 25.7 27.1 25
-0.6 -0.6 -0.6 -0.6 -0.6 -0.6 -0.6 -0.6 -0.6 -0.6 -0.6 -0.6 -0.6 -0.6 -0.6 -0.6 -0.6 -0.6 -0.6 -0.6 -0.6 -0.6 -0.6 -0.6 -0.6 -0.6 -0.6 -0.6 -0.6 -0.6 -0.6 -0.6 -0.6 -0.6 -0.6 -0.6 -0.6 -0.6 -0.6 -0.6 -0.6 -0.6 -0.6 -0.6 18.5 12.1 7.8 6 9.6 14.8 14.8 19.3 20.2 20.1 22.2 27.6 32 33 32.3 32.2 27.9 23.1 20.8 18.6 16.3 14.3 13.6 13.2 12 7.1 5 5.8 5.2 5.7 5.9 6.3 -0.6 -0.6 -0.6 -0.6 -0.6 -0.6 -0.6 -0.6 -0.6 -0.6 -0.6 -0.6 4 7.5 15.8 19 14.8 12.6 23.8 24 34 31.9 13.4 -0.6 -0.6 -0.6 -0.6 -0.6 -0.6 -0.6 -0.6 -0.6 -0.6 -0.6 -0.6 -0.6 -0.6 -0.6 -0.6 -0.6 -0.6 -0.6 -0.6 -0.6 -0.6 7.3 12.9 14.6 19 32.4 48.5 60.8 65.7 64.8 63 59.7 56.6 53.5 50.6 46.5 42.3 41.2 37 34.9 33.6 36.4 40.4 40.5 46.6 41.5 42 40.9 39.5 37.8 30.6 23.8 19.4 14.1 11.1 6.3 5.7 4.5 -0.6 -0.6 -0.6 -0.6 -0.6 -0.6 -0.6 -0.6 -0.6 -0.6 -0.6 -0.6 -0.6 -0.6 0.2 0.5 1.2 2.2 3 3.9 4.8 5.6 8.1 10 12.6 15.3 17.5 19.6 23 24.4 24.2 25.9 25.8 25 23.7 24 25 24 24.3 23 22.2 23.6
-0.6 -0.6 -0.6 -0.6 -0.6 -0.6 -0.6 -0.6 -0.6 -0.6 -0.6 -0.6 -0.6 -0.6 -0.6 -0.6 -0.6 -0.6 -0.6 -0.6 -0.6 -0.6 -0.6 -0.6 -0.6 -0.6 -0.6 -0.6 -0.6 -0.6 -0.6 -0.6 -0.6 -0.6 -0.6 -0.6 -0.6 -0.6 -0.6 -0.6 -0.6 -0.6 -0.6 -0.6 -0.6 -0.6 9.8 14.4 17.5 21.8 16.6 15.6 17.1 23.1 24.9 32.2 36.8 33.4 32.6 34.2 30.9 26 24.2 24.6 24.4 21.1 18.5 16 14.4 8 5.5 4.7 7.2 7 10.7 11.8 11.2 -0.6 -0.6 -0.6 -0.6 -0.6 -0.6 -0.6 -0.6 -0.6 -0.6 -0.6 2.6 9.3 12.2 15.7 17.5 14.3 19.7 26.1 30.7 27.4 -0.6 -0.6 -0.6 -0.6 -0.6 -0.6 -0.6 -0.6 -0.6 -0.6 -0.6 -0.6 -0.6 5.9 -0.6 -0.6 -0.6 -0.6 -0.6 -0.6 -0.6 -0.6 4 9.1 18.1 24.8 25.5 36.1 52.6 64.7 70.3 70 67.4 63.9 61.3 58.5 58 53 47.1 44.1 40.4 37.9 36.5 36 37.9 42.8 46.9 42.8 46 48.8 46.1 44.2 39.1 34.7 27.7 21 16.1 9.9 10.6 7.2 5.5 4.3 4 2.6 1.2 -0.6 -0.6 -0.6 -0.6 1.4 0.6 -0.6 -0.6 -0.6 1.2 0.8 2.4 3.8 4.9 5.6 6.2 7.3 11.1 16.3 19.9 21.7 25.8 29 31.8 32.3 31.8 31 31.3 30.9 28.3 27.1 27.4 26.5 27.5 26.9 26.1 24.9
-0.6 -0.6 -0.6 -0.6 -0.6 -0.6 -0.6 -0.6 -0.6 -0.6 -0.6 -0.6 -0.6 -0.6 -0.6 -0.6 -0.6 -0.6 -0.6 -0.6 -0.6 -0.6 -0.6 -0.6 -0.6 -0.6 -0.6 -0.6 -0.6 -0.6 -0.6 -0.6 -0.6 -0.6 -0.6 -0.6 -0.6 -0.6 -0.6 -0.6 -0.6 -0.6 -0.6 -0.6 -0.6 -0.6 13.9 14.7 21.5 18.6 17.3 16.1 17 24.4 31.5 31.6 32.6 32.5 41.3 37.3 33.7 29.8 27.3 27 26.8 25.6 23.6 19.2 15.8 10.1 9.5 8.8 8.9 13.8 17.2 16.7 15.7 13.5 -0.6 -0.6 -0.6 -0.6 -0.6 -0.6 -0.6 -0.6 -0.6 -0.6 4.2 10.4 13 15.9 20.7 18.7 15.8 25.9 29.7 21.5 -0.6 -0.6 -0.6 -0.6 -0.6 -0.6 -0.6 -0.6 -0.6 -0.6 -0.6 -0.6 12.8 19 10.2 5.6 -0.6 -0.6 -0.6 -0.6 -0.6 2.1 5.6 15.5 20 27.6 41.5 47.9 56.5 67.2 72.6 70.9 70.6 70.1 70.3 64.7 61.9 56 51.2 47.2 41.6 38.9 37.5 37 37.6 40.7 45.2 44.7 47 48.8 48.4 49 46.8 42.9 36 28.2 23.1 15.5 11.8 10.6 7.9 7.7 6.5 5.3 3.8 3 4 4 3.7 2.8 3.3 3.5 2.9 2.5 2.2 1.7 2.5 4 5.4 6.9 8.1 9.5 14.9 20.5 23.5 29.8 33.1 38 39.8 39.5 37.3 37.5 36.1 35.4 34.3 32 30 29.5 28.6 28.4 26.4 26.6
-0.6 -0.6 -0.6 -0.6 -0.6 -0.6 -0.6 -0.6 -0.6 -0.6 -0.6 -0.6 -0.6 -0.6 -0.6 -0.6 -0.6 -0.6 -0.6 -0.6 -0.6 -0.6 -0.6 -0.6 -0.6 -0.6 -0.6 -0.6 -0.6 -0.6 -0.6 -0.6 -0.6 -0.6 -0.6 -0.6 -0.6 -0.6 -0.6 -0.6 -0.6 -0.6 -0.6 -0.6 -0.6 -0.6 14.4 12.5 13.5 18.2 20.7 19.9 21.4 24.4 25.2 26.5 28 34.4 37.6 39.2 36.6 37.2 33.1 31.3 30.3 31.6 27.6 22.3 20.6 20.3 19.6 19.4 18.5 18.9 19.6 20 21.8 20.9 17.2 10.8 -0.6 -0.6 -0.6 -0.6 -0.6 -0.6 0.8 4.6 11.1 15.9 16.4 21.6 24.2 25.2 17.1 19.2 22.2 12.4 -0.6 -0.6 -0.6 -0.6 -0.6 -0.6 -0.6 -0.6 -0.6 -0.6 -0.6 -0.6 21.2 22.7 20.2 12.9 9.2 6 7.4 6.7 3.9 5.1 8.1 18.1 23.9 37.4 50.3 59 63.7 69.3 73.3 74.9 75.1 75 74.2 69.6 65.6 61 56.8 51.1 44.2 42.5 39.8 40.3 38.1 38.5 42.6 45.9 50.9 48.8 50.1 52.5 51.3 48.1 41.7 37.1 30.8 23.8 15.2 13.8 11 10.9 9.2 8.1 7.9 7 6.2 7.2 7.8 4.2 5.6 5.1 4.5 4.1 3.7 1.4 3 5.8 7.3 10.2 11.3 11.2 14.1 18.8 27.6 36.2 37.2 43 45.6 45 43.3 44.4 43.2 42 39.7 37.1 34.5 32.1 30.4 28.7 27.1 26.8
-0.6 -0.6 -0.6 -0.6 -0.6 -0.6 -0.6 -0.6 -0.6 -0.6 -0.6 -0.6 -0.6 -0.6 -0.6 -0.6 -0.6 -0.6 -0.6 -0.6 -0.6 -0.6 -0.6 -0.6 -0.6 -0.6 -0.6 -0.6 -0.6 -0.6 -0.6 -0.6 -0.6 -0.6 -0.6 -0.6 -0.6 -0.6 -0.6 -0.6 -0.6 -0.6 -0.6 -0.6 14.3 17.2 18.7 18.8 14.2 16.1 22.3 23.9 25.5 25.6 26.2 28 31.1 36.4 37.6 41.9 46.2 44.5 39.7 36.7 35.2 32.8 29.9 31.4 30.7 30.4 29.5 29.6 29.3 27.4 25.4 24.3 25.5 24.5 22.5 16.7 10.7 -0.6 -0.6 -0.6 -0.6 -0.6 -0.6 5.6 12.5 14.6 16.8 23.1 29.5 26 22.9 16.5 13.4 6.2 -0.6 -0.6 -0.6 -0.6 -0.6 -0.6 -0.6 -0.6 -0.6 -0.6 -0.6 -0.6 -0.6 21.8 20.4 19.6 15.5 12.2 11.7 10 8.6 11.9 16.4 24.2 34.7 49.6 60.9 69.9 74 76 77.8 77.8 78.5 76.8 75.6 74.1 68.4 63.9 59.2 53.9 50.1 46.8 44.6 43 41.2 40.2 41.5 46.7 52.1 52.4 52.9 55.6 55.1 51.1 48.8 44.4 38.7 31.7 23.6 19 14.2 14.1 13.3 11.6 10.5 10.3 9.1 10.1 10.8 6.6 8.2 7.1 6.1 5 4.2 3.4 4.6 5.3 8.3 11.7 15.2 13 14.1 22.3 31.2 39.2 41.4 45.1 47.6 47.6 48.2 49.3 48.7 45.1 43 41.3 37.6 35.3 33.8 31.6 28 27
-0.6 -0.6 -0.6 -0.6 -0.6 -0.6 -0.6 -0.6 -0.6 -0.6 -0.6 -0.6 -0.6 -0.6 -0.6 -0.6 -0.6 -0.6 -0.6 -0.6 -0.6 -0.6 -0.6 -0.6 -0.6 -0.6 -0.6 -0.6 -0.6 -0.6 -0.6 -0.6 -0.6 -0.6 -0.6 -0.6 -0.6 -0.6 -0.6 -0.6 -0.6 -0.6 -0.6 -0.6 14 21.9 19.8 20.3 19.4 17.4 19.7 25.7 26 30 29.3 30.7 34.5 41.3 45 46.9 50.8 50.4 43.4 41.6 40.6 37.1 37.2 40.4 39.2 39.3 39.3 39.6 38.7 37.3 33.6 30.7 32.4 30.4 27 23.8 16.3 -0.6 -0.6 -0.6 -0.6 -0.6 -0.6 11 8.8 11.7 22.4 24.1 25.6 26.1 24.9 15.1 10.1 -0.6 -0.6 -0.6 -0.6 -0.6 -0.6 -0.6 -0.6 -0.6 -0.6 -0.6 -0.6 -0.6 -0.6 17.2 22.8 23.5 21.4 20 17.5 16.7 15.3 15.5 22.9 26.6 38.8 52.6 65.2 77.1 84.1 85.7 85 83.7 81.4 79.2 76.2 75.4 74 67.2 62.6 56.7 51.8 48.7 47 45.1 43.5 42.4 46.4 49.6 52.1 54.2 57.6 57.6 57.2 55.2 53.2 51.1 44 37.9 32 24.7 16.8 16.6 17.8 17.4 15.2 14.5 13.2 13 12.3 9.4 10.5 10.5 7.9 6.6 6.3 5.5 5.3 7.3 8.6 12.4 15.7 15.1 15.3 23.8 33.2 40.9 42.2 46.1 47.2 50 50.8 53 52.2 49.8 46.3 45 42.1 39.4 36.9 33.4 29.5 28.6
-0.6 -0.6 -0.6 -0.6 -0.6 -0.6 -0.6 -0.6 -0.6 -0.6 -0.6 -0.6 -0.6 -0.6 -0.6 -0.6 -0.6 -0.6 -0.6 -0.6 -0.6 -0.6 -0.6 -0.6 -0.6 -0.6 -0.6 -0.6 -0.6 -0.6 -0.6 -0.6 -0.6 -0.6 -0.6 -0.6 -0.6 -0.6 -0.6 -0.6 -0.6 -0.6 -0.6 -0.6 17.8 21.9 24.2 20.6 23.9 20.5 20.8 22.7 29.2 34.7 33.3 34.9 35.8 44.9 53 55 53.3 49.3 47.7 45.9 44.9 44.7 44.8 47.1 47.4 48.1 48.3 46.7 46.2 45.4 41.5 35.3 35.4 33.9 31.7 31.2 23.1 -0.6 -0.6 -0.6 -0.6 -0.6 -0.6 -0.6 6.7 16.2 24.8 27.4 29.6 25.9 -0.6 -0.6 -0.6 5.3 6.5 -0.6 -0.6 -0.6 -0.6 -0.6 -0.6 -0.6 -0.6 -0.6 -0.6 -0.6 -0.6 11.9 22.5 24.9 25.5 25.6 24 23.2 22.4 22.1 22.8 34.1 42.6 54.7 64.4 80.6 93.3 95.9 92.4 89.6 85 81.8 77.6 76.1 75.1 71.1 65.3 60.8 56.5 52.4 48.2 46.1 44.8 44 45.3 50 53 55.1 60.4 60.8 61 59.3 56.8 54 48.2 41.9 35.7 28.3 20.6 23 24 22.1 20.1 18.7 16.9 15.9 14.9 12.4 13 13.1 10.2 7.9 6.8 5.9 6.3 8.4 13.6 18.1 20.7 19.7 17.1 22.8 29.3 35.8 41.3 44.6 45.9 48.9 51.1 55.8 55.2 51.7 49.5 47.2 44 41.9 38.9 35.7 32.3 30.1
-0.6 -0.6 -0.6 -0.6 -0.6 -0.6 -0.6 -0.6 -0.6 -0.6 -0.6 -0.6 -0.6 -0.6 -0.6 -0.6 -0.6 -0.6 -0.6 -0.6 -0.6 -0.6 -0.6 -0.6 -0.6 -0.6 -0.6 -0.6 -0.6 -0.6 -0.6 -0.6 -0.6 -0.6 -0.6 -0.6 -0.6 -0.6 -0.6 -0.6 -0.6 -0.6 -0.6 16.6 15.9 18.4 20.6 24.8 23.8 22.7 21.6 25.1 32.3 35.1 36.8 36.9 37.1 52.9 55.8 52.5 51.8 54.5 53.7 50.3 48.3 50.7 50 51.9 54.5 56.2 56.2 52.8 52.6 51.2 45.3 38.5 40.8 38.9 34.4 32.6 25 13.4 -0.6 -0.6 -0.6 -0.6 -0.6 -0.6 -0.6 27.3 30.8 29.3 34.7 29.8 -0.6 -0.6 -0.6 -0.6 15.8 -0.6 -0.6 -0.6 -0.6 -0.6 -0.6 -0.6 -0.6 -0.6 -0.6 -0.6 -0.6 -0.6 24.4 28.4 30.2 31.4 29.9 29.7 28.4 30.6 28.7 34.1 44.5 54.4 69.4 81.9 95.6 100.4 99.2 96.5 91.5 86 81.7 78.2 75.7 72.6 66.9 64 60.4 56.7 52.9 50.4 46.7 45.2 46.1 50.4 54 58.4 62.6 62.1 63.1 60.8 59.7 55.7 50.4 43.2 37.9 29.8 24.1 30.7 32.6 27.8 24.9 23.2 20.3 18.2 16.6 15.7 17.7 15.7 12.5 10 7.8 7.1 6.5 10.9 17.1 21.9 26 24.7 21.6 23.6 25.7 29.2 33.9 40.3 44 47.1 50.9 55.5 55.9 53.5 51.5 47.5 45.9 44.2 40.9 37.9 33.7 31.5
-0.6 -0.6 -0.6 -0.6 -0.6 -0.6 -0.6 -0.6 -0.6 -0.6 -0.6 -0.6 -0.6 -0.6 -0.6 -0.6 -0.6 -0.6 -0.6 -0.6 -0.6 -0.6 -0.6 -0.6 -0.6 -0.6 -0.6 -0.6 -0.6 -0.6 -0.6 -0.6 -0.6 -0.6 -0.6 -0.6 -0.6 -0.6 -0.6 -0.6 23.7 -0.6 0.7 20.4 21.4 21.2 23.2 27 27.3 25 23.2 28.9 33.6 33.1 34 40.3 40.2 44.7 50.1 54.2 56.3 58.8 57.3 55.2 54.6 53.4 55.5 56.5 57.9 60 59.6 58.8 58.9 56.1 50.2 43.5 38.8 37.4 32.2 26.6 20.2 12 -0.6 -0.6 -0.6 -0.6 -0.6 -0.6 -0.6 27.6 27.2 28.1 28 30.6 27.4 -0.6 -0.6 -0.6 -0.6 27.6 19.5 -0.6 -0.6 -0.6 -0.6 -0.6 -0.6 -0.6 -0.6 -0.6 -0.6 -0.6 21.7 35.1 36.2 39.9 37.6 36.6 35.1 36 37.6 42.7 49.5 57.5 73.2 84.8 96.9 103.3 104.5 101.3 96.9 90.6 85.2 82.1 77.8 73.3 69.7 66 63.5 60.1 56.1 51.8 49.5 48.5 47.7 51.6 53 57.3 60.4 62.8 65.5 63.3 60.9 56.8 50.3 44.9 39.2 31.5 30.1 37 39.1 36.3 31 27.2 23.6 19.3 18 18.8 20.5 17.6 14.7 12.1 9.1 7.4 7.3 12.2 21.6 27 32 26 25.4 25.1 27.2 29.9 31.9 35.9 42.5 45.6 49.6 53.4 54.2 54.2 51.9 48.7 47.8 46.2 43.8 39.9 34.8 32.3
-0.6 -0.6 -0.6 -0.6 -0.6 -0.6 -0.6 -0.6 -0.6 -0.6 -0.6 -0.6 -0.6 -0.6 -0.6 -0.6 -0.6 -0.6 -0.6 -0.6 -0.6 -0.6 -0.6 -0.6 -0.6 -0.6 -0.6 -0.6 -0.6 -0.6 -0.6 -0.6 -0.6 -0.6 -0.6 -0.6 -0.6 -0.6 -0.6 -0.6 20.9 24.8 23.3 30 30.1 27.1 25.6 28 29.1 26.9 27.9 27.9 30 32.4 34.4 37.2 37.8 43.6 54.6 57.7 57.5 58.6 57.1 59.2 58.8 58.5 59.7 64.2 69.2 69.8 68.4 67.8 67.3 65.2 58.5 49.5 40.5 34.7 28.8 24.3 19.7 12.1 -0.6 -0.6 -0.6 -0.6 -0.6 -0.6 -0.6 11.1 22.4 28.6 28.9 29.5 26.6 -0.6 -0.6 -0.6 -0.6 -0.6 25.2 -0.6 -0.6 -0.6 -0.6 -0.6 -0.6 -0.6 -0.6 -0.6 -0.6 -0.6 -0.6 26.6 41.1 47.1 44.3 42.4 42.3 43 45 47.2 58.2 64.5 76.9 86.6 96.8 102.8 104.8 104.6 100.8 93.7 89.2 83.7 80.9 76.6 73.1 70 66.5 62.7 58.5 55.6 53.4 51 50.1 54.2 55.9 56.1 58.4 62.8 65.1 65.3 61.4 57.3 50.5 44.6 39.2 32.1 31.9 37 37.6 40 35.4 28.2 24.6 20 19.3 20.8 20.1 19.1 17.4 13.5 8.3 7 8.4 12.9 20.1 27 33 31.9 28.1 27.8 29.7 33.2 37.2 39.6 39.2 42.2 46.2 50.3 51.1 51.5 50 49.2 48.8 47.5 44.8 41.6 36.4 32.3
-0.6 -0.6 -0.6 -0.6 -0.6 -0.6 -0.6 -0.6 -0.6 -0.6 -0.6 -0.6 -0.6 -0.6 -0.6 -0.6 -0.6 -0.6 -0.6 -0.6 -0.6 -0.6 -0.6 -0.6 -0.6 -0.6 -0.6 -0.6 -0.6 -0.6 -0.6 -0.6 -0.6 -0.6 -0.6 -0.6 -0.6 -0.6 -0.6 -0.6 27.4 34.8 33.6 34 35 33.1 28.4 30.7 35.7 35.8 35 32.9 32 32.3 34.4 36.7 37.3 42.7 52.4 56.9 56.2 57.6 58.8 61.5 59.1 62 63.6 69.4 74.3 77.3 77.1 75.6 73.5 72.2 68 58.7 46.3 37.2 30.3 25.1 23.6 19.8 1.1 -0.6 -0.6 -0.6 -0.6 -0.6 -0.6 15 24.7 30.8 31.7 34.7 26.1 -0.6 -0.6 -0.6 -0.6 -0.6 -0.6 -0.6 -0.6 -0.6 -0.6 -0.6 -0.6 -0.6 -0.6 -0.6 -0.6 -0.6 -0.6 22.8 39.8 47.6 47.9 46.7 49.1 49.7 50.8 53.4 64.9 70.9 79 88.8 98.7 103.6 105.6 105.8 104.5 98.4 92.2 86.1 82.5 78.8 75.5 73.6 70.8 66.1 62.3 59.7 56 52.7 52.6 56.3 56.9 57 59.5 63 66.9 67 63 56.9 49.8 45.3 38.1 33.2 31.5 32.5 36.9 38.9 35.8 29.8 24.9 23 20.1 20.5 19.7 19.4 17.3 12.4 9.4 9.4 9.3 13.4 17.3 26.3 32.6 32.2 31.2 34.2 34.4 36.7 42.3 45 48.6 47.7 47.5 47.3 48.7 49.4 49.2 49.4 49 48 45.3 42.4 36.2 31.8
-0.6 -0.6 -0.6 -0.6 -0.6 -0.6 -0.6 -0.6 -0.6 -0.6 -0.6 -0.6 -0.6 -0.6 -0.6 -0.6 -0.6 -0.6 -0.6 -0.6 -0.6 -0.6 -0.6 -0.6 -0.6 -0.6 -0.6 -0.6 -0.6 -0.6 -0.6 -0.6 -0.6 -0.6 -0.6 -0.6 -0.6 -0.6 -0.6 -0.6 32.9 39.3 37.5 36.5 36.9 35.7 34.1 36.6 40.8 43.9 41.6 38.4 38.4 38.4 38.3 39.3 38.6 38.8 46.1 50 53 58.4 62.6 59.3 61.1 67.6 68.3 69 73.8 78.9 86 80.8 77.1 76.1 73.2 64.6 54.1 39.5 32.9 26.5 23.7 27.1 17.7 -0.6 -0.6 -0.6 -0.6 -0.6 -0.6 -0.6 -0.6 17.1 27.3 32 -0.6 -0.6 -0.6 -0.6 -0.6 -0.6 -0.6 -0.6 -0.6 -0.6 -0.6 -0.6 -0.6 -0.6 -0.6 -0.6 -0.6 -0.6 -0.6 20.8 34.4 44.4 49.6 49.8 53.2 55.1 56.5 58.9 66.3 73.7 81.8 92.4 101.1 102.7 105.6 107.3 107.8 102.7 97.8 91.5 86.3 82.4 78.8 76.5 72.5 68.4 65.1 62.5 57.9 53.6 54.2 56.7 58.9 59.3 59.8 64.5 67.3 66.9 61.5 56.7 51.6 45.3 38.2 34 31.4 31 33.3 33.1 31.9 28.5 26.7 23.9 20.7 20.9 20.7 19.6 17 13.1 10 11.1 12 14.7 15.2 24.2 32.8 31.6 34.8 37.6 41.6 44.4 47.2 52.4 55.8 56 53.5 50.6 49.5 50.5 49.6 48.7 48.9 47.2 45.2 40.9 35.1 30.2
-0.6 -0.6 -0.6 -0.6 -0.6 -0.6 -0.6 -0.6 -0.6 -0.6 -0.6 -0.6 -0.6 -0.6 -0.6 -0.6 -0.6 -0.6 -0.6 -0.6 -0.6 -0.6 -0.6 -0.6 -0.6 -0.6 -0.6 -0.6 -0.6 -0.6 -0.6 -0.6 -0.6 -0.6 -0.6 -0.6 -0.6 -0.6 -0.6 -0.6 35.3 43.5 34.9 -0.6 24.4 40.2 45 45.6 43.2 46.8 45.8 47.6 47.2 43.6 42.5 44.3 40.6 39.4 43.5 48.7 49.9 57.5 62.4 59.4 66.6 70.4 70.2 71.8 76.9 79.8 83.8 85.1 79.1 76.3 72.7 67.5 57.5 43 33.1 26.5 20.3 16.2 12.6 -0.6 -0.6 -0.6 -0.6 -0.6 -0.6 -0.6 -0.6 -0.6 22.3 22.1 -0.6 -0.6 -0.6 -0.6 -0.6 -0.6 -0.6 -0.6 -0.6 -0.6 -0.6 -0.6 -0.6 -0.6 -0.6 -0.6 -0.6 -0.6 -0.6 22.4 35.4 45.8 51.6 54.2 59.1 60.4 60.9 61.9 66.4 75.6 85.9 94.6 101.9 100.2 104.9 109.6 110.9 107.3 102.5 96.9 92.4 87 84.5 79 74.2 72.2 70.2 66 61 58.7 57.1 56.4 58.9 59.1 61.1 66.2 68.1 65.3 61.4 55.6 50.8 45.1 38.9 34.9 32.7 31.6 32.4 31.8 31.6 29.8 30.6 26.8 21.6 21.9 21.2 19.6 19.1 15.9 10.3 12.9 15.8 17.1 16.5 23.6 30.1 29.7 34.9 43.1 46.8 49 53 55.5 60.4 60.5 59.6 55.4 51.4 50.3 49.2 49.3 46.9 46.6 44.2 40 34.3 29
-0.6 -0.6 -0.6 -0.6 -0.6 -0.6 -0.6 -0.6 -0.6 -0.6 -0.6 -0.6 -0.6 -0.6 -0.6 -0.6 -0.6 -0.6 -0.6 -0.6 -0.6 -0.6 -0.6 -0.6 -0.6 -0.6 -0.6 -0.6 -0.6 -0.6 -0.6 -0.6 -0.6 -0.6 -0.6 -0.6 -0.6 -0.6 -0.6 -0.6 -0.6 -0.6 -0.6 -0.6 50.3 52.1 51.3 52 47.4 46.6 50.3 54.8 53.4 49.3 48 48.6 44.6 41.1 42.6 48.4 48.4 57 57.4 60.7 67.6 73.5 71.7 77.2 78.6 80.2 85.3 87.8 85.8 78.1 71.4 60.8 50.4 39.1 24.5 17.5 17.6 11.9 3.1 -0.6 -0.6 -0.6 -0.6 -0.6 -0.6 -0.6 -0.6 -0.6 -0.6 -0.6 -0.6 -0.6 -0.6 -0.6 -0.6 -0.6 -0.6 -0.6 -0.6 -0.6 -0.6 -0.6 -0.6 -0.6 -0.6 -0.6 -0.6 -0.6 -0.6 30.8 39 45.3 53.7 60.9 66 66.6 65.3 64.9 66.4 73.4 83.7 92 95 102.4 106.1 111 112 111 107.5 102.9 97.9 94.5 89.4 84.2 79.6 75.8 73.9 70.5 65.5 61.3 58.6 58.2 58.2 59 64.8 69.7 67.9 66 62.1 56.6 51.5 46.2 40.8 35.8 33.5 31 30.9 30.9 31.3 30.7 32.7 28.9 23.7 22.3 20.9 19.8 19 15.5 12 14 16.2 16.6 17.1 20.5 24.6 28.6 39.1 49.2 52.9 54.3 55.6 57.7 60.9 62.6 62.8 60.2 53.4 51.6 49 48.4 47.6 45.9 42.9 38 32.7 28.9
-0.6 -0.6 -0.6 -0.6 -0.6 -0.6 -0.6 -0.6 -0.6 -0.6 -0.6 -0.6 -0.6 -0.6 -0.6 -0.6 -0.6 -0.6 -0.6 -0.6 -0.6 -0.6 -0.6 -0.6 -0.6 -0.6 -0.6 -0.6 -0.6 -0.6 -0.6 -0.6 -0.6 -0.6 -0.6 -0.6 -0.6 -0.6 -0.6 -0.6 -0.6 -0.6 -0.6 42.2 52.2 57.9 57.2 52.3 51.6 52.2 57 58.6 56.1 56.9 53.2 49.9 48.2 43.8 43.8 49.3 48.7 55.7 54.6 61.3 64.1 68.3 72 77.1 82.2 86.6 90.9 87.2 85.2 81.3 69.9 57.8 43.1 30.8 20 12.5 13.1 10.1 9.4 -0.6 -0.6 -0.6 -0.6 -0.6 -0.6 -0.6 -0.6 -0.6 -0.6 -0.6 -0.6 -0.6 -0.6 -0.6 -0.6 -0.6 -0.6 -0.6 -0.6 -0.6 -0.6 -0.6 -0.6 -0.6 -0.6 -0.6 -0.6 -0.6 29.4 36.9 43.6 49.8 57.5 65.1 68.2 69.3 69.3 66.8 66.6 71.5 77.9 85 89.9 99.3 106 110.8 111.8 112.4 111.4 108 103.6 100.5 96.5 92.1 85.7 82.1 78.5 74.8 68.9 63.1 60.7 59.3 56.6 59.7 64.2 66 66.1 64.7 62.1 57.3 50.8 46.7 42.9 38.5 36 33.6 31.8 31.9 31.7 31.5 31.5 30.7 25.7 22.5 20.7 20.6 17.6 15.8 12.5 14.2 15.2 15.9 18.1 20.5 22.6 30.6 42 53.1 58.5 59.5 59.9 59.8 61.9 63.6 64.3 62.3 58.9 52.4 49 48 46.9 43.4 41.6 35.7 31.2 28.3
-0.6 -0.6 -0.6 -0.6 -0.6 -0.6 -0.6 -0.6 -0.6 -0.6 -0.6 -0.6 -0.6 -0.6 -0.6 -0.6 -0.6 -0.6 -0.6 -0.6 -0.6 -0.6 -0.6 -0.6 -0.6 -0.6 -0.6 -0.6 -0.6 -0.6 -0.6 -0.6 -0.6 -0.6 -0.6 -0.6 -0.6 -0.6 -0.6 -0.6 -0.6 -0.6 -0.6 -0.6 52.2 59 56.4 58 59.4 60.2 64.5 66.7 65.4 63.9 58 54.8 53.5 48.2 45.5 46.3 48 50.6 55.6 60.6 63.8 65 72.5 77 77.3 81.3 83.4 83.5 83 78.8 67.7 53.8 39.4 28.6 19.7 13.6 11.4 11.6 14.7 11.8 -0.6 -0.6 -0.6 -0.6 -0.6 -0.6 -0.6 -0.6 -0.6 -0.6 -0.6 -0.6 -0.6 -0.6 -0.6 -0.6 -0.6 -0.6 -0.6 -0.6 -0.6 -0.6 -0.6 -0.6 15 28.7 29 29.9 36.5 43.5 48.8 54.1 59.7 63.7 66.1 69.1 70.4 69.6 67.2 66.7 67.2 73.7 84.2 95.9 104.2 110.3 112.8 114.2 114.4 113.2 108.8 105.4 102.1 96.2 91.6 87.7 83 77.4 71.4 66.9 63.8 60.6 55.1 59 62.4 62.9 62.8 64.5 61.2 56.8 50.1 47.1 44.1 41.8 39.4 37.1 34.2 32.9 32.2 32.7 32.7 32.7 29.7 25.5 21.9 18.9 17.2 15.6 14.7 14.5 15.5 17.2 21 23.4 23.3 31.3 43.4 58.6 66.7 65.7 64.2 62.9 62.8 65.1 66.1 64.7 61 54.4 50.7 47.8 45.6 43 40.4 35.4 31.4 28.4
-0.6 -0.6 -0.6 -0.6 -0.6 -0.6 -0.6 -0.6 -0.6 -0.6 -0.6 -0.6 -0.6 -0.6 -0.6 -0.6 -0.6 -0.6 -0.6 -0.6 -0.6 -0.6 -0.6 -0.6 -0.6 -0.6 -0.6 -0.6 -0.6 -0.6 -0.6 -0.6 -0.6 -0.6 -0.6 -0.6 -0.6 -0.6 -0.6 -0.6 -0.6 -0.6 -0.6 -0.6 49.1 51.3 61.4 66.7 64.5 63.2 65.8 72.7 74.1 70.1 66.9 64.3 59.2 51.7 45.7 44.3 46.7 50.5 57.1 61.9 62.7 67.6 70.8 74.1 75.4 79.3 82.1 85.8 82.7 75.4 63.3 54.1 40.5 30.1 22.2 16.6 14.1 13.2 18.5 20.8 -0.6 -0.6 -0.6 -0.6 -0.6 -0.6 -0.6 -0.6 -0.6 -0.6 -0.6 -0.6 -0.6 -0.6 -0.6 -0.6 -0.6 -0.6 -0.6 -0.6 -0.6 10.2 19.4 24 26 35.1 37.2 41.2 44 50.2 54.1 58 61.5 64.3 65.5 69 70.8 69.2 67 68.2 68.4 66.3 78.8 91.2 100.8 107.5 111.4 115.2 116.2 116.7 113.4 110.1 107.1 103.3 96.7 91.3 86.1 81 76.4 71.6 66.1 61.9 55.5 54.1 58.5 61.8 60.7 61.2 59 54.8 51.2 48.7 46.3 44.7 42.5 39.5 36.4 33.2 32.9 33.1 33.5 33.6 33.8 29.8 25.5 20.1 17.6 16 14.6 16.2 16.4 17.7 22.7 25.8 25.8 33.5 45.2 57.2 66.6 69.4 67.4 67.4 66.8 68 68.3 66.2 62 54.8 50.7 48.5 46.6 43.7 39.7 35.8 33.4 28.7
-0.6 -0.6 -0.6 -0.6 -0.6 -0.6 -0.6 -0.6 -0.6 -0.6 -0.6 -0.6 -0.6 -0.6 -0.6 -0.6 -0.6 -0.6 -0.6 -0.6 -0.6 -0.6 -0.6 -0.6 -0.6 -0.6 -0.6 -0.6 -0.6 -0.6 -0.6 -0.6 -0.6 -0.6 -0.6 -0.6 -0.6 -0.6 -0.6 -0.6 -0.6 -0.6 -0.6 -0.6 -0.6 54 60.7 63.9 69 67.3 71.2 72.5 74.8 77.3 77.4 75.3 66.4 57.9 48.8 45.1 45.7 50.3 55.2 57.8 62.1 69.3 72.6 72.9 74.3 76.2 78.6 81.1 76.5 69.3 62 53.7 43.1 33.7 26.3 21.5 18.4 19 26.6 29.3 -0.6 -0.6 -0.6 -0.6 -0.6 -0.6 -0.6 -0.6 -0.6 -0.6 -0.6 -0.6 -0.6 -0.6 -0.6 -0.6 -0.6 -0.6 -0.6 -0.6 -0.6 20.1 24.9 34.7 36.5 41.1 44.8 52.2 54.7 55.4 58.3 60.6 62.3 64.6 65.8 69.1 69.3 66.6 68.4 68.4 68.4 68.4 74 87.3 96.1 104.1 111.3 115.1 117.6 117 114.2 110.5 109.3 106.4 100.5 95.5 90 85.1 79.4 73.8 67.7 63.3 59.9 58.7 58.3 54.5 57 56.5 57.4 52.7 51.6 50.9 50 48 44.8 41.7 38.3 34.2 33.7 33.8 33.6 34.8 36.6 34.5 28.8 23.1 19.5 17.7 16.8 17.5 16.8 18 22.6 26.4 27.3 33.6 46.5 59 66.7 72.2 72.7 71.2 70.2 70 69.9 67.6 61.8 54.9 51.4 48.9 47 43.5 40.9 37.3 34 29.6
-0.6 -0.6 -0.6 -0.6 -0.6 -0.6 -0.6 -0.6 -0.6 -0.6 -0.6 -0.6 -0.6 -0.6 -0.6 -0.6 -0.6 -0.6 -0.6 -0.6 -0.6 -0.6 -0.6 -0.6 -0.6 -0.6 -0.6 -0.6 -0.6 -0.6 -0.6 -0.6 -0.6 -0.6 -0.6 -0.6 -0.6 -0.6 -0.6 -0.6 -0.6 -0.6 -0.6 -0.6 -0.6 56.5 63.9 67.8 71.2 70.4 74.9 77.3 76.4 76.9 77.7 74.4 74.3 67.6 57 47.1 45.1 48.2 52.3 57.6 59.1 65.8 68.3 72.3 75.2 78.1 76.1 74.3 71.1 66.9 62.3 54.2 46.6 38.3 30.9 24.9 22.8 26.6 31.5 36.4 -0.6 -0.6 -0.6 -0.6 -0.6 -0.6 -0.6 -0.6 -0.6 -0.6 -0.6 -0.6 -0.6 -0.6 -0.6 -0.6 -0.6 -0.6 -0.6 -0.6 8.4 18.9 24.8 36.7 42.9 44.3 49.8 59 62.2 61.2 62.2 65.8 65.1 67.2 67.7 68 67.8 64.2 68.4 68.4 68.4 68.4 69.5 80.1 90.6 102.7 109.8 113.8 115.1 112.7 112.3 110.2 109.2 106.9 104.2 99.3 93.6 87.7 81.4 75.7 69.8 64.4 59.8 58.6 58.7 58.7 58.7 58.7 58.7 55.5 54.2 53.8 53.4 50.3 46.1 42.6 38.3 34.2 33.7 35.2 37.2 38.6 38.6 39.3 33.7 28.4 24.7 21.7 19.5 19.2 19.7 19.9 22.7 27.1 29.4 36.5 44.6 56.2 69.3 76.1 79.4 78.3 75.3 72.3 70.7 66.7 60.9 55.3 53.9 51.6 48 45.1 41.4 38.2 34.6 29.5
-0.6 -0.6 -0.6 -0.6 -0.6 -0.6 -0.6 -0.6 -0.6 -0.6 -0.6 -0.6 -0.6 -0.6 -0.6 -0.6 -0.6 -0.6 -0.6 -0.6 -0.6 -0.6 -0.6 -0.6 -0.6 -0.6 -0.6 -0.6 -0.6 -0.6 -0.6 -0.6 -0.6 -0.6 -0.6 -0.6 -0.6 -0.6 -0.6 -0.6 -0.6 -0.6 -0.6 -0.6 -0.6 61.1 62.1 64.6 69.4 71.8 74.3 79.1 81 79.1 78.6 75.3 79.9 78 65.4 55.4 46.3 50.7 54.7 58.3 60.6 66.8 70.5 73.7 77.1 77.7 77.9 73.8 70.8 69.1 64.9 56.1 47 39.6 34.6 27.4 26.2 32.2 40.1 44.5 37.3 -0.6 -0.6 -0.6 -0.6 -0.6 -0.6 -0.6 -0.6 -0.6 -0.6 -0.6 -0.6 -0.6 -0.6 -0.6 -0.6 -0.6 -0.6 -0.6 9.8 19.6 28 40.4 45.2 49.1 57.6 66.9 69.5 64.6 64.8 67.9 70.1 71.3 69 69.5 67.4 64.6 68.4 68.4 68.4 68.4 67 79 87 99.3 107.3 109.8 109.9 109.6 109.4 107.7 107.4 106.4 105.6 101.7 96.1 89.6 83.4 76.7 71.9 65.7 60.5 57.5 57 57 54.6 59.6 58 56 56.8 55.8 53.9 51 46.5 42.1 38.1 35.8 34.2 37.4 39.7 41.9 43.1 42.7 38.3 32.9 28.6 26.4 22.9 20.7 21.1 21.3 25.2 27.2 35.4 41.4 49.2 60.2 70.9 82.9 85.7 85.3 81.9 77.1 73.4 67.8 62.9 58.2 54.9 52.3 47.9 44.8 41.4 37.3 33.9 30.7
-0.6 -0.6 -0.6 -0.6 -0.6 -0.6 -0.6 -0.6 -0.6 -0.6 -0.6 -0.6 -0.6 -0.6 -0.6 -0.6 -0.6 -0.6 -0.6 -0.6 -0.6 -0.6 -0.6 -0.6 -0.6 -0.6 -0.6 -0.6 -0.6 -0.6 -0.6 -0.6 -0.6 -0.6 -0.6 -0.6 -0.6 -0.6 -0.6 -0.6 -0.6 -0.6 -0.6 -0.6 -0.6 -0.6 54.1 64.9 71.9 73 71.9 77.5 78.9 78.4 78 74.2 77.4 80.2 71 65 56.6 53.6 57 59 61.3 65.7 70.4 70.7 76.2 83.5 82.8 79.9 74.2 66.9 61.4 56.7 47.9 40 34.6 30.3 -0.6 -0.6 47.7 53.1 44.1 -0.6 -0.6 -0.6 -0.6 -0.6 -0.6 -0.6 -0.6 -0.6 -0.6 -0.6 -0.6 -0.6 -0.6 -0.6 -0.6 -0.6 -0.6 -0.6 -0.6 -0.6 25.4 35.2 41.5 51.5 65.9 74.4 76.3 69.9 68.8 70.2 73.8 76.1 73 70.6 68.9 67.5 62.9 68.4 68.4 68.7 70.2 78.5 85.7 93 101.5 107.1 109.7 107.5 106.1 106.1 106.8 105.4 105.5 102.9 98.2 91.5 85 78.2 73.3 67.9 60.4 55.7 54.1 61.6 63.4 62.6 57.6 54.2 56.3 54.2 51 48.7 45 39.5 38.8 35.9 35.1 38.1 42.1 42.9 47.7 45.6 43.6 37.4 33.5 29.3 26.3 24.1 22.7 22.6 24 28.4 37.9 48.9 63.4 74.6 84.1 91.3 96 94.4 91.4 86.7 80.2 72.3 67.3 60.5 57.3 54.5 51.1 47.3 42.5 37.6 34.3 31.2
-0.6 -0.6 -0.6 -0.6 -0.6 -0.6 -0.6 -0.6 -0.6 -0.6 -0.6 -0.6 -0.6 -0.6 -0.6 -0.6 -0.6 -0.6 -0.6 -0.6 -0.6 -0.6 -0.6 -0.6 -0.6 -0.6 -0.6 -0.6 -0.6 -0.6 -0.6 -0.6 -0.6 -0.6 -0.6 -0.6 -0.6 -0.6 -0.6 -0.6 -0.6 -0.6 -0.6 -0.6 -0.6 -0.6 -0.6 33.5 51.6 71.2 43.8 38 55.6 62.9 78.4 73.2 70.7 70 70.5 70.6 66.2 59.5 57.1 59 62.2 67 69.7 73.9 75.9 81.3 81 80.7 74.7 66 59.9 56.5 50.1 42.1 37.6 -0.6 -0.6 -0.6 -0.6 55.5 51.1 -0.6 -0.6 -0.6 -0.6 -0.6 -0.6 -0.6 -0.6 -0.6 -0.6 -0.6 -0.6 -0.6 -0.6 -0.6 -0.6 -0.6 -0.6 -0.6 -0.6 -0.6 24.3 30.5 41 54.2 68.4 79 81 77.5 74.1 75.9 75.7 77.7 74.3 71.1 71.4 67.3 64.3 62.8 69.3 71.6 76.4 80.7 86.4 88.7 94.8 102.3 105.5 103.4 102.1 102.3 103.9 104.6 104.2 103.8 99 93.4 85.3 78.9 75.7 69.3 61.2 52.9 50.1 58.6 62.6 60.3 54.7 50.5 52 47.9 46.3 43.6 39.5 35.4 37.8 36.5 35.3 37.4 41.1 42.7 44.9 46.5 47.1 43.3 37.8 33 29.8 28.5 27.2 26.4 25.9 29.7 38.5 59 77.4 90.6 97.7 101.6 104 101.9 99 95.6 87.5 77.9 71.3 64.9 61 57.4 54.1 49.7 43.3 36.5 34.1 31.1
-0.6 -0.6 -0.6 -0.6 -0.6 -0.6 -0.6 -0.6 -0.6 -0.6 -0.6 -0.6 -0.6 -0.6 -0.6 -0.6 -0.6 -0.6 -0.6 -0.6 -0.6 -0.6 -0.6 -0.6 -0.6 -0.6 -0.6 -0.6 -0.6 -0.6 -0.6 -0.6 -0.6 -0.6 -0.6 -0.6 -0.6 -0.6 -0.6 -0.6 -0.6 -0.6 -0.6 -0.6 -0.6 -0.6 -0.6 -0.6 -0.6 -0.6 -0.6 -0.6 -0.6 60.2 70 65.7 63.7 68.7 73.5 74 73 46.6 -0.6 59.5 65.2 65.4 66.5 70 71 72.7 75.8 -0.6 -0.6 -0.6 63 58.1 52.6 48.9 43.9 -0.6 -0.6 -0.6 -0.6 47.8 49 45 -0.6 -0.6 -0.6 -0.6 -0.6 -0.6 -0.6 -0.6 -0.6 -0.6 -0.6 -0.6 -0.6 -0.6 -0.6 -0.6 -0.6 -0.6 -0.6 -0.6 19.4 27.4 38.7 53.6 67.7 77.3 83.3 84.8 81.5 79.6 80.5 77.7 74 72.9 71.2 66.1 62.1 62.5 69.4 75 79.5 83.1 83.5 85.4 88.9 95.7 100.1 101.6 97.7 97.9 100.3 102.3 102.7 102.1 99.5 94.8 86.8 82 76.4 69.8 61.6 52.7 46 52.3 54.2 52.4 47.4 40.4 41.6 39.2 41.9 37.9 34.6 32.6 31.3 33.2 38.9 40.4 42.2 45.7 46 49 50.5 48.7 43.5 37.7 34.9 32.2 30.8 29.5 26.9 28.7 39.2 56.3 81.3 91.7 101.7 106.8 106.5 102.7 101.3 98.5 94.9 86.8 77.6 70.5 64.2 59.5 55.5 51.7 44.6 36.6 33.5 30.4
-0.6 -0.6 -0.6 -0.6 -0.6 -0.6 -0.6 -0.6 -0.6 -0.6 -0.6 -0.6 -0.6 -0.6 -0.6 -0.6 -0.6 -0.6 -0.6 -0.6 -0.6 -0.6 -0.6 -0.6 -0.6 -0.6 -0.6 -0.6 -0.6 -0.6 -0.6 -0.6 -0.6 -0.6 -0.6 -0.6 -0.6 -0.6 -0.6 -0.6 -0.6 -0.6 -0.6 -0.6 -0.6 -0.6 -0.6 -0.6 -0.6 -0.6 -0.6 -0.6 -0.6 -0.6 62 54.9 -0.6 64 68.7 72.7 76.2 -0.6 -0.6 -0.6 -0.6 64.2 -0.6 -0.6 -0.6 -0.6 -0.6 -0.6 -0.6 -0.6 64.7 60.6 56.6 52.2 49 -0.6 -0.6 -0.6 -0.6 -0.6 38.5 41.1 -0.6 -0.6 -0.6 -0.6 -0.6 -0.6 -0.6 -0.6 -0.6 -0.6 -0.6 -0.6 -0.6 -0.6 -0.6 -0.6 -0.6 -0.6 -0.6 -0.6 15.4 26 40.4 51.1 63.8 72.7 83.4 90.7 85.7 82.9 82.1 79.8 74.5 71.5 67 63.8 60.1 61.3 66.6 78.2 85.3 83.4 82.5 83.4 85 90.8 95 94.2 93.1 94.3 97.1 99.7 99.3 100.5 100.1 94.1 90.5 83.9 77 70.4 63 52.2 43.4 45.3 47.2 45.6 35.8 27.7 28.8 32.1 33.7 31.7 29 27 28.8 36 40.3 43.4 45.5 47.7 49.3 52.7 53.6 52.3 47.8 42.8 36.7 33.5 31.8 30.7 27.2 29.5 43.4 53 72.2 83 95.6 100.8 102.6 101.2 101.9 101.5 98.3 94.2 86.3 77.7 69.2 63.5 57.9 53.4 44.5 36.9 33.1 30
-0.6 -0.6 -0.6 -0.6 -0.6 -0.6 -0.6 -0.6 -0.6 -0.6 -0.6 -0.6 -0.6 -0.6 -0.6 -0.6 -0.6 -0.6 -0.6 -0.6 -0.6 -0.6 -0.6 -0.6 -0.6 -0.6 -0.6 -0.6 -0.6 -0.6 -0.6 -0.6 -0.6 -0.6 -0.6 -0.6 -0.6 -0.6 -0.6 -0.6 -0.6 -0.6 -0.6 -0.6 -0.6 -0.6 -0.6 -0.6 -0.6 -0.6 -0.6 -0.6 -0.6 -0.6 32.9 -0.6 -0.6 64.1 67.1 70.5 71.9 -0.6 -0.6 -0.6 -0.6 -0.6 -0.6 -0.6 -0.6 -0.6 -0.6 -0.6 -0.6 -0.6 -0.6 61.6 56.4 51.5 50.4 -0.6 -0.6 -0.6 -0.6 -0.6 -0.6 -0.6 -0.6 -0.6 -0.6 -0.6 -0.6 -0.6 -0.6 -0.6 -0.6 -0.6 -0.6 -0.6 -0.6 -0.6 -0.6 -0.6 -0.6 -0.6 -0.6 -0.6 -0.6 20.6 33.1 45.3 57.8 71.3 79.9 89.1 89.1 83.2 81.4 79.5 74 69.8 65.6 61.8 56.7 57.8 62.1 71.3 81.6 85.3 83.9 83 83.4 86.5 89.1 89.9 90.1 90.7 93 95.2 97 99.8 98.8 93.2 90.1 85.9 79.3 72 63.9 52.4 40.6 39.7 42.2 38.2 24.1 17 18.4 23.9 23.8 24.9 21.9 24.9 29.9 36.7 39 42.3 43.6 47.5 52.9 54.2 56.5 56.2 51.8 45.4 38.2 34 31.8 28.8 27.2 30.1 43 52.6 59.8 69.5 79.6 87.7 94.3 99.7 101.8 100.3 100.2 98.1 94.1 87.1 79.2 68.9 62.4 54.7 46.6 37.2 32.7 30.1
-0.6 -0.6 -0.6 -0.6 -0.6 -0.6 -0.6 -0.6 -0.6 -0.6 -0.6 -0.6 -0.6 -0.6 -0.6 -0.6 -0.6 -0.6 -0.6 -0.6 -0.6 -0.6 -0.6 -0.6 -0.6 -0.6 -0.6 -0.6 -0.6 -0.6 -0.6 -0.6 -0.6 -0.6 -0.6 -0.6 -0.6 -0.6 -0.6 -0.6 -0.6 -0.6 -0.6 -0.6 -0.6 -0.6 -0.6 -0.6 -0.6 -0.6 -0.6 -0.6 -0.6 -0.6 -0.6 -0.6 43 62 64.6 65.2 67.3 -0.6 -0.6 -0.6 -0.6 -0.6 -0.6 -0.6 -0.6 -0.6 -0.6 -0.6 -0.6 -0.6 -0.6 62 57.2 51.5 -0.6 -0.6 -0.6 -0.6 -0.6 -0.6 -0.6 -0.6 -0.6 -0.6 -0.6 -0.6 -0.6 -0.6 -0.6 -0.6 -0.6 -0.6 -0.6 -0.6 -0.6 -0.6 -0.6 -0.6 -0.6 -0.6 -0.6 -0.6 -0.6 9.3 26.9 42.8 58 69.8 77.8 86.5 88.5 83.6 79.7 77.4 71.8 65.9 62.7 57.2 54.8 56.1 61.4 69.2 76.1 84 84.2 83.5 84 83.1 84.4 84.7 85.4 87.2 86.3 86.3 95 97.8 97 93.1 89.2 84.6 78.4 71.2 62.5 51.4 39.8 36.6 37.2 31.8 12.9 11.2 11.9 12.1 12.9 13.4 15.7 24.9 29.6 34.3 37.8 41.4 43 46.7 54.4 57.8 59.3 58.8 55.3 48.6 40.4 35.6 32.5 29.3 27.5 31.9 41.4 49.3 56 57.4 65.2 75.6 85 89.6 92.4 95.1 96.7 98.4 97.5 93.6 87 78.3 68.9 58.6 47.1 36.4 31.9 29
-0.6 -0.6 -0.6 -0.6 -0.6 -0.6 -0.6 -0.6 -0.6 -0.6 -0.6 -0.6 -0.6 -0.6 -0.6 -0.6 -0.6 -0.6 -0.6 -0.6 -0.6 -0.6 -0.6 -0.6 -0.6 -0.6 -0.6 -0.6 -0.6 -0.6 -0.6 -0.6 -0.6 -0.6 -0.6 -0.6 -0.6 -0.6 -0.6 -0.6 -0.6 -0.6 -0.6 -0.6 -0.6 -0.6 -0.6 -0.6 -0.6 -0.6 -0.6 -0.6 -0.6 -0.6 -0.6 -0.6 -0.6 33.6 57.4 61.4 64.3 -0.6 -0.6 -0.6 -0.6 -0.6 -0.6 -0.6 -0.6 -0.6 -0.6 -0.6 -0.6 -0.6 -0.6 -0.6 -0.6 49.5 -0.6 -0.6 -0.6 -0.6 -0.6 -0.6 -0.6 -0.6 -0.6 -0.6 -0.6 -0.6 -0.6 -0.6 -0.6 -0.6 -0.6 -0.6 -0.6 -0.6 -0.6 -0.6 -0.6 -0.6 -0.6 -0.6 -0.6 -0.6 -0.6 0.8 24.3 39.3 56.1 68.2 77.4 85.3 87.1 81.7 76.3 71.6 65.2 60.8 56.8 54.2 54.2 55 60.2 68 74.9 82.1 83.4 81.1 78.6 79.4 79.4 78.6 80.4 82.8 81.1 85.3 93.2 94.4 94.1 93.9 89.5 85.6 78.7 70.5 62.2 48.3 35.7 30.6 31.9 24.2 10.9 10.8 10.8 11.3 11.4 12 17.3 23.9 31.7 37 39.8 44.2 45.5 49 55.6 61.4 61.9 61.8 59 53.3 42.6 36.8 32.7 28.8 27.4 31 39.5 45.6 48.8 50 54.9 65.2 73.5 79.8 84.7 91.1 93.3 96.2 97.7 95.8 89.7 82.6 73.8 60.2 47.1 35 31.1 27.8
-0.6 -0.6 -0.6 -0.6 -0.6 -0.6 -0.6 -0.6 -0.6 -0.6 -0.6 -0.6 -0.6 -0.6 -0.6 -0.6 -0.6 -0.6 -0.6 -0.6 -0.6 -0.6 -0.6 -0.6 -0.6 -0.6 -0.6 -0.6 -0.6 -0.6 -0.6 -0.6 -0.6 -0.6 -0.6 -0.6 -0.6 -0.6 -0.6 -0.6 -0.6 -0.6 -0.6 -0.6 -0.6 -0.6 -0.6 -0.6 -0.6 -0.6 -0.6 -0.6 -0.6 -0.6 -0.6 -0.6 -0.6 36.2 52.3 58.6 64 -0.6 -0.6 -0.6 -0.6 -0.6 -0.6 -0.6 -0.6 -0.6 -0.6 -0.6 -0.6 -0.6 -0.6 -0.6 -0.6 0.8 -0.6 -0.6 30.7 -0.6 -0.6 -0.6 -0.6 -0.6 -0.6 -0.6 -0.6 -0.6 -0.6 -0.6 -0.6 -0.6 -0.6 -0.6 -0.6 -0.6 -0.6 -0.6 -0.6 -0.6 -0.6 -0.6 -0.6 -0.6 -0.6 16.7 24.7 39.3 56.1 68.3 77.3 83.6 83.5 80.2 72.1 66.6 60.3 56.2 52.8 52.7 51.9 52 56.8 66.3 74.2 79.7 84 81.1 76.2 74 72.7 72.7 73.9 76.5 78.8 82.4 86.3 90.4 92.5 94.1 90.8 86.4 79.9 72.9 62.4 46.4 31.9 25.9 27.5 13 10.5 10.5 10.6 11.1 11.3 11.5 15.8 25.4 35.4 36.8 40.3 45.6 49.3 49.3 57.2 63.1 65.4 64.9 61.7 56.2 47.2 39.6 33.3 28.6 28.7 32.5 38 44.2 51 48.7 49 51.1 59.7 68.6 76.1 83.4 88.3 90.9 91.6 92.1 86.9 80.9 71.5 57.7 44.3 34 29.3 26.5
-0.6 -0.6 -0.6 -0.6 -0.6 -0.6 -0.6 -0.6 -0.6 -0.6 -0.6 -0.6 -0.6 -0.6 -0.6 -0.6 -0.6 -0.6 -0.6 -0.6 -0.6 -0.6 -0.6 -0.6 -0.6 -0.6 -0.6 -0.6 -0.6 -0.6 -0.6 -0.6 -0.6 -0.6 -0.6 -0.6 -0.6 -0.6 -0.6 -0.6 -0.6 -0.6 -0.6 -0.6 -0.6 -0.6 -0.6 -0.6 -0.6 -0.6 -0.6 -0.6 -0.6 -0.6 -0.6 -0.6 -0.6 -0.6 40.6 58.1 58 -0.6 -0.6 -0.6 -0.6 -0.6 -0.6 -0.6 -0.6 -0.6 -0.6 -0.6 -0.6 -0.6 -0.6 -0.6 -0.6 -0.6 -0.6 -0.6 1.6 -0.6 -0.6 -0.6 -0.6 -0.6 -0.6 -0.6 -0.6 -0.6 -0.6 -0.6 -0.6 -0.6 -0.6 -0.6 -0.6 -0.6 -0.6 -0.6 -0.6 -0.6 -0.6 -0.6 -0.6 -0.6 -0.6 12.7 24.7 39.8 54.7 66.5 76.7 83.9 83.4 78.8 68.5 60.7 55.3 52.3 50.2 49.9 47.1 50.2 56.2 64.5 75.9 82 83.2 81.8 75.3 70.5 68.4 67.6 68.2 73.3 79.1 82.7 85 87.4 91.6 94 92 86.6 79.2 72.4 60.1 44.5 30.3 21.8 15.1 10.4 10.1 13.1 16 14.3 12.1 11.7 12.4 18.3 28.9 33.7 42.7 49.6 51.9 52.5 58.1 65.8 68.7 67.5 64 59.3 53.1 44.5 34.7 29.4 30.7 33.9 40.6 44.3 48.6 47.9 47.8 48.2 50.4 55.4 62 66 75.1 79 80.5 82.4 78.6 73.1 65 53.4 40.2 32.9 28.3 26
-0.6 -0.6 -0.6 -0.6 -0.6 -0.6 -0.6 -0.6 -0.6 -0.6 -0.6 -0.6 -0.6 -0.6 -0.6 -0.6 -0.6 -0.6 -0.6 -0.6 -0.6 -0.6 -0.6 -0.6 -0.6 -0.6 -0.6 -0.6 -0.6 -0.6 -0.6 -0.6 -0.6 -0.6 -0.6 -0.6 -0.6 -0.6 -0.6 -0.6 -0.6 -0.6 -0.6 -0.6 -0.6 -0.6 -0.6 -0.6 -0.6 -0.6 -0.6 -0.6 -0.6 -0.6 -0.6 -0.6 -0.6 -0.6 -0.6 42.5 49.9 -0.6 -0.6 -0.6 -0.6 -0.6 -0.6 -0.6 -0.6 -0.6 -0.6 -0.6 -0.6 -0.6 -0.6 -0.6 -0.6 -0.6 -0.6 -0.6 -0.6 -0.6 -0.6 -0.6 -0.6 -0.6 -0.6 -0.6 -0.6 -0.6 -0.6 -0.6 -0.6 -0.6 -0.6 -0.6 -0.6 -0.6 -0.6 -0.6 -0.6 -0.6 -0.6 -0.6 -0.6 -0.6 -0.6 11.5 27.8 43 56.8 67.2 74.4 81.8 83 77.3 67.3 57.1 51 49 46 43.4 41.5 45.5 51.7 64.7 77.4 80.5 81.4 78.3 73.8 65.9 61.5 61.5 64.2 71.6 78.9 82.6 84.6 86.5 90.3 93.2 90 84.7 76.4 67.3 58.7 42.2 30.9 18.8 12.1 10 12.5 17.3 21.2 22.3 22.2 15.3 13.7 14.2 17.4 28.9 40.5 49.8 52.4 54.2 59.5 68.1 70.5 69.4 67.4 63.1 57.6 49.3 36.9 31.7 31 33.4 41 47.7 46.9 47.2 46.6 47.6 49.6 51.5 52.7 53.4 56.9 62.5 65.7 69 66.2 62.9 57 48.9 37.7 31.5 27.8 26.1
-0.6 -0.6 -0.6 -0.6 -0.6 -0.6 -0.6 -0.6 -0.6 -0.6 -0.6 -0.6 -0.6 -0.6 -0.6 -0.6 -0.6 -0.6 -0.6 -0.6 -0.6 -0.6 -0.6 -0.6 -0.6 -0.6 -0.6 -0.6 -0.6 -0.6 -0.6 -0.6 -0.6 -0.6 -0.6 -0.6 -0.6 -0.6 -0.6 -0.6 -0.6 -0.6 -0.6 -0.6 -0.6 -0.6 -0.6 -0.6 -0.6 -0.6 -0.6 -0.6 -0.6 -0.6 -0.6 -0.6 -0.6 -0.6 -0.6 10.5 38.8 -0.6 -0.6 -0.6 -0.6 -0.6 -0.6 -0.6 -0.6 -0.6 -0.6 -0.6 -0.6 -0.6 -0.6 -0.6 -0.6 -0.6 -0.6 -0.6 -0.6 -0.6 -0.6 -0.6 -0.6 -0.6 -0.6 -0.6 -0.6 -0.6 -0.6 -0.6 -0.6 -0.6 -0.6 -0.6 -0.6 -0.6 -0.6 -0.6 -0.6 -0.6 -0.6 -0.6 -0.6 -0.6 -0.6 17.5 32 45 55.5 65.7 71.9 77.1 79.5 75.7 67.4 56.3 47.7 44.8 41.9 38.4 36.5 39.4 49 65.6 70.8 73.6 70.9 69.5 67.8 60 55.1 55.6 60.6 67.1 74.2 80.9 83.6 87.3 88.8 90.5 86.2 79.7 71.6 61.9 51 40.2 28.9 18.2 10.8 12.1 19 22.4 26.4 30.8 30.7 23.6 19.1 16.1 17.2 22.8 34.6 44.9 51.8 56.8 58.8 69.3 72 70.2 69 66.9 61 51.7 38 32.1 31 32.2 40 49.5 49 47.5 46.6 45.1 48.9 49.3 49.3 48.6 49.1 49.5 52.1 55.7 55.9 54.9 51.8 45 35.5 30 27.4 26.3
-0.6 -0.6 -0.6 -0.6 -0.6 -0.6 -0.6 -0.6 -0.6 -0.6 -0.6 -0.6 -0.6 -0.6 -0.6 -0.6 -0.6 -0.6 -0.6 -0.6 -0.6 -0.6 -0.6 -0.6 -0.6 -0.6 -0.6 -0.6 -0.6 -0.6 -0.6 -0.6 -0.6 -0.6 -0.6 -0.6 -0.6 -0.6 -0.6 -0.6 -0.6 -0.6 -0.6 -0.6 -0.6 -0.6 -0.6 -0.6 -0.6 -0.6 -0.6 -0.6 -0.6 -0.6 -0.6 -0.6 -0.6 -0.6 -0.6 -0.6 -0.6 -0.6 -0.6 -0.6 -0.6 -0.6 -0.6 -0.6 -0.6 -0.6 -0.6 -0.6 -0.6 -0.6 -0.6 -0.6 -0.6 -0.6 -0.6 -0.6 -0.6 -0.6 -0.6 -0.6 -0.6 -0.6 -0.6 -0.6 -0.6 -0.6 -0.6 -0.6 -0.6 -0.6 -0.6 -0.6 -0.6 -0.6 -0.6 -0.6 -0.6 -0.6 -0.6 -0.6 6.6 5.4 11.4 16.5 31.2 42.8 54.1 60.8 66.1 71.6 73.2 72.4 67.2 57 46.9 43.7 40.6 35.4 31.3 34.4 46.4 57.4 62.4 61.9 58.9 60.5 60.6 53.7 49.2 51.2 56.6 63.7 71.7 78 83.6 87.9 88.5 85.5 79.6 73.5 65.2 57.3 44 35.5 25.9 15.7 9.1 14.6 21.9 30.7 36 39.6 40.1 32.6 26.9 24.7 20.7 23.1 30.3 42.2 51.3 57.8 60.2 65.4 69.6 69.5 70.5 71 64.2 55.2 39.8 33.7 31.6 32.5 38.5 43.5 46.3 45.9 44.3 43.7 45.9 47.5 46.9 46.1 45.8 45.2 45.8 48.2 49.9 48.7 46.2 41.6 33.2 29.1 28.1 27.4
-0.6 -0.6 -0.6 -0.6 -0.6 -0.6 -0.6 -0.6 -0.6 -0.6 -0.6 -0.6 -0.6 -0.6 -0.6 -0.6 -0.6 -0.6 -0.6 -0.6 -0.6 -0.6 -0.6 -0.6 -0.6 -0.6 -0.6 -0.6 -0.6 -0.6 -0.6 -0.6 -0.6 -0.6 -0.6 -0.6 -0.6 -0.6 -0.6 -0.6 -0.6 -0.6 -0.6 -0.6 -0.6 -0.6 -0.6 -0.6 -0.6 -0.6 -0.6 -0.6 -0.6 -0.6 -0.6 -0.6 -0.6 -0.6 -0.6 -0.6 -0.6 -0.6 -0.6 -0.6 -0.6 -0.6 -0.6 -0.6 -0.6 -0.6 -0.6 -0.6 -0.6 -0.6 -0.6 -0.6 -0.6 -0.6 -0.6 -0.6 -0.6 -0.6 -0.6 -0.6 -0.6 -0.6 -0.6 -0.6 -0.6 -0.6 -0.6 -0.6 -0.6 -0.6 -0.6 -0.6 -0.6 -0.6 -0.6 -0.6 -0.6 -0.6 -0.6 -0.6 -0.6 -0.6 10.1 16.4 21.6 32.9 48.8 54.3 57.6 65.1 71.4 71.7 67.6 57.1 45.7 42.8 38.9 32.9 28.6 32.3 39.2 46.8 50.6 47 50.2 50.7 49.1 45.2 48.2 49 49.5 58.3 65.4 73.8 81 85.3 85.5 80.8 72.5 65.6 57.2 50.5 39.1 29.7 22 12.6 7.8 15.7 24.5 35.9 37.9 46.4 44.9 36.7 34.4 34.3 30.9 32.2 35.2 44.3 52.7 57 60.4 61.3 66.9 70.3 71.2 69.8 64.8 57.4 47.6 37 33.8 33.8 35.7 39.5 41.5 41.5 41.5 42.6 44.7 46.7 46.4 45.3 44.2 43.6 43.1 44.3 45.3 43.8 40.3 37.6 31.5 29.3 28.6 27.9
-0.6 -0.6 -0.6 -0.6 -0.6 -0.6 -0.6 -0.6 -0.6 -0.6 -0.6 -0.6 -0.6 -0.6 -0.6 -0.6 -0.6 -0.6 -0.6 -0.6 -0.6 -0.6 -0.6 -0.6 -0.6 -0.6 -0.6 -0.6 -0.6 -0.6 -0.6 -0.6 -0.6 -0.6 -0.6 -0.6 -0.6 -0.6 -0.6 -0.6 -0.6 -0.6 -0.6 -0.6 -0.6 -0.6 -0.6 -0.6 -0.6 -0.6 -0.6 -0.6 -0.6 -0.6 -0.6 -0.6 -0.6 -0.6 -0.6 -0.6 -0.6 -0.6 -0.6 -0.6 -0.6 -0.6 -0.6 -0.6 -0.6 -0.6 -0.6 -0.6 -0.6 -0.6 -0.6 -0.6 -0.6 -0.6 -0.6 -0.6 -0.6 -0.6 -0.6 -0.6 -0.6 -0.6 -0.6 -0.6 -0.6 -0.6 -0.6 -0.6 -0.6 -0.6 -0.6 -0.6 -0.6 -0.6 -0.6 -0.6 -0.6 -0.6 -0.6 -0.6 -0.6 -0.6 3.3 10.3 25.4 33.8 40.9 47.1 54.4 62.6 67.4 68.1 64.3 56.5 44.7 39 35 30.1 26 27.4 34.8 35.9 36.7 43.2 48.6 43.9 39.5 40.3 45.6 48.6 47.7 49.6 59.4 68.3 75.2 81.1 81.1 75.3 65.4 56.1 49.3 41.6 34.8 25.8 18.6 11.5 7.9 17.2 23.8 34.5 38.6 40.2 40.9 40 43.6 42.8 41.2 43 41.2 45.6 56 58.8 60.8 61.6 66.8 70.1 70.6 68 63.1 57.9 50.7 42.4 37.2 38.2 36.5 37.9 39.1 39.8 42 44.4 50.5 49 47 45.5 43.7 43.2 42.9 42.4 43.5 41.5 38.7 35.4 30.6 29.5 28.8 28.4
-0.6 -0.6 -0.6 -0.6 -0.6 -0.6 -0.6 -0.6 -0.6 -0.6 -0.6 -0.6 -0.6 -0.6 -0.6 -0.6 -0.6 -0.6 -0.6 -0.6 -0.6 -0.6 -0.6 -0.6 -0.6 -0.6 -0.6 -0.6 -0.6 -0.6 -0.6 -0.6 -0.6 -0.6 -0.6 -0.6 -0.6 -0.6 -0.6 -0.6 -0.6 -0.6 -0.6 -0.6 -0.6 -0.6 -0.6 -0.6 -0.6 -0.6 -0.6 -0.6 -0.6 -0.6 -0.6 -0.6 -0.6 -0.6 -0.6 -0.6 -0.6 -0.6 -0.6 -0.6 -0.6 -0.6 -0.6 -0.6 -0.6 -0.6 -0.6 -0.6 -0.6 -0.6 -0.6 -0.6 -0.6 -0.6 -0.6 -0.6 -0.6 -0.6 -0.6 -0.6 -0.6 -0.6 -0.6 -0.6 -0.6 -0.6 -0.6 -0.6 -0.6 -0.6 -0.6 -0.6 -0.6 -0.6 -0.6 -0.6 -0.6 -0.6 -0.6 -0.6 -0.6 -0.6 5.1 9.5 21.3 30.2 34.6 43.1 51.1 57.6 62.1 62 60.2 54.6 44.3 37.2 32.8 28.3 29 29 28.2 29 32 40.1 41.7 38.4 34.6 36.4 41.5 45.2 44.7 44.9 49.4 58.1 69.1 75.2 72.4 67.3 57.3 48.2 42.5 37.2 29.6 22 15.7 10.6 6.6 11.6 22 26.7 31.2 37.6 42.1 43 49.8 50.9 50.1 50.3 48 49.1 59.2 60.5 60.1 63.7 66.9 69.9 69.2 65.8 61.8 56.4 50.8 42.9 38.4 40.7 40.7 39.2 39.9 41.2 50.7 55.4 57.6 54.9 50.9 46.2 44.2 43.5 42.9 43.1 41.4 40.8 37.3 33.3 31.1 29.2 29 28.8
-0.6 -0.6 -0.6 -0.6 -0.6 -0.6 -0.6 -0.6 -0.6 -0.6 -0.6 -0.6 -0.6 -0.6 -0.6 -0.6 -0.6 -0.6 -0.6 -0.6 -0.6 -0.6 -0.6 -0.6 -0.6 -0.6 -0.6 -0.6 -0.6 -0.6 -0.6 -0.6 -0.6 -0.6 -0.6 -0.6 -0.6 -0.6 -0.6 -0.6 -0.6 -0.6 -0.6 -0.6 -0.6 -0.6 -0.6 -0.6 -0.6 -0.6 -0.6 -0.6 -0.6 -0.6 -0.6 -0.6 -0.6 -0.6 -0.6 -0.6 -0.6 -0.6 -0.6 -0.6 -0.6 -0.6 -0.6 -0.6 -0.6 -0.6 -0.6 -0.6 -0.6 -0.6 -0.6 -0.6 -0.6 -0.6 -0.6 -0.6 -0.6 -0.6 -0.6 -0.6 -0.6 -0.6 -0.6 -0.6 -0.6 -0.6 -0.6 -0.6 -0.6 -0.6 -0.6 -0.6 -0.6 -0.6 -0.6 -0.6 -0.6 -0.6 -0.6 -0.6 -0.6 14.3 9.3 9.3 16.8 26 32.7 40.1 45.6 53 59.4 61.6 59.9 53.9 46.7 39.1 31.8 25.2 29 29 27.4 27.1 25.8 30.2 31.6 32.8 33.5 35 37.5 40.8 44.2 46.3 45.5 48 57.4 64.4 63 58.6 51.8 45.7 39.2 31.4 24.2 18.9 14.7 8.8 4.6 7.5 14.6 19.8 27.8 35.7 42.2 46.4 50.4 55.7 57.7 56.9 52.4 52.5 57.5 61.7 60.4 66 70.3 69.3 66.8 64.1 60.7 54 49.1 42.4 41.6 41 42.9 47.1 52.1 48.1 54.3 63.6 67 64.2 56.7 49.8 45.6 44.3 43.6 43.8 40.6 38.3 36.4 34.2 30.3 29 28.1 28.6
-0.6 -0.6 -0.6 -0.6 -0.6 -0.6 -0.6 -0.6 -0.6 -0.6 -0.6 -0.6 -0.6 -0.6 -0.6 -0.6 -0.6 -0.6 -0.6 -0.6 -0.6 -0.6 -0.6 -0.6 -0.6 -0.6 -0.6 -0.6 -0.6 -0.6 -0.6 -0.6 -0.6 -0.6 -0.6 -0.6 -0.6 -0.6 -0.6 -0.6 -0.6 -0.6 -0.6 -0.6 -0.6 -0.6 -0.6 -0.6 -0.6 -0.6 -0.6 -0.6 -0.6 -0.6 -0.6 -0.6 -0.6 -0.6 -0.6 -0.6 -0.6 -0.6 -0.6 -0.6 -0.6 -0.6 -0.6 -0.6 -0.6 -0.6 -0.6 -0.6 -0.6 -0.6 -0.6 -0.6 -0.6 -0.6 -0.6 -0.6 -0.6 -0.6 -0.6 -0.6 -0.6 -0.6 -0.6 -0.6 -0.6 -0.6 -0.6 -0.6 -0.6 -0.6 -0.6 -0.6 -0.6 -0.6 -0.6 -0.6 -0.6 -0.6 -0.6 -0.6 -0.6 -0.6 10.2 15.4 22.5 27.8 36.5 39.5 46.7 52.4 59.3 63.9 61.9 55.6 50.8 42.8 33.6 27.9 29 29 29 29 29 27.2 27.2 29.9 32 33.6 37 42.2 46.2 47.4 45.8 46.6 50.5 55.2 56.7 54.4 49.7 43.3 36.9 27.7 20.9 14.8 13.4 5.7 4 5.4 10.4 20.4 36.9 41.7 46 55.2 56.7 58.8 61.7 62 56.9 56.8 58.6 61.2 62.7 68.2 71.1 67.3 65.1 63.6 59.8 53.8 48.7 43.9 42.9 42.8 44.1 48.4 51.5 52 54.6 63.1 67.7 66.2 60.4 54.5 48.1 45.9 45 42.2 39.1 37.9 35.3 32.7 30.3 29 27.6 27.1
-0.6 -0.6 -0.6 -0.6 -0.6 -0.6 -0.6 -0.6 -0.6 -0.6 -0.6 -0.6 -0.6 -0.6 -0.6 -0.6 -0.6 -0.6 -0.6 -0.6 -0.6 -0.6 -0.6 -0.6 -0.6 -0.6 -0.6 -0.6 -0.6 -0.6 -0.6 -0.6 -0.6 -0.6 -0.6 -0.6 -0.6 -0.6 -0.6 -0.6 -0.6 -0.6 -0.6 -0.6 -0.6 -0.6 -0.6 -0.6 -0.6 -0.6 -0.6 -0.6 -0.6 -0.6 -0.6 -0.6 -0.6 -0.6 -0.6 -0.6 -0.6 -0.6 -0.6 -0.6 -0.6 -0.6 -0.6 -0.6 -0.6 -0.6 -0.6 -0.6 -0.6 -0.6 -0.6 -0.6 -0.6 -0.6 -0.6 -0.6 -0.6 -0.6 -0.6 -0.6 -0.6 -0.6 -0.6 -0.6 -0.6 -0.6 -0.6 -0.6 -0.6 -0.6 -0.6 -0.6 -0.6 -0.6 -0.6 -0.6 -0.6 -0.6 -0.6 -0.6 -0.6 -0.6 -0.6 15.7 18.5 24.9 30.8 34 42.6 49.6 57.5 60.6 61.5 58.3 53.2 45.4 33.7 25.8 29 29 29 29 29 29 25.7 28.6 31.3 35.1 39.2 43.8 47.3 48 47.5 48.2 49.7 52 55.5 52.4 47.7 41.9 35.5 27.1 20.3 12.3 8.7 3.9 4.3 4.7 6.8 18 32.2 41.1 46.6 58.3 62.6 64.3 65.9 65.9 65.9 63 61.5 62.1 63.3 67.7 66.7 66.8 64.8 63.5 60.7 57.1 50.1 44.9 43.4 46.2 45 51.8 59.1 60.4 60.6 60.4 64.1 66.2 64.9 57.9 52.9 48.9 45.1 42.5 38.4 37.3 35.9 32.2 29 27.9 26.9 26.6
-0.6 -0.6 -0.6 -0.6 -0.6 -0.6 -0.6 -0.6 -0.6 -0.6 -0.6 -0.6 -0.6 -0.6 -0.6 -0.6 -0.6 -0.6 -0.6 -0.6 -0.6 -0.6 -0.6 -0.6 -0.6 -0.6 -0.6 -0.6 -0.6 -0.6 -0.6 -0.6 -0.6 -0.6 -0.6 -0.6 -0.6 -0.6 -0.6 -0.6 -0.6 -0.6 -0.6 -0.6 -0.6 -0.6 -0.6 -0.6 -0.6 -0.6 -0.6 -0.6 -0.6 -0.6 -0.6 -0.6 -0.6 -0.6 -0.6 -0.6 -0.6 -0.6 -0.6 -0.6 -0.6 -0.6 -0.6 -0.6 -0.6 -0.6 -0.6 -0.6 -0.6 -0.6 -0.6 -0.6 -0.6 -0.6 -0.6 -0.6 -0.6 -0.6 -0.6 -0.6 -0.6 -0.6 -0.6 -0.6 -0.6 -0.6 -0.6 -0.6 -0.6 -0.6 -0.6 -0.6 -0.6 -0.6 -0.6 -0.6 -0.6 -0.6 -0.6 -0.6 -0.6 -0.6 -0.6 19.5 18.9 22.2 29.1 34.7 35.3 45.8 53 61.9 62.9 60.5 57.5 46.6 31.4 28.1 29 29 29 29 29 28.6 29.5 31.5 34.5 38.2 41.9 47.4 50.4 49.8 49.7 51 50.8 52.2 53.3 51.8 49.5 43.1 34.7 25.9 18.3 8.7 4.2 3.8 4.1 4.5 5.4 12.8 27.6 45.4 53.7 61 67.4 70.4 70.4 70.8 70.7 68.9 63.4 62.6 64.6 65.5 67.1 67.7 67.5 64.3 61.4 58.5 52.8 47.3 43.5 48 47.2 51.3 58.1 58.2 56.7 60.3 64.2 68.4 65.1 62.1 56 51.4 47.6 43.3 38.1 37 34.6 31.1 28.4 27 25.8 26.1
-0.6 -0.6 -0.6 -0.6 -0.6 -0.6 -0.6 -0.6 -0.6 -0.6 -0.6 -0.6 -0.6 -0.6 -0.6 -0.6 -0.6 -0.6 -0.6 -0.6 -0.6 -0.6 -0.6 -0.6 -0.6 -0.6 -0.6 -0.6 -0.6 -0.6 -0.6 -0.6 -0.6 -0.6 -0.6 -0.6 -0.6 -0.6 -0.6 -0.6 -0.6 -0.6 -0.6 -0.6 -0.6 -0.6 -0.6 -0.6 -0.6 -0.6 -0.6 -0.6 -0.6 -0.6 -0.6 -0.6 -0.6 -0.6 -0.6 -0.6 -0.6 -0.6 -0.6 -0.6 -0.6 -0.6 -0.6 -0.6 -0.6 -0.6 -0.6 -0.6 -0.6 -0.6 -0.6 -0.6 -0.6 -0.6 -0.6 -0.6 -0.6 -0.6 -0.6 -0.6 -0.6 -0.6 -0.6 -0.6 -0.6 -0.6 -0.6 -0.6 -0.6 -0.6 -0.6 -0.6 -0.6 -0.6 -0.6 -0.6 -0.6 -0.6 -0.6 -0.6 -0.6 -0.6 -0.6 1.8 22.2 27.6 27.6 31.9 37.2 37.8 49.2 57.1 60.4 58.6 56.6 38.9 31.7 28.7 28.2 29 29 29 26.8 31.2 34.2 37.4 41.8 42.8 45.5 50.6 52.9 48.1 48.9 49.7 51.3 52.9 53.7 53.2 50.3 43.3 33.6 23.9 14.2 4.9 3.6 3.8 4 4.3 7.6 15.1 24.7 43.8 53.2 64.1 71.2 74.3 75.6 75.8 75.3 73.9 68.3 65.3 65.4 65.5 67.8 70 68.5 66.2 64.6 60.3 56.7 53.2 45.2 48 48 46.8 52.4 55.3 60 61.7 65.6 66.6 68.4 63.7 60.5 56.3 50.8 44.1 38.2 36.8 35.3 30.1 27.8 26.3 25.9 24.9
-0.6 -0.6 -0.6 -0.6 -0.6 -0.6 -0.6 -0.6 -0.6 -0.6 -0.6 -0.6 -0.6 -0.6 -0.6 -0.6 -0.6 -0.6 -0.6 -0.6 -0.6 -0.6 -0.6 -0.6 -0.6 -0.6 -0.6 -0.6 -0.6 -0.6 -0.6 -0.6 -0.6 -0.6 -0.6 -0.6 -0.6 -0.6 -0.6 -0.6 -0.6 -0.6 -0.6 -0.6 -0.6 -0.6 -0.6 -0.6 -0.6 -0.6 -0.6 -0.6 -0.6 -0.6 -0.6 -0.6 -0.6 -0.6 -0.6 -0.6 -0.6 -0.6 -0.6 -0.6 -0.6 -0.6 -0.6 -0.6 -0.6 -0.6 -0.6 -0.6 -0.6 -0.6 -0.6 -0.6 -0.6 -0.6 -0.6 -0.6 -0.6 -0.6 -0.6 -0.6 -0.6 -0.6 -0.6 -0.6 -0.6 -0.6 -0.6 -0.6 -0.6 -0.6 -0.6 -0.6 -0.6 -0.6 -0.6 -0.6 -0.6 -0.6 -0.6 -0.6 -0.6 -0.6 40.4 40.7 29.7 22.2 27.7 28.5 30.2 30.7 40.9 49 54.4 53.2 41.4 33.7 28.6 27.8 24.2 29 29 28.9 30.9 34.3 39.2 45.5 48.5 48.2 48.1 52.8 52.6 49 49 49 50.2 52.3 53 54.3 50.3 38.4 28.7 19.4 9.6 4.1 3.7 3.9 5.2 6.2 12.2 25 30.5 47.4 56 67.2 73 77.4 79.1 80.2 80.4 79.1 72.7 68.8 66.9 66.9 68.4 71.3 72.2 70.8 69.1 66.7 65 59.9 50.5 43.5 48 48 47 54.3 61.3 72.4 69.6 68.8 66.8 64.3 61.8 56.5 50.9 44 38.8 36.1 33.5 30.1 27.9 25.4 23.9 22.8
-0.6 -0.6 -0.6 -0.6 -0.6 -0.6 -0.6 -0.6 -0.6 -0.6 -0.6 -0.6 -0.6 -0.6 -0.6 -0.6 -0.6 -0.6 -0.6 -0.6 -0.6 -0.6 -0.6 -0.6 -0.6 -0.6 -0.6 -0.6 -0.6 -0.6 -0.6 -0.6 -0.6 -0.6 -0.6 -0.6 -0.6 -0.6 -0.6 -0.6 -0.6 -0.6 -0.6 -0.6 -0.6 -0.6 -0.6 -0.6 -0.6 -0.6 -0.6 -0.6 -0.6 -0.6 -0.6 -0.6 -0.6 -0.6 -0.6 -0.6 -0.6 -0.6 -0.6 -0.6 -0.6 -0.6 -0.6 -0.6 -0.6 -0.6 -0.6 -0.6 -0.6 -0.6 -0.6 -0.6 -0.6 -0.6 -0.6 -0.6 -0.6 -0.6 -0.6 -0.6 -0.6 -0.6 -0.6 -0.6 -0.6 -0.6 -0.6 -0.6 -0.6 -0.6 -0.6 -0.6 -0.6 -0.6 -0.6 -0.6 -0.6 -0.6 -0.6 -0.6 -0.6 26.5 36.8 37.7 36.8 22.2 27.7 27.7 27.7 24.9 32.7 41.7 41.7 41.4 33.7 29.8 26.5 29 29 29 28.4 30.2 33.8 37.3 42.8 49.5 51 49.8 49 52.3 49 49 49 49 49.7 51.1 50.4 50.1 44.6 32.8 25.9 16.3 6.9 3.7 4.4 10.5 14.3 9.7 17.2 31.3 39.8 52 58.5 66.2 73.9 77.6 81.2 83.2 84.1 81.2 76.6 73.9 70.9 68.9 69 72.7 74.4 74.3 73.7 73.3 71 65.7 57.3 47.3 48 48 45.2 52.9 61.4 71.1 70.2 68.6 66.7 64.2 61 56.5 51 43.5 38.8 34.9 32.1 29.4 27.2 25.3 24.1 22.8
-0.6 -0.6 -0.6 -0.6 -0.6 -0.6 -0.6 -0.6 -0.6 -0.6 -0.6 -0.6 -0.6 -0.6 -0.6 -0.6 -0.6 -0.6 -0.6 -0.6 -0.6 -0.6 -0.6 -0.6 -0.6 -0.6 -0.6 -0.6 -0.6 -0.6 -0.6 -0.6 -0.6 -0.6 -0.6 -0.6 -0.6 -0.6 -0.6 -0.6 -0.6 -0.6 -0.6 -0.6 -0.6 -0.6 -0.6 -0.6 -0.6 -0.6 -0.6 -0.6 -0.6 -0.6 -0.6 -0.6 -0.6 -0.6 -0.6 -0.6 -0.6 -0.6 -0.6 -0.6 -0.6 -0.6 -0.6 -0.6 -0.6 -0.6 -0.6 -0.6 -0.6 -0.6 -0.6 -0.6 -0.6 -0.6 -0.6 -0.6 -0.6 -0.6 -0.6 -0.6 -0.6 -0.6 -0.6 -0.6 -0.6 -0.6 -0.6 -0.6 -0.6 -0.6 -0.6 -0.6 -0.6 -0.6 -0.6 -0.6 -0.6 -0.6 -0.6 -0.6 -0.6 -0.6 21.8 28.6 31.7 27.3 27.7 27.7 27.7 27.7 26.8 30.8 33.6 34 30.2 29.5 26.7 23.9 29 28.7 29.3 34.9 37.8 42.8 48.3 52.9 54.1 50.2 48.8 48.4 49 49 49 49 49 49.7 49 45.2 41.2 27.7 19.9 13.4 3.5 3.6 16.7 22.4 22.3 18.8 16.4 31.6 45.4 54.4 60.5 66.3 73.5 78.8 82.9 85.2 85.4 83.6 80.3 77.4 72.2 70.7 70.7 73.3 76.4 78.4 78.9 77.6 74.9 67.7 59.7 52.5 46.6 43.3 46.4 52.7 60.1 66.5 67.7 70.3 64.8 61.6 59.7 57 52.3 44.7 38.2 35.6 32 30.1 28.1 25.6 25.3 24.8
-0.6 -0.6 -0.6 -0.6 -0.6 -0.6 -0.6 -0.6 -0.6 -0.6 -0.6 -0.6 -0.6 -0.6 -0.6 -0.6 -0.6 -0.6 -0.6 -0.6 -0.6 -0.6 -0.6 -0.6 -0.6 -0.6 -0.6 -0.6 -0.6 -0.6 -0.6 -0.6 -0.6 -0.6 -0.6 -0.6 -0.6 -0.6 -0.6 -0.6 -0.6 -0.6 -0.6 -0.6 -0.6 -0.6 -0.6 -0.6 -0.6 -0.6 -0.6 -0.6 -0.6 -0.6 -0.6 -0.6 -0.6 -0.6 -0.6 -0.6 -0.6 -0.6 -0.6 -0.6 -0.6 -0.6 -0.6 -0.6 -0.6 -0.6 -0.6 -0.6 -0.6 -0.6 -0.6 -0.6 -0.6 -0.6 -0.6 -0.6 -0.6 -0.6 -0.6 -0.6 -0.6 -0.6 -0.6 -0.6 -0.6 -0.6 -0.6 -0.6 -0.6 -0.6 -0.6 -0.6 -0.6 -0.6 -0.6 -0.6 -0.6 -0.6 -0.6 -0.6 -0.6 -0.6 21.3 26.9 28.9 28.2 21.3 27.7 27.7 27.7 27.7 25.5 29.2 31.3 29.7 28.8 27.3 25.2 27.6 28.3 31 39.6 46 47.8 50.5 56.7 58.3 53.2 51.5 50.1 52 52.4 49 49 49 47.1 46.7 45.3 40.6 25 10.9 6.3 3.6 12.9 27.9 32.9 30.9 28.5 28.4 26 45 59 60.4 66.3 72.3 79.9 84 85.7 87.9 85.5 82.8 77.8 74.2 72.9 74.2 74 79.4 81.9 81.7 79.4 75.1 66.3 57.2 54.7 55 49 47.3 50.8 58.8 65.5 70.6 68.1 64 59.9 57.9 55.9 50 42.9 38.9 34.9 31 29.1 27.8 25.1 24.3 22.7
-0.6 -0.6 -0.6 -0.6 -0.6 -0.6 -0.6 -0.6 -0.6 -0.6 -0.6 -0.6 -0.6 -0.6 -0.6 -0.6 -0.6 -0.6 -0.6 -0.6 -0.6 -0.6 -0.6 -0.6 -0.6 -0.6 -0.6 -0.6 -0.6 -0.6 -0.6 -0.6 -0.6 -0.6 -0.6 -0.6 -0.6 -0.6 -0.6 -0.6 -0.6 -0.6 -0.6 -0.6 -0.6 -0.6 -0.6 -0.6 -0.6 -0.6 -0.6 -0.6 -0.6 -0.6 -0.6 -0.6 -0.6 -0.6 -0.6 -0.6 -0.6 -0.6 -0.6 -0.6 -0.6 -0.6 -0.6 -0.6 -0.6 -0.6 -0.6 -0.6 -0.6 -0.6 -0.6 -0.6 -0.6 -0.6 -0.6 -0.6 -0.6 -0.6 -0.6 -0.6 -0.6 -0.6 -0.6 -0.6 -0.6 -0.6 -0.6 -0.6 -0.6 -0.6 -0.6 -0.6 -0.6 -0.6 -0.6 -0.6 -0.6 -0.6 -0.6 -0.6 -0.6 -0.6 -0.6 -0.6 22.7 27.3 27.5 21.9 27.7 27.7 27.7 28.8 30.6 29.9 30.6 28.1 27.2 25.4 23.3 27.7 32.5 41.8 49.5 50.3 49 55.8 56.9 51.7 51.3 54.6 55.2 52.5 49 49 48.9 47.6 48 44.2 38 22.7 8.1 3.8 6.1 19.1 40.1 43.9 39.4 39 38.4 38.5 41.9 52 60.2 65.3 70 79.1 83.7 87.8 90.1 88.7 84.8 78.3 74.3 75 77 75.8 79.2 83.1 81.3 77.1 71.1 59.5 54.3 52.2 53.4 53.1 48.4 50.2 53.6 66.8 69.1 68.2 64.3 59.6 56.8 54.4 49.3 44 39.4 34.9 30.4 27.9 26.6 24.6 23.5 19.8
-0.6 -0.6 -0.6 -0.6 -0.6 -0.6 -0.6 -0.6 -0.6 -0.6 -0.6 -0.6 -0.6 -0.6 -0.6 -0.6 -0.6 -0.6 -0.6 -0.6 -0.6 -0.6 -0.6 -0.6 -0.6 -0.6 -0.6 -0.6 -0.6 -0.6 -0.6 -0.6 -0.6 -0.6 -0.6 -0.6 -0.6 -0.6 -0.6 -0.6 -0.6 -0.6 -0.6 -0.6 -0.6 -0.6 -0.6 -0.6 -0.6 -0.6 -0.6 -0.6 -0.6 -0.6 -0.6 -0.6 -0.6 -0.6 -0.6 -0.6 -0.6 -0.6 -0.6 -0.6 -0.6 -0.6 -0.6 -0.6 -0.6 -0.6 -0.6 -0.6 -0.6 -0.6 -0.6 -0.6 -0.6 -0.6 -0.6 -0.6 -0.6 -0.6 -0.6 -0.6 -0.6 -0.6 -0.6 -0.6 -0.6 -0.6 -0.6 -0.6 -0.6 -0.6 -0.6 -0.6 -0.6 -0.6 -0.6 -0.6 -0.6 -0.6 -0.6 -0.6 -0.6 -0.6 -0.6 -0.6 -0.6 24.5 31.1 30.4 21.3 27.7 27.7 26.3 30.8 33.8 31 27.4 26.8 24 19.4 20.3 30.6 39.5 46.3 47.1 47.4 49.3 50.6 52.7 55.4 56.8 56.1 53.3 49 49 51.1 50.2 49.1 45.5 37.5 22.1 5.4 3.5 9.5 30.1 44 52.1 52.8 51.2 48.8 46.7 46.5 49.7 56.3 63.6 71.3 78.4 84.1 86.5 91.9 89 82.1 76.8 71.8 73.7 74.8 75 75.4 77.5 79.5 73.5 67.4 56.8 50.6 49.7 50.2 51.3 53.3 51.8 54.7 60.7 68 67.7 64.3 59.7 56.9 53.7 50.1 45 39.6 34.8 30.1 27.9 26 23.1 21.7 18.1
-0.6 -0.6 -0.6 -0.6 -0.6 -0.6 -0.6 -0.6 -0.6 -0.6 -0.6 -0.6 -0.6 -0.6 -0.6 -0.6 -0.6 -0.6 -0.6 -0.6 -0.6 -0.6 -0.6 -0.6 -0.6 -0.6 -0.6 -0.6 -0.6 -0.6 -0.6 -0.6 -0.6 -0.6 -0.6 -0.6 -0.6 -0.6 -0.6 -0.6 -0.6 -0.6 -0.6 -0.6 -0.6 -0.6 -0.6 -0.6 -0.6 -0.6 -0.6 -0.6 -0.6 -0.6 -0.6 -0.6 -0.6 -0.6 -0.6 -0.6 -0.6 -0.6 -0.6 -0.6 -0.6 -0.6 -0.6 -0.6 -0.6 -0.6 -0.6 -0.6 -0.6 -0.6 -0.6 -0.6 -0.6 -0.6 -0.6 -0.6 -0.6 -0.6 -0.6 -0.6 -0.6 -0.6 -0.6 -0.6 -0.6 -0.6 -0.6 -0.6 -0.6 -0.6 -0.6 -0.6 -0.6 -0.6 -0.6 -0.6 -0.6 -0.6 -0.6 -0.6 -0.6 -0.6 -0.6 -0.6 -0.6 17.8 35.6 34.3 28.1 25.8 24.9 26.6 29.1 32.3 29.2 26.9 26.4 23 18.1 16.2 21.2 32 43.5 50.3 47.9 47.9 52.4 57.8 59.3 59.3 58.1 53 51 51 53.6 50.1 49.1 44.9 32.5 10.4 3.6 5.7 26.6 47.7 58.8 60 62.2 62 58.9 54.8 51.8 53.4 55.8 61 69.8 79.2 85.2 86.7 87.3 86.4 81.2 74.6 68.5 70 69.5 68.7 71 71.2 69.9 66.1 64.7 52.7 48.7 50.4 49.1 50.1 54 55.9 58.6 61 65.2 69.1 64.9 60.1 57.2 54.2 50.9 46.1 40.8 33.7 30.5 27 25 23.2 18.7 17.1
-0.6 -0.6 -0.6 -0.6 -0.6 -0.6 -0.6 -0.6 -0.6 -0.6 -0.6 -0.6 -0.6 -0.6 -0.6 -0.6 -0.6 -0.6 -0.6 -0.6 -0.6 -0.6 -0.6 -0.6 -0.6 -0.6 -0.6 -0.6 -0.6 -0.6 -0.6 -0.6 -0.6 -0.6 -0.6 -0.6 -0.6 -0.6 -0.6 -0.6 -0.6 -0.6 -0.6 -0.6 -0.6 -0.6 -0.6 -0.6 -0.6 -0.6 -0.6 -0.6 -0.6 -0.6 -0.6 -0.6 -0.6 -0.6 -0.6 -0.6 -0.6 -0.6 -0.6 -0.6 -0.6 -0.6 -0.6 -0.6 -0.6 -0.6 -0.6 -0.6 -0.6 -0.6 -0.6 -0.6 -0.6 -0.6 -0.6 -0.6 -0.6 -0.6 -0.6 -0.6 -0.6 -0.6 -0.6 -0.6 -0.6 -0.6 -0.6 -0.6 -0.6 -0.6 -0.6 -0.6 -0.6 -0.6 -0.6 -0.6 -0.6 -0.6 -0.6 -0.6 -0.6 -0.6 -0.6 -0.6 -0.6 -0.6 35.2 39.9 34.5 32.1 28.4 25.6 25.9 30.3 28.8 27.7 26.1 23.5 18.7 14.3 14.3 20.3 30.2 38.9 42.2 46.3 55.8 60.3 59.8 60.6 58.3 56.3 57.7 56.3 54.6 49.4 49 45.6 30.2 3.6 3.6 17 34.6 63.5 68.5 70.2 70 69.7 67.2 62.6 60.1 57.3 57.1 61 69.2 77 84.3 88.9 88.7 84.7 80.4 70.4 67.1 63.3 62.8 63.5 60.9 62.1 59.2 57.9 54.6 49.5 47.9 48.1 50.2 52.2 56.1 58.8 62.1 65.1 66.1 71.8 67.2 61 57.6 54.8 50.5 47.3 41.3 36.3 31.5 28.4 26.6 23.6 19.4 17.1
-0.6 -0.6 -0.6 -0.6 -0.6 -0.6 -0.6 -0.6 -0.6 -0.6 -0.6 -0.6 -0.6 -0.6 -0.6 -0.6 -0.6 -0.6 -0.6 -0.6 -0.6 -0.6 -0.6 -0.6 -0.6 -0.6 -0.6 -0.6 -0.6 -0.6 -0.6 -0.6 -0.6 -0.6 -0.6 -0.6 -0.6 -0.6 -0.6 -0.6 -0.6 -0.6 -0.6 -0.6 -0.6 -0.6 -0.6 -0.6 -0.6 -0.6 -0.6 -0.6 -0.6 -0.6 -0.6 -0.6 -0.6 -0.6 -0.6 -0.6 -0.6 -0.6 -0.6 -0.6 -0.6 -0.6 -0.6 -0.6 -0.6 -0.6 -0.6 -0.6 -0.6 -0.6 -0.6 -0.6 -0.6 -0.6 -0.6 -0.6 -0.6 -0.6 -0.6 -0.6 -0.6 -0.6 -0.6 -0.6 -0.6 -0.6 -0.6 -0.6 -0.6 -0.6 -0.6 -0.6 -0.6 -0.6 -0.6 -0.6 -0.6 -0.6 -0.6 -0.6 -0.6 -0.6 -0.6 -0.6 -0.6 -0.6 38.1 45.9 40.5 35.7 29.6 25.8 25.5 28.4 27.6 28.1 26.8 23.9 20 13.5 9.6 10.4 15.7 24 35.4 42.5 51.4 57.3 57.1 59.1 55.1 56.5 54.1 52.8 51.5 44.6 47.1 41.4 23.8 3.9 8.7 30.3 62.2 73.6 72.9 77.4 78.2 76.7 76.7 71.1 67.7 64.7 61.8 63.6 72 78.3 87.6 91.6 88.5 82.9 74.5 66.2 60.7 57.5 57.6 59 54.2 53.8 53.3 47.2 48 48 48 46.6 50.4 55.1 59.2 64.4 69.2 68.2 68.2 69.1 66.8 63.4 60 56.7 49.8 46.3 40.9 35.9 31.6 29.3 26.8 24.1 19.9 18.2
-0.6 -0.6 -0.6 -0.6 -0.6 -0.6 -0.6 -0.6 -0.6 -0.6 -0.6 -0.6 -0.6 -0.6 -0.6 -0.6 -0.6 -0.6 -0.6 -0.6 -0.6 -0.6 -0.6 -0.6 -0.6 -0.6 -0.6 -0.6 -0.6 -0.6 -0.6 -0.6 -0.6 -0.6 -0.6 -0.6 -0.6 -0.6 -0.6 -0.6 -0.6 -0.6 -0.6 -0.6 -0.6 -0.6 -0.6 -0.6 -0.6 -0.6 -0.6 -0.6 -0.6 -0.6 -0.6 -0.6 -0.6 -0.6 -0.6 -0.6 -0.6 -0.6 -0.6 -0.6 -0.6 -0.6 -0.6 -0.6 -0.6 -0.6 -0.6 -0.6 -0.6 -0.6 -0.6 -0.6 -0.6 -0.6 -0.6 -0.6 -0.6 -0.6 -0.6 -0.6 -0.6 -0.6 -0.6 -0.6 -0.6 -0.6 -0.6 -0.6 -0.6 -0.6 -0.6 -0.6 -0.6 -0.6 -0.6 -0.6 -0.6 -0.6 -0.6 -0.6 -0.6 -0.6 -0.6 -0.6 -0.6 -0.6 -0.6 -0.6 46.1 41.5 35 27.5 28 26.9 28.2 30.6 28.7 26.7 22.6 12.2 8 6.8 10 15.4 30 38.9 45.4 48.8 50.8 53 48.6 47.9 47.1 43.4 44 36.4 39.4 32 -0.6 -0.6 15 38.1 56.8 70.3 76.3 83.5 86.4 84.1 82.3 77.4 73.7 72.4 67.6 68 73.1 79 85.9 87.9 85.7 78.1 69.8 61.8 55.5 54.9 52.3 49.1 47.9 47.5 48.4 48 48 48 48 48 49.5 56.5 62.4 66.2 71.5 70.6 69.3 68.6 68.4 65.1 62.3 57.7 52.4 47.8 42.7 37.6 33.4 29.5 26.4 24 21.4 19.1
-0.6 -0.6 -0.6 -0.6 -0.6 -0.6 -0.6 -0.6 -0.6 -0.6 -0.6 -0.6 -0.6 -0.6 -0.6 -0.6 -0.6 -0.6 -0.6 -0.6 -0.6 -0.6 -0.6 -0.6 -0.6 -0.6 -0.6 -0.6 -0.6 -0.6 -0.6 -0.6 -0.6 -0.6 -0.6 -0.6 -0.6 -0.6 -0.6 -0.6 -0.6 -0.6 -0.6 -0.6 -0.6 -0.6 -0.6 -0.6 -0.6 -0.6 -0.6 -0.6 -0.6 -0.6 -0.6 -0.6 -0.6 -0.6 -0.6 -0.6 -0.6 -0.6 -0.6 -0.6 -0.6 -0.6 -0.6 -0.6 -0.6 -0.6 -0.6 -0.6 -0.6 -0.6 -0.6 -0.6 -0.6 -0.6 -0.6 -0.6 -0.6 -0.6 -0.6 -0.6 -0.6 -0.6 -0.6 -0.6 -0.6 -0.6 -0.6 -0.6 -0.6 -0.6 -0.6 -0.6 -0.6 -0.6 -0.6 -0.6 -0.6 -0.6 -0.6 -0.6 -0.6 -0.6 -0.6 -0.6 -0.6 -0.6 -0.6 -0.6 -0.6 45.1 39.7 32.2 28.5 25.8 27.4 28.3 30.9 28.8 22.8 -0.6 -0.6 -0.6 13 21.9 26.5 36.4 40 41.9 47.9 46.6 38.9 36.7 35.3 34.4 32 27.9 24.6 -0.6 -0.6 -0.6 26.2 41.5 55.6 71.1 76.4 83.3 88.2 87.1 85 82.9 76.8 76.2 71.4 70.9 75.5 79.9 85.1 85.1 82.5 75.1 65.8 57.7 52.4 50.8 46.3 48 48 48 48 48 48 48 48 48 49 54.3 61.9 67.6 75.8 73.3 72.1 72.6 70.9 66.5 62.9 58.9 55.5 50.4 45.5 40.4 34.9 30.7 28.2 25.9 23.2 18.7
-0.6 -0.6 -0.6 -0.6 -0.6 -0.6 -0.6 -0.6 -0.6 -0.6 -0.6 -0.6 -0.6 -0.6 -0.6 -0.6 -0.6 -0.6 -0.6 -0.6 -0.6 -0.6 -0.6 -0.6 -0.6 -0.6 -0.6 -0.6 -0.6 -0.6 -0.6 -0.6 -0.6 -0.6 -0.6 -0.6 -0.6 -0.6 -0.6 -0.6 -0.6 -0.6 -0.6 -0.6 -0.6 -0.6 -0.6 -0.6 -0.6 -0.6 -0.6 -0.6 -0.6 -0.6 -0.6 -0.6 -0.6 -0.6 -0.6 -0.6 -0.6 -0.6 -0.6 -0.6 -0.6 -0.6 -0.6 -0.6 -0.6 -0.6 -0.6 -0.6 -0.6 -0.6 -0.6 -0.6 -0.6 -0.6 -0.6 -0.6 -0.6 -0.6 -0.6 -0.6 -0.6 -0.6 -0.6 -0.6 -0.6 -0.6 -0.6 -0.6 -0.6 -0.6 -0.6 -0.6 -0.6 -0.6 -0.6 -0.6 -0.6 -0.6 -0.6 -0.6 -0.6 -0.6 -0.6 -0.6 -0.6 -0.6 -0.6 -0.6 -0.6 47.1 44.1 38.1 34 26.7 25.4 24.6 25.9 27.5 23 -0.6 -0.6 -0.6 20 28.1 26.2 28.2 30.7 34.6 45.5 43.6 33.6 27.3 25.5 23.5 17.3 16.5 16.1 -0.6 -0.6 -0.6 24.5 40.6 56.6 64.2 74.8 77.4 83.2 86.5 86.1 85 78.2 77.9 74.2 73 74.9 79.1 83.1 84.4 81.9 73.4 63.6 55 51.3 47.1 48 48 48 48 48 48 48 48 48 48 48 53.6 63.5 69.2 74.6 76.2 75.9 76.8 74.2 70.3 64.2 61.6 58.5 52.4 46.4 40.8 36.1 32.7 30.3 28.1 24.5 17.3
-0.6 -0.6 -0.6 -0.6 -0.6 -0.6 -0.6 -0.6 -0.6 -0.6 -0.6 -0.6 -0.6 -0.6 -0.6 -0.6 -0.6 -0.6 -0.6 -0.6 -0.6 -0.6 -0.6 -0.6 -0.6 -0.6 -0.6 -0.6 -0.6 -0.6 -0.6 -0.6 -0.6 -0.6 -0.6 -0.6 -0.6 -0.6 -0.6 -0.6 -0.6 -0.6 -0.6 -0.6 -0.6 -0.6 -0.6 -0.6 -0.6 -0.6 -0.6 -0.6 -0.6 -0.6 -0.6 -0.6 -0.6 -0.6 -0.6 -0.6 -0.6 -0.6 -0.6 -0.6 -0.6 -0.6 -0.6 -0.6 -0.6 -0.6 -0.6 -0.6 -0.6 -0.6 -0.6 -0.6 -0.6 -0.6 -0.6 -0.6 -0.6 -0.6 -0.6 -0.6 -0.6 -0.6 -0.6 -0.6 -0.6 -0.6 -0.6 -0.6 -0.6 -0.6 -0.6 -0.6 -0.6 -0.6 -0.6 -0.6 -0.6 -0.6 -0.6 -0.6 -0.6 -0.6 -0.6 -0.6 -0.6 -0.6 -0.6 -0.6 -0.6 47.4 48.2 44.1 36.8 26.5 22.7 -0.6 -0.6 -0.6 19.8 -0.6 -0.6 -0.6 25.9 27.6 24.9 -0.6 -0.6 31.7 36 41.1 30.6 19.4 13 -0.6 -0.6 -0.6 -0.6 -0.6 -0.6 14.7 31.6 49.4 49 54.1 62 71.4 77.6 82 84.6 86.2 79.6 76.9 74.4 71.7 74.1 81.2 85.6 85.4 80.8 72.9 63 54.4 49.5 47 48 46.4 48 48 48 48 48 48 48 48 48 48.8 62.5 71.9 72.9 76.2 76.9 78.4 75.6 70.6 66.5 64.4 59.3 52.1 46.2 42 37.2 34.1 31.7 29.1 24 15.8
-0.6 -0.6 -0.6 -0.6 -0.6 -0.6 -0.6 -0.6 -0.6 -0.6 -0.6 -0.6 -0.6 -0.6 -0.6 -0.6 -0.6 -0.6 -0.6 -0.6 -0.6 -0.6 -0.6 -0.6 -0.6 -0.6 -0.6 -0.6 -0.6 -0.6 -0.6 -0.6 -0.6 -0.6 -0.6 -0.6 -0.6 -0.6 -0.6 -0.6 -0.6 -0.6 -0.6 -0.6 -0.6 -0.6 -0.6 -0.6 -0.6 -0.6 -0.6 -0.6 -0.6 -0.6 -0.6 -0.6 -0.6 -0.6 -0.6 -0.6 -0.6 -0.6 -0.6 -0.6 -0.6 -0.6 -0.6 -0.6 -0.6 -0.6 -0.6 -0.6 -0.6 -0.6 -0.6 -0.6 -0.6 -0.6 -0.6 -0.6 -0.6 -0.6 -0.6 -0.6 -0.6 -0.6 -0.6 -0.6 -0.6 -0.6 -0.6 -0.6 -0.6 -0.6 -0.6 -0.6 -0.6 -0.6 -0.6 -0.6 -0.6 -0.6 -0.6 -0.6 -0.6 -0.6 -0.6 -0.6 -0.6 -0.6 -0.6 -0.6 -0.6 47.3 50.7 48.7 39.3 29.4 21.7 -0.6 -0.6 -0.6 0.8 -0.6 -0.6 -0.6 23.3 22.5 -0.6 -0.6 -0.6 -0.6 31.4 30.4 24.8 20.2 -0.6 -0.6 -0.6 -0.6 -0.6 -0.6 -0.6 30.8 40.5 48.3 39.6 46.3 58.6 67.1 75.5 78.9 84.5 85.9 82.5 78.6 74.8 72.4 71.9 79 88.3 88.5 81.7 73.6 64.6 55 49.5 44.9 48.5 49.8 48 46.8 47.5 48 48 48 48 45.9 48 48.3 57.1 64.2 69.5 76.1 78.4 77.4 74.1 69.3 66.9 64.6 59.6 53.3 48.9 43.7 38 34.1 30.8 26.9 21.2 14.9
-0.6 -0.6 -0.6 -0.6 -0.6 -0.6 -0.6 -0.6 -0.6 -0.6 -0.6 -0.6 -0.6 -0.6 -0.6 -0.6 -0.6 -0.6 -0.6 -0.6 -0.6 -0.6 -0.6 -0.6 -0.6 -0.6 -0.6 -0.6 -0.6 -0.6 -0.6 -0.6 -0.6 -0.6 -0.6 -0.6 -0.6 -0.6 -0.6 -0.6 -0.6 -0.6 -0.6 -0.6 -0.6 -0.6 -0.6 -0.6 -0.6 -0.6 -0.6 -0.6 -0.6 -0.6 -0.6 -0.6 -0.6 -0.6 -0.6 -0.6 -0.6 -0.6 -0.6 -0.6 -0.6 -0.6 -0.6 -0.6 -0.6 -0.6 -0.6 -0.6 -0.6 -0.6 -0.6 -0.6 -0.6 -0.6 -0.6 -0.6 -0.6 -0.6 -0.6 -0.6 -0.6 -0.6 -0.6 -0.6 -0.6 -0.6 -0.6 -0.6 -0.6 -0.6 -0.6 -0.6 -0.6 -0.6 -0.6 -0.6 -0.6 -0.6 -0.6 -0.6 -0.6 -0.6 -0.6 -0.6 -0.6 0.8 -0.6 -0.6 -0.6 0.8 37.9 48.6 42.8 36.2 27.6 20.7 -0.6 -0.6 -0.6 -0.6 -0.6 -0.6 21.3 20.1 -0.6 -0.6 -0.6 -0.6 17.7 17.4 17.1 15 -0.6 -0.6 -0.6 -0.6 -0.6 -0.6 16.1 28.3 46.3 38.1 32.2 45.9 55.8 64.3 73.2 75.5 81.1 84.3 85.5 77.3 72.5 70.8 69.1 74.2 84 86.4 80.9 75.9 67.4 54.6 48.1 44.5 49.1 48.4 52 52.5 49.7 48.7 48 48 48 48 47.9 48.7 54.3 60.7 69.4 77.5 81.5 76.4 72.5 68.6 65.9 63.7 59.7 55.2 50 45.2 40.8 35.2 30.6 24.3 19.2 15.2
-0.6 -0.6 -0.6 -0.6 -0.6 -0.6 -0.6 -0.6 -0.6 -0.6 -0.6 -0.6 -0.6 -0.6 -0.6 -0.6 -0.6 -0.6 -0.6 -0.6 -0.6 -0.6 -0.6 -0.6 -0.6 -0.6 -0.6 -0.6 -0.6 -0.6 -0.6 -0.6 -0.6 -0.6 -0.6 -0.6 -0.6 -0.6 -0.6 -0.6 -0.6 -0.6 -0.6 -0.6 -0.6 -0.6 -0.6 -0.6 -0.6 -0.6 -0.6 -0.6 -0.6 -0.6 -0.6 -0.6 -0.6 -0.6 -0.6 -0.6 -0.6 -0.6 -0.6 -0.6 -0.6 -0.6 -0.6 -0.6 -0.6 -0.6 -0.6 -0.6 -0.6 -0.6 -0.6 -0.6 -0.6 -0.6 -0.6 -0.6 -0.6 -0.6 -0.6 -0.6 -0.6 -0.6 -0.6 -0.6 -0.6 -0.6 -0.6 -0.6 -0.6 -0.6 -0.6 -0.6 -0.6 -0.6 -0.6 -0.6 -0.6 -0.6 -0.6 -0.6 -0.6 -0.6 -0.6 -0.6 -0.6 -0.6 -0.6 -0.6 -0.6 -0.6 -0.6 -0.6 34.9 42.6 35.7 28.8 -0.6 -0.6 -0.6 -0.6 -0.6 -0.6 11.7 11.1 -0.6 -0.6 -0.6 -0.6 -0.6 -0.6 12.1 11.6 -0.6 -0.6 -0.6 -0.6 -0.6 -0.6 -0.6 -0.6 -0.6 23.2 26.1 39.7 50.9 61.5 67.6 69.2 73.2 79 83 78 69.1 65.6 67 70.6 77.2 79.1 79.7 76.3 67.5 55.2 46.8 45.2 45.3 45.8 51.6 54.4 53.9 49.8 48 46.2 45.4 48 47.1 51.4 55 61.7 70.6 79.9 80.7 77.4 73.1 69.9 66 62.9 60.8 56.6 51.5 47.8 45.1 39 29.1 24.4 19.5 16.2
-0.6 -0.6 -0.6 -0.6 -0.6 -0.6 -0.6 -0.6 -0.6 -0.6 -0.6 -0.6 -0.6 -0.6 -0.6 -0.6 -0.6 -0.6 -0.6 -0.6 -0.6 -0.6 -0.6 -0.6 -0.6 -0.6 -0.6 -0.6 -0.6 -0.6 -0.6 -0.6 -0.6 -0.6 -0.6 -0.6 -0.6 -0.6 -0.6 -0.6 -0.6 -0.6 -0.6 -0.6 -0.6 -0.6 -0.6 -0.6 -0.6 -0.6 -0.6 -0.6 -0.6 -0.6 -0.6 -0.6 -0.6 -0.6 -0.6 -0.6 -0.6 -0.6 -0.6 -0.6 -0.6 -0.6 -0.6 -0.6 -0.6 -0.6 -0.6 -0.6 -0.6 -0.6 -0.6 -0.6 -0.6 -0.6 -0.6 -0.6 -0.6 -0.6 -0.6 -0.6 -0.6 -0.6 -0.6 -0.6 -0.6 -0.6 -0.6 -0.6 -0.6 -0.6 -0.6 -0.6 -0.6 -0.6 -0.6 -0.6 -0.6 -0.6 -0.6 -0.6 -0.6 -0.6 -0.6 -0.6 -0.6 -0.6 -0.6 -0.6 -0.6 -0.6 -0.6 -0.6 -0.6 -0.6 -0.6 37.2 -0.6 -0.6 -0.6 -0.6 -0.6 -0.6 -0.6 -0.6 -0.6 -0.6 -0.6 -0.6 -0.6 -0.6 -0.5 -0.5 -0.6 -0.6 -0.6 -0.6 -0.6 -0.6 -0.6 -0.6 -0.6 9.5 24.4 43.8 51.4 58 60.5 62.4 67.9 75.2 79 77.7 67.6 62 62.5 66.8 71.1 76.1 77.4 73.3 65 54 46.3 44.6 43.1 45.3 48.6 52.7 54.6 52.8 50.7 51.4 50.3 47.8 49.3 54.1 57.6 63.5 75.2 82 84.5 82.4 77.1 71.6 66.7 63.6 61.9 57.8 52.2 49.2 47.1 38.6 30.2 25.3 21.2 17.9
-0.6 -0.6 -0.6 -0.6 -0.6 -0.6 -0.6 -0.6 -0.6 -0.6 -0.6 -0.6 -0.6 -0.6 -0.6 -0.6 -0.6 -0.6 -0.6 -0.6 -0.6 -0.6 -0.6 -0.6 -0.6 -0.6 -0.6 -0.6 -0.6 -0.6 -0.6 -0.6 -0.6 -0.6 -0.6 -0.6 -0.6 -0.6 -0.6 -0.6 -0.6 -0.6 -0.6 -0.6 -0.6 -0.6 -0.6 -0.6 -0.6 -0.6 -0.6 -0.6 -0.6 -0.6 -0.6 -0.6 -0.6 -0.6 -0.6 -0.6 -0.6 -0.6 -0.6 -0.6 -0.6 -0.6 -0.6 -0.6 -0.6 -0.6 -0.6 -0.6 -0.6 -0.6 -0.6 -0.6 -0.6 -0.6 -0.6 -0.6 -0.6 -0.6 -0.6 -0.6 -0.6 -0.6 -0.6 -0.6 -0.6 -0.6 -0.6 -0.6 -0.6 -0.6 -0.6 -0.6 -0.6 -0.6 -0.6 -0.6 -0.6 -0.6 -0.6 -0.6 -0.6 -0.6 -0.6 -0.6 -0.6 -0.6 -0.6 -0.6 -0.6 -0.6 -0.6 -0.6 -0.6 -0.6 -0.6 -0.6 -0.6 -0.6 -0.6 -0.6 -0.6 -0.6 -0.6 -0.6 -0.6 -0.6 -0.6 -0.6 -0.6 -0.6 -0.6 -0.6 -0.6 -0.6 -0.6 -0.6 -0.6 -0.6 -0.6 -0.6 -0.6 5.9 18.9 42.3 52.2 57 54 56.2 62.2 72.4 75.9 76.2 66.9 59.8 59.2 63.5 68.3 73.4 73.2 68.8 61.5 50.4 45.5 43.2 42.8 43.2 47.1 53.6 54 53.7 54.5 54.7 52.3 51.8 52.7 55.1 57.9 66.4 78.2 88.8 90.2 87.4 83.6 74.6 68.7 65.6 61.1 57.4 50.9 47 44.4 37.7 31.7 26.7 21.8 18.7
