ncols 200
nrows 82
xllcorner 340000
yllcorner 845100
cellsize 50
139.6 141.5 142.7 153.1 163.9 172.8 178.2 182.1 181.4 182.7 181.4 180.1 178.6 178.2 174.9 171.5 167.4 163.2 159.7 155.1 151.9 147.6 143.3 137.9 132.3 130.3 129.4 130.8 131.2 132.2 134.4 135.3 136 138.6 140.1 140.2 141.4 144.1 145.4 135.4 146.3 149.4 150.2 150.5 151.2 150.3 149.3 146.7 147.3 147 148.1 147.5 146.9 148.4 146.5 148.7 156.2 164.2 169 174.4 178.7 182.9 187.1 189.5 189.7 188.9 188.7 187.4 185.2 184 181.7 179.5 176.1 172.8 158.4 158.2 147.7 143.2 143.1 137.2 138.8 140.1 141.1 143.2 143 144 134.3 140.5 149 153.2 157 161.5 161.1 162.6 164.1 166.4 168.2 169.1 171 172 171.3 172.5 174.6 171.3 175.4 177.1 181.6 185.2 187.5 189.7 191.7 193.8 195.8 197.7 201.8 205.8 208.9 214.5 219.7 228.1 236.3 242.7 247.5 252.3 258.1 263.4 269 274.3 278.9 286 297.6 310.5 321.9 329.6 334.7 339.8 345.4 348.4 350 349.7 345.5 341.3 335.8 332 325.8 319.7 307.4 301.6 294.4 288.2 283.3 278.4 273.3 265.4 255.4 241.3 229 223.3 225.5 243.6 255.2 264.1 269.2 270.2 268.7 267.1 266.4 267.2 266.4 264.5 261.4 258.8 253.8 242.4 231.7 225.6 221.2 217.6 212.1 204.8 202.3 199 193.8 187 181.5 173.8 166.3 162.4 158.5 153.4 150 147.5 143.2 139 135.4 131.8 130.1 128.8 127.6 126
140.7 140.4 141.6 149.4 159.3 168.9 174.7 176.8 176.4 177 176.4 174.9 174 173.7 171.9 168.6 164.4 160.7 156.9 152.6 148.7 143.2 138.1 132.4 129.2 130.4 132 132.8 134.2 135.9 138.5 138.7 139.2 141.4 142.1 142.9 145 147.2 148.7 145.6 148.2 150.3 151.2 151.6 151.9 151.2 149.8 148.5 149.9 149.9 154.8 151.9 153.1 155.6 154.7 157.8 163.6 168.5 174 178.5 182.7 186.8 190.7 191.6 191.7 191.2 190 188.4 186.9 185.1 182.4 179.6 176.4 175.2 171.7 169.3 165.9 163.9 154.6 142 148.1 152.2 151.2 150.9 149.8 148.5 152.5 143.9 146 143.2 139.9 152.1 151.7 151.1 157.8 161.2 163.7 165.8 168.8 170.3 169.8 169.4 170.1 174.6 176.7 179.1 182.9 184.6 186.5 189.1 191.9 194.2 196.4 199 202.3 205.6 209.9 215.1 221.1 228.1 237.3 244.2 249.2 254.8 261.5 266.7 272.3 277.6 282.6 290 300.8 313.3 324.4 330.9 335.9 341.1 344.1 347 348.2 346.6 342.6 337.9 333.5 328.8 323.7 311.9 303.7 296.1 287 279.5 274.1 269.2 265.7 258 249.1 239.1 230 226.3 231.2 246 255.5 263 267.3 267.4 267.5 265.7 264.2 263.5 260.7 257.7 253.5 248.4 240.3 231.3 223 216 209.3 205.1 200.6 197 193.8 187.2 184.4 179.3 172.5 167.2 164 159.9 155.9 151.6 148.5 145.4 141.1 137.6 135.1 133.5 133.5 132.2 131.1 129.7
141.3 140.7 140.5 144.2 154 163.2 169.4 171.4 172.6 172.6 171 169.6 170.4 170.1 166.9 161.6 157.7 153.8 149.4 144.7 140.6 135.5 133 129.1 133.4 132 134.1 136.7 139.1 141.3 142.5 143.2 143.1 143.6 144.9 147.6 149.2 150.5 151.4 150.1 144.1 151.9 152.4 152.7 153 152.6 150.9 151.2 152.6 155.3 156.1 156.6 156.9 161 160.5 162.6 167 171.9 176.3 181 185.5 190.3 193 193.6 193.4 192.2 191.1 189.9 188 185.2 183.5 181.6 178.5 173.3 173.8 171.4 168.1 165.5 162.9 156.1 144.2 149.9 154.3 151.4 152.5 152.9 146.1 140.5 151.8 155.6 156.8 148.1 155.1 158.3 154.1 155.2 155.6 162.6 165.1 167.6 167.4 167.1 169.1 172.7 176 179.6 182.5 183.9 185.6 188.2 191.1 193.8 196.2 198.8 201.8 205.8 208.7 215.2 220.3 228.8 236 242.6 248.6 254.3 262.7 270.7 274.8 281.5 287.5 295.8 306.9 316.8 326.8 332.6 337.6 341.7 345.1 346.7 347.6 345 340.8 335.5 330.1 327 320.6 308.4 300.6 290.8 277.2 274.7 263.6 259.6 254.4 251 246.1 237.6 233 228 232.3 244.2 251.4 258.6 261.5 261.6 261.6 261.6 259.5 257.5 254.1 249.8 244.7 239.8 232.9 225.4 216.1 208 201.8 199.5 196.4 191.2 185.4 183 179 175 169.2 164.8 161.3 157.9 155.2 150.4 146.8 142.2 139.8 135.9 137.5 138.7 138.6 137.5 136.5 135.6
141.9 141.3 140.7 140.4 146.7 154.7 162.3 165.9 167.6 164.7 163.3 165 165 166.2 162.9 157.7 151.3 144.5 140.7 134.7 132.8 131.3 131.1 133.2 133.8 139.5 138.3 142.8 145.5 145.9 145.7 146.5 147.3 147.9 148.6 151 153.1 153.9 154.3 153.2 146.9 154.3 154.3 153.7 154 153.8 153.1 154.1 155 157.3 158.3 160 161.9 163.7 165.2 166.6 167.5 173.8 178.4 182.9 187.4 191.3 194.1 194.5 194.6 193.9 192.4 191.2 188.7 186.5 185.1 181.7 179.1 176.4 175.2 171.7 167.7 165.3 163.2 158.5 156.2 152.3 152.1 154 153.7 154.4 147.5 143.7 153.3 156 157.4 157.5 158.7 159.6 160.1 160.7 159 160.6 157.5 160.9 165.4 167.2 169 170.8 174.3 178.2 181.3 183 183.6 186.2 188.1 191.1 195.2 195.5 200.8 203.9 207.9 215.5 219.9 228 233.9 241.9 247.6 255.2 262.6 270.8 279.3 285.5 290.7 302.6 312 320.8 330.2 336.4 340.1 342.7 346.2 347.2 346.9 343.6 339.1 333.9 330.4 324.6 318.5 308.5 301.8 294.4 285.3 277.5 271.7 265.5 259.2 251.5 242.4 237.4 233.9 228.9 230 237.7 244.4 247.7 252.4 254.8 255.3 255.4 254.7 252.3 248.7 242.7 237.8 232.1 225 216.1 208.1 201.6 198.4 194.5 190.8 186.9 181.1 176.5 173.8 169.3 166.2 162.9 159.3 156 152.4 148.8 145.1 141.2 139.9 140.1 145.4 149 147 144.7 143.4 141.9
142.5 141.8 141.1 141.2 139.8 141.8 144.1 151 153.4 151.2 154.9 154.8 156.1 155.5 154.9 149.4 142.6 139.1 135.3 132.9 131.1 130.8 130.9 132.6 134.2 144 146.9 149.3 149.1 149.9 149.3 150.2 151.3 152.5 154.9 156.9 158.3 158.4 157.5 155.7 146.9 157 156.4 155.5 155.1 154.8 155.9 157.6 157.4 158.9 161 163 165.7 167.1 168 169.9 171.6 174.5 178.8 184.1 189 191.9 194.4 195.3 195.3 194.4 193.5 192.4 190.5 187.8 185.2 182.9 180.1 177 176.3 171.9 168.8 166.8 164.6 161.3 159.6 153.6 154.3 154.1 153.9 153.7 152.2 145.4 150.1 156 157.4 158 159.9 161.5 162 162.7 163.4 162.5 163.7 162.4 162.6 167.9 169.7 171.2 172.9 176.9 179.1 180.7 182.9 185.3 189.2 191.9 195.1 198.8 202.5 203.5 207.6 213 218.7 226.7 232.5 239.3 246.2 255 262.8 272.3 280.7 288.6 295.3 306 317.2 326.3 333.9 339.6 342.9 345.6 347.4 347.9 346.5 342.8 339.1 336.2 330.7 323.9 317.6 312 306.3 297.6 287.5 279.5 271.7 266 260.2 250.3 239.4 232.6 230.9 227.6 227 229.7 235.4 239.5 243.5 245.8 247.8 249.7 248.4 245.7 240.2 235.7 230.9 223.3 217.2 208.9 201.2 195.4 192.3 188.2 185.3 181.7 177.9 173.6 170.7 166.2 164.2 162.2 157.4 153.8 150 146.7 144.2 144.3 143 149.2 154.3 152.6 150.4 147.1 144.3 141
143.1 142 143 142.9 137.2 134.9 135.1 136.9 136.9 140.7 138.3 140.8 143.3 141.4 139.4 139.5 138.3 135.7 133.1 131.4 131 130 129.9 144.8 150.8 154.2 154 154.8 154.7 153.9 155.2 156 157.4 155.6 161.1 163.1 162.8 161.6 159.7 157.8 150.9 157.8 157.7 157.1 157.2 157.8 159.4 160.5 161.6 163 165.1 166.2 168.1 170.4 172.1 173.1 175 175.2 179.9 186.8 189.6 193 194.5 195.5 195.7 195 194.4 192.9 191.1 189.3 185.6 184.3 181.2 179.5 176.7 172.8 169.1 166.9 164.5 162.1 158.8 150 155.7 155.2 155.8 155.8 154.3 146.6 145.8 150.3 158.4 159.2 161.2 162.4 163.8 166.1 167.1 166.5 166.1 166.2 166.9 164.9 168 170.5 172.6 175 179 181.5 183.8 187.2 190.5 193 196.3 199.9 203.7 207 210.3 215.2 217.7 223.9 232.1 237.9 244.4 253.3 262.5 271.8 280.3 290 298.7 309.4 322.5 329.8 336.4 341 344.7 347.8 349.1 348.8 346.2 342.8 339.8 336.7 331.9 324 318.1 312.4 305.7 297.5 287.3 277.8 271.4 265 257.6 248.2 235.3 228.5 225.8 224.9 223.4 223.6 227.4 231.8 235.3 237.2 240.9 242 241.3 238.4 231.8 227.5 221.2 216.1 208.3 199.4 195.3 192 188.6 185.7 181.4 177.1 174.2 171.2 168.6 163.7 161.8 160 156.3 151.7 148.3 146.6 146.4 145 147.4 155.1 155.9 153.7 149.9 145.6 141.5 138
143.6 142.3 143.5 140.8 134.8 134 133.4 132.3 133 132.9 133.3 132.9 134.2 134 134.5 135.3 134.1 131.6 130.1 134 134.6 137.1 145.9 154.9 159.2 161.3 162.3 161.5 159.8 160.2 160.9 161.8 162.2 165.4 166.4 167.5 165.7 164.5 162.3 158.8 152 158.8 159.4 159.5 160.3 161.1 162.7 163.8 164.7 167.9 168.7 169.8 171.4 172.9 175 176.8 178 180.8 180.3 185.5 189.3 192.4 194.3 195.4 195.3 195.1 195 193.5 190.9 189.5 185.7 185.7 184 180.9 176.9 173.8 170.9 167.8 164.5 161 155.9 153.9 155.6 156.5 158.2 157.8 157.2 154.2 148.3 156.3 158 159.4 161.5 161.7 163.5 164.5 168.4 168.5 167.5 169 170.5 170.4 172.2 173.3 173.1 175.1 179.3 183.4 186.5 189.3 191.8 194.7 197.8 201.1 204.8 208.4 212.8 217.9 221 221 229.1 235.9 243 252.2 260.5 268.5 279.6 289.6 298.5 309.2 323.4 332.4 336.6 341.6 345.7 348.7 350.4 349.3 346.4 343.2 340.1 336.9 330.3 324.2 318.6 312.9 304 295.1 285.9 276.8 269.4 262 252.6 244.1 233.9 226.2 221.8 220 219.5 219.7 220 223.2 226.9 230.4 233.3 234.5 232.9 230 223.9 219.1 214.4 207.5 199.2 194.4 190.3 186.6 183.9 181 177.6 174.8 172.2 168.6 165.3 160.8 159 156.6 154.1 149.8 147.9 148.1 148.7 149.3 154.1 156.3 155 151.3 146.4 140.9 137 133.6
143.6 142.9 143.5 139 135 134.1 133.9 133.1 132.8 132.5 132.6 132.4 132.5 132.9 132.5 136.4 131 131.7 131.3 137 142 150.5 159.2 164.6 167.2 168.6 168.6 167.2 166.5 165.9 166.2 167 168.4 169.3 169 168.6 168.8 166.7 163.5 156.2 157 160.8 161.6 162.6 163.6 164.5 165.9 167 169.6 171.8 173.4 174.5 174.1 176.3 178.6 180.4 181.3 182 184.2 185 188.6 191.2 194.1 194.9 194.8 195 194.4 193.2 190.9 188.4 187.4 186.9 185.5 182.4 178.5 175.6 171.5 168.9 166.1 162.7 158.9 156.1 158.5 158.8 158.9 159.3 159 157.7 149.9 155.7 160 162 164.4 166.3 167.8 165.4 169.5 171.1 170.5 171.9 172.5 172.6 172.3 174.4 174.3 176.5 179.8 183.7 188.3 191.3 194.1 197.1 200.1 203.2 206 210.5 215.7 220.5 224 228.3 227.4 230.8 241.3 248.7 258.1 265.6 279.1 288.9 297.9 312.1 322.2 329.9 334.9 340 344.5 348 350.5 349.6 346.1 343.2 340.1 336.9 330.6 324.4 319.3 311.6 302.8 293.6 284.1 275.3 267.4 258.8 246.2 241.2 233.8 226.6 220.3 216 216.1 215.4 215.4 216.2 220.8 224 226.7 227.2 225.8 222.8 218.2 212.6 206 197.9 194.7 191 185.9 182.8 181.5 179.1 175.1 171.7 170.1 166.4 162.5 159 155.9 155.7 151.8 149.8 150.3 150 151.1 154 154.1 152 148.5 145.2 141.1 136.6 132.6 130.5
144.6 143.9 143.1 140.3 135.5 134.4 133.5 133.2 133 132.7 132.6 133.4 132.2 132.5 132.5 131.7 130.5 132 141.2 143.8 149.2 158.2 167.2 171.8 174 173.7 172.7 171.1 169.7 170.9 171.6 171.6 171.7 171.3 170.7 169 169 167.2 163.8 153 161.7 164.5 164.8 165.8 166.8 168.2 169.8 171.6 174.2 175.8 177.3 178.7 179.1 180.2 181.8 183.5 185.3 187.6 186.9 187.6 188.3 191 193.4 194.3 194.6 194.8 193.8 194.6 200.9 199.8 189.7 188.4 186.5 183.8 180.3 176.7 173.2 170.4 167.5 164.2 159.1 159.3 161.1 161.6 160.7 160.8 160.9 158.6 149.4 157.2 160.1 163.1 166.3 169.3 172 172.4 168.1 173.4 173.1 173.8 174.5 175.3 174.6 174.3 175.6 177.2 180 183.8 188.8 192.7 196.2 199.5 202.5 205.3 208.2 212.8 217.8 222.7 228.3 232.1 237.4 239.6 243.5 239.4 254 264.5 274 285.8 295.4 310.6 319.7 327.2 332.3 336.7 341.3 345.5 348.5 348.4 344.7 343.1 340.4 336.8 331.8 326.7 321 313.3 304.8 292.1 281.7 275.8 271.6 262.7 252 240.8 230.4 225.8 220.4 216.1 210.9 211.5 211.1 210.8 212.6 216.5 220.9 221.1 219.4 216.3 211.5 204.7 197.2 193 190.6 186.5 182.9 180 178.1 174.9 171.8 168.9 166.5 163.9 160.3 158.1 155.2 152.1 151.4 152.1 151.5 152.2 153.2 152.6 149.8 146.3 142.8 139.9 137.1 133.8 129.2 127.5
146.7 143.9 142.8 139.2 136.3 135.3 134 133.5 132.6 133.6 134.5 135.4 136.9 137.2 134.3 132.3 138.8 142.9 146.2 148.6 155.8 166.2 174.2 177.1 179 178 175.6 174.1 174.1 174.5 174.3 174 173.7 173.2 172.2 169.9 168.6 167.9 164.1 155.4 163.9 167.3 168.4 169 170.1 172.7 174.8 175.3 177.6 179.8 181.1 182.3 183 182 185.3 186 191 190 192.4 192.4 190.6 193.6 193 193.6 194.5 195.2 197.9 198.9 200.4 204.8 193 189.6 187.2 184.5 181.8 178.5 175 171.9 168.6 164.5 157.8 162.7 165 164.6 163.2 163.2 162.5 160.9 152.5 152.8 161.1 166.1 170 172.8 175 176.1 169.8 175.1 175.5 176.4 177.2 178.2 177.6 176.8 176.8 177.6 180.1 184.2 188.8 193.7 197.6 201.2 204.5 207.3 210.9 215.7 221.1 226.4 232.5 239.1 244.4 245.5 248.1 251.6 254.9 252.5 268.6 280.2 292 306.4 314.3 322 327.3 331.1 337.2 342.6 345.9 345.4 344.6 343.6 340.7 336.5 331.1 327.1 322.8 315.3 305.9 295.7 289.8 283.4 274.4 264.9 251.9 236.8 229.8 224.1 220 217.4 214.4 210.3 206.6 204.9 208.3 211.1 213.6 214.8 212.3 207.5 202.4 196.1 193 189.7 186.5 182.3 178.5 176.8 175.1 173.2 170.5 167.7 164.8 162 158.6 156 154.3 153 152.6 153.4 152.5 151.5 149.5 147.7 144.9 141.9 139.1 135.3 132.8 130 127.3 125.8
146.7 144.5 141.4 138.6 137.2 135.8 134.1 133.8 133.7 134.1 135.7 138.4 138.8 139.4 140.1 142.9 145 145.8 149 152.4 162 174.4 179.4 181.5 181.4 179.9 178.2 177.1 176.2 175.8 175.7 175.1 173.8 172.9 172.3 170.6 170 168.3 166.3 157.8 165.9 168.9 170.9 172 174.5 176.8 179.1 179.5 181.8 182.7 184 185.1 186.3 186.3 187.5 189.6 191 192.4 194 196.2 196.8 194.4 194.6 194.7 197.4 197.6 197.5 197.4 197.6 197.6 196.2 190.7 188.2 185 182.1 179.7 177.1 173.9 169.7 165.5 160.5 165 167.9 167.7 166.8 165.8 165.2 164 157.7 151.6 165 162.8 174.5 176.6 178.4 179 178.5 170.5 178.3 179.2 179.8 180.5 180.9 180.4 179.8 179.8 181 184.8 189.3 194.6 199.1 202.7 205.9 209.5 213.6 218.7 224.5 230.9 238.2 244.9 250.7 252.5 253.6 257.3 262.1 269.2 272.9 271.8 288.2 298.8 308.8 317.8 321.9 327.1 333.8 339.8 342.3 342.6 342.5 342.6 339.8 336 332.3 328.3 324.4 317.5 308.1 301 291.8 284.9 275.7 265.5 252.1 238.9 232.6 226.6 222 219.3 215.7 212 207.5 203.3 201.1 206 208.5 208.7 204.7 199.1 194.5 192.1 189.3 186.6 183.2 179.9 177.5 174 173.1 171.2 169.3 166.7 163.7 160.7 157.7 155.7 154.5 153.3 152.4 152.4 150 148.3 145.6 142.9 139.8 137.3 134.9 132.4 130.1 127.9 125.4 122.8
148.1 146.8 142.8 140.4 137 135.7 133.9 133.8 133.9 134.2 137.4 139.8 140.1 140.4 142.2 145.5 147.9 149.6 152.6 156.9 168.8 178.5 182.6 184.6 183.6 182 181.2 180.3 178.7 176.9 176.8 175.5 174.2 173.2 173.4 172.2 171 169.8 168.5 165.8 162.6 169.9 172.2 174.4 176.7 179.2 182.3 183.7 185 185.7 187.2 188.3 189.2 189.3 189.6 191.1 192.8 194.4 196.6 198 198.7 198.2 196.8 197 200.7 197.4 197.3 197.3 197.2 197.3 197.4 191.4 189.2 186.2 182.7 180.9 178.1 175.5 170.9 167 162 168.2 170.9 171.1 170.3 169.1 169.2 166.1 162.2 154.9 165.5 173.9 176.1 179.4 181.4 181.9 181.1 180.3 178 180.9 181.5 182.4 183.4 182.6 181.9 181.1 183.2 185.5 190.3 195.8 200.4 204.1 207.9 212.2 215.9 221.1 227.4 235.2 242.8 250 255.9 257.7 259.5 263.7 270.8 276.3 281 284.8 282.2 294.3 303.3 311.1 316.7 324.2 330.3 336.4 338.8 340.7 341.3 341.7 339.7 337 333.4 329.6 325.9 319.8 311.7 303.5 293.3 285.9 276.9 265.5 250.7 242.2 236.3 230.7 225.4 220.9 216.8 212 208.6 204 200 198 201.9 200.4 197.2 192.8 190.7 188.6 185.5 182.7 179.4 177.5 175.3 172.8 171.1 169.7 168.4 165.3 162.3 159.3 157.2 155.9 154.8 153.5 151.6 149.8 147.2 144.9 142.3 139.7 136.2 134.2 132.7 130.5 128.6 126.1 124 124.5
149.2 149.4 145 141.5 137 135.4 134.1 133.5 133.8 134.9 139.6 140.5 141.2 141.8 144.2 148.5 151.4 153.3 157.2 164.5 175.5 182.9 186.3 187.9 186.7 185.1 183.3 181.9 180.4 178.6 176.9 175.8 174.9 174.2 174.2 172.7 171.7 171.1 170.7 168.9 164.4 168.3 173.2 176.3 178.9 181.3 184.4 187.2 188 189 190.1 191.4 192 192.3 192.4 193.5 195.1 196.4 198.1 199.9 200.9 200.9 199.9 199.2 202 202.2 202.2 199.8 197.2 197.6 197.5 193.8 190.3 187.4 184.2 182.4 179 175.1 171.1 166.9 166.3 170.1 172.4 173.9 172.6 172.7 172.9 168 165.1 153.9 164.4 172.8 177.1 181.4 183.4 184.1 183.1 182.1 179.1 182.2 184.2 184.3 185 185.2 184.9 182.9 182.8 186.3 191.7 197 201.3 205.5 209.3 214 217.8 223 230.5 239.4 247.8 254.7 260.7 264.3 266.4 272.4 280.4 285 290 292.4 296.1 296.4 298 306.2 313.1 321.8 329.3 332 334.2 339.3 340.4 340.5 339.7 338.5 334.9 331.4 328 321.5 313 303.2 293.6 286.3 276 266.3 251.5 243.4 238 231.7 225.9 222.4 217.3 212.7 208.8 205.1 200.8 195 195.5 195.8 191.5 189.6 187.4 185 181.9 179.7 178.2 175.7 172.7 171.7 170 168.4 167.4 164.3 161.6 159.4 157.8 156.4 155.1 153.5 150.7 146.9 144.8 142.7 140 137.1 134.5 132.2 130.4 128.5 127.1 126.5 127.2 128.1
151.5 152.9 147.1 143.9 139.1 136.3 135.2 133.6 133.8 135.4 140.2 141 141.8 142.6 147.1 152.1 155.7 156.5 168 172.9 178.7 184.9 187.8 189.4 189.4 188.5 186.3 183.4 181.3 179.9 177.5 176 174.7 174.6 174.8 173.6 173.1 173 172.3 171.7 169.7 170.3 171.6 175.7 178.8 182 185.3 189.7 190.9 191.6 193.4 194.5 194.8 195 195.8 195.7 197.7 198.8 200.4 202.4 203.1 201.9 202.1 201.5 202.2 202.1 202 201.6 197.5 197.2 197.4 194.8 192.1 189.4 186.5 184 179.7 175.1 171.6 166.7 169.9 172.7 174.3 176 175.6 175.6 174.7 171.7 166.8 160.2 159.6 171 177.1 182.4 185 185.8 185.1 184.6 184.1 183 184.9 185.5 187 187.4 188.2 186.3 183.8 187.2 192 196.8 201.7 206.6 211.5 215.7 219.9 225.3 233.4 244.1 253.4 260.1 265.6 268.2 272.2 279 286.8 292.7 297.9 300 303.8 305.6 305.5 307.2 311.4 319.5 327 329.6 333.3 336.8 339.2 340.3 340.2 340 337.4 334.1 329.6 321.1 312.5 302.4 294.1 284.7 275.6 266.5 254.1 245 238.7 232.7 227 222.2 217.2 213.4 208.4 206 201.5 197.3 191.9 190.1 189.4 187.2 184.7 182.5 180.7 179 178.2 178.5 173.2 170.7 168.9 167.6 166.3 164.7 162.1 160 158.4 156.3 154.1 152 149.1 146.5 144.7 142.4 139.4 136.6 134.2 132.4 131.5 129.1 129.1 130.7 132 132
158.3 153.8 147.6 144.7 141.9 136.3 134.6 133.9 133.4 135.3 140.6 141.2 142.1 143 148.9 152.5 156.1 164 175.1 179.7 182.8 185.9 189.1 190.6 190.8 190.4 188.2 185.2 182.8 181.4 179.2 177.3 176 174.8 174.9 175.4 175.3 175.6 175.7 175 174 174.3 174.9 175.2 177.1 181.4 185.7 190.3 192.9 193.7 195.3 196.7 197.2 196.8 197.6 198.3 200 201.3 203.4 204.6 204.8 202.2 202.1 202.2 201.7 201.9 201.6 202.1 197.9 196.9 197.4 195.7 192.4 189.4 188.5 184.1 179.9 175.6 170.4 170.7 173.7 175.3 176.7 178 178.6 178.1 176.7 173.9 168.8 161.2 158.6 171 177.8 183.4 186.7 187.5 187.4 186.8 186.3 186 184.4 187.6 187.9 189.6 190.3 189.5 188.2 188.7 192.4 197.7 201.5 206.1 210.7 216.5 222.6 228.8 237.3 246.8 258 264.5 270.8 273.4 279.8 286.9 292.6 300.1 304.2 307.1 309.9 310.8 309.1 309.8 312.9 318.8 323.6 328.7 332.5 335.1 338.3 341.2 342 341.9 339.9 334.2 328.7 320.2 313.5 304 292.9 284.8 273.8 263 252.5 245.4 238.5 232.6 227.1 221.9 218.2 213.5 208.8 205.2 201.2 197 191.4 188.1 187.3 185.3 182.2 180.5 180.1 179.1 178.8 175.9 170.9 169.8 169.1 168.3 167.2 166 163.3 161.1 157.9 155.7 153.4 151.2 148.7 146.9 144.9 142.9 140.3 137.5 135.4 134.2 132.4 131.6 133.4 135.7 136.6 136.4
157.5 152.2 148.5 145.5 145.3 138.2 134.8 134.1 135.2 134.9 140.5 141.7 142.5 144.1 148.9 153.2 160.7 171 177.9 183 185.3 187.8 189.9 190.9 190.3 189.9 189.1 187.3 185.3 183.7 181.2 179.9 179.1 178.5 177.7 178.4 178.4 178.4 178.7 178.1 178.8 177.2 177.6 178.7 180.1 180.3 184.3 189 193.9 195.7 195.9 196.9 198.1 198.6 199.4 200.7 201.5 203.2 204.9 205.7 206.2 201.9 201.8 202 201.5 201.7 202 202 198.4 197.6 197 195.5 190.6 189.2 186.8 184.9 179.1 174 169.9 174 176.6 177.9 179.1 179.8 180.4 180.4 177.7 175.1 170.8 167.9 158.6 168.8 179.1 183.8 187.5 188.3 189.1 189 188.4 188.2 185.7 184.3 186.5 189.8 190.1 188.9 188.7 189.3 192.8 198.4 203 207 212.2 216.4 223.2 232.1 241.3 250.2 259 267.3 273.4 278.7 284.2 291.6 298.2 302.6 309.1 311.7 314.2 315.9 315.6 314.8 318.4 322.7 324.1 328.7 332.6 334.3 338.3 342.1 342.8 344.4 340.6 332.9 327.2 319.5 310.2 299.7 290.5 279.4 269.7 261.1 250.5 243.8 237.8 231.8 225.9 221.2 217.1 212.9 208.8 204.1 200.1 195.6 190.4 188.4 185.2 183.3 180.6 179.4 178.8 178.6 175.8 172.2 170.2 169.7 169 168.4 168.7 167.2 164.3 161.4 158.5 155.5 153.3 151.1 149 147.3 145.5 143.6 140.9 138.5 136.8 135.9 134.5 135.9 137.7 139.5 138.9 138.8
157.5 155.3 150.5 146 144.9 143.5 137.1 134.6 134.2 133.6 139.7 142.2 143.6 145.1 149.1 153.8 164.3 173.5 179.5 184.4 187.1 189 190.3 191.4 191 190.7 190.8 190 188.9 186.4 183.6 183.7 183.5 182.7 182.7 182.8 181.9 181.8 181.5 180.8 182.2 181.1 179 181.8 182.4 182.6 183.5 186.9 192 195.9 196.4 197.1 198.9 199.6 201.5 202.8 204.1 205.2 206.7 208.1 202.3 202.1 202.1 202 202 202.3 202.1 200.3 198.8 198 197.1 194.3 190.3 188.9 185.9 182.1 178.8 174 174.3 177.5 178.9 180.3 181.8 183.6 184.7 183.5 180.4 177.6 173.8 169.7 165.8 160.7 178.7 183.1 187.4 189.2 190 190.3 190.3 190.1 190 189.6 189.3 190.1 189.9 189.8 190.3 192.7 194.9 199.8 204.3 207.6 213.2 218.9 225.6 234.3 244.2 252.1 261.9 269.6 276.1 280.7 286.9 293.6 300.4 307.4 314.4 316.6 318.5 319.9 319.4 319.7 321.9 323.8 326.1 330.2 332.1 335.1 338.7 342.6 345.3 344.8 340 332.9 326.3 318.4 308 296.8 285.8 276.4 267.1 255.9 248.8 242.8 236.1 230.6 225.4 220.8 215.7 211.8 208.4 204.2 198.6 192.4 189.9 188.1 185.1 182.3 180.7 178.3 175.9 172.9 173.7 171.5 169.9 169.4 169 169.5 169 166.6 163.8 161.4 157.9 155.5 153.2 151.1 149.5 147.8 146.1 144.2 142 140.1 138.5 137.3 137.7 138.4 140.1 140.9 141.5 140.3
160.4 158.8 152.4 147.3 145 143.7 139 135.1 134.3 134.2 138.5 142.4 143.9 146.6 151.2 156.9 166.1 174.2 181.4 186.3 186.5 190 191.2 192.6 193 193.3 193.4 192.4 190.5 188.2 186.9 188.5 188.9 188.1 187.1 187.2 186.2 185.1 185.8 185.4 185.7 184.8 182.7 181.6 185.1 185.3 184.7 185.9 189.8 193.6 196.3 197.8 198.6 200.4 203.2 205.2 207 209.3 210.4 211.2 213 213.8 202 201.9 202.3 202.3 201.9 200 199.1 198.3 197.2 194.3 190.1 189 186.1 188.8 180.4 174.5 177.5 180 181.7 187.6 186 189.8 192.9 185.1 184 182.3 178.2 174.1 166.2 173.6 177.7 182.7 187.2 189.9 191.1 191 191.4 191.2 191.8 192.5 192.3 192.4 192.6 191.2 191.7 193.1 194.9 198.7 203.6 207.9 213.8 220.1 228.2 236.2 245.7 254.5 263.4 271.2 277.2 281.7 288.1 294.2 303 311.4 316.2 319.9 322.5 321.9 321.5 322 322.4 323.6 326.9 330.2 332.8 335.5 339.5 342.9 345.9 342.8 337.8 332.5 324.2 314.6 305.1 293.7 280.9 271.3 264.2 255.6 246.8 241.1 234.7 229.3 223.6 218.7 215.4 210.6 207.9 202.3 196.1 191.5 190.3 188.5 185.5 183.7 182.1 180.6 177 174.5 170.2 170.9 170.2 168.7 169.1 169.6 167.8 165.2 161.8 159.3 156.9 155 153.4 152.1 149.8 148.4 146.7 144.5 142.9 141.6 140.2 138.8 139.9 140.8 141.2 141.7 142.1 142.3
168.1 159.5 153.1 146.7 145.4 145.7 140 136.3 134.7 133.8 137.7 142.1 145.4 149.2 154.3 161 168.9 175.1 181.5 186.3 186.3 189.9 192.1 194.1 194.7 196.5 196.9 194.6 192.4 191.4 191.9 193.3 193.3 192.8 191.9 191.5 191.1 190.1 190.4 189.9 189.6 189.5 187.4 185.8 188.2 188.2 187 187.7 189.1 192.2 196.1 198.6 201.8 204.1 206.7 210.1 212.2 213.4 215 214.8 216 217.2 200.5 201.6 202.6 202.1 201.4 201.8 198.1 198.4 199 195.5 190.6 187.6 186.8 191 183.5 176.2 179.6 196.9 198.9 194.1 193.4 202.6 198.6 188.2 190.6 192.3 180.5 175.9 167.7 173 176.6 181.5 187.6 190.1 191 191.3 192.1 192.5 192.6 194.1 194.5 194.2 194.4 192.9 192.6 193.5 195.5 199 203 208.5 215.2 221.4 228.9 237.7 245.4 255.2 264.3 272.1 278.1 282.5 288.4 294.2 302.1 310.5 317.8 323 324.5 322.7 320.4 322.2 322.8 323.6 326.1 330.1 333.5 337 338.9 340.4 343.2 339.8 333.6 327.3 319.4 309.1 301.1 291.5 278.9 269.6 261.5 254 246.5 239.7 234.6 228.5 223 218.7 214.6 210.4 206.3 199.1 194.6 191 189.8 189.5 187.2 185.7 184.6 181.7 176 173.6 171.5 166.6 169.1 168.3 168 167.4 165.9 162.3 160 158.5 156.9 155.2 154.1 153.1 151.3 148.9 147 144.7 143.8 143 141.8 140.7 141.2 141.5 141.8 142.3 142.7 143.1
170.2 160.1 156.9 150.5 146.9 144.5 141.2 136.9 135.4 135.3 136.3 142 147.1 154.2 158.2 164.3 169.7 174.8 179.7 185.7 188.5 191.9 194.7 197.1 199.1 199.3 200 196.9 194.2 195.2 196.8 197.5 197.5 197.4 196.2 195.3 195.2 195.5 195.3 196.1 194.9 193.7 191.9 190.2 187.8 190.8 190 190.7 191.4 193.7 196.9 200.3 204 206.7 211 214.4 216.5 219.1 219.5 220.2 220.6 220.2 215.8 212 206.9 204.7 204.8 202.4 201.1 199.3 197.7 193.6 190.7 187 183.4 180.8 178.8 179.2 179.8 190.3 185.4 180.9 184.9 193.6 186 185.9 182.5 198 182.4 176.1 170.6 175 177.3 183.4 188.8 190.6 191.7 191.6 191.9 192.9 194.1 196 195.8 195.9 196.1 194.8 194.6 194.8 195.9 199.5 203.4 209.3 215.6 221.7 227.8 237.7 246.6 255.2 263.9 271.7 277.1 280.8 286.7 293.5 301 309.4 314.5 319.2 320.7 318.3 318.3 320.2 320.7 323 325.4 329.1 332.2 335 338.5 337.6 337.5 335 328.6 323.1 315.1 305.5 295.2 286.4 278.1 269 260.5 252.6 246.5 238.2 232.4 227.4 222.5 217.8 214.3 209.6 202.5 196.9 193.4 191.4 189.8 189.1 188.6 188.2 185.9 181.2 175.2 173.2 171.1 169.2 165.4 166.5 166.5 165.1 163.4 159.9 158.3 157.3 155.9 155.9 154.9 154 153.5 150.7 148.3 145.3 143.9 143.2 142.1 142 142.3 142.1 142.4 142.9 143.3 143.2
169 163.5 158.9 151.7 147.8 144.5 141.2 137.9 134.8 134.6 134.6 142 149.5 157.3 163.4 166.9 173.5 177.9 182.8 186.6 191.3 194.1 198 200.9 203 204.1 200.1 199.6 198 199.1 201.1 201.8 202.1 201.8 201.1 200.2 200.1 201 202.4 202.1 201.5 199.9 198.3 195.3 191.2 189.1 193.3 193.2 193.7 195.7 199 202.5 206.8 210.4 214.7 217.7 221.5 223 225.7 226 224.7 223.2 220.4 218.9 213.7 209.8 209.5 204.2 201.8 199.7 197.3 192.6 189.4 187.9 185 182.8 184.4 180.2 180.5 179.2 180.6 168.4 176.2 197.8 193.7 191.1 194.9 201 183.9 177.4 171.2 174.3 179.7 184.9 188.8 191.3 192.3 192.6 193.1 194.4 195.4 197.2 198.2 198.8 198.4 196.9 196.2 196.8 197.2 200.4 203.7 209.7 215.5 221.4 229.1 237.7 246.2 255.2 263 269.4 274.1 277.3 283.8 291.7 300.3 307.6 311.6 313.7 314.1 313.2 315.9 317.3 318.5 320.6 324.1 327.3 330.4 333.3 334.2 333.1 330.4 327.2 320.3 314 307.7 298.6 289.8 282.8 271.8 265.4 258.5 251.6 245.4 238 233.5 227.6 221.5 217.2 213.2 207.3 200.9 195.4 192.9 191.7 191.3 190.4 190.5 188.7 187.1 178.8 175.4 173.1 170.5 169.3 166.7 162.9 164.8 163.7 161.2 158.8 156.5 155.5 154.5 155.4 155.9 155.8 155 152.9 149.7 145.7 143.7 142.7 142.3 142.6 143 142.8 142.8 143 143.2 143
165 162.1 161.3 156.4 148.9 144.7 142.4 139 135.4 135.1 136.1 141.1 151.5 159.7 166.8 171 175.1 178.9 183.7 187.7 191 195.9 200.2 202.9 204.9 204.3 202 200 201.9 203.8 205.4 206.1 206.4 206.1 205.9 205.7 206.2 209.3 209.2 208.1 206.3 205.1 203.3 199.6 195 192.5 195.2 194.4 196.5 197.8 200.6 205.5 209.8 213.8 217.2 222.2 224.7 228.6 230 228 228.6 225.4 222.1 218.9 215.6 211.7 209.1 206.5 202.7 199.4 196.3 192.9 190.5 188.4 186.6 184.2 185.1 180.1 180.7 177 167.6 156.7 177.1 190 195.9 186.3 198.6 201.9 187.4 180.5 172.6 170.8 182 186.8 190.1 191.4 192.1 192.8 194.9 196.6 197.1 198.3 199.4 200.5 200.1 198 197.7 198.4 199 201.2 204.5 209.3 215 220.6 228.6 236.2 246.3 254.3 261.9 266.7 270.6 273.9 279.7 288.3 289.1 304.9 306.2 307.1 306.7 307 311.3 312.8 314.5 317.4 320.7 323.5 326.8 331.3 331.4 327.7 324.1 318.9 311.7 307.1 298.4 291.3 283.3 275.1 268.2 263.1 257.5 251.1 244.2 237.6 231.1 226.2 221.8 217.1 212.5 206.4 197.9 194 192.1 191 190.8 189.8 189.1 187.3 183.9 177.2 175.1 173.1 171 168.9 166.6 163.3 163.1 163.4 161.6 156.4 155 153.8 153.5 154.4 155.3 157.3 156.5 153.6 149.9 145.9 143.4 142.4 141.7 142.4 142.4 142.3 142.3 142.3 141.9 141.7
166.4 167.2 164.9 158.5 152.1 146.5 143.9 138.5 136.8 135.4 135.9 140.3 151.7 160.8 167.8 173.3 177 179.9 183.8 188.2 191.7 196.7 202.5 206.3 206.1 203.2 202.1 203.1 205.5 208.1 209.6 210.1 210.1 210.6 210.9 211.4 213.1 215.5 215 214.1 212.5 209.4 207.4 202.8 199.1 197.9 193.2 196.5 197.5 200.5 202.7 207.2 212.1 216.6 220.8 225.8 229.4 233.3 234.5 234.2 231.1 228 224.2 221 217.4 213.4 210.6 207.7 203.6 201.7 198.1 194.2 191 189.3 187.4 184.8 187.3 191.9 173.2 162.5 156.7 161 193.9 189.5 203.2 186.4 199.8 206.7 189.5 180.8 170.8 176.7 185.8 187.5 189.5 191.4 192 193.4 195.5 197.2 198.3 199.8 200.8 201.3 201.3 199.7 198.1 199.5 200.3 202.3 204.7 209.4 215 221.1 228.6 235.1 245.3 253.2 259.1 263.6 266.2 268.6 275.6 284.2 282.7 298.1 299.8 300.3 300.7 302 305.9 307.7 310.2 314 317.4 320 322.9 327.4 327 322.4 317.6 312.1 305.7 298.6 290.3 284.2 276.6 269.9 264.8 260.5 254.7 248.3 242.2 237.3 231.4 226.1 222.5 217.4 211.7 203.6 195.7 192.8 191.4 190.1 188.9 188.1 187.8 185.3 181.9 176.7 174.7 173 171.1 169.1 166.9 163.9 158.3 161.5 160.3 155.6 153.8 151.9 151.2 152.4 153.6 153.2 153.2 151.7 148.9 145.5 142.8 141.6 140.9 141.2 141.4 141.5 141.3 140.9 140.4 139.7
170.2 168.8 165.3 159.8 154.3 148.5 145.2 139 136.2 135.8 135.9 139.6 151.7 160.7 168.5 173.6 177.8 180.7 183.9 188.3 192.3 197.3 202.5 205.6 204.4 202 203.2 206 209.5 211.9 213.4 214.6 215.9 215.9 216.2 218.7 220.3 222.8 221.6 220.1 217.9 214.4 210.7 206.3 204.9 202.2 199.5 199 199.5 201.6 207.2 210.7 215 219.8 223.2 228.8 233.3 236 237.9 236.8 234 229.5 226.4 222.5 218.8 215.1 212.3 208.4 205.8 203.3 199.3 194.7 192.2 192.4 190.5 186.8 187.3 189.6 190.1 181.1 184.8 184.7 208 198 189.9 187.2 198 202.2 189.6 181.8 176.7 172.6 176.2 186.2 187.5 189 191 193.6 195 196.8 197.9 199.2 200.7 201.3 201.3 200.7 199.5 200.6 201.8 203.9 206.4 208.7 214.9 220.9 227.5 234.6 243.2 250.7 255.9 259.7 261.1 264.2 270.1 280.2 277.3 290.5 292.4 292.2 293 296.1 299.1 302.5 306.4 309.6 312.2 317.4 320.9 326.5 323.6 318.5 313.4 307.8 299.8 291 282.9 274.7 267.7 264.9 259.8 255.4 251.3 245.5 241 235.8 231 226.6 221.5 216.1 211 202.1 194.6 192.1 189.6 188.4 187.4 186.6 188.1 184.7 179.9 176 174 172.7 172.2 170.4 167.3 164.3 162.2 156.1 157.8 155.3 152.8 151.3 148.9 146.7 145.8 147.2 147.9 147.6 145.5 143.3 142.4 141 140 139.9 140.3 140.2 140 139.5 138.9 137.4
172.8 172.1 171.1 162 154.2 148.8 145 140.7 137.6 136 135.7 136.1 149.4 159.8 168 174.3 178.4 179.9 182.4 185.4 191.6 195.6 200 201.3 199.2 200.2 205 209.1 213.3 215 217.1 219.9 221.1 222.1 222.7 226.7 228.6 230.4 228.8 226.5 223.5 220.2 215.2 210.6 207.9 204.8 201.7 201.4 202.8 205.6 209.2 214.4 218.4 222.7 226.6 231.9 237.3 240.3 241 239.2 236.1 232 228.2 224.6 221.4 216.7 213.6 210.8 208.4 204.7 199.9 196.1 196.3 194.6 192.5 189.3 188.4 192.1 195.2 197.5 199.9 204.3 206.2 195.3 188.5 191 202.8 203.4 193.2 184 178.8 171.4 176.6 181.9 184.1 186.6 189.9 192 193.8 195.3 196.6 197.6 198.7 199.6 200.1 200 200.5 200.9 203.7 205.7 208.1 210.7 214.4 220.7 227.5 233.9 239.1 246.3 251.4 254.3 255.5 259.1 265.5 273.1 272.5 283.3 284.5 285.8 286 290.9 294.5 299.8 303.5 306.8 310.4 316.4 321.7 324.1 321.2 317 310.7 304 295.4 286.4 278.6 271.4 265.3 260.5 255 250.4 246.4 242.7 238.2 233.6 230.1 226.7 220.9 216.5 209.9 201.9 193.4 190.7 187.8 186.7 185.8 184.6 186.1 183 179.3 175 174.2 173.6 174.1 171.4 167.4 164.6 163.6 160.5 153.6 151.8 150.6 148.5 147.3 149 147.1 144.4 142.8 142.5 141.6 141.2 140.4 139.5 138.5 138.6 138.5 138.1 137.7 137.7 137.3 135.3
176.3 174.6 170.2 160.4 154.3 149.8 146.9 142.4 137.6 135.8 136.1 135.9 145 156.4 164.5 170.3 174.5 177 180.2 185.4 190.7 193.6 194.7 195.5 195.7 201.2 209.2 212.8 215.7 218.6 220.4 223.2 227.4 226.7 230.4 233 236.5 236.6 235.3 232.2 227.8 224.7 219.4 213.5 210.4 207.3 204.2 204.5 205.9 208.8 211.5 216.9 221.9 225.4 231.1 236.6 239.8 243 244.5 242.3 238.9 234.9 230.3 226 222.6 219.2 216.2 213.6 209.4 205.7 202.1 198.6 198.9 195.6 194.6 194 191.2 194.2 196.4 198.6 200.4 204.2 210.7 201.1 203.1 205.2 208 204.7 195.6 185.1 179.2 175.5 176.2 180 182.2 184.7 187.2 188.7 190.8 192.4 193.7 194.9 196.4 196.9 197.9 200 199.8 200.7 202.9 205.9 208.5 212.1 214.4 216.5 226.5 232.5 237.3 241.5 245.8 249 250.6 254 259.6 262.5 266.3 274.1 275.2 277.6 281.3 287 292.8 297.6 302.2 305.7 310.5 317.7 321.3 323.2 321.7 315.5 308.9 301 293.2 282.2 274.2 267.6 262.1 257 252.2 246.5 242.8 239.2 234.7 232.3 228.2 225.1 219.5 216.6 209 199.6 192 189.5 186.7 184.9 183.5 181.9 181.2 178.8 176.4 174 173.3 174 175 171.9 167.6 165.3 163.6 160.1 155.1 151.5 151.6 150.6 151.3 152.5 151.2 150.4 148.9 145.8 142.2 139.2 138.8 138.2 136.9 136.7 136.5 136.1 135.8 135.6 134.6 133.8
178.2 173.7 166.9 161.3 157 153 149.3 144.6 137.1 136 135.9 136.2 140.4 148.8 157.3 165.1 172.1 176.1 180.8 184.2 187.5 188.6 190 193.3 195.3 204.5 207.9 214.2 219.1 221.4 224.9 228.3 230.8 234 237.2 240.3 243.2 243.3 241.5 237.1 231.4 228.1 221.9 217.2 212.7 207.8 208.4 209.2 209 210.9 213.6 219.1 222.4 228.8 233 238 243.6 245.9 246.7 245.4 242 237.2 232.4 229 226.1 221.7 218.4 215.5 211.2 209.4 204.7 203.5 200.1 198.3 196.9 196.2 193.1 195.4 197.6 199.6 201.5 204.6 210.2 210 217 216.5 214.1 205.3 195.2 186.4 179.3 177.1 174.8 177.9 180 181.5 183.2 185 187.8 189.6 190.9 192.1 194 194.2 195.1 197.1 198.5 199.6 202.7 206.7 210.7 215.4 219.2 222.6 225.1 223.2 232.3 237.4 241.3 244.1 246.9 251 254.5 258.5 263 264.5 269.2 275.2 282.6 288.6 292.9 298.6 302.4 307 313.2 320.4 321.6 319.4 315.9 311.5 307.2 300.4 291.3 281.4 274 265.5 260.2 253.7 248.4 242.9 239.7 235.1 231.6 228.7 225.4 222.8 218.6 214.7 206 196.9 190.9 187.6 185.2 183.2 181 178.9 177.2 175.5 173.9 172.6 171.9 173.4 174.6 170.6 166 162.4 160 156.7 154 153 154.8 154.6 155.1 154.7 152.8 151.3 149.9 147.2 143 140.6 137.5 138.1 137 135.7 135.1 134.5 134.3 134.2 134 133.9
177 173.3 166.3 168.1 162.1 156.4 150.3 144.6 139 136.8 136.9 136.4 135.8 144.8 152.6 161.9 169 173.9 177.1 181 183.7 182.9 188.2 192.7 197.2 202.9 210 214.7 220.1 224.3 229.2 232.8 235.9 241.2 244.4 248.2 251.6 248.2 246.9 242.8 236.5 231.7 224.7 219.8 213.7 213.6 211.7 212.9 211 215 217.8 221.4 226.3 231.2 236.3 242.4 247.9 249.7 249.8 248.3 244.4 241.3 236.5 232 229.1 225.7 221.8 218.5 213.8 211.8 206.6 207 201.7 200.7 199.6 197.5 195.1 197 198.8 200.6 202.3 204.7 209.9 213.6 215.8 214.3 211.4 204.2 195.4 186.6 179.7 177.7 173.7 175.5 178.6 179.3 180.7 182.7 184.9 186.9 188 189.9 191.5 192.1 193.3 195.6 196.7 198.4 201.9 208.9 214 218.5 222.3 227.6 231.9 232.4 232.1 231.1 235.3 237 240 244.1 246.5 252.1 257.2 264.3 270.5 276.4 283.3 288.6 292.9 298.4 303 311.2 316.3 321.2 320 315.3 311.8 308.7 304.3 298.2 289.6 280.7 273.1 264.1 258.5 253.3 247.5 242.5 237 231.1 228.6 225.1 222.6 218.9 217.1 211.6 204.5 193.6 190.5 187 185 183.1 180.8 179.8 178.6 175.5 171.9 170.1 168.5 170.2 172.9 169.4 164.4 159.1 156.6 160.1 157.5 156.5 155.9 155.9 157.5 155.6 153 150.5 149.2 147 143.2 140.6 138.2 135.3 136.1 135.2 134.7 133.8 133.2 133.3 133.6 134.8
177.1 173.1 173.5 169.4 164.7 159.6 151.5 145.9 141.5 137.9 136.2 136.9 136.6 142.3 152.6 160 165.7 170.1 174.3 177.4 178.9 182.2 185.5 190 196.7 203.6 210.6 215.9 222.5 226.8 232.5 236.9 241.6 248.1 251 255.2 255.4 253.5 249.5 246.2 240.1 234.2 227.2 221.9 219.7 217.6 217.5 217.2 217.9 218.1 221.3 224.8 230.1 234.4 240.8 246.3 250.5 254.7 254.4 252 247.7 244.6 241.1 236.6 232.8 229.5 224.5 222.1 217.7 213.5 211.9 209.2 204.9 203.2 201.3 199.6 198.6 197.6 199.6 201.2 203.2 205.8 208.9 212.2 213.2 212.9 208.9 202.2 194.4 187.3 179.8 177.3 175.1 174.7 176.5 178 179 179.5 181.3 182.3 183.8 185.7 188.5 190.2 193.3 195.1 196.2 198.4 201.5 210.1 215.9 221.2 224.9 230.9 235.3 238.4 239.5 240.6 243.6 245.4 247.9 251.5 254.7 256.1 261.9 266.3 272.6 276.3 284 288.4 293.2 298.1 305.6 312.6 317.5 321.9 319.3 315.7 311 306.1 301.9 296.1 287.4 280.7 272.3 263.4 258.5 251.7 245.4 240.4 235 229.3 224.5 220.6 218.5 216.2 212.9 207 198.7 192.9 189.3 187 185.5 183.5 182.2 181.9 180.1 177 172.9 171.3 169 165.4 168.3 167.2 160.9 162.8 163.8 161.4 160.2 158.1 157 157.4 156.9 154.9 152.6 149.8 148.3 145.1 143.1 142.1 139.2 137.1 134.5 133.7 133.5 133.3 132.9 132.7 133.9 135.6
180.7 178.3 174.6 169.8 165.7 158.5 157.4 148.9 144.5 139.2 136.8 137.7 136.8 138.7 150.6 157.2 161.5 167 168.7 170 176.4 179.9 183.8 188.5 195.9 202 210.2 217.1 223.6 230.2 235.2 240.7 248.3 253.4 255.8 260.2 260.5 258.6 254.5 250.9 243.2 236.5 231.4 226 224.4 223 223.3 222.5 223.4 224.7 223.6 229.7 234.6 240.4 244.6 250.9 256.5 258.9 259 257.2 252.1 248.9 245.5 241.1 237.4 233.4 228.9 225.7 222.3 216.6 215.2 211.4 208 205.7 203.6 202 200.8 199.9 200.9 201.6 203.5 205.6 209.1 210.1 210.2 209.6 205.9 199.5 192.8 186 180 176.6 175 174.8 176.1 176.7 178.1 179.2 181.7 182.6 184 184.2 190.3 191.7 192.6 195.4 195.7 197.7 201.4 209.8 217.5 223.3 229.5 235.3 238.7 243.4 244.1 245.1 247.5 249.1 249.6 253.9 256.7 260.5 263 267.3 273.4 278.3 283.7 288.7 294.4 299.1 307.6 313.2 320.7 319.8 318.1 314.9 310.3 305 299.3 293.1 286 277.5 270.8 263.5 256.1 250.8 244.7 238.7 232.5 228.1 223.8 218.9 214.4 211.6 208.6 204.5 197.3 191.8 189.2 187.7 186.3 184.3 183.1 182.4 181 177.7 172.5 171 168.2 166.6 162.1 160.5 160.1 165.7 164.7 163.4 161.4 159.2 158.1 157.4 155.5 153.5 151.5 149.5 147.5 145 143.1 141.9 140 136.9 134.7 132.9 132.2 132.4 131.6 131.8 132.6 134.5
182.2 178.5 174.6 172.6 168.1 164.7 159.4 151.2 146 139.5 137.7 137.8 137.3 137.5 143.3 150.1 158.7 165.3 169.9 173.2 176.4 179.1 183.1 188.7 194.9 203.1 210.3 218.4 225.5 233.4 237.3 244.7 251.7 258.4 261.7 264.4 263.1 260.4 258.3 252.2 245.1 238.9 233.5 230.8 229.3 228.7 228.9 230.2 229.1 230.8 231.4 230.8 238.1 245.2 250.9 257 263 264.7 265.6 264.6 258.2 254.5 251.2 246.1 241.4 237.3 233.5 230.2 225.5 221.5 217.3 214 211.5 208.4 206.1 204.3 203.5 202.1 202.2 202.3 204.1 205.2 207.7 207.5 206.6 204.6 201.7 195.2 190.7 184 177.8 176.4 175.5 175.3 177 178.4 180 181.5 183.3 184.1 184.5 184.7 191.4 193.5 195 195.5 195.9 197.2 201.9 210.4 218.3 225.8 232.6 238.3 242.2 246.6 248.2 249.4 251.7 252.9 256.2 258.4 261.2 263.7 267.2 269.4 274.6 279.7 284.9 288.7 294.5 299.6 306.7 312.2 317.2 320.5 316.6 310.2 307.2 302.1 296.5 288.5 281.5 275.5 268.8 261.3 254.6 249.1 243.4 236.9 231.1 227.6 223.8 219.5 215.1 210.1 206.2 198 194.6 192.1 190.3 188.7 186.6 183 182.5 178.4 176.9 173.6 170.9 169.9 167.1 165 162.6 165.6 167.5 166.7 165.6 163.4 161.9 160.2 158.7 156.8 154.8 152.7 150.5 149.2 147.1 144.8 143.7 142.6 140.1 137.1 135.3 133.6 132.2 131.1 130.7 130.2 131 131.9
183.2 181.7 177.9 174.6 170.4 165.5 161.4 157.4 150 146 137.4 138.9 138.1 138 139.9 151.3 158 164.9 168.3 171.3 174.8 178.3 182.9 188.8 196.4 203.5 210.5 218.6 226.7 233.3 238.7 247.7 255 260.6 265.1 266.6 265.7 261.3 259.9 252.8 246.9 241.5 236.4 236.5 236.3 237.3 240.1 237.8 236.1 238.5 237.9 236.1 242.5 248.1 255.2 262.2 267.7 270.8 271.3 270.1 268 263.5 258 251.9 246.2 241.5 237.9 234.2 230 225.9 222.1 219.1 216 212.4 209.5 207.4 205.6 204.3 203.3 203.3 204.1 204.8 206 204.7 202.1 199.4 194.3 190.5 187.5 182.6 178.9 177.2 176.2 177.1 178.3 180 181.3 183.6 183.7 184.2 184.4 188.6 192.9 194.9 197 197.4 197.9 199.2 203.1 210.7 219.2 227.8 236.2 242.9 246.8 249.3 250.7 253 255.1 257.9 261.4 264.2 266.4 268 269.3 271.7 276.4 280.8 285.1 289.7 294.2 301.9 306.1 309.8 312.5 313.6 307.7 304.4 301.6 296.3 291.9 284.4 278.9 271.7 266.1 260.2 254.3 248.7 241.7 235.6 231.5 226.4 221.8 216.9 211.9 207.7 203.4 198.1 194.1 191.1 189.8 189 187.5 187.4 186.3 184.9 181.8 177.2 174.1 170.9 167.8 166.4 167.2 167.5 167.4 166.7 165.4 163.4 161.9 160.1 158.6 156.3 154.4 152.6 150 147.8 146.7 146.2 144.1 143 139.7 137.6 136 134.3 133 132.5 131.6 131.7 129.6 131
185.8 183.4 179 175.5 173 169.4 166.7 160.5 152.8 146.6 141.9 138.9 139.1 138 138.6 149.1 158.7 166.5 171.4 174.4 177.2 179.7 180.8 188.4 196.4 203 210.4 218.8 226 232.4 238.6 248.3 254.4 262.8 266 268.8 268.9 264.7 262.1 255.5 249.5 245.7 242.7 241.5 242.2 246.3 249.5 247.4 245.4 246 245.5 245.6 245 252.5 259.1 265.9 270.9 274 274.6 275.8 273.9 269.6 264.3 259.5 252.5 246.4 241.9 238 234.9 230.6 227.2 223.5 219.6 217.2 213.2 210 207.6 205.9 205.5 204.6 205.1 204 202.6 200.3 197.7 194.5 191.1 187.2 186.1 182.1 178.4 176.3 177.7 179.1 180.1 181.4 183.3 185.1 187.2 189.5 190.9 192.9 194.6 196.7 197.8 199.8 200.1 201.5 205.7 212.2 221.5 232 241.1 247.2 250.5 252.9 255 257.3 260.6 263.1 267 269.1 271.7 272.6 272.8 275.2 278.5 281.5 285.8 290.7 297.8 303 305.1 305.9 307 304.6 301.5 298.8 296.2 291.6 286.8 281.7 275.5 269.6 265.1 259.9 254.3 247.8 241.3 234.3 230.9 225.2 220.5 215.6 209.9 206.5 200 195.7 192.4 192.3 190.2 190.2 190.8 190.6 189.3 185.8 182.4 178.4 175.9 172.6 169.1 167.9 169 170.7 170.6 167.4 165.8 164.9 162.7 160.2 158 156.1 154.1 151.9 150 148.1 147.1 146 145.1 142.3 139.2 137.5 136.2 135.1 134.1 133.1 133.3 133.5 135.3 134.6
188.1 184.3 181.2 178.3 175.6 173.3 167.1 157.3 154.8 150.4 149.2 139.9 139.7 137.6 138.8 143.5 155.9 164.8 171.5 176.8 181 183.4 186.1 189.5 194.9 201.4 209.7 217.6 224.7 231.1 237.2 247.6 256.7 263.9 268.6 270.8 271.4 268 264.5 259.7 254.3 250.7 248.8 248.2 251.8 257.8 257.7 255.7 253.1 254.5 253.9 254.8 254.9 256.3 263.7 270.2 273.9 277.2 279.4 279.7 277.8 274 269.2 264.8 258.6 251.8 247.1 242.7 238.4 235.7 231.5 226.7 223 220 216.1 212.2 210.1 207.9 206 205 204 202.2 198.7 195.3 192.3 189.9 187.4 185 183.3 181.2 177.3 178.1 179 180.8 181.9 182.9 184.7 187.5 189.1 191.6 193.8 195.7 196.3 198.1 200.4 202.6 203.8 205 209.6 217.3 226.4 234.6 243.8 249.4 253.2 255.8 258.7 262 264.9 268.8 272.2 274.7 276 278.9 279.2 279.9 278.9 281 287.5 291.4 296.1 298.8 300.9 302.6 301.6 299.2 295.2 291.5 288.3 285.7 282 278.1 272.7 267.6 262.2 257.5 252.6 246.8 239.5 234.9 230.5 226.5 220 214.5 207.2 201.9 198.3 195.2 194.1 193.4 194 194.2 194.3 193.1 191.1 187.3 182.9 178.9 175.7 172.2 168.9 169.8 171.2 172.8 172.8 169.2 167.8 165.6 163.4 161.1 158.4 157.1 153.9 151.4 149.1 147.6 147.2 145.9 145.3 141.6 139.2 138 136.8 136.8 135.8 134.6 134.3 135.7 136.9 136.5
189.4 186.1 183.2 181.1 178.2 171.1 170.7 166.6 161.6 155.6 151.8 146.3 141.2 139.7 138.5 139.4 151.4 161.6 169.3 176.9 181.5 185 186.3 189 194.6 201.7 209.1 216.1 223.2 230.3 237.4 247.3 258.5 265.2 268.5 272.6 273.5 272.5 268.2 262.5 258.7 256.3 255.5 259.3 264.5 265.5 265.4 264.1 262.5 262.4 261.5 262.2 262.8 264 267.3 272.4 276.8 280.1 282.6 284 282.3 279.4 275.8 271.4 266.2 258.4 252.6 247.4 243.7 239.7 236 230.7 226.6 222.6 218.2 214.8 212.5 209.3 207.3 206.4 204.5 201.1 196.2 192.5 189.4 187 184.8 183 182.1 179.4 178.9 180.6 181.1 182.8 184.1 184.9 187.3 190.1 192.3 194 195 197.6 198.4 200.8 203.2 205 206.9 209.7 213.5 222.1 230.3 237.3 245.8 251.3 255 257.9 261.4 265.2 268.5 272.5 277 280.5 281.5 281.7 282 280.7 280 280.9 286.4 290 292 293.7 295.1 296.9 296.3 292.2 287.9 285.9 284.6 280.5 278.4 275.4 270 265 259.8 256.5 250.8 244.5 239.1 235.1 231.6 225.5 219 212.8 206 200.2 198.2 199.1 198.5 198.2 197.5 196.1 196.9 196 192.7 189.7 183.3 178.7 175.9 172.3 169.7 170.3 173.3 174.6 173.9 170.7 167.7 166.1 163.5 160.2 158.8 156.4 153.6 151 148.8 147.2 146.3 145.5 143.6 140.8 139 137.9 137.9 137.6 136.3 135.9 135.7 137 139 138.7
192.2 190.1 186.2 184.8 180.7 178.7 176.1 169.3 162.6 157.8 153.1 147 147.2 139.9 139 139.3 149.2 161.2 167.8 174.1 180.1 183.6 185.3 186.9 192.9 199.5 206.9 214.6 221.8 229 236.1 247.1 258.1 264.8 268 271.8 275.3 276.5 272.3 266.5 264.8 264.1 266 269.1 272.1 272.5 271.9 270.8 269.7 269.4 268.1 269.1 269.5 270.6 272.2 275 279.3 283.2 286.7 288.5 287.8 285.7 281.6 277.6 272.6 266.8 259.9 253.1 248.8 244 238.9 233.8 229.4 224.8 220.9 217.3 213.4 211.3 209.4 206.9 203.9 200.7 195.9 191.2 188.1 185.8 183.6 181.9 180.5 180.6 181 182.4 183.3 184.9 186.2 188.7 190.1 192.7 194.7 196.2 198 200.2 201.1 203.5 206 207.6 210 214.1 220.1 228.6 235.3 240.3 247.7 252.4 256.1 259.7 263.5 267.5 271.3 274.5 280.1 282.9 282.8 283.9 282 279.2 279.9 281.9 285.8 288 288.6 289.2 289.4 289.5 288 284.3 282.4 280.2 279.3 277.8 275.8 272.5 267.7 263 257.6 253.6 248 243.1 240 235.3 229.7 224.3 215.4 209.6 203.9 203 202.3 201.5 201.5 200 199.6 200 200 198.2 194.4 190.4 184.1 179.5 176.1 172 170.1 171.2 174.7 175.8 176 172.7 168.2 165.2 162.8 159.8 157.4 155.7 152.8 150.3 148.6 146.8 145.3 144 142.4 140.3 139 138.5 138.7 137.9 136 136.1 137.1 139.3 141.1 140.6
195.6 191.7 188.2 185.5 182.6 178.9 175.9 170.6 166.4 159.8 156.2 153 149.9 138.8 139.1 139.4 143.4 157.6 165.9 172.1 177.5 181.1 184.8 188.1 190.3 197.2 204.8 212.5 219.8 226.9 234.7 250.2 258.4 265.4 270.2 275.3 279.6 278.2 275.9 273.1 274 273.5 274.9 275.5 277.2 276.8 277.1 276.7 275.6 275.6 274.3 274.4 274.7 274.5 277.1 279.2 282.1 286.2 289 290.9 292 289.2 285.1 281 276.5 271 264.4 258.8 252.6 247.2 242.1 236.5 231.7 227.1 222.9 218.5 216.4 212.8 210.1 206.7 204 200.1 196.7 190.4 187.7 185.8 183 180.8 180.2 181.8 182.5 184.1 185.6 187.2 188.5 191 193 194.9 196.9 198.2 199.9 202.4 205 207.3 209.5 211.3 215.4 219.6 225.6 234.2 239.8 243.8 249.8 254.1 257.3 261.2 264.6 268.6 272.3 276.4 280.4 284.7 283.3 282.5 280.2 279.4 278.3 278.7 282.3 283.9 284.3 284.8 285.1 284 281.9 279.9 276.7 275.7 274.9 274 271 268.1 264.8 260.3 255.7 251.1 246.1 242.1 238.8 233.9 228.9 221.4 213 208.4 205.1 204.7 204.6 203.9 204.5 204.5 203.9 204.4 203.4 200.8 196 191.4 185.3 179.6 176.4 172.4 170.5 173.1 176.5 177.5 176.6 174.3 169.7 165.1 162.5 159.8 157.2 154.7 151.6 149.2 147.8 146.1 144.7 143.6 141.7 140.5 139.6 139 138.1 137.1 136.3 136.6 137.9 140.3 142.8 142.2
196.1 193.2 190.5 188 184.5 181.1 179.4 175.4 169.3 165.7 161.5 157.3 152.5 147.8 144.1 139.5 139.9 150.5 162.7 169.3 173.7 176.5 181.1 185.5 188.3 195.1 202.8 210.4 217.4 224.6 232.7 249 258.2 265.1 270.1 276.5 280.8 282.6 282.6 281.7 279.9 280.5 281.7 282.1 282 284 283.4 281.3 281 280 280.6 280.2 279.8 280.4 281.3 283.4 285.1 286.9 291.6 293.8 293.2 291.8 286.7 282.5 278.5 273.8 267.6 261.5 255.9 250.3 244.6 238.8 233.6 229.2 225.4 222.2 218.7 215 211.3 207.2 203.2 198.7 196 190.6 187.5 185.2 182.7 180.4 182.7 183.6 185.8 186.8 188 189.3 191.8 193.4 195.9 197.2 198.6 201.6 203 205.3 207.8 210.4 213 216 220.2 227.3 234.1 238.4 244.4 248.5 251.2 255.6 259.4 263.1 266.4 269.4 273 276.3 280.8 281.4 280.9 279.4 277.6 276.3 275.4 275.1 278 279.9 279.6 280.1 278.9 277.5 276.2 272.9 272.4 270.6 269.7 269.6 267 263.6 260.5 256.3 252.7 247 243.3 240.7 236.5 233 225 216.7 211.5 210.4 208.4 209.9 206.7 207.1 207.7 207.7 207.1 206.6 205.4 202.1 196.8 191.3 185.8 180.1 176.2 173.5 172.3 174.5 177.2 178.6 177.5 175.2 170.4 164.9 161.9 159.3 156.6 154 150.5 148.1 146.5 145.4 144 143.4 142.1 140.6 139.7 138.5 137.2 136.3 136.5 137 138.2 139.7 141.4 141.8
199.5 196.5 193 188.8 185.6 181.6 180.7 176 172.1 168.6 166.1 162.2 157.3 150.3 141.8 140.1 140.2 140.2 156.1 163.9 170.5 176.1 179.3 181.5 186.5 193.3 200.2 208.2 215.2 223.2 234.3 246.4 258.5 265.5 270.4 279 283.1 284.2 285.5 285.5 287.2 286.7 285.5 285.9 286.1 287.4 287.9 287 286.3 286.8 286.8 285.7 284.9 286.2 286.3 287.7 289.1 290.8 292.6 293.7 293.5 291.6 287.4 283.5 279 274.3 268.9 263.3 257.2 251.2 245.3 240.3 235.8 230.9 227 222.3 219.8 216 212.1 207.5 202.6 198.5 194.4 190.2 187.2 183.9 182.1 182.4 184.7 185.8 188.2 189.2 190.5 192.1 195.3 197.2 199 200.9 202.3 205.2 206.9 208.6 210.7 213.9 217.2 218 225.1 233.2 242.3 244.2 247.1 249.9 253.6 257.2 260.1 264.3 267.5 269.8 272.8 275.8 276.4 277.2 277.7 276 275 274.2 273 271.6 274.1 275.4 274.9 274.3 273.8 272 271.2 269 267.9 266.2 265.6 264 261.9 259.1 256.9 253.4 249.7 245 241.7 238.2 234.4 228.1 221 216.1 214.7 213.3 212.7 212.5 210.9 211.2 211.4 210.9 210.5 209.5 208.1 203.8 199.2 191.7 185.9 179.5 176.7 174.9 173.2 174.7 177.7 178.5 177.2 174.6 170.3 165.1 161.4 158.1 155.4 153 150.5 148.1 146.6 145.1 144.4 143.6 142.7 141.1 139.7 138.2 136.8 136.1 136.4 136.5 136.8 137.9 138.5 139
202.3 198.3 194.9 190.6 188.6 185.7 182.3 178.1 174.7 173.5 170.7 165.4 160.1 152.9 141.4 140.5 141.3 139.5 153.8 163.3 169.6 174.5 179.5 182.5 186.8 192.4 198.8 206.3 214.7 222.3 236 246.7 255.9 262.4 269 278.3 284.2 285.1 286 287.4 288.1 287.1 287.6 287.7 288.1 289.4 291 291 291.4 291.5 291.9 292.3 292 291 290.9 291.4 291.6 292.8 293.4 294.9 293.5 290.6 286.9 282.5 278.6 273.4 267.6 262.5 257 251.2 245.6 241.5 236.5 231.5 227.3 224.6 219.8 216.4 211.2 206.5 202.1 197.9 193.7 190.7 187.4 183.9 183 185.5 185.8 188.5 190.9 192.7 194.4 196.7 199 202.3 203.6 205.5 206.9 209 211.1 213.3 214.4 218.3 222.2 224.8 227.1 240 246.9 249.1 250 252.5 254.6 257.3 261.8 264.2 267.7 270.2 273.3 274.5 273.8 274.1 273.9 272.5 271.7 270.8 268.4 265.7 267.7 269.7 268.9 268.6 268.8 267.6 266 265 263.2 262 260.4 258.9 256.9 254.3 252 249.3 245.3 242.1 239.4 236.9 232.1 225.7 218 217.4 216.2 215.5 215.8 215.3 215.4 213.4 213.9 214.3 213.9 212.8 209.1 205.3 200.9 193.1 185 179.5 176.9 175.3 173.8 175.7 177.9 178.2 176.6 174 169.8 164.4 160.7 157.8 155.7 153.3 150.8 148.7 147.3 145.4 144.6 143.6 142.5 141.4 139.7 138.5 137 135.6 135 135.5 135.2 134.7 134.3 133.4
205.2 201.3 195.2 194.1 191.4 187.9 184.9 181.9 177.3 176.2 174.1 168.5 162.6 154.3 141.5 141.1 140.2 140.8 153.7 157.8 163.7 169.6 174.9 180.9 186.2 191.8 197.4 204.3 213.3 223.4 235.7 245.5 253.9 261.2 268.7 277.5 281.7 285.9 286.7 287.9 288.3 287.8 288.6 288.8 290.1 291.5 293.2 294.9 295.3 295.1 295.2 295.7 295.6 295.4 294.8 294.3 294.6 294.5 294.3 295 292.6 289.3 287.2 282.6 277.6 272.7 266.5 260.4 255.4 249.8 244.7 240.5 235.4 232.7 228.1 224 220.7 214.4 210.1 207.2 202 197.7 193.6 190.4 186.8 183.9 185.8 187.6 190.3 194.5 196.3 197.1 199 201.3 205 206.8 208 208.6 210.4 212.6 214.9 217.6 219.5 223.5 227.8 231.8 238 243.3 247.5 249.8 251.5 253.4 256.7 258.7 261.8 265.9 268.1 271.3 272.3 272.8 271.7 270.8 269.9 268.3 267.3 265.7 263.8 260.4 262.2 264.8 264.9 264.8 264.6 263.4 261.4 260.3 257.9 257.4 256.1 253.7 252.6 248.7 248.5 246.9 243.2 240 237.6 234 227 221.3 218.3 217.7 218.4 217.8 217.6 217.3 217.6 217.2 217.4 218.4 217.3 214.5 210.1 205.3 199 191.3 183.5 178.8 177.1 176 174.8 176.4 178 178.3 177.1 174.3 169.5 164.1 160.3 157.7 156.2 153.9 151.5 149.5 148.2 146.8 144.7 143.3 142.1 140.9 140 138.8 136.6 135 133.4 133.9 133.7 132.3 130.7 129.4
205.3 203.1 199.8 195.1 193.1 189.3 185.1 182 179.9 180.2 176.8 170.3 163.8 153.5 141.1 140.4 140.9 149.7 156.6 162.6 167.1 168.2 172.7 178.9 185.4 191.8 198.8 205.6 213.8 224.1 237.2 245.6 253.3 259.9 266.8 276.1 281.3 284.3 287.3 288.1 288.2 288.4 289.3 290.2 292 293.6 295.4 296.2 297.6 298.5 298.9 299.7 299.6 298.8 298.2 296.6 296.2 295.9 295 294.7 291.7 288.2 284.1 280.5 275.6 270.6 264.4 259 254.1 248.3 243.8 238.9 234.5 230.7 227.2 223 219.8 215.7 211.2 206.5 202.4 197.5 193 189.9 185.9 187.8 189.4 192.3 197.6 200.6 201.9 201.4 203 205.3 209.3 210.3 211.4 212.4 214.6 217.2 219.9 224.3 229.5 236.2 239.4 242.5 244.9 245.6 248.2 251 253.2 255.6 258.2 260.2 263.7 266.6 269.5 270.9 271.3 270.8 269.6 267.3 266.8 264.2 262.6 261.2 259.2 255.1 257 259.7 261.1 260 259.8 258.1 255.2 255 254.6 253 251.1 249.5 248.4 246.1 245 242.5 240.5 237 233.4 226.1 220.7 219.2 218.4 217.5 219.8 221.1 220.5 219.9 219.8 221.4 222.5 220.8 218.3 214.5 210.6 204.7 196.3 188.2 182 178.5 176.1 175.7 174.8 176.5 178.5 178.4 178.3 175.1 170 164.9 159.8 157.6 156 154.4 152.1 150.1 148.6 147.2 145.8 144.2 142.8 141.8 140.6 139.2 136.8 133.8 131.8 131.7 131.4 130.3 128 126.3
210.8 206.2 201.2 198.3 194.6 191.6 186.4 183.3 181.9 181.3 176.7 171 163.5 151 141.1 141.7 141.6 148.2 154.3 158.8 164.4 169.6 174.5 179.1 184.7 191.2 199.1 205.6 213.4 226.1 238.4 246 252.2 258.5 265.8 272.9 278.4 280.5 284.6 287.3 288.9 288.6 287.9 288.6 291.2 293.8 296.4 297 296.7 299.1 299.9 301.5 301.4 300 300 298.6 297.6 297.3 295.5 294.3 290.7 287.2 282.2 276.9 272.1 266.8 261.4 256.7 252.7 247.8 242.3 238.4 233.4 228.7 225.9 222.4 217.6 213.5 209.6 205.8 201.8 196.4 192.5 188.7 188.7 191.1 193 198.5 202.8 204.8 205.7 205.6 207.1 209.4 210.9 213.1 215.4 216.7 219 221.9 227.2 233.5 243.2 250 252.3 251.1 252.1 251.4 251.4 252.5 254.8 256.7 258.4 261.9 264.9 268.1 270.3 270.1 270.5 268.9 267 264.1 262.1 260.2 258.5 256.7 254.3 251.7 252.2 253.3 254.5 254 252.4 252.2 250.8 250.4 250.3 249.1 247.7 246.7 245.5 244 243.4 241 239.1 234.9 228.8 223.8 221 220 219.6 219.8 222.1 223 222.3 222.2 222.7 224.6 223.7 220.8 216.5 211.3 207.1 202.1 191.9 184.2 180.3 177.7 175.4 174.4 175.1 177.8 180 179.8 178.9 175.1 169.1 164.6 160 156.7 155.9 154.6 152.4 151.5 149.6 147.8 146.4 144.5 142.8 141.8 139.8 138.2 135.8 133 131.4 130.9 130.2 128.3 127.4 124.3
213.2 207.9 204.4 200.8 196.7 191.6 188.1 186 183.7 180.8 175.4 168.8 159.8 150.4 141.3 141.4 142 144.7 150 155.8 159.4 166.7 174.2 179.9 185.7 191.7 199.1 205 215.5 229.1 239.3 245.5 250 254.9 261.4 268.1 272.7 275.7 280.1 282.6 284.1 284.5 285.2 285.4 287.5 289.3 291 291.2 293 295.6 297.3 299.8 300.7 300.1 299.7 299.7 297.9 298.6 296.7 295.1 290.7 286.2 280.5 274.9 269.3 264 257.5 252.6 248 244.2 239.8 235.7 231.4 226 223.2 219.8 215 211.4 208.2 205 200.8 195.8 192.7 188.6 192.2 193.7 197.4 203.2 207.2 209.4 209.8 208.9 210.3 212.2 214.2 216.4 219 221 223.7 228.9 238.6 247.1 254.1 259.4 258.9 258.9 257.4 255.5 254.7 255.2 256.8 257.9 259.2 263.1 265.2 268.6 269.4 269.7 267.1 266 263.6 260.6 257.7 255.5 253.9 252.3 249.9 248 244.4 248.2 248.3 248.6 248 247.3 246.3 246.4 246.3 245.3 244.9 244.1 243.6 242.3 239.7 238.4 234.2 226.7 225.2 224 222.4 221.4 220.6 222.1 222 221.7 220.6 222 224.2 225.3 221.8 218.5 213.2 207.1 201.5 195.3 187.5 181.7 178.8 176.7 175.8 175.4 175.6 179.8 181.4 182.1 179.9 173.9 169.5 164.2 160.4 156.4 154.6 154.3 153.3 151.8 150.4 148.6 146.8 144.9 142.6 141 139.6 138.4 136.2 134.3 133.8 133.4 132.1 130.6 128.5 126.3
216.2 209.8 205.5 201.7 198.3 192.9 188.8 184.6 182.5 179 173.5 164.2 157 143.8 140.9 141.9 142.3 143 147.2 151.1 158.4 166.2 173.2 180.2 186.6 192.8 199.2 206.1 219.9 231.8 239.4 244.1 247.1 251.8 256.4 260.6 265.9 270.4 273.4 276 277.4 278.9 278.6 277.4 279.9 281.8 282.9 285 286.7 289.6 294.4 295.2 298.2 298.5 299.9 300 299.4 298.9 297.4 293.6 289.2 284.5 278.6 272.2 266.6 259.7 253.3 248.4 243.6 239.1 235.6 232 229.1 223.3 219.8 216.6 212.7 209.3 207.1 203.9 199.5 195.9 192.7 190.8 193.8 196.1 200.5 206.6 211.1 213.3 214.2 212.5 213.6 215.9 217.8 220.6 223.2 226.2 229.8 238.3 246.6 259.7 263.8 265.8 265.9 264.3 260.9 260.3 259.1 257.9 258.3 258.8 260.1 262.5 265.3 267 267.7 266.9 264 262.4 260.2 257.4 254.5 252.3 249.3 247.6 245.7 244.6 241.1 243 243.1 242.8 243.2 243.4 243.6 243.8 243 243.1 242.9 242.4 241.2 239.8 237.7 235 230.8 227.2 225.9 224 222.6 221.4 219.7 219 218.9 218.1 218.1 219.5 221.5 220.7 217.6 214.6 209.8 202.4 197.2 189.6 183.1 179.7 177.7 175.7 175.7 176 178.3 181.7 183.3 180.3 178.8 173.1 168.8 164.9 160.6 157.1 154.8 154 153 152 151.3 149.2 147.2 145.3 142.8 141 139.9 138.7 137.1 136 135.7 137.3 136.2 133.7 131.2 127.1
216.3 210 204.7 199.9 196.9 191.5 187.5 184.3 182.2 175.7 168.3 159.4 149.8 141.1 141.9 142.5 142.5 143.2 144.8 149.9 159.3 166.7 173.3 179.8 186.1 191.8 199.2 210 222.6 231.9 238.8 243.4 245.9 248.1 250.3 254 259 264.3 268.3 269.9 270.9 272.3 272 271.6 272.5 274.5 276.4 278.7 281 284.6 287.9 292.2 294.5 296.1 297.7 299.8 299.9 298.7 296.6 291.2 286.6 280.9 275.3 268.9 262.3 255.3 249.4 244.5 239.9 235.4 231.3 226.9 224.8 220.3 216.6 213.5 210.5 207.3 204.5 202.2 198.6 195.4 192.5 195.2 196 197.7 202 208.6 214.6 218.1 218.8 216.5 217.7 219.6 222.4 225.3 228.6 232.1 238.3 247.6 261.4 268.2 269.4 269.5 269.1 267.9 265 263.4 262.5 260.9 260.1 260 260.9 262.1 264 264.5 264.9 263.3 260.1 258.7 256.4 253.1 250.3 248.3 245.8 243.7 242.1 241 238.2 238 239 239.1 239.6 239.3 239.9 241.1 241 242.4 241.6 240.9 240.3 237.9 236 234.3 231.5 228.8 226.5 223.6 221 218.3 216.3 214.1 215.1 215.6 215.7 216 215.7 214.1 211.1 207.1 201.7 196.7 190.5 184.3 180.1 178.3 176.1 176.5 176.6 176.7 180.2 183.1 184.8 180.9 176.6 174 168.6 164.1 160.6 157 155.2 154.9 154 153.1 151.9 150.5 148.3 145.1 142.1 140.6 139.6 139 137 136.2 137.9 138.7 138.8 136.2 131.9 126
214.2 207.8 202.4 197.4 193.8 188.5 184.2 181.2 178.5 170.2 161.9 154.6 145.6 141.9 142.8 143.2 143.5 143.7 144.4 151 160.1 166.4 172.3 179.2 185.6 191.9 201.3 211.1 222.8 230.4 237.2 240.9 242.6 244 244.7 248 253.2 256.2 261.7 263.9 264.3 264.6 265.2 264.7 265.2 266.1 268.9 271.5 274.9 278 281.2 286.3 289.3 291.5 294.6 297.3 297.9 298 293.5 288.7 283.9 278.2 272.7 266.3 259.6 252.9 247.1 241.9 238.1 233.2 228.3 224.9 220.9 217.9 215 212.1 208.7 205.4 203.5 201.1 197.4 193.7 195.7 196.9 198.4 200.1 202.4 208.6 216.8 221.1 221.4 220.5 220.9 221.8 225.3 229.3 233 236.5 243.4 259.5 270.4 272.2 272.7 271.8 271.4 271.3 269.9 267.5 265.3 263.3 261.7 261.3 261.2 261.5 261.5 260.8 260.6 258.3 256 254.2 251.8 249.7 247 244.4 242.4 240.3 239 236.7 234.3 234.8 235.2 235.8 235.6 236.8 238.1 239 239.4 240.9 240.1 239.9 239.8 237.7 235.6 234.7 231.7 229.3 226.4 224.1 220.6 216.1 213.2 211.9 211.5 213.1 213.4 212.5 209.9 207.8 204.2 199.6 194.2 188.8 184.9 181.4 178.1 177.4 177.2 176.4 176.5 178.6 181.5 183.5 183.3 178.7 175.5 172.9 168.9 163.9 160 156.5 155.8 154.8 153.8 153.1 152.3 151.7 149.1 145.2 141.6 140.4 139.9 139 137.9 137.1 139.2 139.3 138.3 135.2 130.6 125.1
209.6 205.4 200.3 195.5 190.8 187.6 182.9 177.3 172.3 164.9 159 148.3 146.4 142.4 142.7 143.1 144.4 144.2 144.4 149.3 160 165.9 171.6 177.7 183.4 193 202.3 211.6 221.8 228.6 234.8 236.9 237.9 238.7 239.8 243.6 248.6 252.9 254.2 255.8 256.1 256.3 255.5 256.8 256.9 257.8 261 263.8 266.6 272.4 276.4 280.4 284 287.6 290.6 293 294.8 292.9 290.6 286 281.2 275.7 270.3 264.2 257.5 251.7 245.8 240.2 235.4 230.6 226.5 222.6 218.7 215.8 213.4 210.5 207.5 204.1 201.4 198.8 196.2 195.7 197.6 200.7 202.4 203.1 205.3 206.6 214.5 219.1 221.3 222.5 222.4 224 227.6 231.4 235.1 239 248.8 266.9 271.7 274.3 273.8 272.8 274.2 274.5 273.3 270 268.2 265.7 264.2 262.7 262.2 260.6 259 257.8 256.2 254.2 252.4 249.9 247.9 246.9 243.8 240.4 238.2 236.3 235 233 231.7 231.3 232.2 232.1 233.1 233.7 235.4 237.6 238.7 239 239.3 238.9 240.2 239.4 239.3 237.4 233.6 231 227.9 223.7 218.2 215 210.9 208.8 208.2 208.8 208.9 207.7 205.1 202.1 198 194.5 189 185.2 181.3 178.6 176.4 176.1 176.4 176.9 178.4 180.6 182 183.2 180 178.9 176 172.4 168.5 164.1 159.5 156.8 155.4 153.5 153.1 152.4 151.3 150.6 148.2 143.9 140.4 139.4 139.1 138 136.7 137.1 137 137.1 135.8 133.2 128.9 125
205.3 200.6 195.7 191.8 188.3 183.4 177.8 172.2 165.9 160 152.7 144 142 143 146.2 148.5 144.4 144.8 144.8 148.4 158.1 162.5 168.7 175 182.6 193.5 203.2 212.6 219.6 225.6 229.2 231 231.7 232.1 234.3 238.5 244.8 245.6 248.2 248.7 249 248.4 247.1 247.2 249.1 249.3 251.7 256.3 260.2 265.6 270.4 275.1 278.6 282.3 286.3 288.7 290.7 289.9 286.8 282.7 278.7 273.5 268.2 262.3 256.5 250.6 245.2 239.8 234.7 229.8 224.8 221.1 218.1 214.4 210.8 207.9 205.5 203.5 201.6 199.8 197.5 199.2 201.9 204.8 206.2 206.9 208.2 210.2 213.4 216.4 220.7 223.7 224.3 226.4 229.7 232.8 237 242.5 254.5 263 269.7 273.2 274.8 274 276.2 275.9 274.7 272.8 270.6 267.4 265.1 263.5 260.9 259.3 256.8 254.9 253.1 250.8 248.3 246 243.7 242.4 239.2 237.5 235.6 233.4 231.4 229.9 228.5 227.3 228.6 228.3 229.5 232.1 234.5 236.2 237.6 238.1 238.3 238.8 240.5 242.4 241.9 239.5 236.6 232.1 225.6 221.1 217.1 213.2 209.8 204.9 204.1 203.6 203.3 201 198.3 195.6 192.1 188 187.5 182.5 178.6 177 176.6 176.5 176.7 177.9 182 183 182.9 182.9 181.5 178.6 176.2 171.9 168 163.5 159.7 157 154.3 152.3 151.7 151.6 150.3 148.6 146.9 142.1 139.1 138.2 137.8 136.9 135.6 133.8 134.1 134.2 132.7 131.6 129.2 124.9
199.7 196.7 191.9 188.1 183.7 178.1 171.5 165.2 160.1 154.8 147.3 142.8 143.1 148.3 147.8 149.4 145 145.6 145.1 145.4 152.5 157.4 161.2 172.5 183.9 194.8 204.5 211.8 217.1 220.3 222.5 223.9 225.3 225.4 229.2 235.2 239.4 241.8 241.5 241.4 240.8 240.3 238.8 236.8 238.8 239.3 244.1 248.2 254.1 259.6 265.3 269.7 273.1 277.6 281.4 284.4 286.8 286.4 283.7 280.3 276.8 271.7 266.7 261.2 255.4 250.3 245.6 240.5 235 231 226.1 221.6 218.4 215.4 212.8 209.9 207.9 206 204.1 202 199.3 200.8 205.4 208.6 209.9 211 212 212.2 214.8 217.3 220.5 224 226.7 229.4 230.8 234.4 238.9 244.8 255.2 263.8 269.3 272 273.7 273.7 273.3 274.3 273.7 271.9 270.3 268.3 265 262.8 260.5 257.7 255.3 252.7 250.5 248 245.3 243.4 241.1 238.8 235.7 234.7 232.9 229.8 228.3 226.3 225.4 222.3 223.7 224.8 228.6 232 234 235.2 236.8 237.8 240.1 242.1 244.2 244.9 243.3 239.5 232.8 228.1 223.3 219 215.2 211.9 208.4 204.1 199.9 199.7 197.4 194 192.1 188.7 187.4 185.3 183.7 180.5 177.5 177.5 177.7 177.8 177.8 180.4 184.1 184.7 184.3 183.6 182.1 179.3 176.3 172.5 167.8 163.9 160.4 155.9 153 151 150.3 149.5 148.6 146.8 144.3 141.5 138.6 137.2 136.9 135.7 133.4 131.3 131.7 131.5 130.4 130.2 128.4 123.6
194.9 189.6 186.8 183.4 177.5 173.1 165.4 160.3 154.3 148.8 144.9 143.6 146.7 149 147.7 147.3 147.9 147.4 146.5 146.1 147.2 147.2 155.5 166.4 183.8 195.2 203.7 208.8 211.8 213.4 214.8 215.5 217.7 220.2 225.7 228.7 230.9 230.4 233.1 232.1 233.3 231.3 229.2 225.3 227 230.5 235.3 241.8 247.7 253.6 256 265.8 269.4 273.4 277.7 281.9 283.5 283.6 282.2 278.7 275.8 270.3 265.9 260.9 255.4 250.4 245.6 240.4 237 233 228.3 223.7 219.6 217.4 214.7 212.2 209.9 207.9 205.9 203.9 202 202.9 207.6 211.3 213.1 214.3 215.4 216.1 216.9 219.3 222.3 224.9 227.8 230.5 231.9 234.3 239.9 246.6 256.7 266 270.2 271.9 271.6 270.9 270.7 270.9 271.1 270 269.2 266.6 264.4 262 259.6 256.9 254 251.1 248.7 246.4 243 240.2 237.6 235 232.8 231 229.5 227.5 225.2 224.2 222.1 219.6 222.3 226.4 229.6 231.9 234.3 235.7 236.9 240.1 242.2 244.7 245.7 243.4 240.6 235.6 229 226.2 222.4 217.8 214.2 211.4 206.6 201 197.2 194.2 192.8 189.8 189.5 187.3 185.7 183.4 181.5 179.8 177.6 177.2 179 180.3 181.5 185 187 187.1 185.3 184.3 182.4 179.7 176.8 173 168.5 164.8 161.1 157.8 154.3 151 150.2 149 147.4 146.5 144.8 141.8 138.8 136.3 135.9 134.4 132.8 130.5 129.2 128.8 127.7 126.4 124.2 120.6
186.9 182.9 178.9 176.1 171.7 165.8 159.2 152.3 149.4 145.9 143.8 145.4 149.1 148.1 147.1 146.6 147.4 147.7 147.9 149.8 147.2 147.6 147.7 157.7 183.3 192.6 197.2 203.6 198.1 194.4 199.8 205.7 207.9 215.6 218.3 220 222 221.7 223.6 223.6 225.1 218 213.5 214.3 217.5 215.5 225.1 234.3 242.3 250.5 256.4 262.9 267.5 270.3 275.4 279.8 281.6 280.8 279.3 276.7 273.2 269.4 264.8 260.6 255.8 251.1 246.1 241.7 238.3 234.2 229.9 225.6 221.7 218.7 216.5 214.4 212.6 211 208 206.9 203.8 205.2 208.9 212.2 215.4 217.2 218.9 220.5 220.6 221.4 224.2 226.8 229.2 231 233.4 237.3 242.1 249.1 258.6 267 269.9 269 268.8 268.2 268 268.2 267.6 265.9 265 263.4 262 260.2 257.2 254.9 252.3 249.4 247.2 244.2 241.1 237.7 234.8 231.8 230.3 227.3 226.4 225.2 222.4 221.4 219.4 217.3 223 227.7 230.2 232.4 234.5 236.8 239.2 240.8 242.6 243.5 243 239.3 235.2 230.7 227.3 224 220.3 216.4 212.3 209.6 203.3 198.3 194.4 191.6 190.3 189 186.3 185.1 184.9 183 180.1 177.7 177.3 178.4 179.7 181.5 185.3 187.9 188.4 188.5 187.1 185 182.7 179.7 176.9 173.6 169.5 165.7 162 158.6 154.7 151.6 150.2 148.8 146.9 145.4 143.6 142 138.3 135 134.8 133.5 131.7 131 131 130.2 127.2 123 121.5 120.2
180.7 176.7 172.5 169.1 165.6 160.8 153.1 147.4 144.9 144.7 146 149.3 149.2 147.1 146.9 147.1 147.3 148.9 155 156.9 158 152.8 147.6 152.7 166.6 176.9 182 181.9 178.9 181.6 187.9 197 197 204.6 208.4 210.8 212.9 214.3 213 213.5 205.3 200.9 199.2 203.5 210.1 217.7 226 235.2 242.5 250.3 256.2 262.2 266 270.4 274.4 279.4 277.8 278.7 276.8 274.2 270.3 266.8 263.3 259.5 255.6 251 246.6 242.8 239.2 235.5 231.4 227.2 224.1 221.2 220 217.4 215.3 213 210.3 208.4 205.8 207.3 209.9 213.5 217.1 219.6 222.4 223.6 224.1 224.9 224.9 227.9 230.9 232.4 235 240 245.3 251 258.5 265.4 266.6 265.6 265.7 265.4 264.8 264.6 262.8 261.7 261 260.2 258.6 256.6 254.4 252 250 247.7 244.8 241.9 238.7 235.2 232.5 229.8 226.8 224.1 222.8 222.3 220.6 218.1 216.4 218.3 223.9 227.1 229.9 232.5 234.8 236.8 238.4 239.3 240.9 239.8 237.3 233.1 229.7 228 224.8 221.6 217.7 213.4 209.3 204.2 199.1 195.1 192.8 190.4 189 188.5 187 184.8 181.8 180 177.5 176.3 176.8 178.3 180.7 183.5 187.2 188.5 188.7 189 188.3 185.2 183.4 180.4 177.2 174.2 170.4 166.7 163 159.3 155.7 151.9 149.9 148.7 147 144.9 143.1 141 137.8 134.7 133.8 132.2 132.7 132.2 130.1 127.8 125.2 121.7 120.2 119.4
172.1 168.7 165.2 162.2 157.9 151.1 146.5 146.3 145.4 146.2 149.3 149.6 147.2 146.9 147.4 148.8 151.7 159.6 161.8 161.8 161.6 161.6 156.6 149.8 149.1 149.6 151.2 150.5 150.5 162.6 179.3 184.4 177.6 194.5 199.9 204.7 204.1 204.4 200.2 194.5 192.7 190.4 199.1 206.2 214.7 224.3 231.8 238 244.7 250.1 256 262.3 266.1 270.8 274.4 277.8 278.5 274.5 274.3 271.2 267.3 264.7 261.4 258.1 254.3 250.5 247.3 243.7 240 236.6 233.1 229.4 226.3 223.3 221.4 219.7 217.7 215.1 212 209.6 207.6 208.9 210.7 214.8 218.5 222 223.9 226 227.2 227.6 227.9 230.3 232.4 234 237.3 242.9 246.7 251 256.8 262.2 263.2 262.6 262.1 261.7 261.2 260.1 258.9 257.8 257.1 256.2 254.7 252.4 250.4 248.7 247 245.7 242.7 239.8 237 233.6 230.7 228.4 224.5 222 220.7 218.6 218.4 216.6 213.5 219.7 223.1 226.5 229 231.4 234 236.1 237.6 238.8 238.3 236.3 234.7 231.7 227.5 224.9 222.3 218.5 214.6 209.9 203.9 198.4 195.2 193.5 191.7 189.9 187.8 187 185.5 184 181.2 178.2 176.9 175.9 176 177.8 180.3 184.1 187.4 188.8 189.1 188.7 188.1 185.7 183.4 180.6 177.4 174.5 171 167.4 163.7 160 156.1 152.6 149.5 148.2 146.6 144.7 142.6 139.9 136.8 134.6 133.9 133.1 132.9 131.4 128.4 125.7 124.1 122.6 121.3 120.1
166.1 163.3 159.6 156 152.3 146.2 145 146.1 145.9 148.8 148.9 147.6 146.9 147.7 149.4 156.7 164.3 166.6 167.8 167.3 166.7 166.1 158.8 160.7 160 152.3 150.5 152.2 151.7 154.2 164.6 171.9 171.2 186.3 193.1 195.4 196.1 191.6 184.6 177.8 186.8 194.3 203.1 212.6 221.7 232.1 237.9 242.1 246.1 250.5 257.4 262.5 266.8 270.7 273.8 275.6 274.9 272.8 270.9 268.4 264.7 261.2 258.3 255.4 252.3 249.5 246.6 243.6 239.9 237.1 234.3 230.6 227.3 224.5 222.3 220.6 219.4 216.9 214.4 211.7 208.2 210.5 211.9 215.3 219.6 223.4 225.5 227.2 227.9 229.3 229.8 231.6 233.4 235.3 238.3 243.4 247 250.7 255.1 259.6 260 259.9 257.9 257.3 257.2 256.9 255.6 254.2 252.9 252.3 250.8 248.5 246.3 245.1 243.9 242.4 240.1 237.7 234.9 231.8 229.4 226.3 223.3 220.6 217.9 216.4 216.1 214.3 211.3 218.2 222.2 224.4 227.4 229.6 233.1 235.4 236.9 237.3 235 233.4 231.6 228 225.8 222.2 219.4 216.1 210.7 205.5 200.7 197 193 191.7 191.1 189.5 187.3 185.7 184.1 182.5 179.9 177.1 175.8 175.1 175.1 177.2 180.1 184.2 186.4 187.9 188.6 188.4 188.5 184.5 182.3 179.8 177.2 174.5 171.1 167.6 164.1 160.4 157.4 153.7 151.1 148.6 147.1 144.9 143.5 141.1 138.1 136.7 134.9 134 132.7 129.4 126.8 125.7 124.7 122.7 121.1 120.5
160.5 157.5 154.3 151.2 148.9 146.3 146.3 146.2 147.5 147.6 147.2 147 148.3 151.8 159.6 166.9 170.9 174 175.9 174.8 172.7 169.6 161.9 168.1 169.2 168.4 168.8 166.4 162.4 151.9 152.6 153.5 154.8 170.1 170.2 175.9 180.1 170.4 170.3 181.5 189.9 200.1 209.2 219 226.9 233.1 238.2 243.5 247.8 252.9 258.8 264 267.7 270 271 271.5 270.3 268.6 266.5 263.7 261.6 258 255.2 252.9 250.4 247.9 245.3 242.4 239.9 238 234.7 231.6 228.3 226.2 224.1 222.1 220.3 217.8 215.1 212.5 209.9 210.4 213.3 216.3 219.9 223.7 226.3 227.9 228.6 229.4 231.2 232.4 234.2 236.2 238.7 242.7 246.4 250 254 256.2 255.6 255.4 254.1 253.3 253.4 253.3 252.1 250.8 249.2 248.6 247 245.1 243.2 242.2 241 239.1 237.5 234.8 231.4 229.5 227 224.2 221.5 219.2 216.9 215.2 213.9 212.2 209.2 217 220.1 221.9 223.8 227.7 231.5 234 235.7 236.4 234.8 232.5 229.8 226.4 222.2 219.4 217.8 214.3 208.3 201.3 197.9 196 193.2 192.4 190.6 188.8 187.6 186.2 184.6 181.9 180.7 178.4 175.4 174.3 173.7 174.8 179.1 181.7 183.7 186.3 187.2 187.4 187.9 184.2 181.8 179.4 176.9 174.2 171 167.6 164.1 161 158.1 153.5 151.2 149.2 148.3 146.2 144.5 141.8 140.2 139 137.4 134 132.2 129.3 128.3 127.1 125.3 122.9 121.2 120.4
162 158.6 152.6 150.8 148 146.7 146.7 147.5 147.8 147.3 147.7 148.8 152 161.6 168.4 175.8 179.6 180.3 180.7 179.8 177.1 173 166.6 172.4 173 174.2 175.1 173 171.9 169.3 164.1 158.7 153.6 154.4 154.7 154.4 158.2 170.9 177.8 188.9 197 206.1 215.5 222.7 228.5 234.1 239.4 244.5 249.8 255.1 261.2 265.6 268 268.4 267.6 266.1 264.5 263 260.8 258.5 256.7 254.7 253 250.7 248.4 245.7 243 240.9 238.6 236.7 234 231.2 228.9 226.1 224.6 222.5 220.3 217.7 215.3 213 210.1 211.1 213.7 215.5 218.1 222.3 224.8 226.6 228.6 229.9 230.7 232.3 234.2 235.5 238.2 242 245.7 248.4 251.1 251.5 250.8 250.1 250.5 249.8 249.3 249.5 248.1 246.8 245.5 244.6 242.6 241.2 239.8 238.6 238.1 236.2 233.9 231 228.8 227.1 224.7 222.1 219.9 217.9 216.7 215.1 212.7 211 207.4 213.8 216.1 218.7 221.4 226.2 230.5 234.5 235.7 235.4 234 232 228.4 224.7 220.6 218.8 215.4 209.2 203 198.5 194.8 193.1 193.3 191.9 191 188.9 187.7 186.5 184.2 181.9 180.5 179.3 175.7 174.4 173.2 173 176.6 179.1 180.8 183.2 185.3 185.7 186 181.7 180.2 177.7 174.7 173.2 170.1 167.6 164.4 160.6 158.2 154 151.8 149.6 148.6 147.1 144.7 142.5 142.3 141.8 140.2 137.1 134.6 132 129.5 127.6 126.5 124.3 121.5 120.7
162.2 154.8 149.7 148.7 147.3 146.9 146.7 147.6 149.4 150.4 150.2 153 161.7 170.4 179.6 184.4 186.2 186.8 186 184.5 180.6 177.2 173.7 175.5 177.4 178.6 179.3 179.5 179.8 177.1 174 171.2 167 162.9 156.4 155.2 161.9 176.5 186.8 193.2 201.3 209 216.9 223.2 229.6 235.1 240.2 245.5 252.4 259.7 264 266.6 265.7 264 262.4 260.8 258.5 257.2 255.2 253.8 252.1 250.6 248.9 247.5 245.3 243 240.9 239.8 238.2 235.9 233.6 231.5 229.2 226.9 225.1 222.5 220.3 217.6 215.3 213 212.1 212.5 213.6 215.1 218.3 220.4 223.2 225.1 227.5 228.7 230 231.2 233.2 235.1 237.5 240.7 243.2 245.5 246.8 247.2 247.1 246.7 247 246.1 245.2 243.9 243.2 242.3 241.3 239.9 238.3 236.7 235.6 234.7 234.2 232.1 230.4 227.2 226.5 224.4 222 220.6 218.4 217.3 215.9 214.3 212.8 211.1 205.8 210 214.2 218.2 222.7 228.1 232.8 237 238.6 235.3 233.9 231.1 226.9 222 217.9 214.9 210.5 204.7 200.2 196.3 194.1 192.6 192.1 191.3 190.5 189.2 187.7 186.2 184.5 185 184.4 179.4 176.8 175.6 174.2 172.7 173.5 175.3 177.2 179.2 181.2 182.4 181.4 180.2 178.8 176.7 174.5 171.5 169 166.3 163.4 159.7 156.8 153.8 151.8 149.5 148.8 146.6 145.4 143.9 143.8 143 143 140.2 137.9 135.1 132.1 130.3 127.5 124.8 122.6 120.6
156.3 148.4 147.7 147.5 147.4 147.3 148.2 149.9 150.7 151.9 154.9 159.1 169 180.4 187.6 191.2 192.5 192.7 191.2 188.4 184.8 180.9 181.1 181.8 182.7 183.1 183.2 184.1 183.3 181 179 176.6 173.3 169.9 167 158.3 157.1 181.2 188.3 195.3 202.1 208.6 215.6 222.8 229.2 235.7 241.1 247.3 254.7 260.3 263.2 263.3 261.8 259.1 257.3 255.6 253.6 251.9 250.2 249.1 247.6 246.6 245 243.6 242.6 240.7 239.2 238.1 236.9 235 233.1 231 228.5 226.2 224.3 221.9 219.6 217.8 215.8 214.5 213.8 213.8 214.8 214.8 216.1 218.9 222.5 224.1 225.9 227.7 229 230.3 231.7 233 235.1 237.9 240.1 242 241.5 241.9 242.3 242.7 242.9 241.9 240.9 239.6 238.1 236.5 235.8 235.1 233.6 232.5 231.4 230.8 229.8 228.2 227 225 223.3 221.3 219.2 217.2 215.9 215 214.2 212.9 212 210.8 206.3 208.2 214.9 221.1 227.6 233.3 236 239.9 241 237.8 233.6 229.7 225 219.2 214.6 211.2 206.1 201.9 197.3 194.6 194 193.3 192.8 191.3 190 188.2 186.8 185.5 184.8 186 183.6 181.1 178.8 177.2 174 172.5 170.9 171 171.7 173.4 177 178.3 178.6 178.6 176.9 174.9 172.5 169.8 167.4 164.7 161.9 158.5 155.3 153.6 151.6 150.1 148.3 146 146.4 145.1 144.3 144.9 145.1 143.6 141.4 138.2 134.1 132.4 129.7 126 124.1 122.5
148.7 147.5 147.3 147.2 148.3 150.5 151.7 152.9 154.6 157.7 162.1 168.2 181.1 190.1 194.3 197.5 199.5 198.3 196.5 193.7 190 185.8 188.7 189.3 189.2 188.2 188.1 188.8 187.4 185 184.1 181.7 178.7 175.5 171.1 166.3 156.2 174.2 186.6 192.6 200.2 207.3 214.2 222.1 228.7 236.1 241.7 247.6 253.6 257.6 259.5 259.5 258 254.8 252.4 250.6 248.7 246.6 244.9 243.4 242.1 241 240.6 240.1 239.3 238.5 237.4 236.1 234.9 234 231.9 230.2 227.7 225.2 222.9 220 217.2 215.9 215.9 215.8 215.2 215.8 216.8 217.2 217.6 220 222.8 224.4 226.5 227.5 228 229.3 230.3 231.2 232.3 234.8 236.7 238.3 237 236.9 237.4 237.6 238.2 238.4 236.9 235.8 233.4 231.7 230.9 230.5 229 228 227.4 226.8 226.3 224.5 223.4 221.5 220.1 218.8 216.8 214.8 214 213.5 212.9 212 210.7 208.4 203.4 211.1 218 225.5 233.1 238.1 240.7 240.7 239.4 236.4 231.9 228.1 222.2 216.2 211 207.1 202.6 199.1 195.7 194.4 194.2 194.8 193.5 193.6 189.8 186.8 185.9 184.8 184.4 183.7 182.4 181.4 179.9 178.2 175.6 173.8 172 170.3 169.2 169.4 173.7 176 175.6 174.5 173.9 173.6 170.2 167.7 165.9 163.1 160 157.1 155 153.5 151.6 150.3 147.7 146.8 146.5 145.9 145.3 145.2 145.9 145.9 142.9 138.1 135.4 134.2 132 127.9 124.8 122.9
147.5 148.2 146.9 150.1 153.8 157.2 159.1 160.7 163.1 166.5 170.7 180.6 190.4 196.6 203 205.5 206.4 206.3 206.1 203.2 198.8 193.4 192.7 193.9 194.9 196.3 200.3 199.3 195.3 192.5 189.3 187.8 183.3 180.1 174.6 168.2 157.2 165.9 181.7 189.5 197.7 205.5 212.5 220.9 227.9 234.6 240.4 245.5 250.1 253.2 255.1 254.6 251.7 248.4 245.8 243.8 242 240.4 239 238.1 237.3 237.3 236.3 236.4 236 235.7 235.2 234 233.3 232.3 230.6 228.7 226 223.6 221.4 219.8 218.4 217.8 217.9 217.8 217.3 218.4 219.3 219.8 220.1 222.4 224.5 226.3 226.8 228 228.4 228.9 229.1 229.5 230.2 231.2 232.2 233.4 232.6 232 231.3 230.9 232.6 233 233 231.1 228.7 226.8 226.4 224.8 224.2 223.8 223.6 223.4 222.7 221.6 220.8 218.7 217.4 215.6 214.1 212.6 211.2 211.4 211 210.5 208.7 204.6 205.2 216.2 222.7 230.8 237 240.9 240.6 239.1 236.8 232.3 228.3 223.2 218.1 211.7 206.3 203 199.4 196.3 194.8 195.2 195.9 195.5 193.7 190.9 187.2 186 185.3 185 185.1 184.5 182.5 181.9 182.2 179.7 178.1 175.6 173.8 172.9 170.8 168 172 173.6 171.7 171.3 170.2 169.4 167.1 166.4 164.4 161.7 158.7 156 154.6 153.3 151.9 150.4 149.2 148.8 147.5 146.4 146 145.7 145.4 145.5 141.3 138.2 135.3 134.3 133.1 128.6 124.3 123.9
148 147.5 150.7 155.7 159.8 163.5 166.8 170 171.9 176.5 185.6 192.8 202.3 207.2 211.6 213.8 216.3 218.2 215.4 211.2 204.6 197.7 193.7 197.9 202.1 206.7 209.3 209 205 204.6 199.4 196.3 191.8 185.3 177.4 170.3 157.9 161.1 179 187.4 195.6 203.3 210.8 218.6 225.5 230.8 236.1 240.7 243.8 245.6 247 245.8 243.8 241.1 238.8 236.7 234.3 233.1 232.4 232.3 232.4 232.5 231.9 232 232.3 232.7 232.5 232.2 231.8 230.6 227.8 225.7 224.9 223.4 223 222.2 221.2 221 220.1 219.8 219.3 220.9 221.8 222.5 223.3 223.7 225.4 227.9 227.1 227.7 227.9 227.9 228.9 229 229.5 228.9 229.2 229.8 229.1 228.8 227.9 227.4 227.4 229 228.5 226.8 224.5 222.1 221.6 220.8 219.9 219.7 219.7 219.7 219.2 218.8 218 216.3 215.6 213.8 211.9 210.6 208.7 208.3 208.9 208.5 206.7 199.8 209.5 219.8 227.1 235.2 240.4 240.8 240 237.2 232.7 228.1 223.5 217.8 210.8 205.7 202 199.2 196.5 195.2 194.9 195.8 196.6 194.8 191.6 188.2 186.9 185.6 185.3 185.6 185.8 185.2 183.9 183.9 182.8 181.7 179.5 177.8 176.4 174.9 173 170.2 166.9 170.2 167.2 167.3 167.2 165.8 165.2 164.3 162.3 160.1 157.3 155.3 154 153.1 152.2 150.8 150.4 149.5 148 146.9 146.6 146.5 144.8 143.7 140.4 138 136.8 135.4 133.1 127.9 125.1 124
148.1 152.3 157.7 162.3 165.8 169.5 174.4 177.6 185.7 191.8 199 207.8 215.4 216.8 219.9 225 227.2 224.4 219.2 213.5 207.2 201.5 196.6 202.3 206.5 210.6 215.3 217.9 216.2 213.7 209.2 203.1 196.9 188.4 179.9 171.9 158.2 158.7 176.8 185.1 193.5 201 208.1 215.3 221.3 225.2 229.2 233.5 235.6 237.2 236.9 236 234.5 231.9 230.4 228.3 226.4 226.1 226.8 226.5 227.5 226.3 227.7 227.4 227.6 227.4 226.1 227.2 227.1 225.6 226.5 227.4 226.9 226.4 225 225.1 223.8 223.4 223.4 222.4 223.2 223.5 223.6 223.7 225.3 226.1 226.7 227.3 227.5 228.2 228.8 228.6 228.3 227.2 226.8 226.5 227 227.4 225.5 224.3 225.6 224.6 222.7 224.5 223.9 222.5 220 217.6 216.4 216.6 216.3 216.7 216.6 216.6 216.7 216.2 215.3 213.9 213.3 211.9 210.4 208.5 207.4 206.4 206.3 206.4 201.4 200.7 215.4 222.8 230.6 238.5 240.1 240.2 237.7 233.6 228.9 224 216.9 209.4 203 200.6 198 195.6 194.2 194.2 195.2 196.7 195.8 193.2 190.2 187.8 186.9 186.9 186.6 187.3 188.2 187.5 186.5 185.4 184.9 183.3 180.9 179.4 177.7 176.3 174.2 173.4 170.4 163.6 163.6 163.8 163.2 163.3 163.2 162.2 160.2 157.8 156.1 155 154 153.2 152.2 150.9 149.8 149.5 148.6 147.5 147.3 146.2 144.3 142.6 140 138.2 137.3 136.1 133.7 130.1 126.5 124.1
154.2 159.6 164.4 167.8 171.6 175.5 182.7 193.3 203.2 208.1 213.7 218.7 224.3 226.3 230.3 231.7 230.5 225.2 219.3 213.9 209.9 204.4 200.6 205.7 209.8 214.1 218.1 221.8 220.6 217.6 212.8 206.7 199 190.8 181 172.9 157.5 159.3 174.8 183.2 191.1 198.2 204 208.9 212.8 215.4 217.8 220.9 222.9 221.4 223.5 223.6 223.5 223.1 222.9 221.1 221.2 221.3 221.2 222.2 223.8 223.8 224.4 225.4 225.7 222.4 226.7 227 227.1 227.6 227.9 228.5 227.9 227.2 226.6 225.9 224.9 224.7 224.9 225 224.9 225.2 225.4 225.6 227.7 229.5 229.7 229.9 230.2 230.5 230.2 229.3 228.3 226.7 225.2 224.5 224.1 224.3 224.4 224 222.2 221.7 218.5 216.3 214.3 213.1 214.4 209.2 210.3 211.6 212.1 212.4 212.5 212.8 213.5 213.4 212.7 211.6 211 209.9 207.4 206.3 205.1 203.5 203 202.1 196.4 206.3 216.2 224.4 232.2 237.3 239.1 238.3 234.9 229.8 223.6 217.6 210.6 202.7 199.4 196.8 195.1 193.8 193.7 195.2 195.6 195.3 193.8 191.4 189 188.8 188.7 189.3 190.4 191.5 191.5 190.8 189.5 188.1 186.7 185 182.7 180.9 179.1 176.9 175.4 174.1 171.5 166.2 162 161.6 161.4 161.4 161 160.1 158.2 156 155.2 154.4 154 152.5 151.5 149.8 150 149.3 148.6 148.4 147.2 145.1 143.3 142.2 140.5 139.2 138.3 136.3 133.9 130.5 127.6 124.3
161.5 166.8 170.1 174.1 178.5 187.3 199.4 207 216.1 222.4 226.8 230.1 232.5 234 235.9 234.7 229.1 223.2 218.8 215.1 211.2 207 203.7 208.5 211.6 214.9 219.2 221.1 220.3 217.6 212.2 206.1 199.3 190.5 181.6 174 159.8 158.5 170.4 180.7 188.4 192.9 196.9 199.5 202 205.1 208.1 210.3 210.6 211.4 213.1 214 214.2 215.9 216.5 216.8 217.6 217.7 219 219.7 220.8 221.2 222.1 223.7 223 224.2 226.8 227.9 227.8 227.7 228 228 227.9 227.6 226.7 226 226.3 226.5 226.8 227.7 228.5 229.1 228.5 227.4 229.3 231.1 231.7 231.6 231.7 231.9 230.5 229.4 228.2 226.4 224.9 223 221.8 221.1 221 221.6 220.9 219.7 215.6 213.9 211.9 211.7 209.4 208 206.8 206.4 205.9 207.5 209.2 209.8 210.2 210.6 210.1 209.5 208.4 206.9 205.3 203.9 202.4 200.5 199.7 198.2 196.3 206.8 215.9 222.9 230.2 234.7 236.8 234.8 230.1 224.3 218 211.8 203.8 198.9 196.6 194.2 192.7 193 193.9 194.3 194.6 194.2 191.7 190.6 190.5 191 192.1 194.4 196.9 197.1 195.6 195.7 193.7 191.2 189.7 187.5 184.3 181.8 180 177.4 176.1 173.9 171.1 165.6 162.9 161.5 159.5 159.5 159 158.3 156.3 155 153.8 153.4 153.3 151.5 149.4 148.5 148.6 149.3 149.4 148.2 146.6 144.7 143.2 142.2 141.8 140.9 139.7 137.4 134.2 130.3 128.2 124.8
168.3 172.2 175.6 180.9 191.1 204.4 212.9 220.2 226.6 230.6 235 237.6 238.1 239.6 236.9 233 228.7 223 219.9 215.9 211.5 207.1 206.6 210.4 213.3 215.5 218.1 218.7 218 214.4 209.5 204.2 197.9 190.1 182.2 174.4 161.7 159.5 161.6 174.7 182.1 186.2 189.4 192.5 195.5 198.6 201.2 203.1 204.2 206.2 207.9 208.9 210.6 211.5 213.6 212.3 213.8 214.7 215.3 216.3 217.4 217.1 219 217.7 222.7 225 227.1 228 228 228 228 228.1 228.1 228.3 227.9 227.7 229.4 230.4 231 231.1 231.4 230.9 229.9 228.5 230.5 231.9 232.7 232.6 232.4 232.4 232.6 230.2 228.1 225.9 224.6 222.4 220.7 219.5 218.3 217 216.4 216.1 211.5 209.7 207.5 205.1 205.9 203.3 199.2 198.7 200.2 201.4 206.7 205.4 205.6 207.9 209.1 207.4 205.7 204.8 203.9 202.6 200.8 197.5 196.4 193.8 197.2 206.5 213.9 219.8 225.6 231 232.8 230 225.6 219.5 213.4 206 198 196.2 193.2 191.2 191.7 192.9 193.7 193.6 193.5 192.4 189 189.2 192 194.6 197.4 201 203 203.2 202.6 199.8 197.7 194.9 192.3 188.3 185.6 183 180.6 178.4 176.3 173.5 170.5 166.2 163.9 162 159.7 157.1 156.5 156.5 155.1 153.8 152.4 152.3 151.2 149.6 148.5 148.5 148.3 148.4 148.2 147.1 145.7 144.4 143.8 142.8 142 141.3 140.2 138 134.4 130.8 127.9 124.2
173.3 177.3 183.1 192.1 205 217.6 224.2 229 236.5 241.2 243.8 243.4 243.1 240.7 236.7 232.4 228.5 224.3 219.5 214.9 212.9 211.7 211.6 211.9 214.9 215.2 216.6 217.1 214.9 211.7 207.1 201.4 195.2 189.6 183.5 174.3 168.8 160.4 160.8 168.6 176.8 182.8 187 189.6 191.9 194 196.4 197.6 199.7 201.6 203.1 203.7 204.1 205.1 208.2 209.6 211.6 212.4 213.1 213.8 214.5 212.8 216.9 220.4 222.7 224.9 227.1 227.6 227.2 227.3 227.4 227.7 228.1 228.8 229.1 229.7 230.7 232.2 232.8 232.9 232.8 231.3 229.9 229.2 230.4 232.3 233.6 233.3 231.9 231.8 231.3 229.6 227.4 224.9 223.5 221.9 219.8 218.5 215.9 213.8 212.9 211.6 208.9 207 205.1 203.2 201.8 199.2 196 194.7 195.4 199.4 203.1 204.7 204.3 204.5 205.2 205.2 204.5 203.4 202 200.6 198.6 196 193.7 191 196.6 204.9 210.2 215.3 221.1 225.3 226.3 224 219.8 214.3 208.4 200.5 194.6 193.2 189.4 187 191.4 192.5 192.8 192.5 191.8 189.3 187 188.3 193.9 196.7 202.3 206.7 207.9 208.3 207.2 204 201.2 197.3 193.6 190.1 187.7 185.5 182.1 179.5 176 173.2 170.4 167.8 165.1 162.3 159 156.5 154.7 155.6 153.2 152 150.9 151 150 149 148.1 147.6 147.9 147.5 146.7 146.8 145.2 144.7 143.7 143 142.5 141.5 139.8 137.5 134.3 131.2 127.4 123.3
178.4 185 194 203 213.8 226.1 232.4 239.2 245.5 249.2 249.4 246.3 242.9 239.6 235.8 231.8 228 223.2 220.5 218.5 217.1 215.8 213.6 214.4 215.3 216.6 216.4 215.5 213.1 209.4 204.4 198.7 193.9 189.6 181.7 174.1 167.9 163.2 160.5 163.8 174.1 180.1 183.7 185.7 188.4 190.7 192 192.8 195.1 196.5 197.1 198.4 200.2 203.6 206.3 208.2 209.4 210.3 211 211.8 210.8 212.6 216.8 219 221.5 224.3 226.3 226.5 226 226.2 226.5 227.6 228.1 229.2 229.6 229.7 231.1 233 233.6 233.7 233 231.3 229.6 229 229.8 231.8 232.4 232 231.1 230 228.6 227.4 225 223.6 221.8 220.2 218.6 216.6 213.4 210.7 210.2 208.9 207.3 206.1 204.1 203.1 200.4 197.4 194.2 192.8 192.8 197.2 200.9 202.4 203 203 202.9 202.8 202.4 201.5 201.1 199.1 196.3 194.3 192.1 190 193.7 200.9 206.5 211.8 216.6 219.6 219.6 218.4 214.8 209.7 203.6 196.3 191.4 189.4 186.3 186.5 187 191 191.6 190.9 189.6 186.1 184.8 187.3 193.5 199.3 204.6 208.2 210.2 212.5 210.2 206.5 202.6 198.9 195.9 193.5 191.3 187 183.2 180.3 176.9 174 171.3 167.9 165.1 162.1 158.6 157.1 155.8 152.4 151.4 150.2 149.5 149.2 148.2 147.7 147.7 147.4 146.9 146 145.5 146.1 145.1 144.7 144.2 143.4 142.1 141.7 139.8 137.3 134.9 131.5 126.1 120.7
185.5 195.5 204.6 213.7 222.7 233.7 240.9 248 252.4 254.9 251.1 247.3 243.1 239.6 236.4 233.1 229 226.7 224.8 222.2 220.8 218.6 216.5 215.6 215.9 216.1 215 213.2 211.6 208.5 204 197.2 192.6 187.1 178.5 172.5 167.7 164.4 161.7 162.2 171.7 176.6 180.3 183.4 185.8 187.1 188.5 190.2 191.8 193.2 194.9 198.7 201.4 204.6 206.8 207.2 208.1 208.2 208.6 209.1 206 212 214.3 216.6 219.1 221.5 223.4 224.3 224.6 224.5 226 227.3 227.8 229 228.9 230.4 231.8 233.3 234.3 233.8 233.1 231.6 230.1 229 226.7 228.9 229.7 230 229.2 227.8 226.2 224.8 223.4 221.7 219.5 218.3 216.7 214.5 212.1 209.1 206.8 206.4 205.5 204.5 203 202.6 200.6 198.3 195.6 192.9 191.3 194.8 199.3 200.4 201.2 201.2 201.2 200.8 200.2 200.1 198.6 196.5 194.3 194 194.8 187.8 193.5 196.8 202.1 207.7 211.4 212.8 213.8 212.5 208.9 203.1 197.2 190.1 187.1 185.4 182.7 185.7 186.4 189.5 190.2 189.3 186.4 182.3 182.7 186.6 193.7 200.5 203.9 206.8 210.7 213.4 210.8 207.5 204.1 201.8 200 197.5 194 189 184.8 181.1 177.9 174.9 171.8 168.3 165.1 161.4 158.7 156.8 155.1 154 153.5 151.4 148.5 147.4 147.1 146.7 146.6 146.6 145.9 144.8 143.9 144.3 144.4 144.1 143.6 143 142.2 141.1 139 136.5 134.2 129.7 123.8 114.4
194.6 205.9 215.4 224.2 233.9 241.8 249.9 254.4 256 255.8 253.5 248.7 244.2 241.9 237.6 235.5 233.2 231.2 227.9 224.6 223.3 220.6 218.8 216.5 216.2 214.6 213.8 211.2 208.4 206.6 200.9 193.7 187.6 182.4 176.3 172 168.6 164.6 162.4 162.6 170.5 175.8 179.7 181.8 183.4 184.8 186.8 188.1 190.8 193.9 198.2 200.7 202.5 204.7 204.9 205.6 204.9 204.3 204.7 205.1 205.6 209.4 211.8 213.7 216.2 218.3 220.2 221.5 221.5 222.4 225.1 226.9 227.9 228.4 228.9 230.3 231.5 231.6 232.8 233 233.1 231.6 230 228.5 226 227.3 227 226.8 227 226.1 225.1 223.2 221.8 219.4 217.5 215.2 213.2 211.4 210 207.3 205.2 201.9 202.1 201.4 202 201.3 199.4 197.6 195.6 193.6 188.8 192.1 195.1 197.3 199.3 199.9 199.8 199.7 198.6 197.2 196.4 194.4 192.3 190.8 188.9 186.8 192.1 191.9 197.5 200.6 205.5 206.2 207.3 206 201.8 197.3 191.8 185.5 183.3 181.5 181.4 183.7 186.1 187.9 188.8 187.8 183.4 179.4 180.9 186.3 193.4 198.8 202.6 205.5 209.7 211.1 210.1 208.3 207.3 205.1 202.1 199.3 194.4 189.7 186.2 182.7 179.6 176.8 172.4 168.4 164.5 161.2 158.8 157 155.4 154.4 154.1 151.6 150 148.6 147.3 146.5 145.4 144.9 144.7 143.7 143.4 143.2 143.1 142.5 141.9 141.6 140.7 139.1 137.6 134.7 131.1 125.4 114.6 112.6
206 216 226.6 236.2 244.1 252.3 256.7 257.9 258.5 257.2 253.8 250.3 246.5 242.8 239.5 237.3 236.2 234.5 231 226.9 225.5 224.1 221.1 218 215.6 213.8 211.2 208.1 205.7 201.1 196.6 189.2 184.2 180 175.6 171.8 167.2 163.4 162.7 163.4 169.6 175.1 177.7 180.8 182 182.9 185.2 188.9 192.6 196.3 199.3 200.1 202.1 203.7 203.6 202.2 200.5 199.9 201.6 199.9 203.8 206.9 209.3 211.1 213.2 215.2 217 218.1 216.1 220.3 223.7 225.5 226.7 227.2 228.4 229.5 230.4 230.2 230.9 231.1 231.3 230.2 228.8 227.6 225.3 224.9 225.7 225.8 224.8 224.3 223.7 222.6 219.8 217.5 214.9 213 209.4 207 206 204.7 202.6 200.8 199.5 199 200.1 199.5 197.7 194.9 193.7 193.1 187.5 186.4 189.2 193.8 198.3 198.9 199.5 198.1 196.9 195.1 193.2 191.7 190.3 189.5 187.9 186 186.5 188.1 189.9 189.1 190.2 199.6 200.7 199.4 196.9 192.6 185.9 181.8 180.2 178.5 179.9 182.6 185.2 187 186.5 184.8 179.6 177.3 180.3 187.2 192.5 195.5 199.1 203 206.7 210 210 209.3 208.6 206.6 203.3 198.9 194.3 190.3 187 183.8 181.4 177.6 173.2 168.1 163 159.2 157.7 156.2 155.9 154.9 153.8 151.9 150.2 150.9 149.3 148.8 146.9 145.7 144.2 143.7 141.4 140.5 139.5 139.6 139.8 139.5 138.5 137 135.6 132.6 125.6 113.5 113.5 114.3
218.1 226.9 236.2 243.7 251.3 257.2 260.4 261.9 260.9 256 254.4 252.3 249.3 245.4 242.5 241.4 240.4 236.4 232.3 229.2 227.2 224.9 222.1 219 215 212.5 209.3 207 205 199.4 193.3 188.9 184.7 181.1 176.1 172.4 164.9 162.8 163.4 168.7 169.9 171.8 175.1 178.4 180.6 182.9 185.5 189.1 192.4 195.1 197.4 199.5 201.8 203 202 199.2 197.1 195.3 194.2 195.1 203.2 206.3 207.7 209.2 210.1 211.3 212.2 212.8 212.7 217.6 221.2 224.1 225.6 227.1 227.9 228.1 228.5 228.8 229.1 229.5 229.9 228.6 226.6 225.1 224.1 221.8 224 224.7 222.5 222.4 222.4 222.1 219.1 215.1 212.9 210.6 206.4 203.9 201.2 199.8 200.2 198.7 197.5 196.1 197.5 198 195.4 193.4 191.5 190.5 187.4 181.2 186.5 194.8 197.4 198.1 198.4 196.8 195 193 191.1 189.1 188.2 188.1 187.8 187.6 185.1 182.1 186 188.4 188.3 186.5 185.5 193.1 191.5 188.3 181.9 179.3 178.1 176.5 179.2 181 183.8 185.1 184.5 181.4 176.8 176.2 180.6 186.2 190.3 192.7 196.3 200.2 203.9 206.7 207.1 207.2 206.3 203.8 200.4 196.9 193.7 189.7 186.7 184.4 181.2 176.9 171.5 165.7 160.8 158.1 157 156.3 155.7 154.4 153.3 151.3 151.3 152.3 150.6 149.5 148.2 146.3 146.7 145.5 145.9 142.9 140.1 137 137.2 137.3 136.4 135 133.3 127.7 114.8 112.9 115.3 121.2
228.8 236.6 242.9 249.9 255.5 260.6 263.6 264.8 262.6 258.4 257.5 254.1 251.3 249.4 246.7 245.4 243 240 236 230.7 228.2 225.6 222.8 218.2 214.3 211.7 208 205.5 201.9 196.9 192.2 188.9 185.5 180.9 175.2 169.9 164.3 164 168.9 169.4 170.3 174.6 178.3 180.1 181.4 182.6 184.8 187.9 190 192.3 196.3 200.1 202.5 202.1 200.2 197.3 194 189.6 194.6 200.2 204.4 205.8 206.7 207.3 207.6 207.2 207.6 209.3 213.3 217.7 221.4 224 226.7 227.6 228.4 228.3 227.6 228.2 228.9 229.9 230.8 229.9 227.9 225.2 222.1 219.1 220.1 222.1 219.4 218 220.1 219.2 215.3 208.7 206.5 203.3 200.4 198.1 196.3 196 196.8 196.8 195.8 192.4 195.2 196.8 194.6 192 190.1 189.6 188.1 183.6 181.3 192.1 196.4 196.7 195.5 193.8 191.9 190.6 188.6 187.4 186.4 186.6 188.1 189.5 188.3 185.6 187 186 186.1 185.9 184.8 184.5 182.8 182.7 179 177.2 175.8 175.2 175.1 178.7 182.4 182.4 181.4 177.1 173.7 176.8 180.6 184.9 187.6 190.9 194.5 197.1 199 201.7 202.1 202.2 201.1 198.4 195.2 193.4 191 187.6 185.7 182.9 176.7 171.9 167.1 163.5 160.3 158.6 158 156.7 156.1 154.7 153.2 152.4 152.6 153.2 151.9 149.2 149.3 147.5 146.7 146.6 143.8 142.2 140.3 138.3 134.1 133.4 134 132.4 128.9 119.1 113.8 115.5 120.3 122.4
239.1 244.4 249.9 254.8 261.1 265.7 267.7 269.2 266.3 263.8 260 257.8 255 252.9 251.4 249.3 247 243.1 239 234 229.2 226.4 222.4 217.6 213.6 211 208.5 204.7 198.6 194.2 190.5 186.9 184 178.9 174.5 171.3 163.9 167.3 172.6 173.1 169.1 175.4 180.8 182.2 182.4 183.6 184.9 186.4 188.3 191.2 195.9 198.7 199.8 199.7 197.8 195.4 186 191.1 196.1 201.8 205.2 205.7 205.5 205.1 203.8 203.9 208.4 212.3 215.8 219.4 223.3 225.4 229.4 228.9 226.8 226.3 226.2 226.8 227.2 227.9 226.5 227.4 226.8 225.1 221.1 217.5 213.8 211.4 209.9 211.1 210.8 206.5 200.4 198.1 197.6 196.4 195.1 193.6 192.6 192.1 191.9 193.5 192.6 191.1 195.7 196.7 196 193.9 191.8 189.7 187.9 184.4 174.6 184.3 192.9 193.1 191.2 189.6 188 187.1 186.5 184.3 182.4 185 188.3 190 189.9 191.1 190.2 186.4 177.2 174.5 182.1 183 182.8 180.4 179.1 176.2 175.1 173.1 171.9 176.2 179.6 179.4 177.1 173 172.2 176.1 180.1 182.9 185.5 189.6 192.9 194.1 195.4 196.6 197.7 196.4 195.1 192.5 190.5 189.5 187.7 185.9 182.3 177.6 170.4 166.9 164.7 163.3 161.4 159.5 158.3 157.4 156.2 154.7 153.5 153.7 152.6 152.4 150.9 148.9 148.3 148.2 147.6 145.4 144.5 142.9 140.4 139.2 136.6 131.6 128.6 128.1 125.3 113.3 116.9 122.4 124 123.9
246.1 250.5 254.6 259.8 265.9 269.4 271.9 271.9 270.3 267.3 264.3 261.6 260.8 259.9 256.7 254.7 249.6 246.7 241.8 236.9 231.6 227.1 222.6 217.7 213.2 210.3 207.8 202.3 196.8 192.8 189.1 186 181.7 178.4 176.1 172.1 170.7 165.9 174 174.5 170.6 173.8 181.2 183.3 183.8 184.1 184 185.3 187.3 190.3 192.6 193.9 194.7 194 192.5 190.8 185.3 189.6 194.3 199.1 201.8 202.6 202.7 201.9 198.2 205 207.2 210.2 213.6 217.2 218.6 220.4 220.7 219.1 219.8 219.6 219 217.6 216.6 216.5 217.1 218.3 221 221.7 218.7 214 210.5 205.7 195.2 199.5 199.4 194.7 190.9 190.9 190.5 190.5 190.2 190.9 188.8 188 185.9 186.8 186.7 187.7 194.3 197.4 199.1 198.3 196.4 193 189.5 186.8 178.3 176.1 185.6 188.1 187.2 184.5 184 183.3 183.1 181.6 179.7 182.9 186.8 189.6 191.8 193.3 191.8 189 184.3 176.4 173.4 180.1 180.3 179 177.1 176 174.1 172 170.3 172.8 176 176.1 172.3 169.1 171.3 176.2 178.7 181.2 183.6 188.2 190.2 191.3 192.2 192.6 193.1 190.9 188.9 186.6 186.3 185.4 184.7 182.9 178.1 171.8 166.6 165 163.9 163.8 161.8 160.5 159 158.1 156.6 154.6 153.8 153.2 151.4 150.4 150.8 148.3 149.2 148.3 146.9 146 144.7 142.2 140.7 138.6 136.1 133.1 128.4 122.4 118.4 112.6 124.5 127.6 125.7 125.9
250.2 255.9 260 264.5 271.1 273.8 275.6 275.1 273.5 272 268.2 266.7 265.4 263.6 262.4 259.2 254.4 248.4 243.9 237.9 231.9 227.4 222.9 218.2 213.8 210.4 206.9 201 196.1 191 188.3 185.6 182.1 179.4 177 172.1 166.7 166.6 170.8 173.8 173.9 169.8 175.6 181.3 182.9 182.7 183.1 183.7 185.5 187 187.7 188.6 189.4 188.7 188 186.8 182.1 187.2 189.8 194.5 197.8 199.3 199.8 198.4 196.7 200.2 202.9 208 211.6 213.2 214 213.3 212.7 213.3 215.1 216.3 216.5 214 211.3 209.2 209 210 209.8 210 208.8 205.1 201.7 197.3 190.2 185.8 184.3 180.2 175.8 176.4 175.2 175.6 178.5 173.2 175.6 177.9 175.6 176.8 178.2 174.8 185.7 193.2 197 197.9 196.3 192.6 189.4 185.1 179.8 170.1 177.7 181.9 181.9 180.2 178.9 178.2 178.3 177.6 175.4 179.8 184.5 188.7 192.7 193.2 191.7 189.1 185.3 178.3 164.1 176.4 179.8 178.8 176.4 174.1 173.6 172.3 170.8 169.9 171.5 170.8 167.1 166.6 170.7 174.6 177.3 179.5 181.4 186.1 187.2 188.2 188.7 188.8 188.8 186.9 184.3 181.7 182 182.1 181.3 178.9 173.5 168.8 166.6 165.7 165.3 163.1 162.6 160.9 159.3 157.8 156.5 155.2 153 152.4 151.6 150.4 151.1 149.3 149.6 149.2 147.5 145.3 144.7 141.9 139.3 136.7 134 131.7 128.8 123 115.9 112.9 127.4 129.1 126.4 126.1
251.2 257.2 264.4 269.1 277.1 280.3 281 280 278.2 276.1 274.9 273.4 271.2 269.5 266.1 260.6 254.7 249.6 243.6 238.7 233 228 224.4 220 214.3 209.8 205.9 201.2 196.8 192.6 188.8 185.4 182.7 180.6 178.4 173.3 166.5 167.1 169.3 170.2 172 170.7 169.8 171.1 171 172.5 176.2 179.2 181.3 182.1 182 182.8 183.6 184.9 185.7 185 183.8 177.4 182.3 190 194.5 196.5 196.8 194.5 191 195.8 199.8 205 207.3 208.5 207.9 208.1 208.6 205.6 204.9 206.6 205.9 202.2 200.3 196 196.4 193.3 190.9 190.4 184.5 177.6 173.4 170.3 165.2 164.7 164.4 163.9 163.9 164.1 163.8 163.7 163.5 163.4 163.7 164.2 163.3 162.9 163.5 162.6 162.7 181.2 190.4 191.1 190.2 189.2 185.3 181.2 179 174 164 175.3 175.4 173.2 172.8 172.4 172.9 172.1 169.5 176.5 181.8 188.3 192.3 192.2 190.6 187.9 184.3 177.7 162.5 174 180.9 180.1 175.8 173 170.5 168.7 170.4 170.1 169.1 166.8 164.1 164 170.2 173.9 175.9 177.6 179.2 182 183.1 183.9 185.4 185.8 184.4 182 179.1 177.2 177.9 178.6 177.7 175.1 171.2 167.6 167 167 165.8 164.2 162.4 160.8 158.9 157.6 155.4 154.4 152.4 152 151.2 152.1 150.8 150.5 150.2 148.7 147.5 145 143.9 140.9 138.1 135.1 131.6 129.2 124.9 118.4 114.4 116 127.9 127.4 126.9 127.1
252.2 259.9 267.7 274.2 281.5 286.3 289.3 288.9 287.6 283.6 280.7 278 277 272.5 266.4 260.4 254.8 249.9 244.8 239.7 234.1 227.7 222.9 218.1 213.6 210.2 206.8 203.8 200.1 195.1 191 188.2 185.5 182.9 178.4 172 167.2 168.1 171.9 172.9 171 170 170.8 172.4 171.9 171.2 172 173.9 176.6 178.9 178.5 178.5 179.4 182.3 183.5 183.6 181.9 178.8 171.9 184.1 189.1 191.7 188.4 187.1 185.1 186.8 191 193.4 195.5 191.2 188.1 186.4 178.7 171.5 170.8 171.1 169.2 172 169.1 166.5 165.7 165.5 164.6 164.5 164.4 164.5 164.1 167 170.8 173.3 179.7 176.5 177.1 177.3 176 176.5 177.7 175.2 175.5 174.3 177 176.7 173.1 170.3 162.5 162.7 175.9 178.8 179.4 177 174.1 170.9 170.9 170.9 165.3 168.1 169.7 165.5 162.8 163.6 165.3 164.4 159.2 172.1 178.3 185.3 190.5 189.9 187.4 185.3 181.6 173 161.3 177.6 182.9 180.6 175.4 171.3 168.8 166.9 165.6 166.5 169.3 167.3 163.6 161.4 169.6 173.2 175 176.3 177.1 178.7 178.9 179.6 180.6 181.4 180.4 177.7 174.2 172.7 174.5 175.1 174.4 173 169.5 167.7 168.2 167.4 166.1 164.6 162.5 161.3 158.8 156.3 155.3 153.9 153.4 152.7 152.6 153.3 150.9 149.4 149.1 150.2 146 143.8 141.4 139.1 136.9 132.9 129.3 126.6 121.5 116.1 114.5 121.1 127 127.3 127.4 126.8
256.1 263.4 270.8 277.6 285.8 292 295.7 296.2 294.3 290.8 286.7 282.1 277 271 264.3 258.9 253.9 249.1 244.5 239.7 234.1 228.2 223.1 219.1 214.8 211.8 208.9 205.1 201.5 197.7 194.3 191 187.3 183.5 178.3 174.6 168 171 175.5 176.7 176.9 177.8 179.5 178.1 177.2 175.5 171.4 171.2 174.3 179.3 179.8 173.5 170.4 171.9 170 169.8 169.7 169.5 169.7 169.3 168.8 168.4 168.4 167.8 169.1 167.9 167.5 167.2 167.1 166.8 166.6 166.3 166 165.9 166.1 169.5 166.3 165.8 170.2 171.6 174.4 176.2 179.9 181.5 182.2 182.8 190.4 197.4 198.4 202.1 201.2 197.8 196.5 196.8 198.8 201.9 201.7 202 201.7 198.9 197.1 192.7 187.5 178.7 164.3 162.6 161 165.7 166.1 164.6 161.3 158.5 157 159.9 159 157.8 159.5 154.4 153.6 153.1 151.9 151.9 152.8 164.1 170.9 178.7 185.6 185 183.4 181.6 177.1 160.7 169.7 179.9 182.5 179.6 174.5 170.2 167.2 165.1 165.3 166.9 163.4 166.1 168.4 163.3 168.5 172.5 173.7 174.4 175.1 174.6 173.6 173.1 174.5 175.8 175.1 172.7 168.7 170 171.5 171.6 172.4 172 168.9 168.8 169 167.8 166.5 165 163.1 160.3 158.4 155.9 153.9 153.2 153.5 152.5 153.2 151.4 149.4 149.9 153.5 152.4 144.9 141.6 140.6 138.1 135.5 131.4 127 123.6 118.6 115 116.8 123.5 127.6 127.7 127.4 126.8
259.2 266.4 272.8 280.7 287.8 294.7 298.8 298.7 296.6 292.3 287 278.7 270.9 265.2 260.5 256.2 251.8 247.7 244 239.1 234.3 228.8 223.7 219.7 215.8 212.5 208.1 204.1 201.3 198 194.9 191.6 187.7 183.5 178.8 175.6 168.3 174.1 178.6 179.9 181 182.6 182.9 182.3 181.1 177.2 172.5 171.5 171.3 171 171 170.8 170.9 170.5 172.5 170.6 179.7 182.4 170.6 177.7 178.5 172.5 169.4 169 170 170.5 175 169.6 177.3 182.5 182.5 179.5 179.9 180.1 186.2 184.8 185.7 192.6 190.9 189 193.4 196.5 202.8 202.7 203.9 207.2 212.1 214.2 211.3 211.7 211.3 208.9 208.6 211 213.2 213.5 213 213.7 211.4 208.3 204.8 199.9 193.6 178.7 165.2 168.9 161.3 159.9 159.2 158 157.8 157.2 157.5 156 155.2 155.6 154.1 153.4 158.3 153.6 151.8 151.2 150.7 150.4 159.5 168.3 174.5 175.8 176.3 172.5 168.8 153.7 172.1 179.6 180.5 177.9 172.4 168.7 165.4 163.3 164.1 165.8 163.7 159.6 160.6 167.3 168 168.8 172.1 172.8 172.6 172.1 169.3 167.2 167.4 168.2 167.7 166.9 166.6 166.2 168.1 169.3 171.9 170.6 168.6 169 169.4 168.3 167.7 165.9 162.2 158.8 157 155.1 153.3 152.9 152.2 151.8 150.5 149.2 150.3 152.8 154.1 152.1 144 141 139.1 135.9 133 129 124.4 117.9 115.2 115.9 121.3 127.4 127.8 127.5 126.9 126.2
262.1 269.1 275.3 283 290.6 295.7 299.1 298 295.6 288.9 280.3 270.7 264.8 260.4 256.9 253.4 249.9 246.6 243 237.9 234 229.7 224.7 219.9 215.4 211 206.4 202.9 200.2 197.1 194.2 190.3 187.1 182.4 179.1 176.7 169.4 171.1 181 181.8 182.8 183.5 183.8 183.3 181.8 177 174.4 180.5 177.7 176 176 175.2 172.6 174.7 187.8 190.4 192.4 192.8 192 188.5 183.9 182.1 177.1 175.4 175.3 184.5 189.4 191.8 195.3 197.9 201.8 201.2 199.9 199.6 192.9 201.1 206.1 207 205.2 205 206.7 209.2 214 215.3 215 216.3 217.9 216.7 216.3 216.8 216.9 214.6 214.6 214.2 214.1 214.4 213.7 212.1 210.4 208.1 205 200.6 196.3 175.5 173.1 183 178.9 175.9 173 175.5 178.2 178.1 177.1 172.2 167.9 160.5 162.3 167 166.7 162.3 156.7 152.8 151.1 149.6 150.7 155.4 160.1 165.7 166.9 165.1 162.3 152.4 168.2 176.3 178.1 175.4 170.2 166.7 163.5 161.4 163.1 163.8 161.4 156.7 155.7 160.2 168 170 169.7 168.8 166.2 164 165.6 161.3 159.7 159.6 160.5 160.8 159.9 160.9 163.3 166.9 171.5 169 168.5 168.4 168.5 169.2 166.9 163.7 160.1 157.7 156 154.3 153.1 152.7 150.7 148.4 148 148.7 150.6 151.7 151 149.6 143.3 139.8 138.1 134.4 130.3 126.1 118.6 114.2 115.8 120.1 124.6 127.9 127.5 127.3 127.5 128.5
263.4 269.8 276 282.5 289.8 295 295 293.9 288.1 278.1 271.1 265.6 261.5 257.8 253.6 249.9 247.4 244.1 240.2 235.9 232 227.7 222.1 217 212.9 208.6 204 201.6 198.9 195.8 191.7 187.7 182.8 180.4 179.2 175.1 168.8 169.4 181.1 182.5 183.4 184.4 184.7 184.2 182.1 177.3 180.3 185.9 187.9 188.2 187.5 184.4 186.2 190.3 192.8 196 196.7 194.8 190.7 187.1 186.6 186.6 185.7 185.5 188.8 188.2 193.4 198.1 201.2 205.1 208.2 208.3 208.5 208 207.6 210.9 212.5 212.6 211.6 210.7 210.3 212.8 215.9 216.4 216.7 217.6 219 220.3 220.9 218.9 217.7 215.7 215.5 214.9 214.9 214.7 213.7 212.1 209.4 207.4 204.9 202.6 195.1 173.4 179.4 192.4 190 186.8 186.9 187.2 186.4 185.3 183.7 181.3 176.7 174.5 174.1 175.1 173.2 168.8 166.2 162.6 157.6 151 149.4 149 149.9 155.4 158.4 159.1 157.2 151 162.3 169.7 173.2 170.2 166 163.1 160.8 159.8 161.9 162.3 158.5 154.9 155 158.2 164.6 167.1 166.9 167.7 168.6 167.8 162.5 157.7 151.1 154.5 154.3 153.6 152.9 154.3 157.7 164.9 167.2 165.7 166.1 166.7 167 166.2 163.3 160.2 158.3 157.3 155.3 153.7 151.9 149.6 147 147 146.8 149.9 149.5 149.9 148.7 146.1 141.5 138.4 134.9 130.1 124.5 117.3 115.4 116.5 122.2 127.8 127.9 127.9 127.7 128.6 129.8 132.2
