ncols 200
nrows 82
xllcorner 220000
yllcorner 775100
cellsize 50
139.6 139.1 139.2 140.9 143.2 145.5 147.4 149.6 151.6 153.5 154.2 154.7 153 153.3 154.5 155.4 155.3 155 154.7 154.9 155.7 156.6 156.8 154.7 153.9 152.5 151.8 152.4 151.5 152.4 152.6 154.1 152.5 152.6 152.5 151.2 151.7 152 154 153.1 152.7 152.6 151.6 147.9 145.1 143.4 142.5 142.3 142.2 141.8 141.7 140.6 139.2 139.3 137.6 136.6 134.6 131.5 130.1 132.2 135.1 135.1 133.7 133 131.7 131 129.8 128.4 127.5 123.1 120.5 117.3 114.9 110.5 103.7 106.5 107.9 110.6 114.2 115.4 114.7 115.3 115.8 116.1 115.1 114.2 112.3 110.3 112.4 114.1 115.1 119.4 122.9 128.3 132.9 135.4 137.2 139.2 141.6 143.9 147.2 152.9 151.6 153.2 157.9 160.5 162.7 164.5 165 149.3 165.9 172.5 173.8 174.7 179.3 183.2 186.6 193.4 198.8 204.4 209.5 215.7 222.1 228.6 234.6 238.7 243.7 248.4 258.5 252.4 245.5 250 254.3 250.9 253.5 260.2 264.7 267.8 275.1 280.9 285.2 291.7 299.9 307.6 313.1 321.4 325.4 324.9 325.9 329.4 332.3 332 329 331.2 331.7 322.7 335.6 339.1 341.5 341.3 343.4 349.8 358.6 369.8 384.5 393.3 390.6 380.9 391.5 394.1 399.1 410.7 421 432.3 443.9 453.9 471 488.9 491 491.9 496.7 496 498.8 492.9 486.1 482.4 478 483.8 485.9 487.1 483.6 477.8 472.8 478.7 486.9 492.4 494.8 495.9 496.2 496.8
137.7 136.9 136.6 140 142.3 144 145.9 147.2 147.5 148.5 151.1 151.6 150.7 151.1 151.7 152.3 152.3 153.2 152.6 152.8 153.6 154.2 154.3 153.3 153.2 151.8 151.1 151.5 150.9 151 151.4 150.5 149.7 152 153.5 150 149.2 149.1 151 149.7 150 148.2 148.3 145.4 143.4 140.8 140.6 141.2 140.6 139.8 140.3 141.2 138.6 138.5 135.4 134 132.7 130.8 130.9 131.7 133.3 132.4 132 132.3 130.9 126.9 126.1 124.2 122.7 120.9 117.7 115.8 108 107.6 106.1 109.6 111.7 114.6 116.6 117.7 117.7 116.6 116.8 116.8 116.4 114.8 112.6 112.4 114.2 115.9 116.2 121.5 127.1 130.9 133.9 136.5 139.4 142.5 145.4 147.4 151.6 155.3 155.5 155.7 158.4 160.7 163 165.6 168.3 165.6 161.2 170.1 177.1 176.6 181.6 187.1 195 198.5 202.8 209.5 215.3 220.7 228.2 231.8 236.5 239.8 245.5 251.2 257.3 249.6 247.9 252.9 254.9 254.3 262.4 267 269.1 272.8 276.6 284.4 290.5 296.6 304 310.9 320.1 326.8 327.6 329.4 332.2 338.4 338.4 341.7 339 336.8 329.2 335.3 340.7 341.5 341.9 344.1 349.8 357.4 367.7 377.1 388.7 399.6 386.3 392.8 399.2 402.1 410.6 422.4 433.8 446.6 457.1 469.3 491.5 502.3 502.2 501.5 508.1 513.6 512.6 513.1 505.3 500.9 496.7 496 499.3 498.4 496.3 490.4 490.6 498 505.9 509.6 512.2 511.5 509.9 510.9
135.3 134.6 135.1 138.5 140.9 142.6 144.2 144.7 145.5 146.3 147.3 148.4 148.6 148.9 149.1 149.8 151 151.5 151.2 150.9 151.5 152.1 152.3 152.4 151.6 151 151.4 151.2 150.7 149.7 148.8 148.3 148.1 148.9 149.1 147.9 148.9 148.8 149.1 146.6 145.5 145.2 144.2 143.3 141.7 138.5 139.4 140.7 140.2 139.7 139.6 139.2 139.4 136.8 135.1 132.7 131.7 131.8 131.9 131.6 130.6 127.7 125.2 126.1 124.7 122.9 122.8 122.3 121.6 119 116.5 107.9 112 115.1 111.4 110.3 110.9 115.1 119 119.3 118.7 118.5 118.7 117.6 116.4 115.2 113.2 112.9 115 117.5 120.6 125.7 131.8 133.5 136.1 139.3 142.4 145.3 148 151 154.3 157.5 156.8 159.2 161.7 163.8 165.1 167.8 170.7 172.7 164.3 155.8 173.6 179.8 187.4 195.9 198.5 201.6 207.4 213.4 220.6 225.9 228.6 231.6 234.4 237.8 244.9 251.4 259.8 251.9 250.2 256.5 259 262.3 267.4 270.8 276.5 280 284.4 287.6 296.3 301.6 308.5 314.9 321.8 325.5 330 332.4 336.7 340.5 343.7 347.2 349.4 345.2 334.7 340.3 344.4 346.8 346.5 352.4 359.1 365.7 374.1 384.6 394.1 397.5 392.6 402.9 408.1 413.4 427.4 438.1 449.6 460.9 469.3 484.9 504.6 509.7 513.7 518.9 521 524.3 527.7 527.4 520.9 513.1 514.6 514.3 513.2 511.2 506.9 502.7 509.3 515.5 521.7 524.7 527.3 525.6 524.7 522
132.9 132.7 133.8 136.3 139.3 142.1 142.8 143.4 144.2 145.2 145.1 145.3 146.3 147.4 148.1 148.8 150.3 150.7 150.9 150.6 150.4 150.6 150.8 151.3 150.4 149.8 151.1 150.5 149.9 148.8 148.1 147.2 146.7 147.3 146.7 147 148.6 148.3 148.4 146.6 145 142.3 142.9 140.4 138.5 137.9 139.6 141.8 141 140.4 138.1 137.4 136.9 134.5 132.4 131.4 130.9 131.2 129.3 128.4 126.9 125.5 123.7 122.6 121.5 121.1 120.8 119.3 119.3 116.2 107.3 116.6 115.6 114.8 112.7 111.9 110.7 114.8 120.7 119.6 119.6 118.4 118.8 117.7 116 114.6 113.6 112.8 115.4 119.2 123.2 128.2 135.3 132.7 136.1 139.2 142.3 144.7 148 150 153.1 156.2 157.3 159.5 161.6 164.1 166.7 169.7 173 176.4 177.8 163.2 170.3 180.5 187.7 197.4 200.9 206.8 212.7 218.2 224.9 228.2 230.9 234.4 237.3 241.7 246.7 254.6 255.7 255.2 254 258.4 263.3 266.8 270.5 275.1 280.7 284.7 289.3 292.6 300.4 304.8 311.2 319.4 324.6 328.3 333.7 341.2 343 343.5 347.1 349.5 348.9 344.1 342.5 346.7 347.8 352.1 355.9 362.2 368.2 376 382.9 392.7 399.4 395.3 401.5 412.1 421.8 430.2 441.8 451.6 463.4 477.2 482.5 502.6 513.5 517.3 523.3 530 534.6 543.5 547 547.6 540.1 531.4 526.3 528.9 526.8 522.2 519.3 518.9 524.7 531 535.8 539.1 541.9 538.6 534.8 531.6
132.8 132.4 133.2 134.2 136.2 139.1 140.9 142.2 142.9 144.1 143.5 143.3 144.7 145.8 146.8 147.8 148.8 149.6 150 150.4 150.1 149.4 149.3 150.5 150.3 147.9 149 149.3 149.1 148 147.8 147.6 145.5 145.4 144.3 144.7 147.3 146.5 145.3 143.9 141.3 139.5 136.7 135 136.7 139.1 142.7 143.5 141.2 139.8 136.2 129.9 127.7 128.7 128.8 129.2 130.8 129.4 125.7 125.1 126.2 124.8 125.6 122.1 121.3 121.4 121.8 119.8 115.1 108.4 114.5 116.5 114.7 113.6 113.3 112.6 109.3 114.6 119.3 119 119.4 119.4 117.6 117.6 115.9 114.2 115.1 114.6 116.7 119.4 123.7 128.7 132.8 132.5 135.5 139.2 142 144.4 146.3 150.4 154.5 156.6 159.6 162 163.9 166.9 172 174.7 178.2 182 181.7 178.5 178.9 186.8 179.2 198.5 206 211.2 218 223.5 228.1 231.7 235.2 239.6 245.8 251.7 251.9 255.3 256.3 254.5 256.8 262.6 266.6 272 278.6 281.1 287.2 290.6 295.8 303 304.3 308.3 316 324.3 328.3 333 341.4 351.6 347.7 348.6 352.9 353.5 352.7 344.7 350 351.3 352.3 356.2 362.7 368.7 375.8 383.4 392 400.7 405.1 403.5 416.1 427.8 433.9 446.4 458.3 466.9 478.5 487.1 496 512.9 518.1 524.9 534.5 547.4 558.7 566.5 572.9 567.1 557.3 549 539 540.3 538.4 534.3 533.4 535.4 540.5 544.3 548.2 552 551.8 547.2 545.3 540.7
131.4 131.9 132.7 133.7 133 135.6 137.1 138.8 140.4 140.9 140.9 140.8 142.3 143.2 144 145 146.3 147.9 148.8 149.3 149.2 148.2 148 149.5 150.2 149.9 147.2 148.6 148.1 148.6 149.1 148.2 146.9 146.2 144.6 141.5 143.8 143.6 140.2 137.2 134.6 132.7 132.9 131.2 135.7 138.3 141.6 141.1 138.4 135.4 130 124.3 124.1 125.2 126.6 126.8 126.8 125.9 122.2 121.2 123.6 123.1 121.3 119.8 119.1 120 120.3 118.4 112.2 112.4 114.6 115.8 114.8 113.1 109.5 110.7 112.9 116 118.8 118.7 119.3 120.4 118 116.9 114.6 115.4 116 116.8 117.8 119.2 125 130.8 131.2 133.7 136.8 141 144.7 147 149.2 152.3 155.5 158.9 162.3 165.3 167.7 171.1 175 176.9 182.2 185.6 189.9 192.9 189.3 191.4 177.9 202.1 211.4 216.3 223.3 229.4 232.9 234.1 240.4 249.6 253.5 258 261.2 260.3 259.1 257.1 264.5 269.8 272 276.3 282.2 286 293.4 298.1 303.5 306.4 310.4 316.3 323.5 330.8 332.8 334.8 340.8 349.1 349.6 354.4 356.4 358.3 357.8 346 355.1 357.9 359.6 367.6 373.6 378.2 383.6 391.7 400.3 399.8 405.5 415 431 440.4 446.7 460.5 471 481.3 493.5 500.1 510.1 520.1 528.5 541.2 551.1 562 576.7 587 593.1 592 578.5 565.7 554.7 552.7 549.1 548.1 550.4 551.3 551.9 555.4 559.9 561 558.3 554.7 553.1 546.8
130.3 129.2 130.1 131.6 131 131.7 133.5 135.5 137 137.6 138 138 139.5 140.7 139.8 141.1 142.6 145.4 147 147.1 145.9 145.8 146.2 148.4 150.5 146.2 147 147.1 148.1 148 148 146.3 144.9 144.1 142.7 140.1 141.1 138.3 135 131.7 130.8 130.1 130.1 129.4 133.7 134 133.4 134.3 130.4 127.2 123.1 121.1 121.4 124.6 125.5 124.1 119.6 118.5 115.3 117 118.8 117.8 114.8 113.3 114.6 118.7 115.3 110 112 112.5 114.6 113.3 113.2 112.5 109.5 112.9 114.1 116.5 118.3 119.1 119.5 118.8 116.7 118 117.3 117 117.3 118.1 118.5 120.6 123.4 125.9 130.3 135.7 139.4 143.7 147.6 150.6 153.2 156.4 159.6 162.4 167 168.9 171.3 174 176.6 179.7 184.3 189.2 193.9 196.3 196.5 196.4 182 206.5 216.4 223.7 232.2 237.3 237.6 240.2 248.1 259.7 260.6 262.2 262.4 262.2 264.4 265.9 266.3 273.2 275.5 282.3 286.8 292.7 297.9 304.1 309.2 311.2 313.6 322.7 329.1 334.3 336.2 338.4 342.3 346.8 350.2 354 359.5 361.5 357 353.4 357.4 365.4 368.1 371.2 377.8 384.3 391.7 402 409.5 411.2 414.7 429.8 444.8 450.7 460.3 473.9 484.8 495.3 501.9 510.1 522.7 535.8 544.1 554.8 568.9 579.4 592.2 607 612.6 611.1 596.5 577.5 566.9 563.8 562.6 561 563 563 564.6 566.2 566.4 565.8 562.2 559.1 556.3 550.7
127.7 127.3 128.2 129.9 128.3 127.5 130.3 131.7 133.2 134 134.7 135.8 137.8 138.6 138.9 139.2 140.5 142 142.6 142.9 142.5 144 145.7 147.8 147.5 144.5 146.5 147.2 147.3 146.8 146.5 143.8 142.2 141.8 140.2 135.7 132.8 131.8 130.4 129.7 129.4 128.3 128.3 129.1 130 129.4 127.2 124.7 124.5 122.6 120.3 119.8 117.5 120.8 121.3 118.3 112.9 112.2 110.6 114.8 114.6 113 110.8 108.9 108.9 108.5 107.7 114 115.4 114.4 113.3 113.2 113.4 113.1 114 112.3 114.7 116.6 119.9 120.5 118.8 118.6 116.9 119.1 119.2 119.9 119.9 119.7 120.4 122.7 125.2 128.3 129.1 133.5 139.9 144.6 148.9 152.6 156.5 160.6 163.6 167.6 170.7 174.6 175.1 177.3 182.6 186.5 185.5 191.6 196 198.5 202.8 208 186.5 210.2 223.5 233.5 237.9 240.3 242.5 250.3 259.3 261 261.7 262 262.7 263.8 266.2 268.5 271.5 274.2 279.6 286.7 292.6 299.5 304.7 309.5 313.5 316.4 321.2 326 330 335 338 341.4 344.9 349.1 353 356.9 363.1 359.4 348.7 357.1 362.1 370.1 373.8 375.8 383.8 392.2 400.5 408.9 416.4 418.2 426 439.8 453.7 462.3 472.9 484.9 498 505.2 514.3 531.5 552.3 560 564.5 568.2 583.7 595.2 607.2 620.7 629.6 625.1 608.7 585.3 578.4 576.4 576.4 574 574.4 576.2 575.3 574.2 574.4 570 565 561.8 557.4 551.1
126.1 126 126.2 126.1 125.9 125.9 126.6 129.3 129.5 130.2 131.1 133.6 137.1 137.3 138.9 137.8 136 136.3 136.6 138.5 139.2 141.8 145.4 145.6 142.7 143.3 144.7 144.9 146.4 145.6 143.1 140.6 140.9 140.5 137.5 132.8 128.5 130.6 130.1 129.7 129.6 128.7 129.5 129.2 127.8 126.2 121.8 120.2 118.5 118.8 117.8 117.3 116.5 116 114.9 112.5 112.2 112.3 111.6 111.6 111.5 109.9 112 111.4 111.6 111.3 110.1 116.8 115.9 116.3 114.7 114.9 115.1 114.1 114.6 111.5 115.1 117.2 119.9 119.7 120.4 118.7 118.6 120.6 122.9 124.9 123.7 123.2 122.6 124.1 128.6 131.3 132.6 134.4 139.1 144.4 148.8 152.2 156.1 161.6 165.1 169.7 174.1 176.4 178.8 179.7 183.1 187.3 191.3 195.1 202 205.8 208.7 214.3 212.2 198.1 224.1 239.1 242.6 242.5 249.7 256.8 263.8 267.2 264.5 265.1 268.6 270.3 270.9 275 276.3 278.3 284.1 290.7 298 304.7 310.9 315.1 319.3 324.6 329.2 332.4 334.1 336.7 345.4 347.4 349.8 355.1 360.7 359.7 362.4 357.1 357.1 360.4 366.5 373.8 378.9 383.2 392.6 402.8 409.4 415.9 422.1 423.4 436 451.3 460.2 470.4 486 496.9 506.9 518.4 532.5 552.3 568 573.4 579.3 589 600.9 615.8 627.6 641.5 644.9 634.6 616.7 594.1 587.8 586.8 587.5 586.1 588 585.8 585.3 583.4 580.6 577.1 570.2 566.2 560.6 552.9
126.1 126 125.9 125.9 125.9 125.9 126 126.1 127.8 130.4 131.9 133.9 135.6 135.7 136.9 137.2 133.4 132.3 135.5 138.1 136.8 140.4 143.7 141.5 142 141.7 141.6 142 140.3 140.5 138.7 138.7 139.4 136.6 132.5 128.8 127 130.6 130.1 130.6 130.5 131 132.4 131.2 130.8 128.2 121.1 119.1 120.2 121.8 120.7 119.1 118.8 119.3 117.5 113.7 111.7 114.8 113 112.6 114.1 115.9 116.4 116.3 116.6 117.6 117.7 119.4 117.1 116.7 115.7 115.7 117 115.8 116.3 114.7 115.1 117.7 118.4 121.2 120.6 119.7 122.2 125 126.8 126.5 125 123.5 124.1 124.3 128.3 132.5 135.6 137.6 138.9 144.7 148.4 152.8 156.4 161.4 167.1 171.1 173.9 176.6 181.1 183.8 186.5 188.8 194.4 202.6 208.7 214.9 219.1 221.5 224.4 205.9 218.5 228 241.4 245.7 252.5 259.4 266.1 263.3 266 266.8 270 278 277.2 277.4 285.6 285.9 291.3 295 301.7 308.6 314.8 319.2 324.7 331.7 336.8 337.2 338.8 341.3 350.5 354.6 356.3 360.2 361.9 363.2 359.6 356.3 358.5 365.6 373.7 380.8 387.6 393.9 400.5 407.4 414.8 420.6 425.3 432 443.6 456.6 467.3 481.4 497.5 507.8 518.7 533.2 548.5 567.1 579 585.6 598.7 607.8 622.8 633.1 642.6 658.6 658.7 649 626.2 605.6 597.6 598 598.7 596.9 596.4 594.7 593.8 593.5 587.6 582.6 577.1 573.1 567.6 560.5
126.3 126.3 126.1 126 126.1 125.7 126 126.8 130.4 128.2 129.9 131.6 133.5 136.6 138.7 135.3 131 128.9 132.2 135.3 137.7 140 141.4 140.7 139.7 137.7 137.7 137.2 135.7 135.5 136.4 135.2 133 130.1 126.7 124.9 126.8 129.9 129.9 131.6 132.7 133.5 132.3 130.8 130.8 126.4 123.1 120.8 121.3 121.6 122.5 122 112.4 114.2 113 113.6 115.3 117.7 118.1 117.6 119.8 121.4 121.5 120.1 120.3 120.2 120.1 120.9 120 119.2 118.8 118.1 118.6 119.2 117.9 117.8 116.4 118.4 121.2 122.4 123.6 124.2 126.7 127.3 127 126.6 125.9 125.7 126.9 128.8 130.3 133.3 134.9 138.7 142.2 147.2 149.1 149.7 156 160.2 169.4 168.1 171.1 176 180.8 183.8 189.1 188.9 194.5 204.5 211.5 218.1 223.9 224.4 229.5 222.2 216.9 229.9 237.8 245.7 251.1 262.1 260.8 266.7 267.7 270.3 277 283.7 282.5 282.8 291.3 293.9 296.5 301.7 306.5 313.1 318.6 323.7 330 335.8 338.5 339.8 341.5 346 354.7 362 362.8 364.6 362.4 361.4 360.1 359.8 363.1 370.3 377.6 386.2 392.2 399.3 405.2 413.8 422.8 426.7 432.1 442.4 451.8 463.5 477 492.2 510.7 520.2 534.8 547.8 563.4 583.2 594 605.7 614.6 625.8 643.1 652.1 662.1 669.7 664.4 653.6 636.2 617.9 610.9 609.4 610.1 607.7 605.6 603.4 603.1 601.5 594 586.4 585.4 579.4 574.2 566.3
126.9 126.7 126.4 126.2 126 125.5 125.5 125.4 130.7 126.7 128.2 130.3 133.7 139.7 138 132.4 127.2 127.7 130 133.7 137.5 138 136.7 133.9 132.7 132.5 133.1 133.6 131.2 130.3 131.2 130.1 127.7 125.4 124.2 123 124.2 126.2 128.7 129.9 131.7 133.2 130 126.6 124.1 121.9 121.8 121.6 121.4 122.1 123 121.3 114.2 116 118.8 120.2 121.5 124.1 125.1 122.4 120 122.7 122.4 122.3 122.3 122.3 122.3 122.7 123.4 121.7 120.7 120.3 120.6 120.7 120.4 119.3 113.3 119.4 122.1 122.4 124.6 125.7 127 127.5 127.4 127.2 127.5 128.3 130.7 134.4 136.1 137.8 134.7 139.1 145.7 147.6 153.7 158 161.5 166.2 171.6 172.2 175.9 181.4 183.7 188.1 192.5 196.9 201.8 208.6 213.4 217.4 224.3 226.7 229.3 228.4 217.7 226.8 231.9 239 248.6 253.2 260.8 266.8 270.1 276.2 283.4 288.3 285.8 287 296.5 298.8 303.3 307.4 311 315.9 322.3 328.7 336.8 338.8 341 342.4 345.3 350.5 357.8 364.7 365.5 366.9 368 364.9 364.9 362.4 365.7 376.4 381.8 389.8 396.1 402.6 408.5 416.7 424.6 430.8 443.7 457.6 466.4 474.9 487.9 501 517 528.7 547.7 559.3 577.7 596.8 604.9 621.3 633.2 646 656.6 668 683 690.4 689.8 670.7 646.2 629.4 622.9 622.1 620.6 615.7 615 613.2 612.6 608.7 603.1 597.8 596.9 588.7 582.2 576.3
126.5 126.2 126.1 126.1 126.3 125.7 125.1 125.5 125.4 125.4 126.8 129.4 132.1 134.4 131.5 127.3 126.4 125.1 124.8 128 130.6 130 124.9 127 128.7 129.6 129.7 130 127.5 126.2 125 125.8 125.5 125 123.3 122.2 122 124 125.1 125.9 125.2 123.3 123.7 121.8 121.4 121 122.1 122 122.1 122.4 123.2 119.5 113.6 117.3 120.4 123.4 125.6 125.8 125.2 123.7 121.2 123.4 123.6 123 122.8 124.2 124.7 124.4 125.3 124.9 124.9 123 121.8 122 121.6 120.9 117.6 118.5 122.7 123 126.4 128 126.8 127.8 128.2 127.9 128.8 130.3 132.6 136.6 141.8 141.9 139.1 141.8 147.5 152.1 157.3 161.9 166.2 170.7 175.2 181.1 186.6 190.8 193.9 192.3 204.5 207.9 212.4 220.6 229 228.4 232.7 235 239.3 243.7 236 215.4 229.8 247.9 258.5 259.1 264.3 269.6 271.4 275.7 282.7 286.8 286.4 294.8 300.7 305.4 310.8 314.8 317.5 321 326.4 332.2 336.9 340.5 343.9 348.6 352.2 357 363.4 368.7 372.9 374.7 375.6 370.5 368.1 366.2 369.5 377.3 384.9 391.6 397.4 404 411 418.8 426.5 440.4 455.1 470.5 483.7 487.6 495.8 508.2 521.1 539.6 555.8 570.8 589.3 604.7 626.3 640.1 645.6 660.5 671.8 682 695 703.1 704.6 693.3 661.4 644.8 636.1 637.3 636.3 636.2 629.5 623 620 618.7 610.9 610.1 606 595.9 595.9 589.7
126.1 125.7 125.7 125.9 125.7 125.4 125.5 124.6 125 125.1 125.7 127.4 128.4 129.7 128.2 125 124.1 123.7 123 123 122.9 121.1 121.8 120.4 121.1 120.4 121.6 121.5 122.3 123.5 122.2 123.5 123.2 123.4 122.8 122.8 122.1 120.9 120.5 121.4 119.9 119.1 120.2 119.8 119.8 121.5 120.9 121.1 120.7 121.9 125.6 118.9 119.2 118.2 121 123.8 124.9 125.5 125.6 124.8 122.5 124.7 125.6 125.7 125.6 127.3 126.9 126.5 127.1 126.6 126.9 125.4 122.9 122.9 121.5 121.2 118.3 119.6 122 124 129.3 129.9 128.8 128.5 129 128.4 130.2 132 134 138.9 143.1 144.5 143.1 145.5 150 154.4 159.9 165.3 173 177.1 184 187.8 194.6 197.2 200.5 204.8 206.5 217 222.6 233.1 243.6 241.3 247.2 251.5 255.1 258.7 254.2 247.5 222.8 246.2 261.3 262.7 267.4 273.3 275.3 279.3 283.7 286.8 287.1 295.9 303.8 309.8 314.3 318.4 322.4 326.6 331.4 337 343.3 345.1 350.1 356.4 358.8 362.1 370 377.1 380.9 380.8 377.6 372.9 373.4 373.3 375.6 379.8 387.1 392.2 398.3 405.5 413 422.1 431.9 448.8 463 478.9 496.3 493.5 498.9 508.6 526.2 548.5 560.7 576.5 596.5 619.3 643.2 654.4 662.1 674.2 683.4 698 704.9 710.3 707.2 698.4 677.8 660.1 652.5 652.1 650.5 651 648 638.6 630.9 623.8 621.9 619.1 614.8 611.2 607 599.3
125.8 125.7 125.4 125.2 124.9 125 125 124.8 125.7 126.4 126.5 126.5 127.2 126.2 125.4 124 123.1 122.7 122.1 122.4 122 121.1 121 120.7 120.5 120.1 120.8 120 120.5 120.6 121.1 123 124.2 123.4 122.5 122.1 121 119.5 119.9 118.5 118.3 118.5 118.5 119.1 121.6 120.4 119.7 118.8 117 118.8 124 120.2 116.7 119.5 123.2 124.3 124.6 125.3 125.8 125.2 123.7 125.9 128 128.3 129 129.8 130.6 129.6 129.1 128.1 128 126.5 123.9 123.3 122 120.9 116.7 124.4 124.8 122.3 127 127.4 127.6 128.9 128.4 128.7 131 133.3 136.6 139.9 143.8 147.5 145.5 148.3 154.1 159.8 167.6 172.5 175.4 183.5 190.7 193.1 198.8 203.5 209.5 216.2 219.4 220.9 234.1 244.7 249.6 250.3 257 259.8 270.9 275.3 270.3 266.5 224.9 260.8 267.1 266.3 271.8 274.7 278.3 282 285.3 287.6 291.1 301.6 306.9 311.4 316.8 322.9 327.5 332.8 337.6 344.1 353.2 355.1 355.2 359 367.2 372.4 378.1 386.4 387.8 388.6 387.6 379.8 382.6 380 375.2 382.5 390.3 395.6 400.5 408.9 418.2 429.6 440.1 453.8 469.4 485.5 492.5 492.3 497 509.3 527.4 545.4 561 580.6 602.2 631.4 655.8 664.9 673.6 683.3 696.9 707 712.6 707.7 708 699.4 684.8 676.6 665.7 662.7 660.9 660.7 662.8 648.1 639.4 633.9 630.8 628.4 628.1 623 617.6 609
125.5 126.2 125.8 125.5 125.3 124.9 124.5 124.7 126.3 126.6 126.9 127.2 126.4 125.4 124.5 123.2 122.2 121.7 121.6 121.8 120.6 121.1 123 124.6 122.3 121.4 121.2 120.8 120 119.4 120.8 123 124.8 123.3 122.5 121 120.9 118.8 118.3 118.3 118 117.4 117.1 116.9 116.9 115.6 115.5 115.3 116.7 121.6 116.3 116.3 121.7 124.3 126.3 126.7 126.8 125.4 125.8 125.7 126.8 128.3 129.7 131.3 130 131.7 131.5 130.7 131.4 130.8 128.9 126.8 125.4 123.8 122.6 119.4 125.2 124.2 124 123.1 126.6 126.3 127.5 129.2 129.4 129.9 131.5 135.3 138.8 141.5 144.4 148.5 151.2 153 162 166.6 171.2 179.1 184.8 191.9 197.6 204 209.8 215.6 221.4 229.6 236.2 241.4 250.7 252.5 254 252.7 261.1 265.4 273.1 276.7 277.9 278.7 262.5 250.7 268.1 272.3 278.9 285.5 288.8 290.6 288.3 289.7 293.8 304.5 314.1 316.9 321.7 328.6 336.5 344 349.9 358.5 361.5 359.4 360.4 366.1 373.8 380.5 388.6 394.2 393.5 393.9 384.1 390.1 390.1 383.4 375.6 386.6 393.2 396.8 403.6 412.3 422.5 434.6 449.2 454.1 471.1 482 485.1 487.9 493.4 504.7 520.7 538.1 557.5 585.4 610.2 631.6 650.9 667.2 679 692 704.1 708.9 708.2 707.1 708.4 707.7 702.8 701.6 680 666.7 665 663 662.2 653.6 649.8 646.9 644.4 641.5 638.2 637.1 631 622.7
125.4 126.4 126.3 126.3 125.7 125.3 124.9 124.6 125.2 126.8 127 126.8 125.6 124.4 123.5 122.6 122.2 121.2 121.1 123.5 125.2 127.8 127.2 126.8 125.5 124.1 122.2 122.1 121.7 120.7 119.8 119.5 119.2 120.6 120.9 119.3 119.2 118.8 118.2 119 117.7 117 116.3 116.6 117.3 116.4 123 123.9 123.1 125.9 126.6 126.9 128.5 128.9 128.6 128.6 129.1 128.5 126.5 127.4 130 130.7 132.2 133.2 132.6 133.1 132 132.2 132.1 132 131 128.3 126.2 125.1 122.6 124.7 126.9 125.2 124 126.1 130.6 129.5 128 129.1 129.4 131.4 134.5 138.9 140.7 143 146 150.3 153 158.3 167 172.9 178.8 183.5 191.2 198 203.2 210.9 218.9 226.1 235.9 245.8 252.3 259.6 263.5 262.9 260 261.8 260.6 269 273.3 277.4 281.5 284.4 281.6 259.1 260.5 274.2 290.1 293.9 304.3 304.4 295.3 293.2 302.3 313.6 318.8 322.6 326.9 339.6 347.9 355.3 367.1 364.9 365.4 363.4 369.4 371.8 377.8 383.5 392.3 394.8 395.6 394.5 395.6 397.9 393.8 387.6 381.6 389.1 394.8 399.5 407 414.2 424.9 438 446.7 452.5 463.9 469.5 473.9 481.8 486.9 500.3 515.2 534.3 559 583 607.9 625.8 643.7 661.5 676.6 686.8 690.3 695.8 702.7 707.2 713.5 708.9 713.7 713.2 699.6 675.4 667.9 666.1 663.9 658.5 659.3 657.6 653.4 650.4 651.7 647.6 643.1 633.4
126.2 126.3 126.8 126.9 126.1 126 124.9 124.3 124.6 126 125.7 125.8 124.6 123.5 122.6 121.4 122.6 121.6 125.5 126.1 129.3 128.4 126.9 126.1 125.7 124.5 123.1 122.6 122.4 121.6 120.6 120.3 120.3 119.9 118.5 119 118.7 119.6 117.4 118.3 117.5 117 117.8 118.2 117.8 121.8 123.3 124.3 125.7 126.5 126.5 130.2 130.1 130.6 130 130.2 130.7 131.4 128.5 128.5 130.7 132.3 134.2 134.5 134.5 133.9 133.4 133.6 133.7 133.4 131.7 128.9 127.7 119.4 127.9 128.4 127.4 126.4 126.4 127.2 129 129.5 129 130.1 131.3 134.7 137.9 140.7 143.9 146.2 149.3 153 157.6 163.3 166.6 179.5 184.8 191.6 198.9 205.5 212.3 220.9 231.2 242.3 254.1 261.1 266.1 273.1 272.9 270.1 271.5 267.3 270.2 270.9 275 281.1 287.1 290.8 285.3 276.7 250.2 275.6 293.9 302.3 308.4 307.7 301.5 302.8 313.1 321.3 327 332.7 336.4 348 359.7 368.5 370.4 367.1 366.4 371.7 373 378.2 383.5 389.4 393 396 397.8 401.1 406.2 404.1 399.7 392.4 386.5 390 395.3 400.5 405.8 416.2 429.5 440.9 447.6 453.8 458.9 461.9 469.7 476 482.6 494.8 508.2 530.1 554.4 578.2 598.8 618.8 637.5 655.8 669.6 677.8 680.2 685 690.6 695.5 697.7 705.4 714.6 718.8 710.3 691.9 675.1 670.1 667.5 664.5 664.1 666.8 665.9 662.9 662.6 660.4 653.9 643.6
126.5 126.1 126.9 126.9 126.3 126.1 125.3 124.8 125.2 124.7 124.2 124.1 123 122.6 123 123.5 123.2 125 127.9 129.2 128.8 127.3 126.9 126.6 126 125 123.7 122.1 122.9 122.2 120.8 121.1 121.2 120.7 119.4 119.8 119.2 117.3 118.8 119.5 118.4 119 119.6 119.7 118.5 121.9 123 124.8 126.7 126.7 128.5 129.8 129.9 131.2 130.7 131.6 131.8 131.4 131.5 130.9 131.4 133.4 133.7 134.6 135.6 135.8 134.9 134.7 134.7 134 131.3 119.3 126 129.1 128.7 129.8 128.8 128 128.6 128.1 128.8 129.2 130.3 131.2 134.1 137.7 139.9 142.9 146 146.6 150.4 155 163.5 171.1 178.8 183.8 190.1 199.8 206.7 216 224.4 235.7 247.4 256.6 265.9 271.6 279.3 276.6 279.3 282 280.4 274.4 274.7 271.1 277.4 284.6 292.2 293.9 291.5 284.4 256.3 276 295.7 305.4 308.1 313.8 306.6 310.6 315.9 327.2 335 340.3 349.6 356.6 363.8 370 369.8 367.4 374.4 378.1 383.6 388.1 392.4 397.7 400.3 401.4 403.3 405.5 409.9 407.9 404.1 396.9 394 392.1 396.4 404.5 412.2 419.4 433.9 439.9 448.3 455.6 457.3 458.5 464 471.2 477.8 489.2 506.2 525.9 547 567.8 590.5 611.5 628.3 649.6 664.9 666.2 668.2 673.7 681.5 685 687.2 699.7 714.9 721.2 717.2 711.6 697.2 679.9 669.9 669.5 668.9 672.1 674.6 673.2 671.5 670.2 660.4 652.3
127 126.4 127.1 127 127.1 126.3 125.9 125.9 125.4 124.6 124.6 124.4 124.7 126.7 125.9 127.8 127.3 127.3 128.3 128.8 128.6 128 126.5 124.5 124.9 125.6 124.6 123.5 122.9 122.5 122.1 122 121.8 121.6 120.5 120 118.9 119.8 119 120.1 121 120.4 121 122 120.5 122.3 122.9 126.5 125.3 127.4 127 128.4 129.7 131.4 131.9 133.2 132.6 132.6 134 133.2 135.3 135.4 136 136.6 137.6 137.4 136.5 135.8 135.7 135 131.2 122.7 129.6 130 130.2 130.8 130.3 129.5 129.3 129 129.5 130.3 132.5 134.4 136.9 138.7 141.2 145.5 147.4 150.8 156 162.8 170.1 177.5 184.8 190.1 198.1 207.7 216.8 227.2 239.9 254.6 263.8 269 276.7 281.9 282.9 282.9 286.6 286.9 287.4 286.1 283.2 282.8 281.7 288.1 293.8 297.5 295.7 293.9 263.1 275.1 295.1 305.6 314.3 316 306.9 313.5 321.9 332.8 343.3 348.5 359.6 366.7 371.7 371.9 370.8 378 383.8 390.5 395.6 400.2 404.4 407 409.3 410.6 413.2 416.3 416.7 416.1 409.7 401.3 399.5 401 400.8 404.1 419 424.3 434.7 438.2 445.6 455.1 454.9 454 460.9 468.3 474.2 488.8 504.6 521.3 540.3 559.8 582.8 602.1 622.9 640.4 649.1 655.5 657.8 661.9 670.5 671.5 679.7 691.5 707.8 714.6 719.4 716.8 703 690.8 677.8 672.4 672.9 673.6 677.3 678.5 679.2 676.7 671 657.1
127.8 126.7 127.2 127.7 127.8 128 126.6 126.5 126 127.6 128.1 128.8 129.3 129.8 130.2 131.5 131.3 130.4 129.3 128.9 128.3 127.7 126.3 124.8 124.1 125.3 125.2 124.3 123.8 123.3 122.6 122.7 122.3 121.6 122.8 121 119 119.5 119.3 120.6 120.4 121.4 123.3 126.9 129.5 131.1 129 128.9 127.9 126.8 126.9 128.3 129.7 131.6 132.7 132.5 133.5 134.5 135.9 136 136.5 137.2 138.8 138.5 138.8 139.2 138.5 137.8 136.4 135.1 131.1 128.9 130.4 130.3 130.9 131.2 131 130.5 130 130.5 130.2 131.8 134.7 136.4 138.7 141.3 145.7 148.9 152.4 158.3 163.7 169.9 176.9 184.5 191.9 198.3 205.4 214.7 225.4 237.8 251.9 266.8 274.3 281.5 288.2 288.4 286.4 288.2 291.5 294 295.9 294.7 293.7 291.1 289.2 289.2 298.7 301.9 303.4 305.4 284.4 261.8 282.2 299.2 309.1 311.1 310.2 317.5 325.4 337.8 348.8 361.5 370.9 378.6 377.1 373 376.4 390.8 400.1 409.7 410.3 413.3 419.1 418.6 418.9 422.6 424.1 426.5 423.5 419.9 413.5 408.4 406.4 411.3 414.9 405.1 415.7 425 431.4 439.6 443.6 447.9 450.9 453.8 456.9 461.8 472.1 486.4 502.8 516.8 534.3 552.3 572.7 594.6 610.9 624.8 633 636 641.9 645.3 651 659.9 669.9 682.4 696.6 708.4 716.7 711 704.7 696.5 691.5 679.8 677.2 676.1 677.2 682 681.7 679 678.7 662.2
128.1 127.5 127.9 128.4 128.7 128.4 127.5 128.8 133.8 135.1 133.5 133.4 132.3 132.5 133 133.3 131.2 130.8 130 129.3 128.6 128.2 127 125.4 125 125.2 125.7 125.1 124.4 123.7 123 123.3 122.3 121.6 121.3 120.8 120.3 121.1 121.5 122.4 123.9 123 123.7 126.9 130.5 133.4 132.9 132.2 134.7 134.7 132.9 131 131.8 132.9 134.6 134.5 136.2 137.1 137.7 138.3 138.8 140.2 141.2 140.7 139.9 140.7 141.7 141 137.6 135.6 131.9 125.5 131.5 131.7 132.5 132.6 131.7 130.9 130.8 131.1 132.6 133.2 136.9 137.1 138.9 143.5 148.4 154.5 157.9 163.5 169.9 176.4 183.6 191.3 198.8 206.8 214.8 224.7 235.7 248 262.1 274.9 285.3 293.2 295.1 290.8 295.8 295.3 296.1 300.2 302.9 304.8 306.5 306.4 298.7 296.2 301.6 312.7 313.6 316.2 301.2 298.6 284.7 290.3 306.9 312.5 313.1 323.3 328.1 339.7 358.8 376.6 386.5 386.2 379.7 374.7 388.9 399.5 413.2 425.5 424.1 438.1 432.4 428.6 429.2 434.5 435.7 435.5 433.6 427.2 418.2 415.4 417.6 421.3 419.5 413.6 408.5 423.5 430.2 435.7 438.6 441.5 443.7 447.6 453.8 461 472.1 484.9 498.9 513.4 526.2 548.3 568 584 598.4 610 616.3 621.9 625.5 629.7 635.7 649.7 662.8 675.6 687.1 697.5 707.4 705.8 698.3 693.1 692.4 686.7 679.7 677.7 677.4 680 684.7 680.3 677.9 661.7
128.6 127.9 128.7 129.1 129.1 129.4 129.1 132.8 133.7 136.2 136.7 137.8 135.1 135 135.5 134.4 133 131.1 130.5 129.2 128.7 129.5 128.1 126.1 125.4 125.4 126 125.6 125.4 124.8 123.5 123 122.8 121.8 121.4 121.3 121.9 122.9 124.9 128.2 129.1 127.5 127.7 128.3 129.3 128.3 131.3 133.7 136.4 138.1 136.2 135.6 135.1 137.9 137.2 137.2 138.5 138.6 139.4 140.1 141.6 142.3 143.5 143.3 142 141.1 144 144.5 141.2 139.2 128.6 132.6 132.8 133.7 134.6 135.1 133.2 132.9 131.3 133.1 134.1 138.2 140.1 139.3 140.8 146.3 150.6 157.8 162.2 168.4 174.9 182.5 191.5 199.9 208.4 217.1 226.3 234.7 246.7 258 267.2 276.7 285 293.1 293.3 295.6 298.7 300 302.8 305.4 307.5 310.6 314.1 315.1 308.3 307.5 302.8 309.6 312.7 319.2 317.6 318.9 298.5 280.7 305.5 312.5 314.8 326.7 333.3 342.6 359.2 386.5 394.8 389.2 379.8 383.2 393.2 406.7 424.5 427.1 438.6 444.8 436.8 439.8 443.2 444.1 442.3 444.9 442.1 434.1 429 421.5 424.2 424.3 422.9 422.7 414.8 409.1 422.9 425.5 431 436.1 441 446.4 453.1 460.5 472.4 481.8 495.3 510.1 524.4 544.9 563.9 577.6 590.3 596.9 605.6 610.1 613.1 615.7 627.6 640.9 657.3 665.3 675.1 686.6 691.5 689.4 690.3 689.7 694.6 700.7 691.2 686 678.7 679.8 684.1 681.4 674.9 660.7
128.5 128 129.5 129.8 129.9 129.1 133.9 132.8 134.6 137.1 137.2 136.5 136.8 135.5 135.6 133.9 133.7 132.6 131.3 130.1 130 130.8 129.3 127.8 127.4 126.5 127.1 126.8 125.5 125.5 123.9 123.6 123.2 122.4 123.2 123.4 124.7 126.6 129.4 131.4 131 129.6 130.7 131.4 132 132.6 132.1 132.1 135.5 137.1 137.1 136.5 138.8 140.9 139.1 139.2 140.9 141.3 141.7 142.9 145.1 146.1 146.6 146 145.4 145.1 147 147 143.7 139.9 129.2 137.5 137.6 135.8 136.6 136.9 135.8 134.9 133.1 134.5 135.2 138.8 141.9 141.8 144.9 150.2 155.3 161 166.4 173.6 180.9 189.8 198.7 207.1 218 227.6 238.4 249.1 257.7 265.6 273.2 277.5 287.1 291.9 295.8 300.6 305.7 309.1 311.2 314.7 315 317.2 320.1 320.2 318.2 313 304.3 311.5 320.2 321.7 322.5 327.6 315.7 297.8 292.4 309.5 314.8 323.2 335.2 346.8 359 385.1 391.2 382.6 383.7 389.3 398.9 409.3 422.7 436.6 453.1 452.9 444.2 449.8 458.4 464 454.3 452.4 448.4 443.9 435.6 428.2 430.4 427.9 424.9 426.6 427.7 422.3 419.8 418.1 426.4 430.3 438.3 447.4 451.6 458.8 471 480.1 492.4 506.4 522.6 538.3 553.2 569.9 577.2 584.3 590.7 596 597.1 606.5 619.4 633.5 643.1 653.6 663.4 671.6 678.9 679.8 682.2 687.6 697.9 707.2 702.5 700.5 682.1 679.8 680.9 681.9 675.8 661.2
135.1 134.2 131.9 133.3 134.5 134.9 130.6 131.4 132.3 134.2 135.6 136.9 136.9 136.5 135.2 134.2 133.9 132.1 131.4 130.2 130.3 129.5 129.9 129.4 128.5 127.6 127.8 126.2 125.4 124.9 124.6 124 123.9 125.2 126.2 127.2 128.3 129.5 130.9 133.3 132.8 132.1 133.5 135.2 135.6 135.5 136.2 137.6 137 139.1 139.3 140.7 142.3 142.9 142.6 143.4 145.7 146.2 147.3 148.6 149 149.4 149.8 148.8 147.9 148 149.2 147.5 144.6 138.1 132.2 139.5 138.9 137.7 138.2 138.3 137.5 136.7 136.9 136.9 136.9 138.6 143.6 145.8 150.1 153.5 159.8 165.6 170.9 179.3 186.9 196.1 206 215.9 226.2 237.9 249.2 259.3 267.1 272 279.6 285.7 291.5 294.6 302.1 309.1 314.1 321.7 322.6 324.3 323.4 327.5 335.2 327.3 324 319 315.4 310.9 319.1 327.1 332.4 329.8 319.8 315.5 280.4 302.6 313.3 318.5 331.1 343.6 353.8 368.7 374.8 379.9 383.4 391.1 404.1 417.9 431.5 444.3 455 451.5 456.7 466.4 474.4 474.9 467.2 461.6 456.9 449.6 443 434.3 436 432.6 429.5 427.9 427.2 425 427.3 425.1 427.3 425.1 434.8 439.8 447.6 456 467.1 477 489.1 502.7 518.8 533.2 545.1 560.1 568.5 573.6 579 582.6 587.2 598.4 613.7 623.4 633.6 642.7 649.7 663.7 669.5 672.2 678.7 687.4 698 705.6 713.2 711.5 684.8 681 680.3 680.2 673.1 664.2
142.2 142.8 141.1 143 144 143.2 138.3 136.4 133.7 133.2 135.5 136.3 136.6 135.5 134.8 134.3 133.8 133.1 133.1 131.6 131.1 130.9 131.8 130.2 129.4 128.8 128.9 127.1 126.1 125.3 125.8 125.3 128.1 129.7 130.3 131 132.2 133.3 134.4 136.1 134.7 134.5 136.9 138.7 139.1 139.1 141.1 140.8 140.7 142.9 144.7 144.3 143.9 146.4 148 148.1 150.6 151.7 151.5 152.9 152 152.6 152.6 152 150.6 150.2 150.1 148 144 141.2 134.5 140.9 140.5 140.4 141.3 142.1 140.3 138.5 137.3 137.9 141.2 140.9 146.4 149.9 151.5 157.2 163.7 170.2 176.8 186.6 194.5 203 215.8 226 238.7 252.4 261.9 269.2 275.9 282.9 288.4 295.8 297.9 303.3 310 316.7 322.7 327.4 328.7 331.1 331.5 337.6 344.7 339.7 331.7 326 323.9 318.2 319.5 329.2 334 329.4 325.5 318.1 300.8 296 307.9 317.2 325 337.6 349.5 358.2 364.2 370.3 383.9 397.6 412.9 425.5 440.1 453.9 461.9 462.2 472 484.7 491.7 493.2 481.8 469.5 463.9 455.3 447.5 446.2 439.6 435.7 433.9 430.7 429.5 428.9 427.7 428.1 433 430.2 430.5 434.2 441.9 450.8 461.2 471 483.3 497.8 513.5 529.1 539 550.1 557.9 564.1 568 570 579.7 591.2 604.1 613.8 622.8 632.3 642.2 651.5 659.9 666.3 675.8 686.7 695 704.7 715.6 706.6 689.2 682.3 680.4 680.8 675.2 669.7
153.5 152.5 152.1 151.3 150.5 146.6 142.9 137.2 137.5 134.7 135.3 135.8 137.1 136.2 135.2 135 135 133.3 133.2 134 133.2 133.2 133.1 132.1 130 129.7 129.9 128.9 126.9 127.3 129.9 130.6 133 133.8 134.6 136.8 136.9 137.2 139 140.9 140.3 138.6 140 143.4 142.1 143.6 143.8 143.8 141.3 146.9 146.7 146.1 146.7 148.9 151.3 151.6 152 154.6 155.9 154.5 154.5 155.8 156 155.3 153.9 153.7 151.6 148.2 145.4 142.2 136.7 140.9 141.6 141.8 143.2 144.4 144.1 141.5 140.7 140.5 144.4 143.1 147.6 150.8 153.3 160.6 167.3 173.9 183.9 193.7 202.7 213.6 225.8 238.1 251.1 263.9 275.8 280 286.8 293.7 299.1 299.7 305.7 311.5 316.9 322.9 330 331 332.4 335.8 342.6 348.5 347.5 341.6 336.1 332.6 329.1 327.7 330.4 325.3 331.6 339.5 336.7 327.8 312.7 289.7 302 313.4 323 334.2 346.1 354.9 364.1 371.1 388.4 403.8 420.3 432.1 445.7 468.7 467.1 473.6 485.4 501.2 503.5 496.1 489.7 477.8 466.2 457.4 450.8 443.9 441.1 441.2 440.9 439.4 437.4 433.2 430.5 432 434.9 435.3 433.6 435.6 439.1 446.1 456.9 467.1 478.8 490.8 504.6 521.2 534.4 541.8 549.6 553.4 554.9 559.1 572.3 583 593.3 602.6 612.6 623.1 632.2 642.3 650 659.4 669.4 679.3 691.1 700 714.4 712.3 694.1 684.7 681 680.3 678 676
160.9 159.1 156 153.9 153.6 148.8 144.7 143.6 140.6 139.2 136.9 137.5 138.3 137.7 137.1 136.6 136.6 135.3 136.2 136.3 135.2 134.4 134.5 133.1 130.8 129.5 129.6 130.7 131.9 132.4 134.6 136 137.4 138.5 139.7 139.4 141.1 143.3 143.5 143 142.4 143.8 143.8 145.3 145.4 145.9 146.2 146.6 146.1 146.4 148.2 150.1 153 153.3 154.1 154.2 154.4 156.5 158.2 157.5 158.4 158.7 159.2 158.2 156.9 156.2 152 148.5 145 137 136.4 139.7 144.3 144.9 144.8 145.3 146 144.6 143 142 146.3 147.2 148.9 150.8 155.7 162.4 171.5 179.8 191.1 201.2 212.1 223.3 233.5 248.8 263.2 274.4 283.6 290.4 295.9 303.9 304.1 310.3 314.1 319.1 325.5 330.6 333.4 337.3 340.7 342.3 351.9 354.1 349.7 345.2 342.7 340.4 337.3 336.4 335.1 331.2 336.2 339.6 342.6 335.9 326.9 307.5 299.8 308 325 338.9 354.3 366.2 370.5 377.7 391 405.7 420.5 440.6 452 467.3 473.5 488.5 501 511.7 507.1 497.9 490.2 484.8 473 461.8 451.2 446.3 451.5 451 450.2 448.4 445 441 438.9 438.4 439.6 439.9 439.7 440.1 439 443.4 451.3 458.5 473.2 482.6 496.7 512.4 526.7 534.5 538.3 539.8 542.4 553.2 565.3 576.7 583.9 595 604.4 616.3 622.2 632.8 642.9 655.5 663.1 671.4 683 695.9 703.7 708.6 696.3 689.1 680.5 679 680.1 682.6
161.3 157.9 156.9 155.5 151.8 148.1 147.2 146.9 145.4 141.4 137.5 138 139.2 139.5 138.8 138.2 137.9 136.3 139.1 138.4 136.3 134.8 134.7 133.3 130.5 133 133.9 135.4 136.3 136.9 138.9 140.1 141.9 142.5 143.1 144.3 145.6 146.6 146.1 146.5 147.7 147.7 148.7 148.4 148.1 148.3 148.9 149.3 149.6 148.1 151.9 154.4 155 155 156.8 157.5 158.2 159.6 162 163.1 162 161.4 160.5 160.5 159.9 159.5 155.3 149.6 146.1 135.3 145.5 138.4 144.5 146.1 145.8 146 147.7 147.8 147.5 146.2 146.6 149.7 152.7 154.2 160.7 169.5 178.8 188 198.2 209.3 219.8 235.6 244.7 259.2 272.7 282.6 290.6 298.8 306.4 310.2 314.4 318.9 323.3 329.8 337.7 339.6 343.1 346.3 349.9 353.5 358.5 358.3 352.8 353.4 351.8 351.2 350.7 348.8 342 338.4 341.5 341.4 343.8 337.4 331 316.3 298.8 310.5 327.1 343.3 357.6 365.3 375.5 381.9 394.2 404 418.9 446.1 461.2 467.5 478.2 500.1 515.7 514 505.6 499 498.4 491.4 479.3 467.4 454.4 455.5 460.9 463.6 459.3 457.2 454.1 449.5 447.8 446.5 446.9 447 445.7 448.2 446.2 442.3 449 456.3 466 475.8 487.4 501 517.5 523.1 526.3 529.3 533.7 544.9 558.1 567 577.7 585.8 596.1 607.7 613.4 626.7 636.6 647.9 654.7 664.6 674.7 687.9 696.6 699.6 696.5 691.5 681.6 679.6 681.4 686.3
157.9 154.6 153.8 152.8 149.5 150.1 149.4 146.8 142.8 140.2 140.3 140.3 141.6 141 141.6 140.6 139.1 137.9 140.5 139.5 137.1 136.2 135 137.9 138 139.9 137.6 138.4 139.5 140.9 142.3 144.8 145.5 147.9 149.7 149.9 149.4 150.5 150.8 152.9 151.4 152.8 154 152.8 151.8 152.7 152.8 152.3 152.4 151.9 155.8 157 157.5 159 159 161.3 161 162.2 164 165.5 165.1 164.7 163.1 162.9 160.9 159.9 153.4 148 145 138.7 149.9 144.8 144.9 147.4 147.5 147.3 148.7 150.9 151.8 150.9 149.4 151.1 153.8 159.1 167.1 176 186.2 197.2 207 216.7 229.3 242.4 254.4 268.8 280.6 289.3 300.9 309.2 313.8 315.9 321 325.7 335.5 340.8 346.2 347.3 351.4 356.4 363.2 363.7 363.7 362.8 361.6 366.4 365.8 364.5 364.5 358.9 349.6 343.8 344.8 343.8 347.8 340.4 334 322.9 315.9 311.8 338.3 348.4 355.3 362.8 376.2 384.2 392.3 405.4 419.7 438.2 454.2 466.7 478.8 500 511.3 507.4 502.1 505.5 505.3 498.1 485.1 472.3 462.9 464.9 469.4 473 471 465.6 460.9 458.1 456.4 454.4 453.7 453.6 452.5 453.4 452.8 449.5 447.1 454.8 460.3 468.2 478.1 490.4 503.3 511.8 515.2 517.2 525.3 539.1 547.9 559.5 568.8 577.4 588.4 598 604.9 617.8 626.3 636.6 647 655.1 669.9 682.8 692.1 697.6 703 692.1 681.4 679.5 682 691.4
155.9 154.7 153.4 152.5 152.3 151.8 149.2 146 144.6 144.2 144.2 145.4 145.4 145.6 144.7 145.1 142.1 140.9 140.8 140.1 137.8 136.6 139.1 141 142.2 143 143.1 144.6 146 146.6 146.9 148.7 150 151.8 153.1 154.6 156.8 157.7 158.1 157 156.7 156.8 157.6 156.5 155.6 155.7 155.7 155.2 155.5 156.6 156.2 158.5 160.7 160.9 162.5 164.5 163.6 164.6 165.6 166.3 166.7 166.1 164.4 162.3 161 159 151.3 144.4 139.1 146.2 151.7 146.4 146.7 150 151.1 148.9 151 153.4 155.4 154.6 153.2 154.9 158.3 165.8 173.7 182.6 192.7 204.8 215.3 225.3 238.7 252.8 264.9 276.8 287.1 298.5 307.9 317.1 318.5 323.7 331.6 338.7 345.1 354.6 355.1 358.2 359.6 370.3 375.6 373.7 372.6 372.3 372 375.2 376.7 378.9 377.2 373.4 360.8 354.1 351.7 353.4 350.7 341.8 338.9 338.5 336.3 319.6 349.9 357.2 359.3 367.2 375.6 378.4 387.8 399.8 421.2 439 456.2 464.4 473.8 499.6 513.7 507.3 508 508.2 508.7 499.2 488.9 479.5 471.6 478.9 477.7 478.9 476.3 473.4 468.6 465.5 463.6 462.2 461.2 459.9 457.3 457.3 458.4 456.2 451.9 453.5 460.6 466.1 473.1 484.2 491.1 496.4 495.9 508.5 521.3 530.6 538.5 549.1 561.2 569.4 580.5 589.4 599.8 610.3 619.4 632 639.6 652.7 666.8 679.9 691.7 703.3 709.1 686.9 683.4 681.4 681.3 693.4
156.3 156.9 155.5 154.1 153.9 150.7 147.3 147.5 147.8 147.9 147.5 147.4 147.2 147.2 145.3 144.3 140.8 141.8 141.3 140.6 138.4 141.3 143.5 144.6 147.1 146.6 147.3 147.9 149.6 150.9 152.8 153.9 156.8 157.9 158.7 159.7 160.6 161.2 162.5 161.8 162.1 162.3 161.6 161.2 160.3 160.8 160.8 160.5 160.7 160.6 160.8 159.4 163.9 164.5 165.5 165.8 166.2 166.7 168.5 168 167.8 166.5 165.9 162.9 160.8 156.2 142.5 151.2 155.4 154.8 155.2 150.7 149.1 152.3 154.2 153.4 154.2 155.8 156.7 157 157.6 159.7 165.1 173.1 181.5 191.3 200.6 210.5 222.5 234 249.5 263.3 276.2 286.3 297.1 306.6 315.4 317.9 323.4 332.1 339.8 347.9 355.7 361.9 362.5 367.1 372.9 379.8 383.8 381.8 383.2 383.2 384.8 387.4 390.9 392.8 391.8 386.9 375.4 364.6 356.5 357 354.2 350.8 348.5 346.7 348.6 348.3 338.5 358.6 362.6 370.7 373.8 377.7 389.5 402.5 421.2 440.6 451.9 463.1 473.7 491.8 507 512.9 517.4 516.5 510.1 504.1 495.5 488 485 488.8 486.5 484.9 482.9 480.1 476.2 472.9 470.6 468.4 467.8 466.6 465 464.3 463.1 461.2 458.5 454.1 459.1 465.3 474 479 484.6 483.2 491.9 504.7 511.9 518.4 530.2 542.7 552.1 562.3 571.5 581.4 590.8 602.9 613.3 624.8 635 649.4 665.5 678.9 695 698.5 701.2 684.6 682.3 684.8 689.1 696.2
158.5 157.5 155.6 151 149.4 148.9 148.9 150.7 151.8 152.4 151.9 151.3 150.5 149.3 147.6 143.8 142.8 144.1 142 142.2 142.3 144.5 145.2 146.4 147.6 151.1 153.2 153.4 154.1 156.2 159.4 162 163.7 165.5 166.2 167.7 169 168 167.8 168.6 168.6 168.1 167.8 168.1 167.4 166.4 165.3 164.3 164.8 164.5 164.4 163.9 163.9 163.1 165 166.7 166.8 167.1 168.6 167.8 167.9 167.6 165.6 162.7 160.3 144.7 147.8 156.8 157.2 157.8 157.5 153.1 147.7 155.2 158.2 159.1 157.9 158.5 159.4 161.8 162 166.1 172.1 181.4 190 199.4 208.5 220.7 230.8 244.3 262.9 275.4 287.3 296 306.4 316 319.9 325.7 332.3 342.1 347.8 357.4 365.4 369.6 373.6 381.2 387.2 389.4 390.6 391.9 393.7 394 396.6 401.1 404.3 406 403.5 396.5 386.8 375.9 366.1 360.2 357.6 355.2 353.2 353.3 356.2 354.7 343 339.6 357.4 367.3 375 382.9 401.1 420.4 439.8 443.6 447.6 462.1 472.9 486 504.8 516.3 524.1 524.8 512.1 508.3 502.6 489 494.3 495.6 493.3 491.5 490 485.7 483.7 481.5 479.3 478.1 476.8 474.9 473.2 472.6 472.8 466.9 466.3 463.5 460 467 471.5 477.3 477.6 479.4 488.2 498.9 504.1 511.5 523.1 534.3 543.6 554.9 562.5 572 580.7 595.3 607.1 617.3 632.1 647.3 663.5 678.2 688.2 692.8 689.1 684.6 684.7 690.6 696.3 700.6
158.5 157 153.3 152.3 153.7 154.2 153.5 154 154.6 155.9 156 155.2 153.3 151.8 149.2 145 146.2 144.7 145.3 144.6 145.3 147.2 149 149.9 151.3 153.1 154.9 157.3 159.5 161.9 163.3 166.2 169.6 171 172.7 173.5 173.6 174.5 175.5 176.1 175.3 174.1 174.7 173.3 172.4 171.1 169.4 167.2 167.4 166.9 168.1 167 166.6 167.3 165.5 165.5 166.3 168 170.3 169.9 168 168.6 164.8 163.8 160.7 149.2 156.2 158.7 160.7 160.2 160.1 156.4 153.8 158.8 162.5 164.4 161.1 161.2 162.1 163.3 166.7 171.4 179.8 188.5 197.3 207 217.2 229.8 246.5 261.1 274.6 285.8 296.5 305.2 313.4 321.5 326.4 334.5 344.3 351.6 358.9 366.6 374.8 382.2 387.4 391.9 397.3 397.7 400.1 403 404.4 406.9 410.1 412.7 418.4 418.7 415.4 409.2 399.4 388.4 379.8 369.4 363.3 357.1 356.6 357.8 360.6 361 357 348.6 345.4 365.7 373 386.9 404.3 430 442.2 440.4 444.5 458.9 472 483.1 498.8 511.8 513.7 514.5 512.2 512.8 500.5 497.7 501.4 501.1 500.4 499.8 495.8 492.1 491.1 489.6 487.5 485.4 484.6 482 480.2 480 479.2 474 471.5 469.7 464.8 467.6 468.3 471.5 474.8 478.6 486.3 492.2 496.8 502.8 516.2 524.8 535.6 543.6 555.1 561.6 572.9 588.8 602.1 613.7 629.1 646 661.5 675 681.7 686.6 683.8 685.4 688.8 695.7 699.7 702.9
157.1 155.3 154 155.4 156.9 157.7 157.9 157.8 158.2 158.3 157.8 156.2 154.6 152.1 149.3 146.9 148.1 151.1 148.5 148.3 148.2 147.8 149.8 154.2 155 155.5 156.4 160.1 164.1 166.7 169.5 172.5 174.2 177.9 177.1 178.3 179 180.3 182.2 182.4 181.8 180.8 179 177.7 176.1 174.8 172.8 170.5 169.4 168.4 168.7 168.8 169.1 170.1 170.5 166.9 165.9 167.8 172.2 171.2 169.5 169.1 164.5 161.4 156.6 147.3 158.9 163 164.7 162.8 162.7 158.1 155.1 161.9 166.4 166.9 163.7 164.2 165.1 166.4 172.3 178.2 186.4 195.9 205.9 216.2 228.5 244.4 261.8 275.6 286.6 296.1 307.3 314.4 321.7 326.6 335.4 343.9 354.4 362.3 367.2 379.7 384.9 393.6 399.7 403.7 406.2 407.8 410 414.5 416.6 419.3 425.9 432.3 434.8 431.9 428.1 423.8 413.1 407.3 395.7 386.6 372.7 360.4 359.3 360.5 361.3 362.7 361.2 353.7 344.7 358.5 373.3 387.9 406.9 422.1 426.4 432.4 442.6 455.8 472.2 484.8 490.4 504.1 511.1 511.3 509.3 504.9 499.1 504 508.4 509.3 507.4 505.1 500.8 501 499.8 497.5 496.1 493.7 491.7 489.4 487.5 486.6 483.8 480.2 476.8 475 473.6 477.7 476.4 469.1 472.4 475.8 484.6 487.6 489.8 495 506.4 515.2 524.9 535.3 544.8 553.4 568.9 580 593.7 609.4 625.9 644.8 658.5 672.4 677.4 677.5 679.7 684 692.2 696.9 702.6 704.9
157.8 157.3 156.4 157.1 158 160 160.2 159.8 159.6 159.4 158.8 157.1 155.8 153.2 150.5 150.1 154.8 152.8 152.2 151.1 151.1 150.8 153 158.7 158.6 162.9 162.3 160.9 164.7 167.4 171 173.4 176.4 178.9 179.5 180.8 182.6 183.9 185.2 186 185 185 182.9 180.5 178.2 175.6 173.2 171.1 169.3 168.5 168.6 168.5 168.2 169.5 166.8 166.4 166.5 167.5 168.6 169 167.5 166.6 161.5 154 153.5 157.6 164 164.6 166 165.1 163.8 161 157.4 165.3 167.4 168.6 167.3 168 170.9 174.1 176.1 183.6 195.1 205.9 214.7 224 240.2 256 272.5 287.4 298.2 307.8 316 322.7 329.4 338.1 345.9 355.5 363.8 370.9 381.7 388.5 396.5 401.6 408.2 414.6 416.3 418.2 419.3 423.4 427.2 432.8 441.9 450 452 446.8 441.6 432.9 428.7 425.3 418.1 406.6 390.2 371.3 363.6 364.8 362.9 364.9 365 360.7 353.9 353.3 370.3 388.3 404.6 408.3 414.7 425.6 439.5 451.7 471.2 486.3 494.7 500.4 511.3 516.5 517.4 504.4 505.7 510.9 514.5 516.9 514.8 510.6 508.7 508.4 508 506 503.6 501.7 500.1 496.6 494.7 492 489 484.7 480.9 478.3 481.9 484.4 482.9 474.1 472.6 472.5 475.7 478.9 485.9 491.4 498.9 510.4 517.9 526.8 534.4 547.5 558.2 576 588.2 607.2 623.8 641.4 655.9 665.5 670.4 672.5 677.1 684.9 694.4 699 706.9 709.5
159.7 158.5 158.8 159.1 160.3 160.7 161.8 161.3 161.5 161.3 159.9 159.1 157.1 154.6 152 153.4 154.8 155.1 155.2 154.1 153.5 153.5 156.5 157.8 161 163.1 164.9 167.1 169.7 171.3 173.5 175.7 178.7 179.3 180.2 181.1 183.1 182.9 184.2 183.5 182.6 181.7 180.1 178.9 178.5 175.9 172.9 170.2 169.2 169 168.8 167.6 166.9 168 166.7 167.5 168.4 168.5 169 168 167 167.7 169.6 153.1 158.2 162.5 166.2 167.5 169 168.4 167.1 163.3 162.5 170.1 171.4 169.8 170.2 171.7 174 177.6 181.4 191.8 204.5 214.8 221.7 233 250 265.9 282.9 298.3 308.5 317 324.6 331.3 338 347.9 358.6 367.5 376.5 381.6 393.1 397.5 404 411.9 417.6 423 428.7 429.8 431 436.5 442.6 449.8 456.3 463.3 465.8 460.7 455.8 451 450.2 451.1 447 438.9 423.7 413.1 401.4 404.8 400.2 373.2 371.2 366.1 362.2 351.5 367.6 385.2 394.1 396.9 406.6 423.1 438 451.3 470.3 486.4 494.8 504.3 512.4 512.1 509.4 507.4 509.3 516.5 521.7 522.5 519.6 519 519.5 519.5 517.7 515.9 512 510 506.5 503.3 500.1 497 494 489.4 486.1 483.6 485.2 486.7 485.6 478.3 474.4 474.5 475.7 478.9 486.7 490.6 500.7 506.2 512.1 516.5 521.9 540.1 551.8 566.9 583 601.4 618.9 636.4 652.4 656.4 661.6 670.2 675.9 686.1 697.7 702.1 710.9 716.8
161.7 161.1 161.3 161.6 162.7 163.7 163.9 164 163.4 163.8 163.2 160.6 159.3 156.7 154.4 155 157.7 158.1 158.3 157.3 157.4 159.6 160.3 163.9 166.9 168.7 171.5 173.9 175.3 177.6 180 182.8 182.6 182.9 185.6 188.4 183.6 183.3 183.4 184 182.7 182.3 182.3 181.5 176.7 172.8 170.9 170.5 169.1 169.1 168.1 167.5 166.7 166.9 166.8 169.7 171.5 171 171.6 171.1 168.8 167.7 169.5 169.1 155.9 167.9 169.3 171.8 172.5 173 169.7 166.8 160.7 173.3 175.2 176.3 179.4 175.8 178.1 182.5 190.2 200.7 213.2 221.9 233.5 248.5 259.3 275.8 294.4 306.9 317.1 325.4 333 339 348.4 359.5 370.1 380 387.8 395.8 401.7 407.9 416.6 423.1 431 435.9 440.4 444.4 448.8 449.2 461.5 467 474 477.9 478.1 475.9 472 475.1 480 486 489.3 481.3 461.5 445.2 440.7 430.1 424.9 402.2 380.9 374.1 368.8 360.9 360.7 374.8 381.8 392.3 403.7 424.6 440.2 453.3 467 477.7 487.1 502.9 506.8 510.5 511.3 515.6 518.4 525.2 532 531.6 529.2 532.6 533.9 533.7 534 529.6 525.3 520.1 513.5 509 504.7 500.9 497.5 493.7 492.2 490 492 491.6 488.8 484 478.6 477.3 475.2 477.4 482.2 490.4 497.5 501.5 506.3 511 517.3 531.8 543.6 559.5 578.2 594.7 615.6 632.7 642.3 648.2 656.9 667.9 676.8 688.3 699.4 705.7 714.1 717.8
164.3 165.7 166.4 168.4 165.3 167.6 167.4 167.4 166.8 166.8 165 162.9 161.9 158.8 159.1 160.6 161.8 161.7 162.7 163.1 162.7 166.7 169.7 170.7 172.7 176 178 179.9 181.4 186.1 185.9 187.6 188.3 189.8 193.3 190.4 188.9 186.8 187.7 187.7 190.2 188.1 188 187.9 180.4 175.4 172.7 172 171.3 169.4 168.1 167.6 167.1 167.8 169.5 173.9 176.9 175.7 175.7 175.1 173.9 172.7 173 173.4 165.7 166.3 173.7 175 176.6 176.9 171.3 169 168.4 177.1 179.3 180.4 181.4 181.1 185.1 189.6 197.3 208 220.2 231.1 243.4 259.8 274.9 286.5 302.4 312.7 322.1 331.5 339.3 353.5 363.7 374.7 380.2 389.9 400.8 407.3 413.8 419.2 427.5 436.2 444.7 448.3 452.3 456 461.6 466.7 474 481.6 489 495.4 493.8 492.7 490.1 498.9 506.9 515.3 525.4 522.2 529.9 530.4 506.1 485.8 456.9 439.8 416.1 384.5 374.1 367.9 364.4 367 379.7 386.1 399.1 420.2 437.4 449.6 461.8 470.4 480.7 494.8 501.2 508.8 514.6 521.5 526.5 535.4 542.1 541.4 544.5 548 546.3 546.7 547.6 542.9 540 533.3 525.8 517.3 511.9 506 502.5 499.7 498.1 496 495.9 496.9 494.3 487.5 479.9 477.8 476.2 478.5 480.1 485.4 492.5 498.2 505 509.6 515 525.9 539 555.7 573.7 592.4 610.1 623.3 631.6 644.5 656.1 666.5 676.6 688.8 700.6 708.9 714.2 721.1
170.3 170.2 171.7 171.6 169.7 172.3 172 171 171.9 171.3 168.6 165.8 162.8 159.5 164.9 165.5 165.3 168 172 174 171.8 175.6 180.2 181.9 181.4 185.1 188.3 189.7 190.8 192.4 192.2 193.4 196.3 198.7 197.9 195.2 194.8 197.1 199.1 198.3 198 197.9 195.7 193 187.5 180.2 180.8 174.1 171.5 170.3 169 169.4 172.3 173.4 174.3 176.5 178.3 178.4 177.4 177.8 178.4 177.6 176.4 174.7 168.7 174.4 176.7 178.1 179.5 179.7 175.1 172.9 169.2 169.8 173.9 183.7 184.6 185.2 192.8 196.1 205.6 216.9 227.7 238.4 250.8 266.2 286.7 298.6 309.8 319.7 328.5 338.2 352.2 364.7 377.8 385 394.3 400 410.2 418.4 424.2 432.5 442.6 450.9 457.1 460.8 466.2 470.8 476.9 484.1 489.7 498.5 505.8 511.8 511.3 510 519.8 528.7 532.7 541.9 545.6 554.9 561.7 554.1 539.2 514.7 474.7 446.1 419 391.1 381 377.4 370.2 363.5 369.6 378.8 392.2 415.7 431.6 439.7 450.3 467 474.1 484.8 495.4 509.8 520.4 527.1 537.1 546.1 551.9 559.5 565.9 566.3 562.6 565.3 564.8 563.9 556 548 541.7 529.3 520.7 512.8 506.6 504.4 503.2 500.6 500.7 500.6 497.1 488.2 481.2 479 477.4 478.5 480.8 485.7 492 495.8 503.7 509.3 517.3 524.3 534.1 551.7 569.1 588.8 604.4 615.8 627.3 639.8 650.1 663.9 676.7 689.2 700.7 711 716.8 721.2
174.1 174.6 174.4 174.1 172.4 175.4 175.3 175.5 175.4 173.8 170.4 166.7 163.4 170.9 171.6 172.6 172.6 175.6 178.3 177.1 179.9 182.7 189.7 193 193.1 196 199.2 199 198.9 201.8 203.1 205.3 205.8 207.7 209.5 210.2 211.8 214.9 218.7 220.5 218.8 218.4 213.9 205 195.3 187.5 181.5 182.3 186.7 179.8 175.1 174.8 178.6 181.4 182.2 181 178.8 178.7 180.8 182.4 182.1 181.3 180.4 176.3 174.9 176.9 179.3 179.9 181.1 182.9 181.9 175.7 172.7 171 170.8 175.7 189.1 189.5 197.5 208.2 214.2 224.4 233.6 245.4 259.3 276.6 294.6 307.8 316.8 328.6 339.5 351.1 364 375.7 386.8 397.4 405.5 412.6 422.3 431.5 437.5 449.5 458.4 465.2 470.6 474.1 479.1 484.1 493.7 499.1 502.6 513.2 520 526.4 530.3 537 544.1 548.3 553.9 559.1 562.1 566.7 570.2 564.1 551.7 537.5 496.6 453.6 444.8 429.2 411.3 390.9 377.9 373.6 367.1 375 384.7 398.6 415.4 428.5 444.3 465.5 471.9 478.5 492.4 507.2 520.9 530.7 544.2 557.8 568.4 575.4 585.1 583.3 587.9 586.5 584.4 580.2 575.4 568.9 551.5 541.8 529.1 520.5 513.5 511.1 507.7 505.3 503.8 504.5 499.8 488.5 482.5 480.3 478.8 479.5 481 483.5 490.1 494 500 507 516.9 523.7 531.1 551.2 566.3 583.7 597.3 608.9 622.7 633.7 646.7 662.1 674.9 688.9 699.6 710.4 719.1 725.8
180.4 179.2 178.5 179.1 176.6 178.3 179.3 178.8 178.7 176.4 174.3 172.6 175.5 177.1 177.9 179.1 181.4 184.8 186.6 186.3 189.4 193.9 195.6 200.2 206 208.1 210.4 208.7 210.4 212.9 214.2 217.5 217.6 221.6 221.4 224.3 228 237.8 243.3 243.2 238.4 233.8 227.8 218.5 208.8 200 192.8 192 193.7 195.6 191.4 182.7 184.3 189 189.3 186.6 185.3 183.1 182.9 185.9 185.9 184 182.6 167.8 180.2 180.2 180 181.4 183 185.4 185.8 186.3 177.8 175.6 175.9 181.5 194 193.7 207.6 219.1 225.1 231.3 240.1 250.9 266.5 283.1 299 310.7 324.5 338.6 352.5 364.5 376.6 387.3 398.1 409.4 416.9 425.9 435.2 442.4 454.4 463.6 471.5 479.3 483.6 489.2 493.4 502.8 509.1 514.4 520.3 528.9 535.2 543.2 547.1 556.4 563 566.3 571.3 575.4 579 580.8 580.6 578.9 573.2 552 527.5 491 473.8 453.2 432.8 419.3 399.4 385.3 374 368.7 376.2 389 400.4 420 437.2 454.5 469.4 476 490 502.3 514.3 532.5 551.4 569.4 585.9 594.1 605.1 609.6 608.5 608.6 605.8 602 598.3 586.3 565.6 551.6 539 526.8 519.3 515.4 513.3 510 507.6 507.2 500.4 489.1 484 481.6 480.9 481.7 482.5 483.4 488.7 497 499.9 504.4 515.2 524.4 534.1 548.9 562.7 577.9 590.4 601 616 630.3 643.7 659.3 674 686 699.1 711.1 721.3 727.1
188 186.6 186.1 185.1 183.2 185.1 183.3 183.2 181.7 179.6 175.9 182.8 182.5 183.6 184.3 188.3 192.3 196.7 197.9 197.1 200.5 205.6 207.9 211.7 215.8 218.2 221.6 224.3 222.7 224.2 227.3 228.2 231.3 232.3 234.6 243.1 253.2 260.2 262.3 258.2 255.9 246.1 241.3 233.2 222.7 213.7 208.2 206.2 209.8 215 208.9 192.5 195 198.6 197 194.6 192.7 192.1 186.1 186.6 188.2 188 186.9 178.8 180.2 181.5 181.5 182.6 184.3 187.1 189.1 191.8 184.2 183.6 183.1 185.3 195.7 201.8 216.9 229.2 236.1 239.2 249 259.2 271.9 289.5 306.5 322.1 336.4 350.2 364.5 377.4 389.7 400.7 411.7 422.5 428.8 436.6 446 457.7 467.6 478.1 486.1 492.8 497.5 503.4 510.1 520.6 525.5 530.8 537.7 542.8 550.5 558.7 565.6 573.6 579.9 582.5 586.2 590.1 593.6 595.3 593.9 590.8 585 577.4 557.4 526.5 494.2 470.5 453 440.2 417.5 402.2 387 376.2 371.7 383.8 394.9 406.4 422.8 441.2 456.8 467.5 483.4 494.3 512.5 536.2 558.5 580.5 597.1 613.1 625.7 634.8 637.1 633.5 629 627.3 623.8 607.2 585 560.5 552.9 538 525.3 520.1 517.9 514.7 514.2 510.4 503.2 491.6 485.6 484.3 483.7 484.1 485.7 487.5 486.5 491 497.2 500.9 508.1 522.2 530.4 544.7 557.4 572.6 583.4 596.1 610.5 625 639.7 656.5 670.9 682.2 695.8 710.1 721.8 728.3
193.5 194.4 193.7 190.9 190.8 191.8 188.8 187.6 186.3 186 186.1 190.2 193.8 191.4 196.7 199.8 204.1 210.2 210.6 207 214.2 220.3 219.9 223.3 228.1 234 236.7 235.7 237.9 242.6 244 246 251.4 252.8 260.3 271.3 279 283.5 289.4 280.5 272.4 261.3 255.8 246.2 238.3 224.5 225.8 225 226 225.7 222.6 212.1 210.8 207.5 206 204.6 199.8 195.6 193.6 190.8 189.5 188.9 187.5 181.1 181.9 183.7 183.2 183.4 185.2 188.2 191.9 194.8 187 187.4 194.6 192.9 197.7 209.4 220.1 242.3 248 242.8 257.9 270.5 280 298 315.5 331.3 346.7 362.7 378 390.4 402.7 414.9 424.9 434.4 442.5 449.8 459.6 471.7 481.6 493.2 501.2 506.3 514.1 521.4 526.2 535.5 542.5 545 551 558.8 568.4 573.6 581.7 588.4 591.9 596.9 601.1 603.8 606.3 607.3 605.6 602.5 599.9 593.3 571.2 542.5 511 493 474.4 452.2 434.7 421.5 402.6 385.1 376.6 377.5 390.6 400.1 409.8 430.4 446.5 464.6 477.9 490.3 515.4 543.2 570.6 594.7 613.1 631.8 644.9 658.7 665.4 662.6 655.2 653.1 645 628 608.2 580.9 562.6 548.2 534.2 527.2 521.7 516.5 518.2 514.4 509.2 493.9 487.9 488.3 486 486.1 487.6 489.6 489.6 492.1 497.5 499.1 508 516.5 529 540 549.9 565.8 575.9 589.8 605.1 620.7 635.4 650.7 664.7 678.2 691.7 706.4 718.5 727.2
201.7 204.3 204.4 202 197.2 198.4 195.7 193.6 191.4 191.2 194.3 192.4 198.1 201.5 206.8 213.9 216.5 218.5 220.9 219.1 225.7 230.2 235.7 240 246.4 248.6 251.7 256.5 263.3 266.3 264 264.6 271.1 280.2 290.9 302.8 309 309.1 304.4 295.4 286.3 277.4 266.3 256.8 250.6 252.4 251.3 248.7 245.6 238.9 233.7 233.1 230.3 222.2 217.8 213.1 206 200.7 196.8 194.1 193.3 191.5 188.9 183.7 184.4 185.9 186.3 186.6 187.5 190.7 195.3 199.8 196.5 199.7 211.9 209.9 192.4 209 223 235.5 242.2 248.9 265 277.1 292.4 308.1 323.6 340.4 355.9 371.2 388.3 402.1 415.7 428 437.6 447.8 457.2 464 473.9 487.5 498.3 507.7 513.4 521.2 529.9 536.8 543.3 549.7 557.3 562 569.4 577.3 583.2 587.9 595.1 601.3 606.5 610.5 614.8 618.1 620 619 618.3 618.4 615.9 605.7 583.1 564.9 550.4 537 517.9 470.2 445.3 427.8 411.1 393.2 378.8 380.7 390.8 401.8 407 418.2 436.9 454.5 472.9 491.8 517.5 546.5 579.4 605.6 630.2 651 674.3 690 696.7 690.5 689.9 678.5 662 647.9 628.4 599.4 576.6 559.6 545.8 535 527.8 522.8 521.6 516.9 511.2 497.3 492.5 493.1 491 489.8 490.3 491 492.7 491.3 496.2 497.8 505 513.7 524.1 532.9 545.1 557.4 571.4 584.8 600 615 629.5 644 658.2 673.2 687.2 701.1 714 726.7
208 211 213.2 211.9 208.8 206.9 204.8 199.7 198.6 195.9 196.3 198.8 206.4 214.4 221.5 225.8 227.5 229.8 233.1 237.6 242.7 246.4 252.7 257.7 262.6 265.1 269.6 273.9 277.5 287.1 284.6 288.1 297.8 306.7 322.7 329 325.8 323.3 316.8 306.9 295.7 284.5 272.4 264 258.6 265.5 268.8 265 263.9 260.9 254.8 251.8 248.8 235.4 225.4 219.3 213.2 206.3 200.3 196.6 198 196.4 194.5 191.3 187.8 187.8 188.7 189.2 190.1 193.9 199.4 204.5 210.9 209.5 216.9 217.7 198.6 212 225 234 241.8 256.6 269.2 281.1 298.4 314.3 329.6 349.6 366.6 382.8 398.2 412.6 425.3 441.2 449.4 459.1 468.5 478.4 490.9 503 511.6 520 527.5 536.4 545.2 553 559.1 564.7 570.4 576.4 583 591 595.8 601.6 608.4 614.5 619.7 624.4 628 630.6 631.9 633.3 634.2 634.4 631.1 619.5 608.2 593.5 582.5 559.2 530.6 501.9 459.3 436.9 419.8 399.5 385.1 378.7 389.1 402.3 408.7 415.9 425.9 445.8 470.5 497.8 522.5 550.1 588.6 621.5 646.5 670.5 692.7 711.1 722.2 722.1 723.2 714 694.8 669.6 643.1 613.9 590.8 574.1 559.3 546.2 536.7 528.5 523.7 520.3 514.6 500.9 498.7 497.3 493.8 493.5 493.9 494.1 495.4 493.5 493 496.9 504.8 511.1 517.3 524.9 536.4 549.1 564.6 578.7 595.1 609.9 623.5 637.7 650.8 666.7 682.7 694.1 708.4 721.4
220.2 222.5 225.8 223.2 217.9 217.1 214 209 205.1 203.3 206.1 208.8 216.3 224.5 232.3 238 243.3 248.4 251.5 256.2 258.2 264.5 270 273.9 277 282.1 284.7 288.4 296.6 304.6 312.1 322.4 332.3 350.5 356.9 352.4 342.2 332.3 323 311.3 297.9 288.4 276.7 269.3 265.4 272.1 277.8 279.7 279 275.4 268.6 261.9 261 248.6 236.4 232.1 228.5 222.7 203.9 200 200.7 199.1 199.3 194 189.3 193.6 193.7 192.9 194.1 198.5 206 212.8 227 229.1 225.3 223.4 211.2 213 224.4 235.6 247.6 259.8 272.3 288.3 304.3 320.6 341.1 362.2 377.6 391.8 408.9 423.8 438.3 450.8 460 470.1 480.2 492.2 504.1 517.4 526.8 534.4 542.6 551.5 559.7 566.5 573.2 578.6 584.7 591.3 598.2 605 610.5 615.2 623.3 629 633.3 637.9 640.4 644.1 647.4 648.6 649.9 650.1 644.3 636.8 625.4 608.4 590 568.1 541.2 520.1 495.9 446 424.9 405.2 393.4 384.5 388.2 404.5 411.4 416.7 424.4 447.2 476.9 505.1 525.3 558.4 594.4 629.6 659.6 688.7 712.5 730 745.2 752.9 753 742.5 713.2 684.5 654.5 630.2 605.1 587.2 571.7 558 545.3 535.7 529.5 525 513.3 504.6 503.6 502.1 498.3 497.5 498.2 497.4 496.4 494.3 492.9 493.9 496.8 506.7 510.9 520 527.2 541.8 555.4 572.9 587.3 602.8 618.5 631.3 645.7 662.2 678.8 691.8 704.7 716.8
230.6 234.7 235.5 228.9 225.6 224.3 219.8 217.5 214.4 217.3 218.3 217.1 227.3 236.1 242.7 251.3 259.2 264.4 267.4 269.6 274.5 279.2 284.5 290.1 292.4 300 304.3 312.6 324.9 338.2 355.2 365.6 384.7 381.1 378.1 363.7 346.2 336.8 323.9 313.2 302.2 293.8 285.5 277.9 270.4 279.9 289.2 292.2 290.7 287.8 277.9 270.6 268.1 258 247.1 242.6 241.3 233.4 215.5 203.9 204 202.1 192.1 189.4 200.2 203.9 201.2 199.5 202.9 211.1 220.4 230.6 238.6 244 234.7 232 220.9 211.2 226.8 237.3 252.2 261.8 273.7 290.6 307.7 326.6 350.9 374.6 389.2 402.7 419.5 435.7 448.5 459.3 471 481.4 491.9 506.5 516.4 531.3 540.9 549.9 558.8 566.9 575.2 581.4 588 594.2 602 608 613.7 619.2 623.3 629.2 635.7 641.4 646.8 651 654 656.4 661 663.5 666.7 664.9 659.8 650.8 638.8 619.4 596.1 582 556.7 528.5 487.1 457.5 431.7 413.7 401.7 390.1 389.8 401.1 411.3 416.8 427.7 456.4 485.5 508.8 529.9 562.1 600.2 637.3 674.4 703.1 726.5 747.5 762.3 773.5 773.9 757.8 728.6 698.6 671.6 647.1 626 603.1 585.9 570.4 556.1 545.4 533.8 525.6 512.7 509.8 506.3 504 503.5 504.1 503.5 502.1 499.3 494.7 494.1 493.6 495.4 501.3 506.2 515.6 521.7 534 550 565.2 580.6 595.2 610.7 625.5 640.5 657.7 673 688.7 697.6 708.4
244.3 244.8 237.6 238.8 235.6 235.6 228.4 229.4 229.2 231.4 230.1 230.8 239.4 248.5 255.4 263.6 269.9 275.6 281 285.6 292.3 297.9 304.3 309.2 314.3 322.2 329.3 337.6 354.9 384.9 395.6 403.8 407.6 400.9 385.8 367.5 351.5 336.9 322.8 314.8 308.5 300.5 292.8 285 283.3 286 298.9 305.4 304.5 296.1 285.5 279.1 274.9 262.9 253.4 247.2 244.6 239.6 225.7 211.4 204.6 193.5 192.9 200 205.3 209.8 212.4 211.2 222 232.2 241 246.6 247.7 246.4 242.8 242.3 232 208.9 231.3 242.7 261.5 263.2 275.9 292 310.1 334.9 362.1 384.5 399.8 413.5 428.5 445.6 458.2 468.9 480.9 492.7 506.5 519 528.7 542.1 554.6 564 573.5 582.5 590.5 596.7 603.7 611.3 616.4 623.4 628.2 633 636.6 643.5 648.2 651.9 657.1 663.3 668.2 671.3 676 680.3 681 679.1 674.3 665.4 646.5 621 603.3 585.9 564.9 532.2 499.2 472.3 438.5 421.1 408.4 395.6 389.8 404 413.5 420.9 439.2 461.4 491.2 511.2 531.2 565.9 613.7 641.2 682 710.4 733.9 752.4 769.2 779.5 782.8 777.6 756 724.6 695.4 665.9 641.7 620.8 599.2 579.8 565.9 553.8 542.4 532.9 519.9 515.2 510.9 509.2 508.6 507.5 504.7 501.8 499.2 495.4 495.2 493.6 493.9 500 501.6 510.9 517.8 527.7 542.1 557 571.9 588.2 602.6 619.8 636.8 655.1 669.8 681.9 687.7 697.5
252.7 251.9 249.5 245.8 246.6 249.9 240.8 248.6 248.3 246.8 245 249.5 252.1 256.6 264.9 272.1 279.3 285.2 295.2 302.8 311.9 319.6 324.9 330.4 337.1 343.6 352.7 365.1 389.6 429 426.4 419.9 414.7 399.5 385.4 369.9 355.4 339.8 326.7 319.7 314.6 305.8 297.1 293.9 292.5 292.3 306.4 314.6 316.9 305.7 293 285.3 277.1 266.8 259 252.1 244.3 243.2 229.7 214.7 201.9 194.5 198.9 208.3 213.4 219.2 226.9 233.9 245.5 253.8 260.3 261.7 260.9 256.1 252.7 248.6 237.9 217.6 235.3 245.1 259.7 269.7 279.8 293.4 314.4 341.7 373.5 394.9 409.8 423.4 436.6 451.2 467 481.3 489.3 504.9 518.5 531.7 543.7 555.1 566.5 578.3 589 598.8 605.4 611.5 619 625 630.4 636.6 641.8 646.7 651.6 657.4 662.8 667.2 672.1 675.6 680.1 685.1 692 694.1 694.4 691.5 684.3 673.5 654.9 631.4 604.4 583.1 560.6 536.1 519.6 479.9 449.4 426.3 412.8 400.9 391 402.1 412.3 423.2 442.9 471.5 489.2 511.3 535.7 570.3 618.8 648 684.7 713.9 735.2 757.3 772.6 785.6 793.6 795 770.6 735.3 707.3 683.3 657.9 634.2 613.5 595.7 577.2 561.5 548.7 541.4 530.7 521 516.8 513.5 512.7 510.1 505.5 501.6 498.6 495.6 495.6 494 492.8 492.6 498.9 506.8 510.2 523.7 536.4 550.8 567.4 580.3 597.4 616.3 634.7 648.5 666.2 677.6 681.1 688.7
261.1 264.3 260.9 256.6 256.6 262 264.8 263.1 264 259 255.5 264.5 261.5 264.5 273.6 286.2 292 302.6 311.5 321.7 330.4 340.3 352.7 358.7 362.9 368.7 378.6 396.5 438.1 447.8 447.3 434.4 423.1 399.9 382.4 367 352.2 341.5 329.9 324.1 320.4 310.1 305.5 303.5 300 299.8 315.2 325.6 319.9 311.1 298.9 286.7 277.9 269 262.9 255.6 249.9 242.8 227.7 213.2 201.7 204.1 209.6 214.9 221 229.6 243.8 259.1 265.6 271.9 275.8 274.7 270.1 269.7 265.5 260.9 251.6 236.9 234.6 252.7 266.4 277.8 286 298.3 324.1 353.5 377.9 399.4 416 430.8 447.3 465.6 479.6 489.3 500.4 516.7 529.7 543.3 556 568.2 580.5 592.9 602.8 612.1 619.6 625.7 633 638.8 645.1 650.7 656.2 660.5 666.1 670.1 674.1 680.4 685.6 691.5 695.5 699.8 704.1 706.7 706.5 701.3 691.2 678.7 656 633.6 606.2 580.8 561.7 542 511.2 477.7 446.7 431.9 419.1 406.9 396.3 399.8 411.2 424.6 447.4 471.8 491.9 521.5 543.9 567.9 615.5 652.8 683.1 708.7 735.2 757.3 775.3 789.4 800 800.7 775.1 746 719.7 693.5 670.7 647.2 629.4 612.7 590.4 568.9 558.1 549.8 539.8 529.1 524.2 519.6 515.1 510.9 505.2 503.4 500.3 498 497.7 493.3 490.7 490.4 495.2 501.5 504.2 517.3 531 546.1 561.5 578.1 594.3 612 628.7 645.9 659.5 673.9 677.2 680.3
274.4 274.7 271 265.6 264 266.9 269.3 269.3 270.4 264.1 278 273.9 269.6 276.1 285.6 301.1 312.9 322.7 334 347.6 355.2 368.6 379.3 386.7 393.6 397 415.5 432.6 467.8 464.1 456.3 440.2 426.2 404.8 384 369 356.8 345.8 333.9 326.5 320.9 314.8 310.9 310.5 308.6 309.6 319 325.8 319.2 312.9 301.9 287.4 277.9 273.6 266.5 257.1 250.5 238.8 221.2 208.5 202.7 210.1 217.4 224.2 231.2 255.5 263.6 272.4 279.3 286.5 287 283.2 280.3 276.6 273.6 268.3 265.5 250.2 230.6 253.2 271.8 285.1 293.1 314.6 338.5 363.7 383.8 402.1 420.4 438.1 455.3 473.4 485.1 496.5 512.4 525.1 543.4 555.6 569.5 582.6 595.1 607.5 618.2 624.2 631.1 639.7 647.6 651.1 658.7 665.9 671.2 674.3 678.9 682 687 692.9 697.9 702.6 709.4 715.1 717.6 720 718.8 711.2 699 678 649.3 624.1 603.4 580.1 550.6 527.2 492.1 474.6 463.9 443.5 425.8 411.6 402.7 402.3 413.5 429 445.8 473.6 501.2 528.1 549 572.1 616.2 652.2 674.8 704.4 732.9 756.3 775.7 791.3 804.1 807.5 788.7 758.3 733 710 684.7 665.5 645.2 620.7 599 579.4 564.5 557.1 547.5 537.2 530.9 525 517.3 509.2 504.3 503.2 501.9 498.7 496.2 491.8 490.4 488.8 492.2 497.2 502.4 513.5 527.6 541.8 557 572.7 590.6 606.3 624.1 639.2 654.7 669.2 670.2 673.4
289.2 286.2 282 276.4 273.9 274.3 277.4 278.3 279.5 284.5 295.2 287.2 286 290.5 305.3 324.2 334.2 345.6 359.2 375.3 386.4 400.3 404.9 413.8 419.9 431.2 445.7 470 491.6 478.6 464.8 450.7 429.6 411.7 391.1 379.3 366.4 348.4 339.4 329 322.9 319.9 315.6 316.7 313.8 314.4 323.3 324 317.8 313.8 303.2 289.7 278.3 275.2 271.4 259.6 251.7 232.8 215.8 203 206.5 215.3 225.4 241 254.3 269.1 283.4 289.1 290.2 291 293.1 292.2 288.8 285.8 281.7 279.8 270.5 268.9 247.8 252.6 274.6 284.1 300.5 320.8 343.9 367.3 390.2 409.8 427.7 445.5 461.6 476.6 489.3 503.1 520.8 542.2 555.4 567.9 583 597.3 610.6 623.4 632.2 641 649.1 657.2 661.3 666.1 674.4 680.5 683.7 687.7 690.9 693.2 699.8 704.9 710.6 716.8 723.6 729.7 731.6 734 733.9 724.3 706.4 675.5 645.4 624.5 592.1 569.6 541.7 522.9 515.2 509.7 488 459.2 435.4 418.5 410 400.8 416.8 434.4 453 478.6 501.1 530.3 552.2 585.9 617.5 643.8 669 698 729 753.9 774.4 792.7 806.8 816.3 810.3 786.6 754.5 729.5 706.3 682 659.3 633.5 612.2 590.9 573 563.2 553.8 544.5 534.5 525.7 520.5 511.2 505.8 502.6 498.4 498.3 494.7 492.2 489.4 485.8 491.8 495.5 496.8 510.8 524.2 540.4 553.5 570.5 585.8 601 620.7 636 649.1 663.7 665.8 669.6
302.9 296.6 293.9 291.5 289.6 290.6 293.3 297.7 302.2 297.9 307 307.4 303.9 317.5 339.5 350.3 358.6 376.2 391.7 399.9 414.9 427.3 438.9 449.4 469.5 482.4 490.5 499.3 504.4 490.8 475.7 458 442.7 424.9 403.9 387.1 375.8 358.1 344.1 335.2 328.7 327.4 323.2 322.6 319 320.5 325.6 325.2 320.5 314.1 303 290.3 277.4 271.7 268.4 256.7 239.3 223 213.3 206.1 211.1 224.1 242.6 268 282.3 282.9 297.4 301.2 296.5 299 299.2 299.9 297.9 294.5 291.6 289.8 282.3 276.9 267.2 246.9 279.1 296.4 311.8 328.8 345.5 368.3 391.6 408.8 429.2 448.8 463 477 492.5 513.6 536.2 552.3 566.6 581.8 596.3 610.2 624.3 635.7 646.5 656.8 666.5 674.5 677.2 683.2 691.9 695.7 698.2 699.5 703.1 705 709.5 715.1 721.5 729.8 738.2 743.4 746.8 748.1 742.1 730.3 707.5 665.7 631 608.4 586.8 566.2 558.5 561.4 551 532.3 503 473.6 447.2 427.2 415.4 407.7 419.7 437.5 463.7 481 503.9 536.9 559.2 589.4 612.7 635.4 660.5 690.6 721.3 747.7 770.9 790.2 807.6 821.4 826 809.2 777.8 752 727.1 705 680 646 625.5 600.5 580.9 568.1 560.8 549.3 538.2 528.7 520.8 514.6 507.2 499.7 495.6 494.4 493.1 490.5 487.6 484.2 489.4 491.9 495.4 506.3 520.2 535.4 549.7 565 578.9 596.3 613.5 631.3 647.3 655.7 661.9 663.3
316.7 312.8 309.4 315.1 319.3 317.5 331.4 326.8 321.9 314.1 327.9 334.3 337.1 360 370.3 378.3 390.5 405.6 418.8 431.1 449.1 465.3 475.9 493 507.9 515.2 516.7 515.7 512.9 501.7 486.5 469.9 456.7 438.6 418.6 397 381.1 365.6 351.8 342.2 335.8 330.6 325.8 325.6 323.5 326.4 328.1 328 323.8 315.2 306.6 293.1 280.5 272.2 258.8 242.8 231.7 224.4 218.9 206 213.8 236.3 258.6 281.5 290 294.8 302.8 304.2 304.3 306.6 308 307 305.6 305.8 302.6 301 293.6 288.7 274.8 248.6 280.7 307 324.8 334.9 348.6 370.7 384.6 405.1 424.8 445.9 461 477.4 499.2 525.2 544.1 558.8 575.5 593 607.1 622.6 636 649.9 664.2 672.3 685.5 694.9 697.9 703.5 708.7 710.6 711.5 712.8 715.6 717.3 720.6 724.9 733.9 742.3 748.4 755.4 759.5 757.3 747.8 736.3 691.7 654.6 625.9 606.2 598.2 598.9 589.2 577.8 563.9 544 516.9 491.3 464.6 434.7 420.2 407.7 428.5 444.5 470.9 484.3 508.7 539.1 557.8 585 607.7 624.7 654.2 683.1 709.9 737.5 762.5 786.1 806.3 821.6 836.7 831.4 805.2 782.2 751.1 728.2 698.4 662.5 633.3 608.6 587.8 577.6 567.9 554.1 541.6 531.2 522.4 516.2 506.8 498.4 493.2 491 489.3 487 485.3 482 485 488.6 494.1 504.5 517.6 529.5 543.9 558.7 574 590.5 608 627.4 638.7 642.8 654.6 654.3
345.9 343.1 341.1 342.5 347.2 355.5 366.9 353.6 348.3 330.8 354 376.1 383.1 386.1 396.8 406.7 421.9 433.2 447 463.9 479.7 497.9 512.9 531.9 549.8 544.7 533.9 528.8 523.1 512.9 498.1 482.6 471.8 449.2 426.2 405.8 386.8 367.6 351.1 340.2 335.8 331.4 329.5 327.8 328.2 328.4 328.6 330.5 329.8 318.6 306.2 293.5 279.3 262.5 246.3 234.9 228.4 223 211.6 207.4 225.5 248.6 270.5 290.5 309.2 308.6 307.1 310.6 313.6 315.2 315 319.8 319.1 319.2 318.7 316.1 307.9 298.8 275.6 251.3 283.8 310.1 326.4 337.4 352.8 374.6 387 403.1 422.5 442.7 459 482.7 508.8 531.9 548.5 565.9 585.6 601.8 617.9 634.4 648.7 663 677.3 689.4 704.7 712.7 714.5 719.9 723 725.7 726.1 726.5 726.3 727 730.5 737.2 745.5 753.8 762.5 765.6 764.5 760.9 749.4 712.8 677.4 649.4 631.3 623.1 611.4 607.4 597.9 589.1 574.8 567.2 547.3 517.9 485.7 448.1 424.5 415.6 425.4 440 461.1 489 508.6 535.3 551.7 574.5 597.1 619.5 643.4 669.8 696 724.4 753.4 779 802 823 837.9 848.7 841.8 816.2 776.4 741.6 712.7 684.3 649.2 622.1 600.8 589.8 579.4 559.6 545.6 535.4 524.5 515.1 506.4 498 492.8 489.6 487.8 485.9 482.9 480.4 480.9 485.9 491.9 500.8 514.3 523.4 537.4 554.8 570.5 584.1 603.9 618.6 626.9 635.8 644.3 646.3
384.2 384.1 380.8 376 380.4 387.8 396.1 381.1 367.3 339 377.4 390.3 394.9 404.5 416.7 431.6 449.7 462.8 477.6 498 516.6 533 547.3 555.2 557.7 548 547.6 542.6 535.8 526 506.7 490.6 474.4 454 432.8 410 390.2 376.8 359.1 350.5 341.4 335.1 334.4 333.7 332.6 330.5 331.1 333.3 333.5 320.5 306.2 291.2 272.1 253.7 235.7 229.1 210.6 209.7 208.6 212.2 232.6 256.3 277.9 299.3 308.4 314.6 317.2 321.5 327.1 329.4 329.7 332.7 331.6 333.4 336.8 330.7 321.9 304.8 278.9 265.9 292.2 314.4 325.5 339.3 356.5 375.3 389.8 406.4 424.9 441.7 458.2 489.5 514 534.4 552.8 573.6 593.4 611.4 628.5 643.8 661.1 678.5 689.7 705.9 718.2 726.1 729.3 735.9 739.3 741.2 740 739.8 738.3 741 743.7 751.5 760.3 769.8 773.1 773 770.8 765.8 738.8 698.1 679.9 665.1 644.7 627.7 622.9 609.6 601.4 598.3 593.1 584.1 561.5 524.1 487.1 456.7 430 418.8 424.1 441.5 465 485.7 510.6 527.9 543.9 563.3 591.6 614.7 634.2 657 684.1 712.6 742.8 770.3 795.4 816.9 839.7 854.9 851.3 831.1 802.2 759.3 729.2 699.9 674 643.3 617.4 605.2 590.5 570.1 551.6 538 525.9 514.2 506.7 499.1 495.2 489.7 487 484.4 480.9 480 483.5 482.7 490.8 499.4 508.4 523 533.7 546.8 564.3 579.6 593.5 607.1 617.1 627.9 630 629.3
436.4 441.1 429.9 404.6 411.2 431.1 430.4 412.9 398.4 365 387.1 397.9 406.8 419.4 436.5 449.7 467.4 482 504.4 523.2 537.1 549.3 562 563.1 560.7 562.1 559.7 555.7 549.9 537.5 518.2 494 474.3 452.7 427.6 409.2 392.1 378.4 365.7 354.3 346.6 344.9 340.2 337.4 335.1 333.8 333.4 335.2 330 317.7 303.6 286.6 268.5 251.7 234.4 223.5 213.4 215.7 217.4 224.6 238.2 265.6 287.6 301.7 314.4 324.7 328.8 333 338.1 339.8 339.9 340.2 342.7 345.3 351.3 340.2 328.5 312.5 286.5 271.2 302.6 316.5 326.4 340.4 357.6 375.7 389.5 404.9 423.5 439.9 460.4 491.6 515.5 537.5 559.5 580.5 600.4 619 635.9 653.9 672.3 689.2 701.3 719.8 731 739 742.2 748.3 752.9 752.6 755.3 754.8 753.9 756.4 759.5 767 775.7 780.2 780.9 779.7 773.5 765.2 752.9 732.6 712 683 660.6 635.3 621.7 610.2 601.2 598.9 601.9 590.4 564.4 529.6 500 468.8 438.2 423.5 428.7 440.5 459.1 477.8 495.1 516.7 540.5 561.2 583.6 604 624.9 646.7 673.5 701.6 731.5 759.9 784.5 811.5 837.7 852.3 849.7 839.3 820.6 791.4 755.5 721.8 695.4 668.9 636.3 618.6 599.5 578.5 558.1 541.4 529 515 507.4 503.1 495.3 490.1 485.5 482.4 479 480.1 481.4 484 488 495.2 504.6 516.7 532.2 546 559.7 574.1 586.7 594 604.3 612.7 618.7 614.9
503.8 489.8 459.8 446.2 446.2 467.3 451.3 442.1 423 392 391.4 411.3 430.8 432.5 445.5 459.5 482.1 502 521.4 539.7 555.5 570.3 575.6 577.6 575.5 571.1 567.9 564.8 562.8 549.3 525.7 501.6 479.6 453.3 429.8 413.2 394.7 380.8 366.3 354.2 352.5 349.9 346.8 343 338.6 335.2 335 331.8 325 312.8 297.3 285.7 272 253.2 235.7 215.4 219.2 229.1 234.1 240.6 249 271.8 296.2 313.5 326.3 333.6 340.3 344.7 347.2 349.9 351.8 352.7 354.3 355 356.7 350.3 338.9 323 304.7 263.7 297.5 318.9 328.8 340.3 357.1 375.5 391.1 404.4 423.1 445 466.4 488.3 517.3 540.4 566 586.4 606.3 624.8 643.8 662.6 680.8 695.9 712.7 729.2 739.7 747.1 753.8 760.6 764 765.8 766.4 767.4 769 769.7 774.2 782.3 785.9 787.7 787.4 783.7 781.6 782.3 779.1 761.1 730 696.9 677.2 653.2 638.5 628.2 609.4 598.8 599 588.7 562 532.2 509.3 479.1 456.8 430.1 424.8 437.8 450.6 468.8 487.6 516.7 540 554.3 573 590.4 615.1 636.2 660.6 688.3 719.1 746.5 773.5 800.6 829 844.5 846.7 841.2 828.2 806.4 779.2 741.5 722.6 688.5 650 628.5 603.7 585.6 564.1 544.7 530.9 518.4 510.8 503.9 499.3 491.6 484.2 480.5 477.9 479.2 480.5 479.5 485.1 493.1 499.1 511.2 529.1 538 554.1 567.9 577 583.2 591 599.7 602.6 599.4
525.5 503.7 490.4 473.3 480.4 485.5 475.8 460.9 446.4 423.7 406.5 416.4 435.4 451.3 462.5 472.6 498.1 517.3 536.1 551.2 563.1 582.9 591.1 589.4 584.7 578.7 574.1 569.9 562.5 553.6 532.6 511.3 491 462.3 437.4 416.6 400.7 383 369 363.4 358.7 353.9 347.1 342.7 335.8 332.7 332.6 328.4 322.2 309.7 295 284.8 273.1 253.4 229.6 221.6 234.7 243.6 251 258.2 271.9 282.1 302 321.7 337.5 345.8 353.8 357.8 359.5 362.7 364.8 366.4 368.2 368.2 364.3 356 348.5 333.9 317.7 290.3 297 312.3 326.5 340.1 357.1 373.9 389.4 406.4 425.6 446.1 466.9 494.7 523.4 547.8 572.8 594.5 614.6 633.2 651.6 670.4 687.9 705.5 722.5 737.7 749.3 757.7 767.3 773.8 776.9 777 777.3 778.9 780.4 785.6 792.5 792.9 795.8 794.9 792.2 793.8 795.3 795.2 792.5 772.7 745.1 719.9 697.1 681.6 659.9 642.7 623.4 610.9 598.6 583.9 563.4 540 528.5 500.7 477.9 444.3 436.7 432.9 447.1 461.4 481.7 506.8 527.9 548.5 564.5 584.7 601.4 622.1 648.7 677.7 704.5 731.7 761.2 789.6 816.3 834.5 840 839.6 830.4 815.5 792.3 762.9 723.6 692.4 660.4 636.6 610 587 565.5 548.7 530.7 519.1 511 504.7 501.5 492.6 485.1 479.7 477.2 478.9 480.3 478.6 485.2 492.6 500.3 507.2 520.4 533.4 546 557.5 565.9 572.8 578.9 585 584.7 582.8
552.1 536.4 522.5 508.3 506.5 504.2 497 489.2 466.1 443.1 424.7 416.7 451.4 471.5 475.2 486.5 509 529.1 548.2 562.7 574.6 591.7 602.2 593.9 589.3 587.3 583 577.8 570.2 560.1 545.6 518.4 498.3 468.1 447 427.2 404.8 389.2 379.5 368.7 363.1 356.5 349.2 341.2 334.5 331 324.6 324 316.7 302.4 289.2 276.5 261.1 240.3 226 226.3 244.8 259.9 287.8 310.7 321.2 306.2 313.4 329.4 347.9 358.4 364.9 367.9 373.3 377.3 380.1 379.7 383.2 378.9 372 367.5 361.4 350.9 328.1 306.6 292.6 309.3 330.7 344.8 359.8 374.6 390 409 428.8 450.3 473.8 501.3 531.7 554.4 579.1 600.7 621.9 641.3 660.4 678.2 696.5 715.6 732.9 746.4 759 771.2 781.2 785 788.4 790.7 788.9 789.9 795.7 801.9 803.6 804.3 806.3 806.2 806.6 807.1 807.6 807.4 804.8 792 772.9 748.8 728.2 705.5 680.7 665 640.8 625.8 609.2 593.1 568 544.3 526.1 503.9 482.5 455.5 442.4 438.7 441.3 460.6 479.9 496.8 518.7 536.9 557.2 575.4 592.9 608.1 639 662.9 689.6 716 745.5 774.7 798.7 817.6 827.4 831.2 827.2 820.7 804.4 764.3 724.1 696.1 666.5 639.2 613 589.4 570.6 545.9 529.7 518.6 511.1 507.8 500.8 493 487.1 482.1 480.3 476.7 477.3 477.2 480.8 486 495.3 501.6 513.5 526.9 536.7 545.3 555 561.1 566 568.8 568.3 566.6
584.9 575.4 561.4 549.9 528 515 506.7 501.8 477.9 455.1 427.5 426.4 463.6 479.9 485.3 504.9 526 544.3 559.9 572.5 585.7 600.2 613 603.2 595.9 592.8 589 583.2 575.3 566.4 543.1 523.4 503 475.2 451.5 432.6 406.5 390.3 380 369.2 361.3 355.1 346.2 341.4 330.9 323.6 319 314.7 305 287.3 275.4 264.1 244 227.7 222.6 238.6 251.7 286.6 307.3 327.5 331.2 324.8 330.9 343.1 353.9 367.7 375.2 381.7 389.4 394.6 393 395.2 392.5 388.9 383 378.6 370.6 361.1 341.4 330 320.9 303.9 334.1 350 365.2 377.3 392 410.1 429.8 454.5 479.1 507.1 537.9 564.1 587.3 608.1 629.1 648.7 667 684.7 704.4 723.2 739.5 754.4 770.2 781.9 790.3 796.9 803.3 803.2 801.1 806.5 810.6 813.6 815.8 816.6 816.5 817.3 819.3 819.4 819.6 819 819.9 817.8 814.8 775.7 741.2 716.9 697.9 676.9 658.6 642.8 621.6 599.6 574.6 552.6 535 514.8 499.2 471.3 450.6 445.1 445.8 454.2 469.9 487.5 507 528 548 563.7 580.8 599.4 624.1 646.2 675.4 701.2 728.7 755.3 779.3 800 813 819.8 823.9 823.6 806.9 770.3 723.6 695 667.7 647.8 617.7 591 566.4 544.4 528.9 518 511.9 508.3 502.3 494.7 487.9 484.1 480.4 478.4 475.8 475.6 478.8 482.9 496.2 501.6 508.5 519.7 529.1 537.4 543.6 547.6 550.3 552 551.4 548.8
593.7 585.6 581.4 564.5 541.1 524.5 518.2 512.5 491.2 460.1 433.5 439 470.7 486.9 501.6 519.6 541.2 556.1 570.6 583.6 593.8 605.7 617 610.8 606.9 600.8 593 583.4 573.7 558 540.5 515.8 491.4 469.3 450.4 423.6 408.5 389.7 375 363.9 351.7 345.6 339.1 333.5 325.6 318.8 313 303.5 294.5 275 261.7 242.7 230.1 225 228.8 239 255.7 284 311.3 326.7 335.1 342.6 349.1 358 368.4 381.4 393 399.7 407.5 408.3 407.4 405.4 404.8 402.2 397.4 390.5 382 371.2 359.8 350.7 345.5 335.2 311.3 351.8 367.4 384.4 397.2 412.4 431.9 456.5 484 513 542 568.2 592.3 615.4 637.6 656.5 676.6 693.2 711.3 728.8 745.5 762.3 777.5 790.1 800.2 811.5 815 815.2 817.5 820.2 820.9 823.9 824.7 826.1 828.1 829.4 831.6 832.6 836.1 838.7 841.6 841.6 820.7 777 753.5 731.3 714.5 688.5 669.8 644.8 623.3 607.3 582.7 566.4 550.9 536.6 525.2 504.2 472.8 454.5 451.2 449.1 455.7 473.4 491.7 513 536.8 550.8 570.8 589.5 604.5 631.8 658.9 681.6 708.9 731.6 757.2 782.3 800.7 810.7 817.6 819.8 804.7 773 733 710.3 673.3 650.5 621.2 586.9 561.2 539.5 527.1 516.5 511.7 506.9 502.9 494.1 491.2 485.4 479.8 476.6 475.5 475.4 475.9 478.7 491.6 493.8 503 512.4 521 527.3 530.8 536.2 537.5 538.6 537.1 534.4
598.4 593.2 585.4 573.7 548.1 533.5 527 514.4 492.8 464 438 453.1 477.3 500.7 517.5 535 554.1 570.6 581.9 593.5 602.9 611.5 618.5 618.9 616.4 611.6 601.8 590.5 575.4 560.8 545.8 527.8 506.9 482.2 454.5 433.6 416.8 403.3 384.1 369.6 354.7 347.7 345.6 335.9 333 331.4 323.7 317.4 307.3 277.7 254.2 231.6 225.5 229.9 238.3 248 263 303.3 324.3 339.2 356.6 366.1 373 378.9 388.9 398.3 412.3 417.5 423.1 428 422.4 421 418.8 416.5 414 403.7 396.5 385.9 378.1 373.2 374.7 354.3 310.3 349.8 369.6 385.9 398.7 416.4 435.2 460.3 486.8 517.1 547 573 598 623.6 645.2 664.6 682.7 699.6 716.2 733.4 752.3 768.5 782.7 797 810 819.3 826 830.8 827 829.8 830.5 830.9 833.1 834.7 837.6 841.2 846.8 851.9 856.4 861.6 864.4 861 828.1 791.3 763.6 743.5 722.6 701.4 680.3 661 638.9 613.4 592.4 574 562.6 550.7 535.4 525.4 493 472.8 463 457 452.8 462.8 474.1 494.8 518.4 537.7 556.2 573.6 590.2 611.9 637.1 657.8 681 705.5 733.1 762.5 785.9 803.1 810.7 814.9 807.2 776.3 742.1 708.8 673.8 649.4 618.1 584.7 558.3 542.3 525.7 515.3 510 505.2 502.3 496.4 491.2 482.6 478.2 476.4 475.3 475.4 474.3 474.1 483.1 491.8 501.3 505.2 510.7 516.2 519.5 523.5 524.4 522.8 520.7 519.1
607 597.9 590.1 570.4 551.9 537.4 535.6 521.5 499.3 469.4 448.5 465.9 485.3 507.5 528.2 545.7 566.8 584.2 595.2 604.1 612.6 621.2 630.4 633.6 627.2 624.2 611.7 597.2 582.4 568.8 555.7 536.9 509.9 488.2 467.4 443.1 424.9 409.1 392 371.2 363.1 352.7 344 337.4 334.8 331.9 324.4 305.2 284.1 260.4 242.6 228 227.2 240.9 253.5 264.7 277 303.5 328.7 345.5 362.7 379.8 393.3 400 407.7 420.3 424.9 432.3 438.2 437.8 436.9 434.3 433.4 434.8 431.5 416.3 412.1 407 396.1 386.1 384.1 362.2 317.4 346.4 371.2 386.5 400.8 417 437.3 461.8 484.8 516.9 548.7 577.2 604.1 629.3 649.4 669.1 686.9 702.7 721.4 740.6 759.4 774.7 790.2 803.3 816.7 831 839.9 840.1 835.3 834.6 835 838.1 840.6 843.2 849 858.1 863.8 869.1 877.5 881.2 882.9 880.2 845.2 807.2 783.7 766.3 738.3 719.1 697.9 672.8 648.5 625.6 604.3 587.8 576.8 558.8 543.4 528.8 502.8 481.6 471.5 465.3 457 461.1 470.8 483.2 500.9 521.8 538 553.9 568.1 586.5 606.6 633.3 653.4 679.9 708.1 736 764.9 796 808.8 809 794.5 768 731.4 696.2 663.3 647.1 622.9 581.5 554.1 539.7 525.8 515.2 509.7 506.2 501.9 498.2 489.1 483.1 478.5 476.6 476.4 477.3 471.8 473.2 479 488.6 497.2 498.8 502.6 505.9 508.4 508.4 509.7 508.9 505 503.7
614.1 598.7 586.1 570.8 559.5 545.4 532.6 511.1 493 471.2 469.9 488.2 502 532.5 546.3 560.8 581.7 593.7 605.2 614.5 621.4 631.8 641.2 647.2 640.5 630.1 618.7 608.4 595.7 585.1 564.4 540.9 518.4 491.5 468.5 444.2 424 406.9 393.9 379.2 368.8 351.6 343.2 339.9 335.4 331.1 326.2 309.6 280.9 252 239.1 232.6 234.2 251 269.2 275.9 283.6 312.9 335.8 355.7 374.2 393.5 409.9 421.1 434.3 440.4 446.3 451.4 452.1 454.7 454.6 451.1 453.8 449.7 440.9 435.1 427.8 424 412.3 398.4 385.1 355.9 323.7 358.4 374.9 387.1 399.9 416.4 434.7 458.9 483.9 518.2 550.9 580.6 609.7 632.5 653.4 672.5 690.9 709.1 726.8 745.8 765.6 782.6 796.5 810.4 828.2 838.7 842 840.7 836.9 837.4 841.4 844.8 848.1 857.3 866.6 873.1 879.4 886.3 892.5 896.7 899.4 896.8 862.7 838 819 800.1 783.1 751.8 722.2 689.7 661.6 636.5 614 609.6 586 566.1 549.4 531.8 507 486.6 481.7 471.9 462.1 458.2 465.8 477.5 499.5 513.2 524.3 538.3 548.9 562.7 591.1 605.9 629.2 655.9 683.5 716.2 747.8 786.9 787.9 794.5 775.4 748.9 715.5 685.3 654.9 639.8 616.8 579.3 551.4 535.3 523.2 515.9 510.4 506.3 502.9 498.2 488.8 484.3 478.7 476.4 477.2 472.8 470.4 471.3 474.5 476.4 486.4 494.3 496.4 497.1 497.6 497.5 498.8 495.2 491.4 485.3
618 604.7 594.6 578.9 561.1 550.1 537.9 518.7 502.2 482.4 483.9 499.6 516.1 533.7 548 569.2 590.9 607.1 619.1 626.4 633.9 643.9 648.4 648.6 645.6 643.8 634.1 623.4 607.7 585.8 562.4 541.8 519.1 492.5 465 440.2 419.8 404.1 390.7 384.2 371.5 357.5 344.7 339.2 333.7 332.2 330.9 316 287 271.2 259.4 249.2 245.4 261.1 277.2 283.1 293.5 318.8 347.2 367 391.9 411.4 429 440.9 454.9 463 469.3 468.9 474.3 471.7 471.1 466.8 464.7 458.2 456.4 457.2 448 436.1 420.4 408 391.1 367.8 328.8 361.1 374.9 386.2 397.9 416.1 436.7 460.9 482.5 515.7 551.8 585.5 614.4 636.1 654.9 674.7 692.7 711.5 729.3 751 771.6 789.2 805.9 823.4 830.5 835.8 839.4 838.2 837.9 841.4 846.3 852.3 860.7 870.8 878.3 885.5 892.5 900.1 908.2 913.1 916 917.7 901.7 886.3 860.6 835.2 801.8 766.1 732.8 699.7 666.6 645.6 630.4 619.4 589.7 572.8 555 535.2 512.2 499.3 489.7 475.9 467.3 464.2 464.3 478.3 488.2 501.3 517.6 532.1 541.7 555.1 566.7 588.3 610.7 635 660.9 693.8 733.1 748.9 764.5 782.1 759.1 731.3 704.6 670.6 644 632.8 607.7 571.8 549.8 533.3 520.8 514.4 509.9 506.6 503.3 496.5 489.9 485.8 479 475.9 475.1 470.7 470.5 470 470.9 473.4 482.1 487.3 489.4 489.6 490.3 486.3 485.1 482.9 479.2 474
625.3 616.8 603.8 587.7 570.3 560.9 551.4 536.8 517.2 496.2 488.2 504.5 515.1 530.4 548.9 574.4 603.6 619.8 630.9 639.3 645.7 654.3 656.4 657 655.6 652.2 643 626.7 608.1 586.3 566.7 548.1 523.7 493.2 465.5 438.8 414.3 398 383.6 377.3 362.2 349 341.1 336.2 334.6 335.4 338.7 327.1 310.7 289.3 278.9 261.7 253.5 267.9 280 287.5 299.9 329.5 354.8 379.2 412 432 448 465.6 476.3 482.5 485.8 489 491.5 493.2 485.8 482.1 476.5 470.9 469.4 470 455.7 442.6 426.4 414.6 401.3 381.4 337.4 365.9 376.4 389.5 400.2 419.4 438.9 463 484.2 517.5 553 589.2 616.7 635.5 653.4 672.5 691.5 710.6 732 754.6 774.7 796 812.8 818.7 824.3 830 833.3 837.2 839.2 846.1 852.5 862 872 880.1 888.8 896.8 906.1 916.4 923.9 928.6 932.9 936.1 922.2 896.8 867.3 833.6 798.1 760.5 727.7 696 670.4 649.3 636.6 618.7 591.7 576 558.9 538.1 510.5 507.9 495.1 484.2 474.9 470.8 464 472 482.1 495.2 509.5 519.4 533.7 544.8 562.1 581.7 599 614.4 642.1 676.8 718.8 741.3 748.4 753.5 741.2 713.1 684 654.9 635 617.3 604.6 569.4 548.1 528.5 518.9 513.3 509.2 505.7 503.3 497.9 492.9 483.7 477.5 474 471.4 469.2 469.1 466.2 468.4 470.7 478.4 480 480.1 481.3 481.2 477.6 473.6 470.7 466 461.7
631.2 623.1 614.5 596 581.8 567.4 553.7 543.9 527.1 508.2 501 509.6 521.4 537.9 559.6 584.4 618 634.9 643.3 651.2 657.4 662.5 666.1 664.1 659.4 651.6 643.3 629.9 607.8 585 566 546.6 519.7 493.6 464 434.1 410.3 398.1 382.4 369.3 356.5 347.8 341.2 337.5 336.4 339.1 333.6 323.4 309.1 293.4 278.2 259.4 262.2 274.6 286.3 297.8 315.5 338.7 365.4 394.2 425.6 451.8 464.4 485.3 495.1 496.7 502.1 505.8 507.8 505.8 501.6 496.7 493.3 484.3 483.4 477.9 465.8 455.6 439.4 422.8 409.3 389.4 357.9 364.9 380.8 392 407.9 423.4 443.2 465.7 487.8 523.8 560.4 591.8 614.5 632.1 649.1 668 689.7 709.5 733.2 753.8 777.6 793.4 802.6 809.6 816.2 823.3 829.1 835.8 843.4 851.9 860 870.2 878.2 886.5 897.1 907.1 918.4 928.8 934.6 942.3 948.7 943.4 920.8 890 853.8 816 779.6 743.7 718.3 691 667.5 655.7 642.7 626.3 597.8 579.2 560.8 540.4 527 516.5 504.4 493.4 484.6 477.5 473.3 471.3 477.4 486.7 493.2 510.5 524.6 534.5 556.8 574.8 592.7 606 629.2 665.2 700.7 717.4 730.6 734.7 734.9 696.1 667.1 636.9 627.1 600.3 588.8 562 549.4 529.1 518.4 510.8 507.8 506.8 502.5 497.7 489 482.5 478 476.4 471.2 469.7 468.4 465.1 464.8 469.6 475 474.5 475.6 475.1 473.5 467.9 461.4 457.9 454.1 452.3
639.4 636.4 629 626.4 605.9 583.7 572.5 567.1 551.3 528.4 517.4 530.4 540.2 552.5 573.7 611.5 637.6 648.9 655.3 662 666.9 671.9 673.4 669.7 661.8 652.7 643.7 628.8 609.2 589.8 566.4 545.7 519.3 489.8 462.3 434.5 410.5 392.2 377.1 363.9 352.6 346.9 341.2 338.5 335.5 333.1 328.4 320.5 299.3 290.2 276.7 266.5 275.6 284.9 298.7 311.6 328 353.5 379 407.3 439.9 462.7 487.4 502.2 507.6 517.5 518.7 522.7 522.9 519.9 516.4 512.3 504.8 496.6 497.3 491.2 475.9 465.9 448.8 429.9 417.1 400.6 369.2 365.9 384.8 400 414.4 428.2 448.4 470.4 494.5 530.1 563.5 590.9 609.9 627.5 646.3 667.6 685.5 708.3 730.5 754.4 771.7 781.8 790.8 799.4 807.7 815.8 825 836.4 846.7 855.4 865.4 872.6 881.7 892.5 904.2 915.9 927.4 933.5 942.2 951.4 956.1 932 902.6 867.6 827 789.6 755.4 728.7 704.4 682.1 672.6 664.7 650.8 631.2 605.1 580.9 562.1 550.3 537.8 525.8 515.7 508.2 495.1 487.3 481.5 476.8 474.5 478.4 485.3 495.8 511.7 529.2 544.6 565.3 580.8 600.3 626 655.9 670.1 685.6 702.8 712.9 696.2 673.1 642.7 627.1 618.4 587.8 577.9 558.2 551 532.2 517.6 509.8 504.9 503.6 499.1 494.1 492.2 482.6 475.8 473.9 471.4 469 466.4 463.6 462.1 465.2 467.9 470.2 469.2 466.8 463.4 456.9 452.8 448.4 443.1 439.8
653.7 650.5 642 638.7 622.7 600.4 583.9 579 578.5 569.9 549.1 560.6 567.4 585.3 608.8 634.1 650 660.2 665.9 671.7 675.6 677.9 677.3 673.6 667.4 658.7 645.3 628.4 612.1 588.9 562.2 540.7 511.1 483.5 452.1 429.5 412.6 390.8 370.1 359 349.5 343.7 341.7 337.1 335.2 335.8 332.8 323.6 306.1 290.6 287.2 284.4 287.6 303.9 324.3 330 345.2 365 395.4 428.8 456.7 484.1 509.5 517.9 529.2 533.6 535.1 535.7 535.6 532.5 529.3 523.6 518.8 515.6 505.7 494.3 483.5 474.9 456.4 435.4 424.5 413.7 390.2 368.3 388.2 406.1 418.2 431 452.1 474 498.8 530.5 560.2 587.3 604.9 621.8 643.7 663.7 684.1 707.1 728.9 746.1 760.2 770 778.8 788.3 798.2 809 822.5 834.5 846.6 856.2 864.4 874.3 884.7 895.8 908.1 919.8 928.6 936.9 947.2 954.2 935 905.6 871.4 837.9 794 765.3 738.4 716.5 696.1 687 682.8 671.9 656.4 635.8 604.4 586.9 576.1 560.1 549.1 537.1 527.4 514.7 504.8 496.4 490 481.6 477.4 475.7 480.8 489.3 499.4 515.3 529.6 551.3 572.6 592.1 630.5 643.8 643.7 656.6 672 689.1 680.2 654.6 625.7 623.4 613.3 580.6 575.3 558.3 546.8 530.1 517.7 509.2 504.6 499.9 497.2 497.7 488.8 482.3 474.5 471.4 470.4 468.7 468 462.7 460.7 462.8 463.8 462.2 460.1 457.4 455 451.1 448.7 443.6 435.6 432.9
669.2 662 656.5 654.9 645.2 617.4 600.4 592.3 581.5 575.8 572 576 599.7 612.8 626.2 645.5 662.4 669.7 676.4 681.2 685.6 687.4 685.6 680.5 677.2 666.1 649.4 629.9 610.2 589.3 564.8 536.9 506.3 478.4 449.7 424.6 406.2 381.5 365 354.2 344.6 339.5 341.3 346.9 348.1 344.8 338.7 325.6 310.5 302.9 295.7 295.8 307.1 326.4 333.4 342.8 359.5 385.2 412 443.4 473.5 512.2 525.8 535.2 543.3 548.6 549.6 549.3 547.8 545.3 540.4 535.6 529.4 524.5 513 498.9 487.8 473.9 462 448.6 444.9 430.3 411.9 386.7 384.1 401.3 416 432.5 453.3 478.6 503 529.5 555.8 582.7 600.1 618.4 640.7 659.3 682.4 705.5 723 736.6 747.5 755.8 765.6 776.4 788.4 800.9 816.1 830.4 843.2 852.4 862.6 874.9 884.6 897.3 910 919.7 928.9 940.6 950.8 927.6 908.2 877.8 835.4 803.6 777.9 755.2 733 714.4 701.4 699.6 689.6 677.5 662.2 636.6 606.4 605.5 589.6 576.5 561.3 548.8 537.8 531.3 517.5 506.3 496.9 488.3 481.7 476.5 479.4 485.9 494.8 507.8 521.6 542.1 563.3 595.9 622.6 619.9 624.1 625.7 638 670.2 656.1 639.1 620.7 619.6 595.4 576 573.3 561 542 528.9 519.8 511.8 507 503 500.6 498.2 491.9 483.7 478 470.7 471.8 470.6 464.6 463.1 461.4 461.3 461.8 459 460 461.5 461.4 459.6 453.1 446.9 439.3 436.7
682 676.1 671.2 666 650.9 636.3 617.7 599.5 585.1 578.6 588.3 601.7 612.7 623.4 643.4 660.2 669.2 679.8 685.3 693 695.7 698.8 697.5 698.2 688.3 669.7 652.9 632.1 603.9 584.6 559.6 530.3 502.5 470.8 440.6 415 397.4 377 362.2 351.5 344.4 345.1 351.4 355.6 356.9 354.7 350.3 330.5 315.8 310.6 320.5 336.1 333.1 335.1 345.4 359.3 376.4 403.1 430.7 460 492.2 527.1 541.7 553.4 559.3 560.8 560.1 560 559.5 555.9 552.2 549.3 539.1 529 517.1 504 491.6 486.7 474 461.1 453.9 444.5 426.7 404.6 384 399.7 417 438.4 461.4 484 505 529.8 556.5 580.3 596.9 616.7 636.8 656.6 679 696.1 710.1 714.7 724.3 740.7 753.1 766.6 779.4 793.9 809.3 823 836.7 850.8 862.9 874.5 884.9 897.6 908.9 919.9 931 942.2 924.5 903 864.6 835 806.7 786 771.2 754.6 737 721.2 715.1 709.5 699.5 685.1 665.2 640.1 637.3 619.1 603.4 588.9 574.1 562 556.7 556.7 548.3 523.9 505.3 496.3 489 482.9 480.6 485.5 492.6 502.6 516.8 538.9 563.7 587.1 596.4 596.7 603.7 603.9 616.2 646.4 642.8 618.4 615.2 614.5 590.1 571.8 570.6 553.6 539 528.9 525.2 519.6 512 510.9 510.2 503.1 498.6 490.8 482.9 474.6 472.4 469.8 466.5 466.6 461.2 460.9 460.3 461.4 462.5 463.6 463.7 461.3 457.9 450.8 444.6 438.4
693.1 681.7 680.3 670.8 656.1 644.8 622.8 609.9 608.5 590.3 595.7 605.6 625.5 637.6 649.8 666.9 679.9 689.5 696.2 702.8 709.6 710.3 716.6 709.9 698.2 681.6 655.3 630 605 579.1 554 524.3 496.2 463.8 435.4 410.9 386.8 369.7 357.1 346.3 350.3 353.6 358.3 364.2 364.5 362.5 363.9 358 340.5 344.9 355.7 354.7 349.8 349.8 361.2 371.9 396.9 419.5 447 476.1 514 536.7 559.3 568.9 573.3 573.9 573.4 572.6 568.7 565.8 564.5 558.7 545.4 530.3 519.4 511.3 503.1 497.5 485.8 477.2 462 451.2 437.6 411.8 389.7 411.2 430.9 446.4 461.8 492.2 506.7 524 545.8 573.6 585.3 607 624.1 638.3 659.4 681 700.7 721.4 735.2 747 756.3 767.2 779.7 793.7 808.4 822.2 836.1 850.8 862.8 874.6 885.4 897.8 908.8 921.5 933.3 931.5 891.1 849.9 825.7 806.3 795.6 783.6 766.5 750.8 735.9 729 724.2 715.5 700.8 683 658.7 663.2 651.3 645.1 626 612.2 597.8 583.4 573.4 569.4 562.2 542 521.6 506.7 498.8 489.8 485.2 485.8 492.4 500.8 517.2 536.4 553.8 560.2 566.7 575.5 582.9 585.3 606 615 624.9 610.5 605.6 602.7 579 568.4 565.7 552.4 542.8 538 530.9 529 519.4 520 522.9 511.5 506.3 497.1 485.8 478.6 475.3 473.1 469 465.2 461.1 462.1 461.4 462.4 463.3 462.8 463.3 461.6 458.3 454.4 448.1 441.5
705.2 691.6 687.4 678.3 668.8 650.4 631.8 621.3 610.3 597.3 609.1 622.8 633 647.2 659.6 681.9 693.5 701 710.8 718.4 726 733.4 733 724.9 708.7 692.7 663.3 629 604.6 576.2 550.4 522.4 501.1 476 440.6 406.4 381.4 364.1 354 350.9 354 359.3 368.8 372 369.2 384.4 398.4 412.2 386.6 363.7 364.2 369.9 362 361.8 375.7 392.6 423.6 443.4 470.3 499.5 522.2 553.9 570 579.5 585 586.8 586.4 583.8 582.3 580.1 575.3 565.7 552.4 537 524.5 516.1 511.2 504.4 502.4 492.4 471.9 454.7 436.9 409.6 410.1 417 437.5 457 482.7 499.6 512.2 531.5 553.6 576.1 592.9 612.7 632 650.4 672.4 689.9 707.5 721.8 737.6 749.4 760.8 773.3 786.5 797.8 812.2 826.2 840.8 852.8 863.6 875 886.2 898.5 910.4 923.6 934.5 904.1 850.1 823.7 802.9 794.5 789.7 774.2 759.5 745.5 735.7 732.2 725.5 712.6 693.6 677.6 678.3 675.5 672.4 670.8 655.9 633.8 616.2 607.6 590.2 581.4 571.6 557.7 538 521.8 508.8 498.8 492.8 488.7 491.8 500.7 514.1 527.4 536.7 544.3 550.9 557.4 561.9 570.1 583.1 588.6 605.3 606.8 604.9 586.7 573.6 565.2 562.5 556.7 550.7 548 541.5 541.2 532.9 532.7 532.5 523.5 510.7 500.6 490.5 484.8 479.2 474.3 468.6 464.6 462.1 461.4 464.2 464.3 465 463 464.1 462.4 463 458.7 448.3 445.6
716.1 708.8 696.2 685.4 673.7 661.1 637.9 629.2 615.5 613.2 615.4 628 645.9 658.8 674.9 691.9 703.7 715.9 724.6 734.6 746.5 752.8 747.3 738 721.8 700.2 667.7 636.3 609.2 580.4 550.6 520.2 491.6 461.3 446.8 408.1 390.2 367.4 360.2 352.9 363.1 372.8 376.6 375.1 400.5 423.6 422.9 406.3 390.4 371.6 365 368.9 371.6 381.7 388 419.9 442 462.7 493.1 511.2 538.2 564.5 580.2 588.8 597 599.5 597.1 595.6 593.3 591.8 587 575 559.3 542.6 531.9 521.8 515.8 510.5 509.1 504.8 479 458.4 440.7 417.8 428.8 419.6 443 466.1 491.7 512 525.7 538.2 563 582.2 596.7 618.4 637.5 656.3 676.6 694.4 709 725.7 741.5 754.7 767.8 779.2 790.8 804.6 818.9 832.7 845.6 855.5 866 876.9 888.8 901.1 912.8 925.5 930.2 870.4 834.3 808.6 796.4 783.9 768.6 756.4 749.1 737.5 731.1 727.7 717.9 701 699.3 695.9 693.3 690.5 692.9 692.3 681.6 658.4 639.9 628.2 609.8 595.3 583.9 568.6 554.9 539.9 526.6 512.1 504.6 499.8 496 495.4 504.1 511.7 518.6 526.2 532.8 538.8 545.9 555.1 563 573 587.4 602.4 604.8 593.2 579.7 564.8 562.8 564.7 561.4 561.3 553.5 552.4 551.3 550.5 540.8 530.4 519.9 510.7 497.5 491.3 482.4 474.8 472.8 467.1 464.3 462.5 463.5 465.5 467 464.1 463.7 463.1 463.6 463.6 452.3 452.1
725.4 712.1 694.5 686.2 672.2 659 641.9 632.6 621.4 619.7 628.1 646.4 659.2 667.4 682.1 702.3 720.5 729.4 739.7 753.4 764.9 765 760.9 749 728.5 704 680 647.9 616.8 586.6 556.4 525 489.3 463.4 435.7 411.9 402.1 377.4 357.7 359.6 376.6 376 378.5 406.9 421.6 421.4 416.1 402 387.1 374.9 370.8 370.9 383.9 388.8 403.2 433 451.1 476.5 497.9 517.2 552.3 575.2 592.6 602.7 607.2 609.1 608.5 607.4 607.3 604.9 597 584.1 575.3 554.8 540.6 527.2 518.9 516.1 515.5 512.5 482.1 461.6 437.9 439.7 445.4 430.4 449.3 474.7 495.6 515.5 525.3 551.1 571.1 582.9 601.7 622.3 641 659.1 677.3 693.9 711.4 727.2 743.6 760.3 773.2 783.9 797.4 812.8 826.7 839.1 848.5 858.8 870.2 879.5 891 902.9 914.8 925 899.1 856.1 832.1 810.6 787.8 762.4 751.1 746.9 738.3 729.4 722.3 723.4 714.2 711.8 711.2 713.3 714 714.2 713.3 705.3 696.8 677.8 660.2 648.2 629.4 611 598.6 584.4 569.8 555.5 543.3 530 520.2 513.5 508.8 500.8 498.2 500.4 503.6 511.6 519.1 524.8 533.6 544.5 550.3 559 572.9 589.2 594.9 597.4 593.5 573 572.6 572.4 572.4 567.9 567 566.5 570.4 567.1 552.3 541.2 529.7 518.9 505.6 496.6 494.5 479.2 478.5 471.4 470.7 465.4 467.3 469.6 468.8 467 464.9 469.1 469.9 465.5 461.6 457.6
728.6 710.7 699.2 684.6 667.5 654.9 645.1 633.6 625 627 641.4 658.3 666.5 675.1 694.5 718.9 734.9 745.3 754.6 766.9 780.9 786.5 774.6 755 734.2 714.2 685.4 651.6 618.7 587.9 556.9 525.3 493.4 461.3 442.7 423.9 399.1 370.1 362.8 361.7 366.7 373.4 393.9 411.4 420.5 417.8 408.9 393.6 383.9 383.5 385.2 391.4 397.1 402.7 431.3 440.5 460 481.6 503.5 533.2 562.9 591.3 609.8 616.6 619.1 620.4 621.3 623.3 621.4 614.6 605.6 593.4 583.4 575 559.2 533.9 524.1 521.8 517.9 504.4 488 463.7 441.7 454.3 464.9 452.4 449.9 474.3 496.5 515.4 530.2 553 579.7 589.5 610.7 625.3 642.2 654.1 672 691.8 710.9 730.4 746.3 762.1 774.5 787.5 803.6 819 832.6 845.2 855 866.2 876.6 886.1 898 908.6 918 925 896.5 868.9 844.9 816.1 791.9 762.1 749.1 744.6 730 721 718.4 718.4 721.1 722.3 727.8 733 734.6 735.7 728.7 716.9 711.5 701 683.9 665.1 651.2 632.7 614.2 604.4 587.4 571.3 562.4 547.2 527.8 520.3 510.7 504.6 500.4 500.7 501 500.9 505.1 511.7 523.4 531.7 538.5 549.2 560.3 572.5 582.9 601.5 604 592.1 582.6 581.5 587.1 577.5 578.8 580.2 588.1 583.6 569.7 558.1 546.7 525.2 523.4 511.4 497.3 489.5 481.5 480.1 478.6 474.8 471.7 474.1 476.8 472.2 468.4 471.2 471.6 472.3 469.5 466.3
738.6 720.8 698.4 681.2 660.3 653.4 646.3 636 626.1 636 650.9 660.8 671.3 685.6 709.6 732.2 748 761.4 770.1 793.9 806.1 796.5 784 766.3 744.3 720 689 655.2 622.1 582.3 552.9 517 495.2 467.3 444.1 422.7 394.7 381.8 374.9 362.7 364.1 379.5 396.1 419.1 422.9 416.7 399.7 393.9 393.7 399.5 407.9 406.4 408.8 430 444.3 455.5 469.6 489.1 514.9 545.7 569.1 600.6 626.6 631.9 634.8 634.1 638.3 638.5 633.7 625.3 614.9 607.7 602.2 590.1 569.1 546.1 531.3 531.6 518.3 501.7 486.1 466.4 447.7 463.7 473.6 476.6 446.6 470 492.6 516.5 543.8 567.7 586 597.8 618.1 634.8 648.3 663.1 679.7 690.3 708.7 727.3 744 760.1 773.9 790.4 809.8 824.4 839 851.9 862.4 873 882.1 893.7 904.5 913.6 923.1 934 935 899.3 876.1 842.7 821.5 783.3 762 753.8 734.6 721 717.7 720 724.5 735 746.7 749.5 754.5 753.3 751 742.6 733.5 722.9 709.4 688.7 670.2 654.5 633.9 616.4 605.4 593.5 577.7 560.4 539.1 524.3 529.4 519.3 503.9 501.2 505.2 506 501.2 503.5 509.2 519.4 528 537.8 548.7 562 572.5 594.9 596.9 593.8 594 587.9 594.9 591.7 597.6 597.1 604.9 604.5 586.4 581.2 546.7 550.4 545.5 529.4 522.8 502.9 500.5 495.3 497.4 488.3 486.4 480.7 482.6 479.5 476 474.7 474.9 475.6 474.6 469.6
749.3 724.3 700 681.1 660.2 650.9 648.8 636.1 640.8 643.6 655.1 666.1 682.4 703.5 720.6 742.6 757.1 771.3 789.6 812.8 812.6 809.6 791.8 769.8 747 721.7 691.7 660.4 623.9 586.8 553.2 521.9 486.5 465.2 444.2 420 405.8 386.1 363.3 364.6 366.2 374.3 403.3 423 415.5 406.5 400.6 396.6 402.7 410.6 419.8 419.7 441.7 453.8 464.3 476.4 483 498.5 526.8 553.3 581.6 613.8 640.7 647.9 651.3 653.5 654.2 652.3 643.7 634.3 627.6 623.1 612.5 593.8 575.2 554.6 544.8 539.3 516.2 495.6 477.3 468.1 455 465.9 481.8 488.5 476.2 463.5 498.5 521.9 554.4 575.9 585.2 600.7 616.8 632.6 649.4 667.4 686.3 703.7 717.3 730.2 743.1 759.9 776 796.3 811.6 828.8 843.4 856.7 867.4 877.1 886.9 899.4 909.8 918.7 932.2 946.2 956.3 933.2 891.1 861.4 838.4 807.2 777.7 768.8 756.2 727.8 718.3 724.8 733.1 746.6 759.5 767.1 774.7 775.9 775.8 770.7 758.5 748.2 732.5 714.5 693.9 674 656.4 638.7 615.8 607.7 590.5 571.1 554.5 547.6 545.9 537.6 529.5 511.2 506.4 505.3 502.3 501.9 504.5 508.7 517.3 525.2 537.9 549.6 564.1 585.2 592.1 595.6 597.6 598.8 607 604.2 611.9 612.3 616.7 619.5 608.6 588 591.5 578.7 559.6 544.6 545.8 525.1 514.7 512 515 503.1 502.4 497.5 498.9 490.2 485.7 479 478.6 481.9 477.4 471.5
755.3 733.1 702.9 681.2 673 659.7 647.4 648.8 646.4 652.9 665.5 672.7 693.7 712.4 733.7 753.6 765.2 781.9 810.2 821.1 827 813 792.1 772.7 748.3 721.6 691.9 657 624.4 591.1 555.1 523.6 495.4 456.4 443.4 419.3 398.1 372.6 365 365.1 365.8 380.2 409.2 417.1 406.9 403.2 398.3 400.7 412.4 419.5 442.7 462.6 483.4 494 498 499.5 511 535.2 551.2 572.1 595.1 629.2 656.5 662.7 667.5 670.6 668.3 662.2 654.3 647.1 639.7 631.7 618.2 593.4 578.7 558.5 554.3 543.3 525.2 502.1 483 466.3 464.2 473.9 486.7 494.4 489.2 471.8 488.3 518.7 541.2 559.7 576.4 594.4 609.3 628.2 648.3 669.3 691.5 710.5 725.9 740.3 750.3 758.2 777.9 795.5 811.5 829.2 844.3 858 870 880.7 891.7 904.3 915.4 929.2 943.6 953.4 958.3 921.8 889.4 863 847.3 820.2 807.7 792.5 778.8 755.7 734.4 731.3 738.7 756.4 771 785.3 793.6 797.7 800.2 794.3 782.4 768.6 750.3 735.4 718.6 696.6 679.2 662.1 640.6 622.7 606.8 587.1 574.5 572.3 566.4 560.1 548.5 535.4 517.2 507 504.4 503.9 504.3 505.9 512.4 516.2 524.5 536.1 551.4 566.4 582.7 591 604.6 607.8 620.8 621.3 629.7 619.9 620.2 621.4 618.5 622.4 620.9 611.7 597.1 574.9 552.6 544.9 541.7 527 526.7 518.9 518.5 512 511.7 503 499.2 481.9 480.3 482.9 477.5 469.9
753.9 731.5 705.1 688.6 679.3 677.8 657.7 653.1 658.5 665.8 682.2 688.5 706.5 724.6 749.8 765.4 777.7 798.5 818.9 839.5 829.8 814.6 793.3 772.2 747.1 720.2 689.2 656.4 624.1 590.1 555.1 523.4 486.2 458.4 437.3 409.3 386.6 367.3 364.6 363.8 365.5 388.9 405.1 403.9 399.5 394.6 397.3 411 421.4 445.1 472.4 488.3 503.4 519.4 514.7 522.6 548.4 564.9 577.6 593.7 615.7 642.8 676.6 682.5 682.6 682.3 678.4 672 668.6 661.1 651.3 638.2 617 600.6 590.7 574.4 559.1 544.4 541.2 507.3 484.4 471.5 476.5 487.7 498.6 503.3 499.4 493.2 489.5 507.9 533.7 553.4 574.1 590.4 606.1 625.5 646.4 669.4 694.7 713.5 730.9 745.7 759.9 771.6 781.3 789.8 806.7 823.9 840.4 857.3 869.5 881.6 896.1 907.9 922.2 937.5 947 954.6 958.6 924 885.5 862.5 844.7 826.7 824.5 813.3 799.1 790.2 783.4 778.9 751.4 775.1 791.1 805.3 814.7 827.2 828.1 816.9 797.3 782.5 767.1 751.6 735.1 718.3 699.1 683 660 647.9 634.3 604.6 592.2 595.5 595.1 581.4 564.1 547.5 532.5 520.9 515.4 511.2 507.1 505.5 505.5 508.7 513 525.8 537.1 553.4 571.5 586.2 613.8 623.5 629.4 634.5 643 648.2 632.5 629 631.5 641.3 637.7 633.1 628.8 610.7 586.9 559.2 558.2 550.4 549 536 527.7 526.6 526 512.9 506.7 496.5 481.6 482.7 483.1 474.8
