ncols 200
nrows 82
xllcorner 390000
yllcorner 613800
cellsize 50
481.3 486.8 491.6 495.4 501.7 504.2 502.3 497.7 493.5 486.4 477.1 467.9 459.8 460.7 462.4 467.2 472 476.6 481 485.8 491.9 503 511.8 525.3 542 555 566.9 573.5 582 583 582.3 578 572.8 566.4 553.8 547 544.3 541.9 538.3 535 530.9 527.3 520.8 514.6 506.1 502.6 499.7 497.9 495 495 498.2 498.3 497.9 499.5 501.7 503.7 504.9 504.7 503.7 498.5 492.2 485.1 480.7 479.1 478.7 478.8 478.8 478.1 476.1 471.9 466.4 456.4 449.5 443.9 437.8 422.8 423.7 434.6 439.5 446.2 454.5 459.6 466 470.9 482.3 487.1 489.1 486.1 489.5 490.3 489.3 487.5 487.9 488.9 486.4 481.1 475.2 468.4 455.6 439.3 426.8 413.7 406 399.2 394.3 386.6 369.6 381.7 393.8 401.7 409.1 409.5 407.3 404.6 400.7 392.9 379 365.8 377.1 387.9 397.3 406.4 416 426.3 436.4 446.7 458 468.7 480.1 492.2 503.5 515.9 526.9 536.7 540.6 538.7 533.9 529.9 525.3 522.3 518.4 513.6 506.9 498.6 490.2 481.9 473.5 463.2 451.9 439.1 425 413.3 402.8 395.1 388.6 382.8 381.2 377.4 375.6 376 374.8 369.5 363.3 356 347.1 341 333.3 323.3 312.6 306.2 300.7 299.9 298.8 297.3 295.7 293.6 292.2 290.9 290.4 288.5 284.3 282.3 280.1 279.1 278.5 277.3 276.3 272.8 274.4 279.3 280.2 280.8 281.5 282.1 283.2 285.7 287.4 288.9 290.2 288
480.8 486.1 491.5 496.4 500.9 503.9 501.3 496.3 493.6 489.6 482.4 475.4 465.5 456.2 455.4 459.1 465.6 469.7 473.9 479.5 486.5 497.1 505.3 517.9 533.5 548.2 558.2 563.4 571.9 574.8 575.4 572.8 571 563.9 554 547.9 544.3 541.6 539.3 536.3 533.3 529.1 523.4 516.2 508.7 502.5 499.3 494.1 493.1 491 493.1 493.7 495.6 497.1 499.6 501.4 503.2 502 500.1 495.6 488.3 481.5 477 474.8 473.5 475.9 477 475.8 473.2 468.8 462.4 452.3 445.3 441.5 435.7 427.4 408.8 425.2 431.1 436.3 444 447 453.8 460 469 472.9 473.3 471.1 477.6 478.8 478 477.4 479.1 479.2 476.4 473.5 469.2 463.2 453 435.4 423.3 412.8 404 397.8 391.4 379.9 367.8 378.4 390.3 400.3 405.2 406.5 404.9 401.6 397 388.4 370.4 359.6 371.3 382 391.4 400.4 409.4 419.4 429.1 440.5 452.8 463.9 475.1 486.8 498 510.1 528.1 536.2 540.5 533.8 525.6 519.6 515.5 512.8 509.5 504 499.5 492.4 484.3 476.9 467.2 456.1 446.1 434.9 417.4 404.5 392.5 382.9 371.6 366.4 364.3 362.3 361 359.8 356.7 354.8 348.3 342.7 332.6 326.1 316.7 308.7 302.8 299.8 298.5 296.8 294.5 292.4 291.9 290.2 288.3 286.9 283.5 281.4 278.2 277.2 277 277 276.2 273.9 271.4 272.1 280.5 282 281.9 282.2 283 284.9 291.3 290.8 292.6 295 294.7 292.6
480.2 484.8 489.5 494.2 498 501.6 500.2 496 493.3 489.4 485 478.6 472.3 463.8 455 453.2 458.1 462.5 467.4 473 480.8 490.3 499.5 511.1 523 534.8 547.1 554 563.1 566.9 568.2 567 566.2 558.6 552.1 546.3 543.9 541.7 539.2 536.4 534 530.4 525.2 519 512.6 505.3 500.4 497.7 494.7 491.2 489.1 490.9 493 495.4 497.8 500.4 502.2 502 499 492.7 484.7 478.9 474.6 470.2 466.7 471.5 470.5 468.3 464.7 461.2 454.3 446.2 442.1 438.1 431.9 425.5 410.2 411.9 420.4 426.2 431.9 434.4 441.5 446.6 450.8 454.7 455.5 452.8 463 465.1 463.8 461.1 467.2 468.1 467.3 464.3 461 455.2 445 427.2 419.3 410.6 401.8 393.4 388 375.2 361.6 374.3 387.1 395.8 402.1 404.2 402.6 398.5 394 388.2 374.2 353.9 363.9 372.9 383.6 393.1 401.8 413.1 423.8 433.6 445.6 456.2 468.4 480.6 492.1 507.3 524.9 532.7 533.6 529.1 520.7 512.5 508.6 504.3 502.3 496.9 488.6 483.4 477.7 469.4 459.2 448 438.4 426.3 409.5 394.6 379.5 369.4 357.3 351.5 349.1 347.1 346.6 345.4 342.3 336.3 330.8 326.3 322.5 316.9 310.1 303 298.2 297.7 294.3 292.5 289.9 287.4 285.3 284.5 282.7 279.1 274.9 272.5 270.7 270.1 273 273.4 274 272.8 274.6 280.9 282.9 284.6 285.1 285.2 287.4 290.4 294.1 297.8 298.3 298.5 296.5 296.8
480.6 484.1 487.1 491.6 495.2 497.3 497.3 494.3 491.6 487.9 484.3 480.4 476 469.9 461.7 447.8 449.5 453.1 460.3 468.6 476 485.6 494.2 503.4 513.8 525.2 538.7 547.5 555.1 557.9 561.3 562.7 561.4 556.7 549.4 541.5 540.2 540.4 538.3 535.7 533.9 530.9 527.6 521.4 515.6 507.5 501.7 497.7 495.6 491.6 491.6 486.9 488.8 491.3 494.6 499.4 503.1 504.3 502.4 496.2 488.2 482 476.8 469.5 460.6 464 466.2 465.1 462.3 459.3 451.3 442 438.8 434.8 429.2 421.2 414.4 402.6 398.8 412.5 417.5 421.6 424.1 429.1 435.3 437.8 439 434.4 436.8 442.5 443.9 446.5 453 456.6 455.1 453.5 449.7 444.7 434.2 420.8 414.1 405.7 398.8 391.1 385 374.8 357.9 368.7 383.4 390.2 396.8 400.2 399.8 396.2 392.1 387.2 377.1 357.4 353.9 365.3 374.2 383.4 392.2 403 416.1 428 439.9 450.9 462.5 475.4 489.5 505.2 518.4 526.8 528.6 525.8 518.7 508.3 501 496.1 489.8 485.9 480.1 474.8 467.2 460.4 452.4 439.6 426.8 416.3 403.3 386.3 369.6 360.6 349.3 342.2 339 335.9 334.7 334 328.9 323.7 318.8 315.6 313.7 310.3 304.5 297.1 294 292.9 289.6 287.2 285.8 283.6 278 277.6 275.5 271.7 269.7 268 267 267.7 269.4 271 272.2 273.8 279.9 282.7 284.4 286.7 288.1 289.3 291.4 295.1 297.9 300.7 300.2 298.8 296.8 297
481.1 484 486.8 490 492.3 493.3 493 491.5 488.3 484.7 481.4 478.8 476.7 473.6 468.4 461.4 449.9 439.7 451.3 464.3 474.2 482 488.2 494.2 505.6 517.1 528.5 539.7 547.5 553.2 555.5 557 556.3 554 548 541.5 537.3 538.3 537.2 535.9 534.2 532 529.4 523.8 516.6 506.7 502.2 498.6 496.3 495.5 494.7 492.1 486.9 487.7 490.9 497.2 502.8 504.7 503.4 498.3 489.3 482.9 477.5 472.2 466.3 454 460.8 460.8 458.3 452.8 445.5 437.6 433.8 429.6 424.9 417.4 410.4 404.1 393.6 401.7 401.1 406.1 411 415.3 418.1 423.5 423.4 421.9 425.7 428.3 431.2 435.2 436.3 439.8 439.8 439.7 434.3 432.8 425.5 416 410.2 401.8 394.5 386.3 379.4 372.9 359.9 365.3 374.1 382.1 387.9 392.7 394.7 392.3 388.6 385.1 377.6 361.4 344 359 367.9 374.9 383.7 393.8 408.9 421.5 433.4 445.7 456.3 470 484.5 499.8 513.6 520.4 523.5 521.1 512.6 504.6 494.1 488.7 481.6 474.5 467.6 463.1 454.6 451.5 443 431 417.9 406 397.1 379.3 361.5 350.7 339 332.1 327.7 324.8 324.1 320.4 314.5 311.5 307.4 304.7 302.2 299.2 293.7 291.1 288.8 287.6 286.6 284.9 282.1 277.4 272 270.3 268.7 266.8 265.2 263.9 264.2 267.3 268.2 271.1 273.7 276.5 281.5 283.8 285.9 289.7 291.9 292.1 296.9 299.3 301.5 301.8 300.4 297.2 293.6 294
480.6 483.7 486.6 489.2 491.2 490.8 488.9 485.9 482 480 477.5 476.4 474.6 472.3 468.7 466 457.2 439.8 443.1 460.5 469.5 476.3 482.3 485.3 497.6 509.4 519.1 532.4 540.2 545.5 550.3 551.1 551.4 550.5 548.6 543 536.6 535.5 535.4 534.7 533.9 532.4 530 525.7 519.9 512.7 506.5 502.8 501.8 500.2 499 496 492 483.2 484.9 493.4 500.2 503.5 502.6 497.7 488.8 482 476.6 471.6 466 458.1 450.8 454.9 452.3 449.3 443.3 435.1 427.6 423.6 419.3 413.6 408.2 402.8 391.6 388.5 388.2 395.1 398.6 405 409.6 414.8 415.4 414.1 413.5 413.7 415.3 421.3 424.1 422.4 419.3 418 417.8 419.6 417.1 411.7 408 396.9 388.4 380.3 375.6 369.4 360.9 362.1 367.6 373.7 380.3 384.6 388.5 388 385 381.9 375.5 361.5 340.5 351.6 360.9 371.1 379.9 389.2 401.6 415 427.4 439.9 450.8 465.8 477.3 494.4 507.2 512.5 519.1 513.2 504.7 497.9 485.8 480.4 472.7 463.4 454.9 447.8 445.2 439.7 429.2 419.7 408.2 395.8 385.9 365.4 351.2 338.6 323.6 321.4 317.7 314.3 312.3 309.9 304.7 302.1 297.7 295.4 293.1 291 287.4 285.7 285.1 284.4 281.9 279.2 276.2 273.4 269.6 264.3 264.4 263.3 262.1 261.4 262.3 264.8 267.2 270.7 275.3 278.5 282.7 285.1 287.9 292.2 295.7 297.7 299.5 300.9 300.8 299.3 296.8 291.2 289.8 287.1
480 483.2 486.3 488 488.7 487.4 483 479.2 476.5 475.9 474.6 473.2 471.6 469.4 466.2 462.5 454.9 433.2 440.5 454.2 462.7 469.7 474.5 477.3 491 501.8 513.2 524.1 533.4 540.1 545.1 546.2 547.6 546.7 546.4 541.8 533.8 530.4 532.4 533.4 533 532.2 532.4 529 523.2 515.8 510.6 507.8 506.3 504.1 501.5 497.9 493.8 488.4 479.4 488.2 497 500.8 499.6 495.8 488.3 478.1 473.7 469.4 463 456 447.7 445.7 447.7 444.6 438.5 429.7 422.1 418.8 415 411.7 406.8 403.6 399.1 392.5 383.2 385.8 388.7 396.4 402 406 407.2 407.4 404.4 401.1 401.4 406.7 411.2 412.4 411.9 410.6 411.6 411.8 409.5 405.2 398.8 390.9 381.4 374.4 368.9 364.5 354.8 355.1 361 364.9 372.1 377.3 381.8 382.4 380.4 377 370.1 356.8 338.4 338.2 356.8 367.8 376.7 385.2 394.7 408.6 422.5 435.2 447.8 460.3 470.3 486.9 499.8 504.5 505 504.4 499.5 491.3 480.1 471.6 459 451.7 442.7 436.3 432.4 427.5 417 407 395.4 385.7 368.5 350.5 336.1 321.4 313.9 310.3 306.7 305.9 303.3 299.6 297.4 294.1 290.7 289 287.8 284.9 283.5 281.9 279.3 278.5 277 275.8 273.8 270.8 267.6 260.9 260 260.1 259.2 260.2 260.7 261.3 265 270.4 275.9 280.3 283.8 286.6 288.9 292.1 295.8 298.7 300.9 300.1 297.5 294.3 289.3 284.6 282.9 280
479.5 482.9 486 487 485.6 482.9 478.7 473.7 471.2 469.2 468.5 467.6 466.7 464.2 459.4 454.9 448.1 430.9 434.7 448.9 458.2 462.2 466 469.1 481.2 493.7 506.4 516.5 525.9 533.1 540 541.1 541 542.1 540.6 536.8 529.9 526.5 528.1 530.1 531 532.6 532.9 531.5 526.1 519.2 515.7 510 508.7 506.2 502 497.3 493.1 488 478.7 483.6 491.3 495.7 496.3 492.6 486.1 475.4 467.6 463.1 456 448.6 444.1 436.8 440.1 439.3 435.1 427.6 420.8 416.7 413.2 410.1 406.6 402.3 398 391.6 384.1 379.8 383.4 385.4 392.2 394.8 397.5 398.7 397.1 394.9 394.6 396.3 401.7 403.8 404.5 404.5 404.9 405.3 403.5 398.7 394.7 383.4 374.9 367.8 362.4 358.8 353.7 341.6 354.1 356.8 363.2 369.3 373.6 375.5 373.4 370.3 364.7 352.6 336.9 336.4 354.6 365.6 374 383.1 392.1 401.7 415.6 430.9 443.8 453.5 462.9 477 490.3 496.4 497 497 493.6 484.8 470.4 460.7 447.1 439 432.9 426.1 418.6 413.2 405.9 394 382.3 372.9 357.6 342.4 323.9 314.6 308.8 300.9 299.1 296.6 293.6 292.4 290.4 288 285.9 284.1 282.8 281.9 279.5 276.7 275.6 275.2 273.7 272.8 271.4 268 263.7 259.9 256.7 256.5 255.9 256.4 257.5 258.8 264 269.5 274.8 281.1 285.7 288 290.3 293.3 297 297.2 296.9 296.9 294 288 280.5 276.5 273.9 271.7
480.4 484.2 484.7 484.1 480.8 477 472.7 469.6 466.9 464.6 463.5 462.5 459.8 458.3 453.1 447 437.6 425.7 425.7 443.5 452.1 456.8 461.4 464.2 474.5 484.5 497.1 507.8 517.2 525.7 532.7 535.8 535.2 533.9 533.1 529 525.2 524.7 526.1 527.4 530.2 532.3 533.2 532.5 529.3 522 516.1 511.1 509.4 505.6 501.5 496.8 489.8 485 478.1 475.4 483.3 488.7 490.3 487.8 482.8 471.8 460.2 454.7 447.6 440.1 436 432.9 432 432.7 430.6 425.4 419.1 414.7 410.5 406.9 401.4 397.2 392 386.2 381.2 377.8 376.8 375.2 379.2 383.1 385.5 387.4 387.3 386.6 386.3 386.4 388.3 392.3 394.6 396.3 397 396.7 393.5 389.9 384.5 375.9 367.8 361 356.3 352.1 346.2 336.7 347.1 350.4 354 361.1 365.4 366.4 364.9 363 358.5 350.2 323 334.1 350.6 360.8 370.4 379.9 389.8 397.6 410.7 426.2 436.9 449.6 457.3 466.7 479.8 488.4 489.3 486 482.5 474.7 461.7 453.8 441.7 433 422.1 412.5 403.6 398.4 392.1 381.4 369.2 358.7 345.8 329.9 317.5 310 303.1 298.9 297.1 292.9 289.7 287.4 286 284.1 282.5 281.5 279.8 277.5 274.9 273.4 272.8 271.4 270.4 268.3 267.3 266.1 260.8 256.9 253.5 252.9 252.9 253.7 254.1 258 262.7 269.8 278.3 283.9 287.7 289.4 291.5 294.2 298.4 295.6 292.8 292.6 286.9 278 273.5 269.8 267.1 264.8
481.2 483.6 482.2 481.2 476.7 470.9 466.6 463.9 462.7 460.8 459.3 456.1 454.6 453.2 448.4 440.7 430.8 420.5 416.9 436.3 444.3 450.5 453.9 456.2 466 475.9 487.3 498.3 507.3 516.1 523.4 526.9 527.5 526.7 524.4 521.5 520.6 522.3 524.8 527.3 531 533.7 536.1 533.8 530 522.3 516.1 512.4 509.6 504 498.1 492.2 484 476.3 471.6 468.5 474.8 480.4 482.6 481.6 476.6 469.1 457.9 448.7 441.1 433.7 429.8 426.8 425 425.1 424.5 422.1 417.5 413.2 409.7 405.4 396 390 391.1 392 389.3 384.4 378.9 374.4 370.9 370.9 374.6 375.9 376.2 376.5 378 377.8 379.8 381.6 381.4 384.8 385.4 384.4 381.4 375.8 372 366.5 359.4 354.9 351.2 347.7 343.4 332.9 342.8 345.8 347.8 353 355.4 356.1 355.3 353.5 349.5 343.9 321 330 347.5 356.2 365.6 375.9 386 393.9 404 417.4 430.1 443.2 453.3 458.5 466 478.2 481.4 475.8 471.5 467.5 452.6 443.1 431.5 421.2 409.9 393.2 382.4 380.7 376.6 367.6 357.4 347.8 337.1 324.2 313.6 304.5 299 295.3 292.2 290.2 287.9 285.6 283.5 282.3 281.2 278.4 275.8 273.7 272.4 271 269.9 269.2 267.3 263.7 261.7 261.7 259.1 254.8 251 249.6 250.1 250.2 253.1 257.5 263.9 272.4 281.2 285 289 291.4 293.9 297.9 297.4 293.6 290.7 285.9 278.9 273.5 269.8 264.3 261.1 258.1
482 482.8 480 475 470.2 466.7 463 460.1 458.2 456.8 454 452 450.1 448.7 444.4 437.9 427.8 415.9 407.9 425.4 427.1 438.7 442.7 449.9 453.2 465.5 477.9 489 498.7 506.2 513.4 516.7 518.4 518.6 516.6 514.6 514.4 518.3 521.6 526.9 531.8 535.6 537 533.9 528.1 521.1 517.3 513.8 510.5 503.3 492.9 481.7 474.5 469.7 465.3 463 466.6 470.6 473.8 474.2 471 465.4 454.8 444.3 435.8 427.8 423.2 420.8 417.4 416.9 416.2 414 411.7 409.6 405.1 396.3 400.3 402 401.9 400.8 398.7 392.6 385.7 379.6 373.5 369.5 367 367.1 367 365.7 369.2 368.3 370.2 373.1 374.8 377.7 376.3 373.3 369 363.5 359.2 353.9 348.8 346.8 345.5 343.7 341.1 329.6 335.9 338.8 340.6 343.5 345.2 347.4 346.9 343.9 340.6 335.5 314.5 330.4 344.3 355.2 364.8 373.3 382.2 390.1 399.6 410.4 423.2 434.3 445.1 452.2 456.2 466.2 469.4 467.9 459.5 454.8 442.2 430.6 420.4 411.1 399.7 387.6 378 369.5 364.5 361.9 353 342.1 329.7 319.5 308.2 301.3 297 293.6 288.8 286 283.6 282.1 281.1 279.2 276.8 275.5 273.2 271.8 270.3 269.2 267.7 266.6 266.3 262.7 260 256.8 255.3 252.8 250.5 247.1 246.9 247.7 252.6 258.1 265.3 275.8 282.2 287.2 290.9 293.7 297.1 300.7 298.1 294.4 290.3 284.1 276.5 270.7 266 261.8 257.1 252.3
481.7 479.7 474.9 472.4 469.3 465.3 461.1 457.9 455.1 453.1 451.3 449.2 446.9 442.7 438.8 434.6 425.6 414.2 404.6 410.3 416.7 426.8 436.4 441.8 446.2 455.5 466.7 476.6 487.3 495.1 502.2 506.9 509.1 509 508.2 507.1 512.4 515.6 520.9 526.3 532.7 536.2 537.1 535 529.8 522.3 518.3 515.9 510.6 500.6 490.4 479.7 471.6 465.5 461.1 454.8 458.8 462.5 462.9 465.5 463.1 458.5 448.7 437.6 428 419.6 415.8 414.4 412.5 410 409.6 407.8 407 399.9 399.9 407.6 408.9 410.1 410.8 411 407.4 400.4 390.1 381.9 376.8 374.9 374 374.4 373.5 372.1 368.9 360.1 354.8 363.8 368.2 369.7 367.9 364.6 358.8 354.5 349 343.4 340.9 339.4 340.6 339.4 336.3 333.5 322.2 332.9 333.8 336.2 336.9 338.8 338.7 336.2 331.6 326.2 307.4 330.2 344.1 355.6 364.3 371.9 379.5 387.1 395.1 404.3 414.1 427.8 436.7 445.6 447.1 455.8 457.8 454.8 444.2 438.5 431.2 421.9 410.9 399.8 389 381.6 372.2 364.6 356 353.2 349.9 334.6 316.6 310.7 302.9 297.3 293.4 290.4 286.6 283.1 280.3 278.1 277 276 274.2 273.3 271.4 269.3 267.8 266.8 266.9 266 263.4 262.6 259.8 253.6 251.2 250.5 249.9 247.7 241.6 243.1 250.1 258.9 267.1 276.5 283.3 288.9 293 296.3 298.1 299.1 297.2 292.7 288.2 282.6 275.7 271.3 265.5 259.8 253.8 247.6
476.8 475.6 474.4 472.2 468.5 464.3 460.4 456.4 451.7 448.4 447 446.6 444.2 433.6 428 422.1 419.5 408.9 401.6 404.1 408.4 416.3 429.4 434.8 440.5 447.3 455.4 465.6 473.5 481.6 488.2 493.3 496.5 497.4 497.3 498.6 505.1 512.7 521.1 527.9 533.9 537.9 537.9 536.3 531.9 524.6 519.8 517 510.6 498.6 487.7 478.7 471.1 464.5 459.6 451.1 453.3 455.7 455.7 457.7 457.7 451.3 444.3 434.1 425.1 417.9 413.6 411.6 409.6 406.6 404.1 402.7 401.5 408.4 409.9 413.2 415 417.4 419.5 420.5 416.1 409 396.5 387.3 380.7 380.5 380.6 382.2 382.6 382.1 380.5 375.7 365.9 351.2 360.5 364.2 362.9 356.2 350.4 345.3 340.2 336 334.7 333.6 332.9 332.6 330.7 329.2 316.5 327.5 328.2 329.4 328.9 329.2 328.9 325.8 323.6 309 307.5 328.8 343.1 356.3 365.6 369.9 375.7 383.2 389.7 398.4 407.3 418.5 428.5 436.1 442 436.4 443.2 438.1 433.4 424.4 416 409.5 405.8 390.6 378.6 367.9 364.4 359 350.2 340.6 340 328.9 314.3 303.9 298 292.5 288.1 283.3 282.1 280.1 278.1 277.7 275.1 272.7 271.1 270.7 269.6 267.8 265.8 264.2 264.7 263.8 261.6 259.9 255.4 251.2 247.9 247.3 247.4 247 243.2 237.3 246.5 257.4 266.8 276.3 285.1 291.8 296.2 298.3 300.6 299.8 296.2 291.5 288.3 281.7 276 273.1 265.3 256.9 248.8 241.7
475.2 474.5 473.3 471.2 467.7 463.6 458.6 454.4 450 446.3 442.1 441.5 436.4 443.1 440.9 434.9 429.2 422.4 412.3 399.4 400.2 405.2 417.9 425.6 430.3 438 444.1 452.1 460.3 467.5 473.5 478.9 481.4 481.6 484.1 488.8 502.7 514 522.7 529.3 534.9 537.9 537.6 535 529.3 525.5 520.4 516.2 507.5 494.5 483.1 476.1 469.3 463 458 452.7 447.1 447.9 448.9 450.4 451.1 447.8 441.9 432.7 425.8 418 414.3 411.7 408.4 405.6 408.6 408.9 410.9 413 414.8 417.3 420.8 425.5 427.6 429.2 427.4 422.3 412.1 400.6 393.3 391.6 391.5 392.3 391.9 390.9 389.5 385.6 376 361.5 351.6 357.7 357.6 346.9 343.5 338 334.5 330.2 327.2 325.8 324.5 323 323.5 322.3 317.1 317.8 320.7 320.2 319.7 320.1 318.4 315.2 313.2 301.6 311.5 327.6 341.3 355.9 365 367.8 369.5 378.6 385.5 392.2 401.4 410.1 420.1 423.6 431.5 426.6 420.4 424.7 418.4 413.6 407.3 397.2 396.1 386.1 370.2 359.3 351.6 344.8 340.2 334.1 323.6 322.9 309.7 300.7 294.1 288.8 284.1 281.7 278.6 277.1 275.7 273.8 272.4 271.6 269.4 268.4 267.6 266.4 265.8 264 258.5 260.3 257.5 257.5 253.6 248.9 244.1 242.6 243.5 242.7 240 233.4 243.2 253.5 264.4 275.7 285.8 295.2 300.2 299.8 298.3 296.4 293.7 289.7 285.4 277.9 275.9 270.7 262.1 252.6 245.2 237.4
472.6 472.7 471.2 469.2 465.6 461.5 456.7 452.5 448.5 446 440 443.8 445.7 447.5 446.8 443.4 438.4 432.4 424.3 411.2 397.8 393.1 405.3 412.9 420.1 426.3 431.4 438 446.4 452.6 457.3 460.3 462.9 465.1 472 487.8 500.5 512.1 523.5 529.9 534.5 535.9 535.7 533.2 525.5 523.2 518.9 512.9 504.1 490.8 479.4 472.3 466.7 461.4 456.5 451.7 446.9 443.3 443 442.9 442.7 440.1 436.5 431 425.8 419.7 415.7 414.4 412.1 408.1 411.9 412.2 414.2 416.1 418.6 421.8 427.4 431.7 435 437.1 437.3 429.9 419.9 408.8 403.4 401.6 402.3 402.1 402.3 399.7 397.8 393.9 384.8 366 346.8 348.9 344.9 338 331.6 328.4 332.4 324.1 319.6 319 318.4 315.6 313.9 312.4 307.2 310.5 312.1 311.7 310.3 308.9 306.2 304.6 300.9 289.2 307.5 319.9 334.6 349.4 359.5 362.2 364.2 373.2 380.9 385.8 394.7 401 410.1 411.8 415.2 411.7 410.9 403.9 408.2 403.4 394.9 384.7 372.8 364 353.9 347.5 343.2 335.7 329.3 323.2 316.4 307.3 299.9 293.2 288.8 283.6 280.3 277.6 275 273.3 271.7 269.9 268.8 267.7 267.1 265.5 263.2 262.2 263 263.1 261.8 257 252.9 255.3 253.4 248 242.6 238.3 238.7 237.5 234.9 230.1 240.7 251.7 262.5 275.7 285.7 295.2 299.9 299.5 294.5 289.2 287.2 284.2 278.5 273.9 271.4 266.2 256.7 248.8 242.1 233.1
470.5 470.4 469 467 463.1 458.9 454.9 450.7 447 443.6 445 446.6 449.3 451.6 452.3 449.2 443.7 435.7 429.4 418.6 405 391.5 394.8 401.9 408.2 413 415.7 420.2 429.8 435.5 439.6 443.7 447.1 453.7 467.9 484 497.7 511.6 524.1 531.5 533 532.2 530.3 525.6 522.4 519.9 514.6 508.9 503.1 492.9 480.8 472.4 464 458.2 453.9 449.8 445.6 442.3 435.7 434.8 436.7 433.8 430.5 428.2 425.1 420.4 417.1 415.5 413.5 410.6 414.2 415.5 417.4 419.8 422.3 426.3 432.6 439.3 443.5 445.4 444.8 441 434.8 426 417.3 412.5 412.5 414.3 413.1 411.1 407.2 401.7 392.7 378.4 360 341.6 339.6 332.9 334 326.4 328.7 328.5 326.7 318.1 312.4 310.5 309 307.8 305.2 303.9 301.2 298.5 295.5 294.6 293.7 293 293 279 294.8 310.1 323.7 336.8 347.9 356.6 356.5 364.5 373.8 378.5 383.7 390.8 397.5 399 397.2 397.4 395.7 392.8 390.9 389.1 382.2 372.9 359.7 343.4 340.1 335.4 332.2 326.8 321.8 314.2 304.2 298.6 294.3 290.2 285.1 279.8 277.2 274.6 271.6 269.9 268.4 267.3 266.1 265.5 264.1 261.6 260.8 259.7 259.6 260 260.8 259.1 255 249.7 246.5 242.4 240.4 236.5 231.1 231.6 229.7 225.8 238.9 250 263.9 277.1 286.3 293.9 296.8 296 288.7 281.9 279.1 276.2 268.4 267.5 263.7 258.1 249.4 242.5 234.4 225.8
468.9 468.4 466.7 462.9 458.8 455.8 453.4 450.1 447.9 443.9 447.8 450.3 453.9 455 453.2 450.9 445.4 437.9 431.5 422.2 410.5 398.7 383.9 391.9 397.5 403.5 405.4 408.3 413.5 418.4 423.7 429.1 431.1 448 463.4 479 494.3 509 521.7 528.2 528.4 525.7 523.2 519.1 516.5 513.5 508.2 504.2 501 494 481.8 472.6 464.5 456.9 451.9 447.9 445.1 441.5 437.6 432.4 429.5 428.1 426.3 423.9 420.5 418.9 417.1 411.1 411.1 415.2 416.6 418.7 420.9 423.5 426 431.4 438.1 445.4 451.2 453.7 451.1 447.7 441.8 434.9 426.3 419.6 417.2 419.3 419.7 419.4 416.2 409.4 399.2 386.9 374.4 363.7 351.2 350.6 347.9 345.2 342.8 340.9 336.3 330.7 326.9 323.2 315.6 305.2 303.6 301.5 300.6 299 298 295.7 294.2 292.3 295.1 276.2 277.1 297.9 314.5 327.7 337.3 344.7 346.7 353 365.7 372 375 376.7 382.9 384.8 382.9 380.9 378.6 377.9 371.9 365.1 366.7 360.2 348 333.6 326.4 322.9 319.4 311.9 306.7 301.8 297.5 293.9 288.8 285.2 282.4 277.4 274.5 271.8 268.4 266.7 265.4 264.5 263.6 262 259.9 257.3 255.4 256 256.3 256.9 257.4 256.8 255.8 252.4 248.8 245.3 239.9 234.8 225.9 221.7 220.1 223.8 236.8 250.3 265.2 277.2 286.1 294.6 296.6 289.6 280.4 273.5 270.5 266.2 258.2 256.8 252.3 242.8 234.5 226.9 221.4 215
469.3 468 466.5 466.4 465.4 463.4 458.4 453.4 450.2 446.7 451.3 454.1 456.5 456.5 454.4 451.4 446.3 439.5 432.7 422.4 411.1 401.1 392.7 383.3 389.4 394.2 397.4 399.7 400.7 406.4 411.6 413.7 430.3 443.5 456.5 471 488.3 504.3 515.4 521.2 521.2 516.7 513.8 511.2 508.1 505.8 503 500 498.3 493.8 482.8 472.1 461.9 454.8 449.2 445.9 442.8 439 434.7 431.2 427.4 425 423.9 421.3 418.9 415.6 413.9 415.4 417.8 418.5 419.3 422 424.6 427.2 429.8 436.6 444.2 451.3 457.6 460.7 459.5 453.5 447.5 441.3 433.7 427 426.9 428.3 427 424.6 422.3 416.6 408.5 393.6 383.7 382.2 376.3 370.7 365.5 361.6 359 354.6 348.5 342.6 337.7 334.1 330.3 325.5 320.2 316.1 315.6 314.5 311.7 307.4 304.3 300.6 296.5 283.6 272.7 281.1 296 307.2 316.9 326.6 334.1 340.9 352.7 360.3 365.3 368.9 372.3 371.5 369.3 368.5 367.4 367.3 365.9 359.8 345.4 337.3 334.1 326 318.8 317.4 313.6 305.6 301.2 298.6 294 289.9 286.5 281.6 279.1 275.1 271.9 268.7 265.2 263.4 262.5 261.2 259.4 258 255.7 253.5 252 252.7 254 254.6 256.5 255.8 253.6 251.4 249.1 244.8 240.2 236.4 231.6 223.2 214.9 217.8 232.2 249.7 264.5 276.8 286 294 296.1 289.4 275.7 267.3 260.7 254.6 250.1 243.1 235.6 227.9 221.1 213.8 207.6 200.7
471.6 471.4 470.7 470.8 469.5 467.9 462.5 458.3 455.5 452.9 450.1 455 457.4 457.4 454.8 449.7 444.1 438.4 429.5 419.9 410.3 400.2 392.4 375.9 381.5 386.3 388.5 391.2 394.5 397.7 401.8 411.1 424.7 437.9 450.2 464.6 481 496.3 505.8 511.4 513.4 510.9 504.6 501.2 498 497.8 496.2 493.8 493.3 490.4 481.9 472.1 462 454 447.6 442.4 439 434.9 431.3 429.5 426.7 422.1 420.3 418.2 415.8 418 419.2 419.1 421.3 422.4 423.6 425.6 427.6 430.8 434.6 439.3 448.1 453.9 458.9 462.9 463.5 458.3 452.3 444.9 437.9 432.4 432 432 427.8 424.7 422.1 419.1 413.6 400.1 401.9 397.9 393.1 387.3 381.5 374.9 370.3 365.8 360.1 354.6 350 344.8 340.1 335.1 330.2 326.7 324.1 322.1 318.8 314.6 311 308.1 302.6 294.3 274.8 268 277 294.5 302.5 315.2 326.4 336.4 344.1 353.1 361 366.6 366.6 365.1 364.6 362.7 361.1 359.8 357.1 352.6 340.1 331.5 325.4 319.9 315.3 310.5 305.5 299.9 295.9 293.7 289.8 285.9 282.6 279.4 275.8 272.2 269.3 265.5 262 260.4 259 256.8 255.4 254.4 252.5 249.9 248 249.2 251 252.6 253.9 253.7 253.3 251.1 247.7 243.1 239.3 233.3 229 222.2 216.2 213.9 229.4 248.7 263 277.5 287.5 294.8 294.8 288.5 276.8 263.8 254.7 246.7 239.2 231.4 224.8 216.5 208.2 201.2 194.1 185.6
475.7 475.7 475.6 474.9 473.3 472.6 469.1 464.6 460.1 457 451.6 456.5 458.3 458.4 455.1 450.5 442.4 434 424.8 417.4 408 397 387.8 380.2 374 380.3 382.5 383.7 388.8 389.5 397.9 405.3 419.4 431.8 444.2 457.2 473.9 489 497.3 503.5 504.6 502 496.3 492 489.2 489.3 488.6 488.8 488.1 485.6 478.6 470.2 461.7 456 449.3 442.6 438.5 434.2 430.4 428.3 425.2 421.7 423.4 422.8 422.3 421.6 422.1 422.9 423.7 425.8 427.1 428.7 430.7 434.1 437.9 441.9 448.8 455.3 459.6 462.8 463.1 458.6 453.1 445.6 441.3 440.1 434.2 430.3 426.5 424.1 422 419.5 417 413.6 410 405.9 401.4 396.5 391.6 386.3 381.9 377.9 368.7 365.2 358.1 351.6 346.6 341.1 335.4 332.2 330 327.6 325.2 322.1 317.3 313.6 309.6 302.6 287.2 271.5 267.3 281 297 308.2 321.3 332 340.9 348.8 357.1 361.8 361.2 358.2 357.8 355.8 353.2 350.6 348.5 343.6 335.6 327.2 320.4 315 308.1 304.8 299.2 295.8 292 289.4 285.8 281.9 278.7 275.5 272.6 269.4 266.5 262.6 258.9 256.9 254.4 252.9 251.7 250.4 248.1 246.4 243.6 246.8 248.8 249.8 248.9 249.2 250.1 252.1 247 243.4 237.5 231.4 224.2 217.8 215.7 208.1 226.3 245.9 260.6 277.2 287.3 294 295.6 289.2 277.1 261.4 248.7 238.4 230.1 222.2 212.3 201.7 192.7 185.1 178.4 171.7
480.4 483.2 483.2 482.3 480.2 478.9 475.7 471.4 465.8 461.1 457.1 459.8 461.3 460.6 458.7 455.4 448.5 439.6 428.1 416.9 406.9 393.6 384.9 380.8 373.3 374.5 377.8 378.8 378.8 385.2 389.9 398.9 411.2 424.5 438.4 451 466.1 480.7 489.9 493.8 495.2 494.1 488.8 483.7 480.3 481.2 481 480.6 480.8 479.8 474 466.5 459.9 454.2 447.6 443.6 439.4 435.1 431.1 428.7 425.2 426.5 426.9 425.9 425.1 424.4 424.9 425.9 426.7 429.1 430.9 431.1 434.6 439.2 443.6 448.1 454.6 459.8 462.9 463.6 460.6 457.3 452.9 448.1 444.3 440 435.2 431.3 427.9 425.1 421.6 419.5 417.4 415.9 413.5 409.7 404.7 400.5 395.7 390.6 383.9 378.2 373.1 368.1 362.8 357.1 350.9 345.7 340.9 336.9 333.9 332.4 329.9 326.4 321.3 317.9 312.9 306.2 297.2 284 269.2 263 278.9 298.5 315.3 326.7 338.1 345.5 353.9 358.9 359.1 353.9 351.5 350.8 346 345.1 341.7 336.7 328.1 320.3 313.7 307.2 302.4 298.4 294.4 290.6 287.9 285.7 282.5 278.8 275.5 272.6 269.7 266.3 262.7 258.6 255.6 252.9 250.1 247 245.4 244 242.4 240.2 240.8 244.3 246.2 246.5 246.3 245.8 245.9 246.9 245.1 241.1 234.8 229.4 222 214.9 211.3 204.5 226.6 243.1 256.5 275.9 285.2 290.6 291.8 285.2 272.3 254.8 236.9 228.2 217.9 206.2 195.5 184 175.3 168.4 162 156.4
487.2 490.2 489.5 489.1 487.2 483.9 480.2 475.3 470.9 462.8 465.7 466.3 467.4 466.1 462.8 459.1 453 444.5 436.6 426.6 407.8 406.8 403.5 393.7 383.4 374.4 367.9 372.5 376 379 384 389.9 400.1 417.3 432.6 445.9 459.8 471.5 479.4 484.3 485 483.7 479.3 474.5 471 470.7 471.3 471.2 471.1 470.1 469.1 465.4 459 453 447.5 443.4 439.2 434.7 431.7 428.2 427.8 429.1 429.1 428.4 428.5 428.9 428.5 429.5 431.6 433.6 435.7 436.4 439.1 444.9 449.7 455.2 461.1 466.3 467.1 465.5 462 459.2 456.3 450.5 445.6 442.5 436.9 431.9 428.2 424.2 421.2 417.8 416.5 415.4 413.3 409.3 404.9 399.2 394 388.5 383.2 378.2 371 365.3 360.7 356.2 352.1 348.2 344.3 340.2 337.1 335.2 332.8 329.9 326.4 322.1 317.2 309.8 304.6 298.8 288.4 275.6 260.9 282.9 305.7 320.3 334.7 342.9 347.8 350.4 349.7 347 344.3 342 338.1 335.8 330.7 326.2 318.8 312 305.5 299.9 296.6 293.8 290.9 285.8 283.6 283 279.3 275.5 272.1 268.9 265.9 262 259.6 257.2 253.6 249 245.6 242.1 238.8 237.8 236.4 235.3 235.5 238.1 240.9 241.4 243 243.2 243.5 243.6 242.4 238.7 232.8 226.9 220 212.4 200.9 205.6 228.7 241.8 253.4 268.7 279.6 285.4 282.9 269.7 257.2 237.4 219.8 211.3 200.5 187.5 175.9 165.4 156.5 150.3 143.7 142.6
492 494.5 494.9 494.4 491.5 488.1 484.3 480.6 476.1 470.7 474 474.1 474.6 471.7 467 459.8 453.1 444.7 429 417.7 420.8 421.8 417.3 407.7 396.5 386.4 379.1 366.4 369.2 371.8 377.7 383.4 390.7 406.9 425.5 439.2 454.6 463.9 471.8 474.5 474 471.7 468.1 464.6 460.3 459.1 460.8 460.4 460.9 463.1 463.5 461.2 456.8 451.1 447.4 443.6 439.4 436.1 432.4 433.2 432.1 433.6 433.3 433.4 434.5 434.7 434.1 435.5 437.9 439.9 441.6 443.7 444.1 449.4 453.8 458.5 462.4 466.7 468.5 468.2 466 461.5 455.6 449.8 444.5 440.2 437.7 432.7 428.7 423.2 419 412.9 410.3 410.4 407.5 404.4 398.4 393.5 389.1 383.8 378.8 372.3 367.1 362.3 358.2 354.4 351 349.1 346.3 343.1 340.6 337.9 334.4 330.6 327.4 323.8 319.2 313.2 306.4 301.8 294.8 283.7 268 262.8 293.6 311.8 324.6 336.1 340.3 345.8 348.9 348.1 342.9 335.2 328.6 326.9 321.1 316 309.9 305.7 299.8 294.1 291.5 288.9 286.3 284.1 278.6 279.1 276 271.4 267.9 264 260.9 258.4 256.2 254.5 251.6 246.9 243.6 238.7 234 232.2 229.6 228.1 226.3 230.3 233.9 237.1 239.7 241.9 242.3 241.3 239.4 237.9 234.2 225.3 218.3 211.4 203.6 203.1 227.6 229.9 246.9 260.9 270.2 269.7 260.9 250.2 234 213.9 197.3 188.8 179.6 166.9 156.4 146.8 144.5 146 146.3 145.8
495.8 498.4 499.5 498.5 495.3 491.6 487.7 483.7 478.5 478.7 480.1 480.4 479.4 475.8 469.1 460.5 453.5 444.7 429.7 430.3 433.4 430 423.2 414.6 404.3 396.4 387.5 380.6 374 364 369.6 376.5 383.5 395.7 415.9 430.8 444.7 455.1 461.1 465.6 465 462.7 461 456.7 451.9 448.6 450.8 451.5 453.9 456.5 459 456.7 452.8 449.2 447.3 443.8 439.6 438.2 438.8 437 435.6 437.3 437.7 439.3 440.6 440.4 440.4 442.2 444.6 446.3 447.7 448.4 448.3 450.2 453.2 457.3 461.9 465.1 466.6 465.5 461.9 458 453.3 450.2 445.1 440.2 437.5 433.5 430.2 423.9 417.2 409.7 394.5 402.3 399.9 396.7 391.8 386.8 381.8 375.6 368.6 365.5 358.1 355 355.5 352.9 351.1 349.5 347.5 345.3 342.7 340.2 335.6 331 327.2 323.1 318.7 313.4 305.6 297.7 288.9 277.6 265.8 249.4 275.3 296.7 313.6 328.6 340.1 351.7 357.1 353 344.6 329.7 318.6 314.1 310.5 304.6 299.1 294.6 290.3 287.5 285.6 283.7 281.7 279.6 275.9 273.2 271.2 268.1 264.3 261.2 258.5 256 254 251.9 249.3 245.8 241.7 237.8 232.9 227.5 226 223.1 220.6 223 226.5 233.7 239.7 242.4 242.6 241.1 239.9 237.8 234 225.8 216.7 209.5 195.4 199.2 220.5 228.2 232.1 252.7 259 254.6 244.9 235.2 212.3 191.9 176.1 166.7 154.6 146.8 146.7 145 148.5 148.5 148.4 155.9
497.9 501.5 502.2 500.8 498 494.4 489.8 485 481.2 484.4 484.5 483.5 481.9 479.1 473.8 465.5 455.8 447.1 444.5 442.9 440.7 434.9 427.4 422.6 416.4 409.3 398.6 389.7 380.7 372.9 362.8 368.3 375.8 384.2 400.8 419.1 432.3 446.4 452.2 454.7 453.4 451.7 451.9 450.4 448 445.6 446.4 449.1 451.8 454.6 457.4 456.5 453.1 449.9 448 446.3 443.5 443.1 442.6 441.8 440.9 440.4 442.5 445 446.6 447.6 447.6 449.7 450.5 450.2 450.3 450.1 450.1 450.7 452.8 456.7 460 460.8 461.3 459.3 455.5 453.8 453.2 451.1 447.4 445.6 441.5 431 425.8 420.6 412 403.3 394.5 391.3 391 387.1 383.1 378.3 372.6 365.1 358.9 354 349.8 347.2 350.5 350.4 349.7 348.9 348 346.7 344.9 342.2 338.3 333.3 326 321.3 316.9 311.7 306.2 292.2 280.5 270 261 247.3 266.4 293.4 315.7 333.5 344.5 353.5 354.6 350.8 340.4 328.3 310.7 305.6 299.6 294.8 288.5 285.6 284.1 283.8 281.9 279.9 278.2 276.3 274.1 271.6 268.2 264.9 262.1 259.8 257.5 254.9 252.9 250.8 249.3 245.3 242 237.1 235 229.9 225.9 221.3 214.8 216.2 222.4 229.4 237 241.6 242.7 242.4 240.8 237.8 232.9 227.1 218.2 208.8 196 190.7 209.5 218.1 233.9 234.9 247.1 239.7 230.9 211.5 190.9 173.3 155.9 149.5 148.9 148.1 148 150.2 152.2 162.5 172 173.8
501.3 503.7 503.4 501.9 499.9 496.7 492.1 491.5 487.6 489.2 487.9 486.4 484.9 482.5 477.5 469.5 463 461.6 457 452.9 450.1 445.1 441.1 437.3 431.8 426 416 405.3 393.6 383.8 374.4 360.4 365.7 373.8 381.5 396 412.3 426.3 439.6 441 441.9 444 445.5 445.1 444.1 443.1 443.4 446 450.3 453.3 456.3 457.5 455.7 452.9 450.8 449.3 448.2 447.8 447.3 446.6 446.6 445.6 449.9 452.9 454.2 454.5 453.4 452.7 451.3 449.8 448.7 447.5 448.9 451.9 454.5 455.9 457 457 455.7 454.9 454.1 453.8 453.6 452.4 450.6 447.5 440 429 422.1 418 407 396.2 388.7 370.1 378 375 371.2 366.4 358.5 350.4 346.8 344.1 342.8 343.3 344.8 344.9 344.8 345.6 346.6 346.9 345.7 343.7 340.3 335.7 328.4 322.5 316.5 308.2 299.3 289.8 275.9 265.6 257.6 244.9 268.6 294.8 318.4 332.6 342.9 345.3 344.7 343.1 330.6 319.4 305.9 294.4 288.3 285.3 282.1 280.1 280.1 280.1 278.6 276.6 275.2 273.7 271.9 269.5 266.9 263.7 260.6 258.4 256.2 254.1 252.1 250.3 248.5 246.3 245.2 242.7 240.1 234.7 228.4 221.1 218 209.4 214.9 223.2 232.2 239.4 243.2 243.4 241 236.9 232.3 226.3 216.9 209.6 200 183.4 193.8 208.6 220.9 229.3 228.6 226.2 210.5 189.7 169.8 153.6 150.3 150.5 149.3 152.2 156.2 170.2 180.1 189.9 194.1 185
503 503.5 505.4 504.2 501.3 498.4 498 493.9 493.8 493 492.3 490.8 489.1 486.4 483 477.1 471.6 468.9 465.2 462.9 460.7 458.7 454.9 451 447.6 440.4 433 421.6 410 398.9 388.3 376.7 364.1 361.7 371.3 379.4 393.4 409 422.2 429.9 432.5 434.7 437.7 438.3 438.8 438.1 440.1 444 449.2 454.4 457.4 459.7 459.3 457.1 455 453.5 452.7 452 452.1 452.8 453.2 453.6 455.5 458.3 460.5 459.2 457 453 448.9 447.5 446.2 443.9 444 447.8 448.6 452 454 455.9 455.8 455.3 453.7 452 452.3 450.9 448.5 445.1 438.2 426.5 413.9 408.8 401.8 390.4 379.6 372.6 362.9 360.5 356.1 350.4 345.1 342.8 340.5 338 336.6 337.6 338.1 337.5 338.4 340.5 342.3 343.8 345 343.4 340.2 337.2 332.7 327.5 321.8 314.1 305.5 291.3 275.3 261.8 254 244.5 267.9 294 315.3 325.2 331.3 330.4 329.7 326.9 316.7 308.4 296.4 285 279.1 277.5 276.5 275.7 276 276.1 275.9 275.1 273.4 271.9 269.4 266.7 265.1 262.8 260.4 257.5 255.4 253.3 252.9 252.3 250.4 250.5 249.4 248 245.6 239.4 231.9 224.5 219.2 215.2 204.6 212.7 223.4 237.3 242.1 241.8 238.6 235.4 231 225.3 218.2 211 199.6 186 178.7 185.3 206.7 215.2 214.3 202.5 194.4 172 158.2 151.5 151.7 150.8 152.7 166.2 185.7 196.2 205.7 214.4 212.8 197.5
502.8 505 504.9 503.7 502.3 501.3 500.1 498.6 498 496.8 496.3 495.1 493.2 490.9 488.1 483.7 477.4 475.5 473 473.2 471 469.1 466.2 463 458.6 452.1 444.7 435.1 424.4 415.1 401.7 387.5 377.1 367.3 353.1 369.9 379.5 393.8 404.1 413.5 419.4 424.1 426.8 428.9 431.8 431.2 437.4 443.3 448.1 453.9 458.4 461.1 463 461.8 459.8 459.2 457.9 457.1 457.9 458.5 457.4 457.7 458.7 460.8 461.7 460.3 456.6 451.7 447.3 444.4 441.6 439 438.4 440.5 443.4 447.9 453 456.6 457.7 455.8 451.7 449.5 448.5 446.3 442.6 439.9 432 419 407.4 404.3 396 387.3 373.5 362.1 348.5 350 345 340 336.7 334.6 333.1 331.7 331.3 331.3 329.4 328.2 330.8 333.9 334.6 339.2 342.6 344.2 343.9 341.4 337.2 331.8 324.9 318.3 309.2 292.7 279.3 262.1 252.4 243.7 264.4 286.4 303.7 313 315.8 314.3 310.6 304.6 299 292.3 286.2 280.9 274.8 271.7 271.4 271 272.4 272.6 272.9 272.2 271.3 269.8 267.2 265.1 263.4 261.8 259.9 257.5 254.9 253.5 252.6 251.7 252.4 253.6 254 252.8 249.5 241.4 236.2 228.3 222.7 219.7 216.9 202.6 210.2 224.2 235 237.3 234.5 233 230.5 223.2 214.7 206.1 198.7 191.8 182.7 174.8 191.7 203.1 208 191.5 174.1 158.8 151.7 150.9 149.7 154.4 174.7 197 209.2 219.7 232.4 241.7 237.8 220.4
502.6 505.1 505.5 504.6 503.5 502.8 502.7 502.2 501.9 501.1 499.2 497 495.9 494.4 492.2 488.4 485.9 484.5 482.7 482 480 478.4 475.1 472.4 465.4 456.3 447.7 437.3 426.3 417.3 408.7 395.6 384.6 375.5 368.5 357.6 366.7 378.1 387.7 396.2 405 410.8 416.3 419.5 421 426.6 437 443.2 448.1 452.8 458.3 462.9 465.9 466.4 464.9 464.9 463.8 462.9 462.9 462.6 461.5 461.4 461.3 462 461.4 458.8 454.6 450 445.3 441.2 438 436.2 436.7 438.4 441 447.6 451.6 456.3 456 453 448.9 444.8 441.6 439.4 434.5 429.8 422.7 412.4 398.4 393 386.6 372.2 363.5 353.9 344.9 339.5 336.4 331 328.7 325.9 325.4 324.3 322.9 323 323.4 323.1 322.8 324.7 329.2 334.1 339.6 344.1 345.8 344.7 341.8 336.5 330.2 321.8 312.4 300.3 284.2 266.6 249.3 240.2 249 273.7 291 295.8 293.5 292.2 287.1 284.5 280.9 277.7 272.9 269.1 262.3 265.9 267.5 267.3 267.7 269.1 269.5 269.2 268.2 267.2 264.3 263.3 261.9 260.4 258.6 257 255 254.3 252.9 253.4 254.7 256.2 256.8 256.7 254.1 248 242.5 237 231.6 227.2 223.2 217 197.6 205.2 216.7 222.7 223.3 221.9 223.3 215.2 204 195.2 187.6 184.7 180.4 170.5 175.3 194.7 196.4 187.5 163.2 153.1 152.7 152.1 151.7 176.7 200.5 218.4 232.9 248.4 259.3 260.4 256.6 242.9
502.5 502.7 504.8 506.7 506.1 505.5 505.6 505.2 504.8 503.4 501.4 498.7 496.6 495.4 493.5 493.5 492.7 491.4 488.8 490.9 490.1 487.1 483.6 476.8 465.1 454.4 443 433.2 420.9 408.6 395.9 387.1 379.8 372.1 367.8 351.7 355.1 366 373 380.9 390.1 396.3 401.8 401.3 409.6 428.1 436 440.7 444.5 448.6 454 461.3 466.5 470.4 471.7 473.2 470.5 469.4 468.1 466.7 464.3 463.4 462.8 462.2 459.9 456.7 452.9 448.4 443.5 438.1 435.5 434.2 432.8 434.8 438.6 444.3 447.8 451.7 450.6 445.3 437.9 433.7 428.6 427.2 424.9 420.4 414.7 401.7 389.2 375.3 366.3 357.9 351.6 346 339.5 334.9 329.2 324.5 321.2 318.4 316.9 316 315.9 315.2 315.6 317.2 316.9 320.5 326.4 331.6 338 342.6 348.4 351.2 349.2 344.8 340.8 331.5 319.8 308.2 291.1 271.8 248.9 239.2 243 258.2 276.8 282.2 282.5 280.6 278.3 276.1 275.3 270.8 266.7 264.7 260.1 260 262.9 263.7 263.6 264.7 265.7 265.2 264.9 263.8 262.4 261.5 260.4 259 257.4 255.7 255.2 254.5 254.5 255.1 256.9 257 257.6 257.2 256 252.5 246.1 240.8 235.1 229.3 223.9 216.4 205.5 194.7 196 202.1 203.3 205 201.7 195.5 185.6 175.2 176.2 173.5 170.6 168.1 168.3 179.3 191.4 171.4 159.7 153.4 152 153.2 166.3 194.4 218.3 242.2 258.1 268.1 278.4 281.4 271.9 256.5
501.8 502.5 505.4 508.4 508.5 508.5 508.4 508 506.4 505.1 503.5 501.6 500 497.9 497.7 497.8 496.9 495.8 496.2 497.4 498.1 495.4 490.5 480.2 463 446.5 429 416.4 403.6 393.3 385.8 378.2 372.8 365.6 360.4 354.7 350.4 355.3 361.3 366.5 375.5 382.2 378.8 395.3 414.5 427.1 432.9 435.1 438.8 445.1 450.4 458.7 467.5 473.1 476 479 477.1 472.4 469.8 467.8 464.7 463.2 462.2 460.8 457.5 453.6 449.3 443.9 439.6 435.3 432.9 431.3 427.1 428.5 431.5 436.1 438.5 441.3 439.4 429.5 420.9 416.1 412.2 411.5 409.4 403.4 398.1 387.8 376.4 363.3 353.9 348.6 343.7 339.1 334.7 330.2 325.4 318.3 314.1 310.4 308.9 308.2 308 306.6 305.7 303.8 305.4 314.8 320.2 326.9 334.4 342.6 352 359.7 358.8 355.1 351.9 343.4 331.4 319.1 300.4 279.9 257.1 237.1 235.7 242.4 252.2 261.8 268.9 272.9 274.1 272.6 268 265.4 261.2 258.9 255 254.7 260.3 262.4 262 260.4 260.5 260.6 260.8 261.1 260.7 259.8 258.8 257.6 255.9 254.6 254.1 253.7 254 255.5 256.5 256.3 256.3 256.1 254.6 251.5 247.7 240.1 234.1 227.9 220.5 210 203.8 197.8 189.9 188.2 188.7 184 181.4 179.4 176.1 174 173.5 170 170.4 171.2 164.3 162.2 167.8 162.1 156.6 154.1 153.5 153.3 184.7 211.6 234 258.1 271.3 281.5 290.4 288.3 280.4 261.8
501.2 502.3 505.7 508.7 510 510.8 510.7 509 507.5 506.2 504.6 502.9 501.7 500.6 500.1 500.5 499.6 499.2 500.7 501.2 500.2 495.7 487.2 470.3 454.4 435.4 419 405.6 396 387.7 381.9 373.9 367.7 362.2 355.7 351.2 347.4 346.3 349.3 356.9 362.7 363.6 376.3 391.7 403.1 411.3 418.6 425 430.5 440.5 447.1 454.4 464 474.2 478.3 480.1 478.2 473 469.3 467.8 464.8 463 459.9 457 453.1 450.5 446.7 442.1 437.1 431.8 427.7 424.6 421.5 421.2 423.2 423.7 423.5 426.4 422.9 408.1 397 397.3 390.6 385.6 380.2 378.4 374.6 367.5 360.1 348.9 343.5 339.5 335.9 332 329.8 326.2 320.3 314.4 309.4 303 299.9 297.4 294.9 291 287.8 283.7 287.6 297.1 310.6 319.5 328.2 339.9 352.8 365.7 368.9 366.5 364 357.1 341.6 329.4 311.8 289.8 266.9 249.8 236.1 232.2 232.4 240.6 252.6 260.5 265.3 263.6 262.2 259.9 257.8 254.3 252.2 249.8 255.1 259.1 259.5 257.1 256.7 257.3 257.4 258 258.8 257.8 256.8 255.5 253.7 252.5 251.6 252 252 253.3 253.9 253.5 253.4 252.9 250.6 248.2 243.6 237.2 231.8 224 215.2 210 203.4 199.6 196.2 193.2 188.9 186.8 186.7 186.9 189.7 190 187.9 185.8 184.2 179 173.1 162.9 159.4 158.1 156.1 154.2 153.5 158.9 195.5 227.2 251.3 264.5 273 282.4 287.5 286.8 280.4 264.5
501.7 501.7 505.2 508.4 510.3 510.6 509.9 509 507.5 506 504.4 503.2 502.6 501.4 501.4 501.3 500.8 501.1 501.5 500.9 498.1 491.9 476.7 457.2 436.9 421 410.3 401 393.9 388.1 385.1 384.1 379.9 370.7 363.3 353.2 343.8 343.3 341.5 343.2 347.7 356 367.5 379.4 390.1 397.3 406 414.2 422 431.8 441.1 449.8 458.3 474.3 480.8 479 478 474 468.2 467 462.7 459.3 458.2 456.3 452.9 448.7 444.7 438.4 432.4 426.6 420.7 416.5 413.2 408.5 409.6 407.7 402.9 404.6 401.8 386.5 378.8 373.7 368 361.7 361.4 362.1 359.3 356.3 344.3 336.4 334.1 331.6 329.4 326.6 323.8 321.7 316.1 310.6 302.6 295.1 289.1 284.8 279.7 273.8 269.3 266.3 270.5 279.4 294.4 308.3 320.1 334.7 350.9 366.9 374.1 373.9 371.4 364.3 347.7 335.2 322.8 297.2 276.8 258.2 246 243.7 240 228.2 239.1 247.3 250.5 250.9 252 251.8 252 251.3 248 245.1 249.1 253.1 253.7 252.3 252.9 253.7 255.3 256.3 257.4 256.5 256.4 254.1 250.6 249.3 247.4 247.9 248.8 249.1 249.1 248.3 248 247.4 245.3 242.6 238.9 234.9 227.8 218.9 211.7 207.1 200 203.8 207.6 208.2 206.6 207.4 207.7 206.6 206.1 205 207.1 204.6 197.9 193.9 188.5 181.3 172.7 165.2 160.3 154.6 154 155.8 189.7 226.3 254.6 266.5 277.2 284.8 281.4 280.5 278.8 272.7
502 502.1 504.9 507.6 509.3 509.4 508.7 507.9 506.5 504.8 503.3 502.4 502.5 502.2 502.3 501.9 501.4 500.3 498.8 496.8 491.1 482.5 467.5 449.9 433.1 418.3 407 398.7 394.9 392.5 393.9 394.1 385.6 366.1 354.5 352.9 352.5 351.5 345.6 342.5 337.2 346.2 350.8 361.2 374.2 382.1 390.2 398.2 409.7 418.9 431.1 440.9 448.4 461.6 475.8 478.3 475.4 475.1 471.3 463.8 458.1 457.7 456.5 454.7 450.4 446.9 440.8 435.5 426.2 420.9 415 408.8 400.1 390.3 389.1 386.9 381.3 377 374.9 363.1 356.1 351.9 349.2 347.1 346.3 344.4 340.4 333.1 327.6 328.3 326.2 324.6 323.8 321.3 318.9 315 312.1 306.3 297.8 289.4 279.8 269.8 263.4 255.1 254.4 252 250.9 259.7 275.2 292.6 307.9 326.2 346.4 361.6 372.7 377.3 375.4 367.4 351.7 338.5 323.6 299.2 279.9 263.9 249.5 243.5 235.2 228.5 231.1 236.5 238.1 240.5 243.6 243.3 242.5 241.9 241.2 238.4 240.6 244.7 247 248.6 250.4 252.1 254.3 255.8 256.3 255.6 255.8 254.8 251.9 247.2 243.4 244 243.3 243.5 243.1 242.6 242.8 242.4 240.6 238.1 235.4 230.3 223 214.4 206.3 208.8 212.9 216.7 219.8 222.4 223.4 223.8 223.2 222 220.8 220.2 221.4 221.3 217.8 211.1 205.4 200.4 196.9 181.3 162.5 154.7 155.2 154.3 182.4 217.8 250.3 264.3 273.7 284.6 287.4 283.5 282.7 275.3
500 501.2 503.3 506.1 507.9 506.5 506.5 506.6 505.1 503 501.7 501.4 500.8 500.6 500.5 500.1 498.7 497.2 494 489.9 482.9 474.6 461.8 446.3 431.8 418.1 407.2 399.3 394.7 393.4 398 394.1 374.8 358.6 370.8 368.1 364.2 361.8 356.1 351.5 342.7 335.3 341.7 345.6 354.3 364.8 373.6 382.6 393.5 403.4 417 429.2 438.2 445.8 460.8 470 472.5 472 467.6 460.9 454.9 454.5 453.9 451 447.6 444 435.8 428 420.2 412.3 404.7 398.3 391.2 376.6 366.8 367.6 364.1 356.3 351.3 344.5 339.1 334.7 331.6 329.9 328.7 324.3 321 316.5 318.1 319.5 318.2 318 317.9 316.5 313.4 309.7 307.2 298.6 290.1 280.3 270.1 263.3 257 262.8 270.1 262 253.4 251 255.2 276.9 294.8 314.5 337.2 352.6 364.3 366.8 368.1 362.4 349.9 337.6 321.4 297.6 279 264.8 251.7 244.1 237.3 227.8 225.9 228.8 230.5 231.6 232.5 234.2 233.6 234.8 236.3 235.6 231.7 236.6 241.1 244.1 247.8 252.5 254.4 255.4 254.9 253.5 254.4 254.6 252.9 247.5 241.5 239.8 239.2 239.4 237.8 235.9 236.3 236.8 235.6 233.4 229.7 222.9 214.3 210.6 212.6 218.4 224.2 227.7 229.2 230.9 233.2 233.1 234 233.2 232.5 234.7 234.8 234.3 230.6 226.1 222.2 215.2 207.1 183.8 164.7 155.7 155.6 155.6 176 210.8 243.9 256.8 270.4 280.4 285.1 283.8 279.3 274.1
498 500 501 503.1 504.1 503.8 504.7 504.6 502.8 500.9 498.7 498.8 498.6 498.4 498 496.1 494.9 491.7 488.6 484.4 476.3 467.6 457.6 444.8 430.2 418.6 409 399.7 392.5 385.7 375.9 372.4 360.3 378.3 386.3 384 380.2 379.6 375.8 370 359.7 338.2 339.2 338.9 341.6 349.7 356.2 369.4 379.3 388.8 401.5 416.2 427.3 434.3 441.3 458 466.4 466.9 463.1 458.3 452.9 449.8 449.2 446.9 443.2 438.2 430.3 421.4 411.4 402.3 393.7 385.6 376.8 366.9 353.6 348.5 343.5 337 332.4 328.4 323.7 318.5 316.4 312.5 312.1 310.5 307.7 306.3 307.4 309.2 309.5 309.4 306.8 306.7 302.6 300.6 298.9 290.2 280.9 268.6 263.3 260.3 268.6 282.9 284.8 274.1 264.2 251.4 248.2 263 286.3 306.2 324.3 336.7 346.5 347.7 347.8 342.1 336.3 327.3 309 291.2 273.8 264.2 250.3 242.7 236.8 225.9 223.7 222.8 224.2 223.9 223 222.6 223.7 225.7 227.8 228.9 225.7 229.9 236 241.9 248.6 253.3 256 254.4 251.3 249 247.5 247.2 245.2 240.7 238.6 238.1 236.2 235.6 235 231.6 230.9 229.7 228.6 225.9 221.9 216.1 213.7 218.5 223.4 228.3 232.2 234.8 237.1 239 240.5 240.5 241.7 242.9 243.6 245.1 244.7 242.1 238.9 235.8 233.4 227.3 211.3 181.8 166.7 156.5 156.3 156.5 169.2 204.3 235.1 251 268.2 278.6 281.8 281.2 276.8 269.9
496.3 498.4 497.5 498.4 500.4 501 501.6 501.9 499.7 497.6 496.5 495.2 495.1 494.8 493.1 490 488.6 487.4 483.5 478.4 471.3 462.5 454.2 445.4 434.7 424.4 413.5 402.6 391.4 371.1 376.6 378.5 388.1 395.2 397.1 393.3 388.5 386.3 382.2 377.1 368.4 359.7 342.3 331.9 335.9 339.4 349.1 355.7 366.9 377 388.3 401.4 412.6 419.1 426.4 440.4 456.9 460.2 460.9 454.6 448 442.8 442.4 441.2 436.2 431.3 424.4 414.4 402.3 392.4 382.5 370.7 359.5 349.3 340.2 333.3 326.4 320.9 316.8 312.3 307.6 294.7 300.6 299.8 298.7 298 298.7 297.4 299.3 298.1 296.7 293.7 293.5 293.2 288.4 287.3 285.7 278 271.5 264.9 260.6 264.1 289 302.3 299.5 287.4 273.4 258.6 245.8 254.5 274.3 290.2 308 317.1 323.6 324.3 322.4 315.7 308.5 299.6 287.3 273.5 261.6 252.3 240 232.5 224.3 222.5 220.3 219.9 218.9 220.4 219.2 217.8 216.3 216.2 216.5 215.6 215.6 220.7 230.2 238.2 246.4 251.7 253.9 252.2 248.7 244.3 242.3 242.5 239.9 237.9 237 236.8 236.7 235.2 232.5 230.2 227.8 225.8 224.2 221.7 219.7 220.6 224.7 228.3 232.5 236 240 242.6 245.3 247 247.9 247.5 248.3 249.8 250.6 250.8 250.1 247.8 243.6 241 241.6 232.7 220.9 197.2 169.8 161.5 157.1 157.4 166.2 198.8 220.2 241.8 257.3 273.3 280.2 281.6 277.1 270.6
494.1 494.3 493.8 496.1 496.8 496.1 497 496.7 495.3 493.7 492.4 489.6 490.2 490.3 487.8 485.9 484.5 483.1 479 473.3 465.7 458 450.8 439.7 432.6 424.1 412.6 401.3 385.2 370.5 393.5 404.9 408.3 409.9 409.2 403.4 395.9 387.9 382.3 376.3 368.2 361.1 353.1 341.9 329 334 340.4 345.9 352.1 360.4 372.9 382.8 393.2 404.2 415 428.4 441.6 452.2 453.6 448.6 440.8 436.5 435.3 433.9 429.2 422.2 415.4 404.9 392.7 383 372.4 360.5 349.8 340.6 332 320.4 313.9 306.2 300.1 298.2 285.2 283.1 280.7 280.9 280.5 280 279.1 285.2 282.4 282.2 280.2 279.6 277.2 276.7 271.8 272.9 270.2 266.9 263.5 265.4 273.7 292.9 312.2 321.8 314.5 301.5 284.8 266.5 249.6 246.9 252.9 266 279 288.4 292.6 294 292.7 287.8 281.4 271.8 263.2 255 244.4 234.7 226.3 222.9 223.6 227.9 226.8 223.9 220.5 217.8 218.6 219.3 218 216.1 214.3 213.3 210.4 212.1 216.9 230.1 240.2 247.4 249.7 248.5 244.4 241.1 239.1 238.1 238.8 238.5 240.1 239.9 239 238.1 236.2 234.1 231.5 230.3 228.7 229.3 230 230.1 232.1 235.1 239.2 242.8 245.8 250.2 253.1 255.3 255.1 253.7 253.9 253.8 254.7 254.8 253.4 249.8 244.2 242.5 239.6 234.5 223.9 210.4 182.3 165.7 157.8 157.7 168.3 190.8 206.6 226.3 244.1 259.9 274.2 279.7 276.2 268.8
488.7 489.1 489.8 492.4 494.4 493.3 490.5 491.8 491 489.1 487.3 483.6 484.7 484.6 484.2 482.5 480 477 471.1 465.8 458.1 451.3 443.6 434.4 424.4 419 409.5 395.3 376.4 383.2 408.1 416.6 418.8 420.1 417.5 410.7 400.8 391.3 384 375.1 366.8 358.4 350.1 342.8 335.7 333.3 327.6 334.9 341.8 347.8 353.9 363 371.6 386.5 402.6 414 429.2 439.9 442.4 439.1 434.3 432.7 428.5 426.5 421.9 414.7 407.6 398.6 387.2 377.7 365.8 352.5 340.7 332.3 320.9 311.2 301.7 294.4 289.3 284.2 286.7 285.3 286.5 287 280.4 279.2 278.3 275.9 275.8 275 274.2 275.7 273 275.4 275.9 281.5 285.3 286.3 290.5 294.4 303.2 320.7 334.2 338 323.4 308.8 295.7 276 257.9 244.2 243.1 246.8 256.2 262.7 267.9 268.9 267.8 265.1 261 255.1 248.3 242.3 229.7 225.7 225.7 237.9 247.5 253.2 252.5 249 244.5 241.9 242.2 238.6 234.2 222 216.1 215.3 214.4 210.9 210.1 209.2 222.3 234.5 245.1 243.4 239.9 236.3 235.3 236.6 239.2 241.8 243 242.7 242.6 240.4 238.6 236.5 235.9 235.6 233.8 234.4 234.8 235.9 238.3 242 245.7 249.2 251.6 255.8 260.2 261.7 262.1 260.2 258.5 258 257.7 256.9 254.8 250.7 245.2 242.4 239.3 231.1 223 213.7 188.1 170.2 156.8 157.8 163.9 178.5 193.9 212.9 231.6 251.3 265.5 274.3 274.2 271.8
480.4 481.6 483.3 487.5 489.8 490.1 487.2 485.8 485.5 483.8 481.9 477.8 476.6 478.4 478.6 476.5 471.6 466.8 460.9 453.9 446.8 441 431 424.6 419.8 413.1 406.4 393.2 372.4 397.3 417.5 426.5 427.2 426.9 423.2 416.1 405.5 397.3 390.1 381.1 372.1 364.1 357.1 349.1 341.4 335.6 331.2 327.3 333.7 336.7 341.2 347.3 354.1 365.7 379.1 395.4 408 421.9 426 425.4 422 425.1 423.6 421.4 417.3 411.8 406.8 397.6 384.5 372 358.6 344.1 332.2 322.1 306.7 301.5 297.6 290.9 287 293.9 300.3 304.7 305.8 305 302.4 298.9 295.4 292.2 292.3 292.3 293.6 292 291.5 291.4 292.1 295.6 304 308 311.3 314 324.8 340.6 352.7 351 334.7 319.3 308.7 288.4 267.2 254.2 241.8 240.9 241.7 240.7 246.2 248.6 246.8 248.2 248 246.2 240.9 227.9 227.4 228 242 256.3 268.8 273.7 270.9 264.9 260.5 255.3 250 245.8 242.5 237.9 232.2 226.5 220.7 216.1 209.6 208.4 208 218.9 231.5 236.2 232.1 230.1 231.6 236.4 240.7 243.2 245 245.2 244 242.6 240.9 240 240.1 240.7 240.1 240.9 241 242 244.7 247.7 250.4 254.6 256.6 260.8 264.6 267.2 268.7 266.3 264.2 260.8 259.1 257.2 255.1 252 244.5 240.7 235.4 228.3 220.3 210.8 188.9 173.9 157.7 159.1 162.9 182.5 198.2 211 221.7 239.4 255.8 265.5 273.6 273.6
470.4 473.7 476.6 480.7 482.9 482.7 481.9 481.5 479.6 478.3 476.5 473.6 472.5 472.7 473.9 473.1 469.9 463.9 453.3 445.2 436.7 427.8 422.3 416 409.9 402.8 394.9 384 382.2 403.8 422.5 433.5 434.2 432.1 427.3 419.7 413.5 404.8 397.2 386.7 377.5 369 360.7 347 349 341.3 332.6 328.2 327.9 328.9 331.8 335.2 338.8 342.3 352.2 367 382.6 397.7 404.2 408 415.9 422.7 423.5 419.6 415.8 409.9 404.1 391.8 376.6 370.4 356.2 345.6 336.4 328.1 319.2 309.6 297.8 289.3 299.9 307.1 315.3 319.7 321.9 321.8 318.5 315.2 312.8 310.3 308 308.1 306 305.9 303.9 304.9 306.2 310.9 319 326.2 329.9 336.5 348 363.5 369 364.2 345.6 331.5 317.9 300.8 280.5 263.3 253.6 243.8 239.1 238.2 237.3 236.4 233.9 234.1 231 231.9 229.2 230.1 231.1 248.4 260.2 266.1 268.9 269.1 268.4 265.4 261.2 256.6 252.1 247.6 243.7 240.1 236.4 231.9 227.9 221.5 211.3 208.6 207.7 206.5 214.1 220 219.5 221.6 229 237.9 243.1 246.9 249.2 249.3 248.2 245.6 243.7 243.3 242.6 243.1 244 245.6 246 246.9 249.3 251.8 253.9 256.5 259.4 263.6 267.1 271.8 274.4 272 268.8 265.9 262.6 258.6 254.2 249.1 243.3 238.3 232.5 226.5 219 208.5 188.2 167.9 158.2 159.3 163.2 192.2 209.3 216.9 220.7 230.5 243 259.3 270.4 276.3
457.8 463.1 469.3 472.6 473.8 473.1 473.6 476.3 476.5 475.4 473.5 470.2 469.7 469.4 469.2 469.4 467.5 464.6 455.7 447.6 437.4 429.8 422.3 411.4 404.1 400.5 394.5 379.1 392.2 410.8 425.9 440 443.4 440.9 436.7 430.4 421.6 411.3 401.2 391.7 379.4 369.7 362.6 363.4 356.8 347.8 341.1 332.6 327.4 326 325.1 325.2 328.7 330.8 332.7 340.2 354.9 370.2 377.6 390.4 409.7 420.6 424.3 423 416.3 410.3 407.4 400.3 392 382.2 371.8 359.3 347.6 333.9 321.8 307.8 291.2 302.3 314.9 324.7 330 334 336.5 336.3 334.2 332.5 330.6 327.7 325.6 325.6 324.8 323.1 322.1 323.2 322.7 327.5 337.5 346.2 353.1 359.9 371.5 382.4 377.6 367.7 355.9 339.7 324.5 308.5 292.6 277.8 265.4 258 252.7 246.4 241.5 245.5 241.1 242.3 240.9 237 240.4 245.4 255.3 264.6 271.7 275.3 270.9 265.5 260.8 257.5 255.3 250.7 248 244.6 241.5 238.1 234.9 232.5 229.3 225 220.5 216 206.8 206.6 205.4 206.8 209.2 216.3 230.8 239.6 245.9 250.4 253 254 252.6 247.8 245.8 246 245.9 246.5 247.3 248.1 248.1 249.8 251.9 254.6 256.7 258.9 261.4 265.3 268.5 273.5 276.8 279.5 277.7 273 267.4 261.5 257.7 251 243.5 237.5 230.3 223.6 215.2 204.1 183.7 159.9 157.8 159.1 164.8 192.2 213.8 224.5 229.3 233 240.5 252 266.5 276.1
455.5 458.9 465.3 470.3 470.1 468.8 469.3 469.9 470.5 470.5 469.7 469.3 465.6 465.4 464.6 463.2 462 459.3 454.4 449.3 442 437.2 431.5 427.2 416.3 411.4 386.2 381.5 403.4 419.8 435.2 449.2 454.4 452.9 449.9 444.3 434.7 417.3 404.8 399.4 394.8 390.8 386.1 378.2 372.4 361.8 352.1 341.5 334.3 325.6 322.9 320.8 324 322.7 323.8 322.7 330.6 344.2 358.6 385 402.3 412.2 420.5 420.6 416.8 413.5 412.2 407.4 400.8 392.6 381.4 371.1 354.6 332.7 315.2 295.5 302.1 319.1 330.8 340.7 347 351.8 352.4 351.4 348.6 348.6 350.1 350.2 349.5 350.4 348.2 344.3 343.2 340.3 338.5 342.2 350.8 363.9 373.8 384.9 392.8 393.5 384.2 372.1 359.1 342.4 328 312.1 298.5 286.6 277.5 271.2 267.3 264.6 261.6 260.8 257.7 254.2 253.1 255.6 259.3 263.1 269.3 275.7 281.5 281.9 274.4 266.7 261.6 255.4 250 245 243.4 240.9 238.9 236 233.4 231.1 228.3 225.2 220.2 217 213.5 204.1 204.4 205.1 204.1 219.2 236.5 245.2 250 253.7 256.3 255.1 253.2 250.7 248.9 248.2 248.3 248.5 248.9 248.9 249.7 250.8 253 255.5 257.5 259.5 261.3 264.2 267.6 273.3 279.2 281 280.4 274.5 266.7 262.8 258.1 252 242.3 236.2 228.7 221.4 213.4 198 179 159.9 158.1 160.3 167.7 196.8 216.7 230.5 239.4 243.7 245.9 251.6 261 273.6
455.7 457.8 462 468.1 466.8 466.8 467.9 468.8 469.5 468.9 467.3 465.6 462.8 458.8 456.7 455.2 455.4 455.7 454.2 450.2 447.3 443.6 439.4 433.6 424.4 410.2 384.3 396 418 432.5 447.7 459 463.1 462.7 459.6 453.8 442.3 426 418.1 421.8 419.4 414.6 407.1 401 395.2 379.1 369.2 357.5 347.8 341.6 331.5 324.7 322.4 318 320.2 318.7 317.9 322.5 341.9 362.6 378.9 388.5 400.1 413.7 416.8 419.1 421.6 420.2 407.4 395 383.7 363.6 340.6 318.5 299.6 301.8 322.3 338.9 351.7 364.7 373 375 373.8 370.4 376.8 376.2 376.7 375.6 373.5 372.4 369.4 367 362.6 359.1 356.6 356.9 363.5 375.4 387.5 402 405.5 398.6 385 375.2 362.1 343.2 327.9 313.5 302 294.1 287.9 282.8 278.3 274.2 270.3 268.9 265.2 263.5 263.8 266.7 269.6 273.7 276.2 281.1 284.1 279.6 272.7 266.5 260.4 254.2 248.6 242.7 239 236.9 235.4 233.8 232.2 230.3 228 225.2 220.9 217.7 215.5 203.5 204.6 204.6 204.3 220 243.7 252.9 256.4 257.3 256.8 255.9 256.5 255.7 253.9 252.2 250.8 249.4 249.2 249.1 250.2 250.6 252.5 254.3 255.5 255.9 258.8 261.6 266 270.6 276.3 279.4 278.6 272.1 268.9 260.1 253.8 246.1 239.1 232.3 228.4 221.2 210.9 195.2 176.4 160.4 159.2 160.4 176.3 200.8 222.3 238.1 250.2 255.8 257.5 256 261.5 269.9
453.8 457.2 458.6 462.1 462.4 463.2 466.3 468 469.4 470.7 471.1 470.7 469 465.9 462 456 451.6 448.9 449.3 448.4 446.8 444.1 439 432.3 424.3 402.6 389.7 416.6 435.2 449 461.1 467.7 471.1 469.8 467.3 462.8 451.6 432 437.6 440.5 437 432.9 429.1 423.2 414.1 402.8 389.7 375.1 364.7 354.2 346.5 340.4 329.3 323.6 326.6 322.9 319.3 315.9 316.6 336.4 352.8 367.7 383.8 400.6 415 421.9 427 426.9 412 387.5 364.7 343.9 322.5 302.8 304.6 323 343.2 358.1 372.1 381.2 390.3 393 396 398.9 405.2 404 403.2 400.9 405.4 401.8 401.7 394.7 387.4 378.2 373.5 375.7 380.9 386.3 401.7 416.3 414.8 405.7 387 375 362.6 343.9 329.3 312.2 305.2 301.7 297.3 293.1 288.8 285.3 279.2 275.6 271 269.7 269.7 269.6 271.5 273.3 277.1 280.9 281.5 278.3 273.1 266.2 258.5 251.1 245.3 240.3 236.5 232.5 231.6 230.6 229.4 228.2 227.2 225.3 220.5 216 212.2 203.7 202.9 203.6 204.2 233 247.8 256.5 262.2 263.8 263.1 260.2 258.3 258 256.4 253.4 250.8 250.1 249.5 249.5 249.7 249.4 250.1 251.2 251.5 252 253.6 255.9 262.2 267.3 272 275.1 273.3 267.9 262.7 253.4 247.7 243.9 237 231.8 225.1 217.7 207.9 190.1 172.8 161.1 159.7 160.6 184.8 209.2 228 244.2 256.7 266.3 266.2 263.9 265 270
451.6 454.4 455.2 454.3 459.4 462.8 465.7 469.4 473.2 475.4 475.6 474 470.7 468 464.4 459.8 452.7 446.3 441.9 441.1 441.7 440 435.2 426.6 412.9 390.9 407.6 430.8 448.2 460.4 471.9 478.4 478.9 475.1 472.3 469.4 463.7 456.2 454.4 451.3 447.8 444.9 441.5 434.8 427.8 419.8 410.7 399.4 386.2 372.8 360.5 351.4 345.1 336.9 325.9 329.2 324.2 316.2 314.9 312.9 326.4 347.4 364.7 380.3 395.7 410.2 421.9 424.6 403.6 376.1 350.3 330.4 311.8 299 325.2 344 363.9 378.8 388.9 398.5 404.7 406.3 413.8 422.7 425.3 426.1 427.6 424.5 427.5 426.6 424.4 418.2 408.8 399 391.4 392.4 396 405.7 422.2 426.5 421.9 409.5 390.9 376.8 363.5 348.5 329.7 315.5 311.3 308.1 305 304.3 300.8 294.7 287.9 283 279.1 274.7 273.5 272.2 268.4 269.7 273.6 276.6 276.6 272.8 270.1 265.5 255.1 248.6 241.1 236.5 232.8 231.4 229.5 228.6 227 225.9 225.2 224.4 222 215.2 212 205 202 202.1 203.1 228.9 248.6 258.8 267.7 270.5 266.9 261.7 259 258.2 256.9 253.6 252.6 252 250.7 249.7 248.3 248.1 247.4 247.3 246.7 246.8 247.1 249.5 256.4 260.3 264.2 265.9 266.5 261.1 254.4 248.8 246.5 241.9 232.6 227.5 222.1 215.3 205.7 186.8 166 162.2 160.8 161.4 193.8 214.8 232.9 248.8 263.9 273 273.4 270.1 268.9 273
446.7 450.3 449.4 456.7 462 465.3 469.5 472.6 477.5 479.7 479 476.1 472.4 468.6 463.8 456.9 450.1 442.8 436.4 428.1 435.1 432.2 422 406.3 393.5 408.1 423 441.7 459.5 473.5 480.2 485.1 484.1 479.2 474.8 472.4 469.9 467.9 463.1 459.2 456.2 453.3 449.2 444 437.4 430.6 424.7 415 404.6 392 379.5 367.3 357.7 337 338.8 336.9 332.3 327.4 315.5 313.8 312.6 322.8 339.1 353.8 369.1 388 400 409.1 389.6 361.6 338.4 321.4 299.6 315.2 342.6 364.5 386.1 400.2 406.5 415.8 421.7 424.2 429.1 440.3 443.8 442.9 448 451.2 450 447.3 441.6 436.3 426.7 415.3 407.1 406.1 412.1 428.2 435.6 436.2 425.9 411.3 391.3 375 363.8 348.5 328.9 319.1 316.1 313.9 311.5 312.9 303.5 297.6 291.9 286.8 282.4 277.2 274.3 272.6 270.3 267 265.7 267.3 265.3 264.1 259 253.8 246.6 242.8 237.1 231.7 228.9 227.7 228 227.8 227.2 226 225.5 224.4 221.2 218.9 214.7 207.2 199.9 201.1 201.2 215.1 242.8 258.8 265.1 267.8 266.5 263.1 259.9 258.5 256.4 253.3 252.5 251.8 250.6 249.4 246.2 244.4 243.3 241.9 240.6 239.6 239.7 239.2 243.2 249.2 252.7 252.5 251.8 248.3 245.6 244.1 242.6 234.8 228.8 223.8 219.3 213 200.2 183.3 163.5 162.7 161.7 162 193.8 217.5 237.8 251.7 265.4 274 277.1 273.5 274.4 277.4
443.6 445.9 448.3 457.4 464 468.4 472 475.1 479.8 482 480.9 477.2 473.2 468.4 462.9 455.3 448.9 441.5 434.9 418.7 428 423.4 406.4 405 415.7 427.2 438.4 452.5 470.8 480.4 486.2 488.7 487.9 482.2 477.8 476.2 475.6 472.4 468.3 465.1 461.9 458.3 453.9 448.6 442.1 436.2 429.5 421.4 412.2 402.4 392.7 383.7 367.4 357.5 354.3 346.8 339.5 334.5 329 322.9 314.1 312.4 310.8 323.8 339.6 356.8 373.3 385.8 370.9 349 328.5 309.6 305.6 331.4 358.6 381.8 402.3 414.1 424.8 431.8 436.6 441 443 453.8 458.6 462.2 465.2 470.7 472.1 465.6 462.8 454.8 443.3 430.7 425.2 424.2 432.1 442.2 445.1 442.7 427.6 408.1 387.8 372.3 361.5 346.5 330.3 324.8 320.6 316.7 315 314.3 307.9 301.9 296.8 290.8 284.3 278.6 275.7 272.9 270 266.2 263.8 260.3 257.6 256.4 252.2 246.8 241.3 236.5 232.9 229.3 226.3 223.1 222.3 224.4 226.6 226.9 227.2 226.5 222 221.3 217.5 213.1 207.5 200.5 200.6 208.1 238 258.7 266.4 268.8 265.2 262.1 258.1 256.5 253.2 250.6 250.2 249 247.7 245.4 242.2 240.8 238.7 237.4 234.2 231.4 229.1 225.5 226.7 229.6 233.6 235.5 235 233.4 235.7 238.6 237.4 229.7 222.1 218.7 215.8 210.7 197.6 186.1 164.8 163.3 163.2 163.6 197.9 222.8 243 257.8 266.3 271.1 275.5 276.7 278.3 280.3
451 451.9 449.9 458.5 465.4 469.8 473.2 477.9 481.5 482.8 481.8 478.2 474.8 470.3 462.8 455 448.7 443.2 436.6 430.5 415.7 408.7 409.3 424.3 433.4 444.1 449.7 462.7 477.3 483.8 487.3 489.7 487.8 483.4 481.4 479.7 478.5 477.3 475 470.4 465.9 461.2 455.8 449.7 443.2 436.3 429.5 422 412.7 404.3 397.3 379.9 360.9 373.7 369.6 360.5 351.7 343.7 333.4 324.4 323.1 313.5 310.8 309.8 309.5 325.4 341.5 353.8 348.5 331.7 314.7 301.8 324.6 351.3 373.7 396.4 414.5 430.2 436.1 441.2 443.9 451.5 457.8 468.1 474.3 479 486 491.4 491.4 487.3 481.3 469.8 456.7 449.8 442.4 441.1 448.7 453.6 451.7 442.7 426.5 404.5 384.6 368.8 355.5 339.5 329 325.7 324.6 319.6 315.8 312.5 308.2 300 294.5 288.1 282.9 277.5 274.7 272.2 269.6 266.4 261.8 256.9 251.6 247.2 243.1 239.9 236.2 233.4 230.4 227.9 224 220.8 218.1 215.5 215.8 220.4 225.1 227.2 224.4 222.7 219 212.8 208 200.3 199.8 212 240.9 265.6 272.8 270.9 267.2 260.5 255.7 254.3 252.4 248.4 246.7 245.2 243.4 241.1 238.2 236.1 233.8 230.9 226.4 222 218 215.8 212.9 211.7 214.5 214 210.5 213.8 215.2 215.3 215.7 215 214.4 215.1 213.7 203.2 199.6 183.7 170.8 164.4 164.1 166.2 197.8 225.7 247.8 268.2 274.2 276.4 278.9 279.6 282 284.9
456.9 456.6 453.3 458 465.8 471.4 475.5 479.7 482.1 482.4 481.9 479 475.3 469.9 461.3 454.6 448.7 442.9 436.6 430.9 416.4 409.5 425.5 435.8 443.4 451.7 458 468.9 479.2 483.6 484.6 484.5 485.1 484.5 484.2 483.6 482.1 479.5 477 473.2 467.2 461.5 455.8 449 442 433.2 423.8 415.3 400.8 391.6 383.3 378.9 383.8 380.2 376.9 370.2 363.4 355.8 337.3 342 338.1 329.5 317.3 309.9 309.1 308.8 311.3 320.8 320.7 312 303.3 315.9 343.2 369.1 391 409.5 427.1 440.5 450.7 451 454.1 461.6 471.6 480.7 489.8 493.9 502.9 508.3 508.8 503 498.3 485.9 475.1 467.3 456.4 457.7 459.2 460.6 450.5 437 418.5 395.1 374.9 363.4 348.9 332.6 326.7 324.8 323.4 321.1 316.3 311.5 305.8 299.6 293.5 284.9 278.9 274.7 271.3 269.2 267.3 264.8 260.2 254.1 248.5 243.7 239.7 234.2 231.7 229.7 227.4 229.5 230 227.9 225.8 222.7 221.3 210.7 221.5 225.5 224.8 222.3 218.8 213.7 206.3 199.5 198.4 200.9 225.1 254.6 268.8 270.4 264.2 256.4 251.6 250.7 248.2 246.7 243 241 239.4 235.8 233.2 229.6 226.6 221.5 217.7 213.4 208.6 205 201.7 199.8 196.1 190.3 189.9 189.8 189.6 189.6 188.8 190.8 194.7 201.2 199.9 196.8 187.5 180.5 169.9 164.9 165.7 171.3 201.7 227.9 248.5 268 278.2 282.1 285.3 285.7 285.2 292
461.8 461.9 457.7 459.4 466.9 472.5 476.8 480.2 481.9 482.6 481.9 478.8 475.2 467.8 459.6 453.7 448.1 441.9 434.1 429 414.7 421.6 432.6 442.2 448.2 456.5 464 472.4 479.3 481.1 479.6 479.4 480.9 483.6 484.9 484.8 482.8 480.5 478.5 474.7 468 462 455.1 447.8 440.5 427.3 423.7 422.6 416.7 410.2 405.1 401.6 396.3 389.9 382.7 376.2 364.7 347.6 346.3 354.5 347.7 340.6 332.8 322.8 315.4 308.3 307.7 307.1 305.8 304.6 306.3 336 362.4 384.1 404.5 422.4 437.9 450.7 458.5 460.1 466 472.4 482.5 492 499.8 506.1 515.1 521.3 520.3 513.6 503.8 498.5 490.8 482.8 468.5 465.6 464.5 458.2 443.6 428.1 409.6 386.7 368.8 352 341.4 329.9 325.4 322.4 320.7 319.7 316.5 311.4 305.6 299.3 290.2 282 275.7 272.5 269.7 266.3 263.9 260.9 256.6 251.3 245 244.8 241.7 240.2 236.3 236 237.1 236.8 233.6 229.3 226.2 223.1 220.2 212.8 214.6 220.3 220.9 218.9 215.6 210.9 203 197.5 198.7 199 220.5 249.8 261.8 262.5 256.3 251 247.3 246.5 245.8 246.2 242.5 238.5 234.4 230.4 226.4 221.9 218.8 212.2 207.9 203.3 199.5 195.1 184.4 176.2 174.9 175.2 175.5 173.9 173.6 173.1 171.6 171.4 169.7 174.7 180.2 181.2 177.5 169.8 167.2 166 165.1 178.3 206.2 230.2 248.9 264.1 280.3 285.2 291.9 290.2 291.1 298.2
466.4 467 462.8 460.6 466.1 473.1 478.4 480.2 481.6 482.8 481.5 477.4 473 465.6 458.9 455.1 448 440.1 432.8 427.6 420.9 417.8 431 442.9 450.6 458.4 464.7 472.7 476.3 476.4 475.7 476.3 477.1 480.5 482.9 482.9 481.6 480.8 478.5 475.4 469 462.8 455.2 442.4 440 442.6 438.5 432.1 426.8 421.3 415.3 409.8 402.2 393.2 384.2 372.5 353.7 364.7 367.6 367.6 363.3 355.4 346.1 336.7 329.1 322.4 314.5 308.5 310.5 308.5 321.7 349.9 374.6 397.7 417.4 431.6 445 456.6 465 467.2 474.4 481.1 491 496.5 503.6 514.1 523.6 528.3 525.2 517 511.9 505.7 496.1 489.9 476.5 466.5 462.7 450 431.3 415.4 397 378 361.1 349.2 339 331.4 326.9 324.4 320.7 316.3 313.6 310 304.3 298 289.5 279.4 273.7 270.6 267.6 262.7 263.8 258.4 257 253.9 251.4 249.5 246.4 243 242.5 239.6 238.1 234.9 231 226 220 212.1 207.9 207.9 205 202.9 207.8 211.1 210.1 207.8 201.9 197.1 197.7 204.7 231.2 250 252.7 251.9 248.6 245.3 243.4 242.8 243.2 244.4 241.9 236 231.4 225.2 219.5 214.1 209.5 204.3 197 195 191.2 177.7 177 175.9 175.3 174.3 173.8 173 172.6 172.6 171.6 170.3 170.1 170.9 170 168.5 167.1 167 167.2 166 165.5 187.9 213.1 232.8 248 265.7 281.1 286.7 290.1 291.7 294.5 300.2
472.1 471.7 468.6 467.6 468.2 473.3 479.7 481.2 482.9 483.4 482.2 478.6 474.1 468.1 463.3 456.4 450.4 442.7 436.5 430 418.7 420.5 416.7 438.2 447.5 458.2 465 471.7 472.7 471.2 471 471.4 474.1 478.1 480.7 481.2 481.4 480.9 479.2 475.7 470.5 464.1 457.8 458.4 453.4 450.2 444.8 439 434.3 428 421.8 413.1 401 391.5 372.8 377.8 382.9 384.3 385.2 383.7 380 373.7 364.6 355 345.5 337 331.5 315.1 314.1 313.9 336.5 356.1 378.7 400.2 420.8 433.1 439.7 459.7 464.3 468 474.6 485.6 492 495.7 503.7 514.4 523.4 524.6 523 519.2 515.9 509.1 498.5 487.8 476.1 463 452.2 437.7 419.6 400.7 384.9 368.6 357 348.4 338 335 331.9 327.6 323.7 318.4 310.5 301.5 299.8 293 285.6 278.3 273.8 268.2 269.9 267.4 266 264.2 262.5 258.9 255.1 251.5 249 246.7 245.3 242.9 238 233.4 226.8 219.6 211.1 209.1 211 213.2 212.7 203.9 201.6 200.3 197.9 198.9 199.9 194.8 195.5 221.1 227.5 234.3 241.1 245.4 245.7 243.5 241 239 239.3 238.9 237.7 233.4 226.7 219.8 212.5 207.2 201.3 194.6 189.5 186.7 177.9 177.8 176.7 176.2 177.9 182.2 183.6 186.1 185.9 183.9 182 178.8 175.4 172 170.9 169 176.1 177.6 175.8 175.9 171.4 195.6 220.9 233.5 246.1 262.5 274.5 286.4 290 292.3 295 299.5
479.4 476.2 474.4 476.2 476.9 475.2 480.3 483 485 485.6 483.9 481.2 476.8 470 467.3 461.8 455.3 447.7 435.5 430.8 429.4 428.4 427.7 428.1 434 451.1 459.5 463.6 464.3 464.1 465.2 467.4 470.2 475 479.4 480.5 480.7 480.2 478.6 474.8 471.3 471.1 467.5 463.6 459.8 455.1 449.2 443.9 439 432.5 423.8 410.1 402.3 393.7 391.6 394.3 395.5 394.9 392.7 390.6 385.6 379.6 371.3 362.8 353.1 340.7 321.6 315.9 320.2 312.4 327.2 349.1 371.5 392.6 410.8 424.1 432.4 446.3 452.4 460.2 466.8 480.9 488 490.4 497.2 505 514.2 518.1 520.3 516.4 514.5 508.7 502.4 487.8 479.8 460.4 439.1 424.5 406.8 391.8 376.7 363.3 354.5 346.8 343.4 340.6 336.2 331.7 325.6 320.4 313.3 307 300.4 292.4 285.7 279.7 275.6 274.8 272.4 269.9 268 267.9 263.1 260.2 257.4 255.1 252.7 252 248.8 244.7 239.6 234.2 225.2 211.8 215 235.4 238.8 233.9 226.9 220 213.4 205.4 199.6 198 196.5 194.5 193.9 203.2 209.2 215.3 225.7 239.3 243.9 241.2 237.4 234.7 234 233.1 232.4 227.8 223.9 217.3 208.9 200.3 193.2 186.8 180.8 179.6 178.3 176.8 190.3 197.9 201.7 201.9 204.2 205.7 206.3 204.2 202.5 199.8 194.2 191.2 192.3 187.3 189.5 188.2 183.7 179.3 178.6 202.4 225.4 232.9 242 257.6 267.4 279.7 288.8 292.7 297.3 299.2
485.4 482 481.2 483.3 485.2 483.8 483.5 485.4 487.9 489.4 487 484.1 480.4 474.2 469.4 463 457.1 448 447.5 438.7 438.1 432.1 432.8 436 439.4 436.4 452.8 456.3 456.6 458.9 460.7 462.9 467.3 472.7 476.9 479.2 480.3 480.2 481.1 479.7 477.1 475.6 471.7 467.7 463.2 458.1 452.7 449 443.6 436.3 422.2 412.4 405.4 393.5 404.3 402.8 401.9 400 395.6 391 384.9 375.2 364.7 352.1 332.7 327.3 336.6 337.1 335.2 322.3 317.8 335.2 358.2 380.3 395.6 407 415.9 428.4 438.4 444.1 455.1 465.1 473.1 482.3 487.8 495.1 506.3 514 516.1 514.6 513.2 510.9 504.9 492.4 484.5 461 437.5 424.9 404.2 388.9 376.5 365.8 356.7 352.6 348.7 345.5 341.4 337.4 329.8 322.4 315 308.7 302.2 294.7 289 283.6 280 278 276 273.6 271.2 272 269.7 266.4 262.8 258.8 256.7 254.2 250.5 245.8 241.5 235 215.5 216.5 245.8 255.2 256.3 249.5 240.5 232.4 224.5 217 209.8 204.8 198.9 195.3 194.1 193.5 191.9 192.2 208 217.7 224.2 227.9 228.3 227.8 228 226.4 224.8 221.5 217.6 211.6 202.2 191.1 183.4 181.8 180.6 179.4 177.9 186.3 211.2 223.7 226 225.4 224.8 227.8 226.6 224.1 221 216.4 212.8 208.2 205.3 203.9 200.8 198.8 189.3 180.2 175.8 199.6 216.2 226.4 239.8 253.4 265 274.9 285.6 291.7 298 300.9
492.5 486.8 490.6 489.2 491.2 489.7 487.7 490.7 493.3 493.6 491.6 488.2 484.1 477.7 471.4 464 460.7 457.8 453.3 448 443.7 446.5 443.4 443.8 445.2 446.3 437.5 452 454.6 455.3 457.3 460 464.4 469.9 475.2 478.9 480.5 482.5 484.2 483 481.2 480.5 477.3 473.3 467.2 461.6 456.3 452.1 445.9 434 414.7 408.3 405 408.6 408.9 408.4 406 401.2 395.4 389.2 376.2 357.2 344.8 337.6 348.6 354.2 355.3 350.9 344.5 335.1 323.1 321 342 362.9 380.5 392.2 401.3 410.4 420.5 430.7 439.3 448.2 457.6 468.3 474.5 485.9 497.3 506 510.1 513.4 511.7 510.1 503.1 494.1 484.1 463.9 442.1 422.4 403.9 387.8 373.1 366.1 363.6 358.1 352.5 349.1 347 341.3 335.2 327.3 318 312.5 304 297.1 291.3 287.4 284 281.9 279.2 277.3 278.5 281.1 279.8 275.8 270.3 265.4 260.5 255.5 251.2 246.7 242.9 232.4 214.7 231.3 256.1 263.5 264.1 258.1 250.6 241.3 232.8 226.8 219.4 213 206.9 197 194.5 193.6 192 191.5 189.3 193.1 200.3 207.9 213.4 216.6 216.3 215 212.6 208.1 202 198 191 185 181.1 181.3 180.4 185.2 196.1 211.9 230.7 239.9 243.2 243.7 243.1 241.6 239 237.9 232.4 227.5 222.8 218.9 213.8 211.1 208.8 208.5 195.7 183.4 177.7 192.5 209.7 227.2 238.4 251.6 264.8 275.4 282.8 292.5 301.8 305.1
500.6 496.1 501.4 499.3 499 498.9 497.2 498 499.7 498.1 496.5 493.5 487.8 481.9 473.5 472 469.8 463.5 459.5 456.2 455.8 454.5 451.2 451 450.7 449.9 449.2 449.9 447.7 451 455.7 458.7 461.6 467.2 474.3 478.3 481.9 484.5 486.1 484.9 485 484.6 481 477 470.8 464.1 455.5 450.8 443.3 419.1 424.6 422.4 420 415.7 413.7 410 405 399.3 392.7 375.3 352.2 359.5 356.9 362.3 369.8 374.9 373.6 369.1 357.1 344.7 333.6 328.4 328.9 344.4 360.2 373 382.5 392 403 413.7 426.6 434.2 443.1 451.1 462.5 476.5 487.1 498.9 501.9 505.7 507.3 508.6 502.2 491.2 483.8 470.7 449.6 429.5 411.3 394 381.3 375.1 369.4 362.8 359.7 358.3 352.7 347.7 339.2 330.3 323.7 315 307.7 301.8 295.4 291.5 287.8 286.3 283.5 282.6 286 287.9 287 284.1 277.9 271.7 264.6 258.8 253 249.1 243.2 219.4 216.1 235.1 255.3 264.6 264.5 261.1 254.4 246.2 239.1 232.5 224.5 218.5 213.6 208.2 199.7 193.4 192.4 191.9 191 189.2 189.9 189.2 194.6 196.9 197.9 200.1 198.2 192.6 188.9 184.6 182.6 181.6 182.1 181.2 189.7 212.8 226.2 237.5 250.1 253.6 254.2 254.5 253.8 251.2 247.8 244.6 239.1 234.7 230 225.4 222.3 218.4 214.4 210.9 202.7 186.8 180.4 194.6 214.3 230.8 242.7 253.5 266.2 275.2 283.5 294.5 305.8 310.1
511.5 512.1 512.6 509.1 509.8 508.6 507 507.9 505.9 503.8 502.8 500 494.1 488.5 484.3 480 479 472.2 467.8 464.7 463.4 460.9 457.7 456.3 454.8 454.2 454 453.5 452.5 449.8 455.6 458.5 460.2 465.1 473.6 477.6 481 484.9 487.4 487.3 487.8 487.3 485 479.3 472.6 464.1 455.2 443.2 430.4 432.6 431 430.2 427.6 424.2 418.2 411.7 402.1 394.5 377.7 363.3 374.3 371.8 379.1 386.2 391.8 393.5 392.8 384.9 371.1 357.6 346.7 338.4 332 332.9 336.3 350 360.6 373.9 385.4 397 409.6 421.5 431.3 439.4 449.6 460.7 472.5 482.9 488.9 493.3 500.3 505.7 500.7 491.4 483 473.1 458.9 440.1 423.9 406.4 393.8 384 378 374.9 370.9 368.2 362.9 355.4 346.5 338.3 330.9 323.2 315.2 308.8 300.7 295.8 293.7 290.7 287.9 291.3 293.9 294.5 293.5 289.9 283.8 276.2 267.3 260.5 255.8 250.3 237.4 219 219.1 241.7 257.8 264.6 264 261.7 256 251.5 243.4 234.1 227.6 222.7 217.2 212.7 207.1 201.7 195.5 192.9 191.2 190.1 188.4 188.1 188.2 187.5 187.1 186.1 185.1 183.9 183.9 182.9 182.1 183.3 183 202.3 219.5 238.6 254.2 262.9 264.1 261.9 260.2 260 258 254.8 250.1 246.8 241.4 236.7 232 228.4 225.2 222 218.1 212.1 203.1 192.9 183.7 198.1 218.8 237.7 250.6 263 271 278.5 288 296.4 306.2 312.9
525.1 524.6 523.7 520 521.1 519.8 516.2 515.2 515.2 516.4 515 510.9 504 497.9 492.4 487.5 482.7 479.7 474.7 471.7 469 466.2 462 460.1 458.9 458.1 457.8 455.8 454.4 456 456.6 458 461.3 465.2 472.1 475.7 479 484.2 487.5 490.1 490.5 488.5 486.4 482.8 473.7 464.5 451.9 446 435.6 435.6 439.5 435.7 431.9 426.7 420.6 412.2 400.3 392 371.5 383.9 385.4 393.3 401 408.8 412.9 412.8 408.5 401.9 388.9 375.1 360.2 351 345.6 342.8 342.9 339.2 344 357.6 371.6 382.6 393.5 406 417.1 430.1 438.3 446.9 458 468.8 477.4 486.1 492.8 502.6 500.6 490.9 484.1 473.2 463.5 448.9 435.4 419.3 407.8 398.7 392.5 388.7 384.6 380.7 374.9 367.9 357.6 350.2 340.9 331 323 315.5 307.2 301.8 296.7 294.2 292.3 298.5 301 300.4 299.2 294.1 287.1 277.3 269.3 263.8 258.9 252.4 231.6 220.1 237.5 249.4 259.1 271.4 275 269.5 263.4 254.5 247 235.2 227.3 224 220.4 216.1 210.5 205.6 202.9 198.9 194.2 190.2 189 188.9 188.8 188.2 187.6 186.5 185.1 184.3 184.4 184 184.2 194.8 211.8 227.5 244.5 264.9 272.9 273.7 271.5 268.8 266.4 262.9 258.9 253.5 248.8 243.8 238.6 234.4 230.8 227.9 225.3 222.1 218.1 211.3 201.7 192.3 188 207.5 225.8 242.7 258.3 268.7 278.5 285.8 291.9 299.6 304.2 308.7
534.9 535.6 535.6 533 533.4 531.3 526.8 525.6 527.9 528.3 528.5 523.1 517.7 510.6 502.4 497.7 492.1 487.2 482.7 480.3 475.8 470.9 467.3 465.1 463.9 462.3 461.6 459.4 456.5 459 459.9 460.8 463.1 467.4 473.2 475.8 478 481.1 485.1 490.3 491.9 490.1 488.5 483.7 476.4 466.5 458.5 451.2 440.6 448.9 446.5 439.7 431.7 424.1 415 401.8 392.5 385.2 382.2 389.7 397.7 407.2 419.2 426.5 429.6 429.1 426 418.1 406.4 394 376.9 364.8 358.3 354 353.1 350.6 349.4 346.8 361.8 374.1 383.3 393.4 408.2 417.8 428.5 438 447.6 458.9 468.9 477.7 486.5 496.6 493.4 489 483.7 474.1 464.9 454.3 444.3 430.4 419 413.3 408.1 402.7 397.9 392.6 385.8 378 372 364.1 356.5 344.7 331.3 323 316.5 308.5 302 299.2 298.6 302.7 306.2 306.5 301.9 294.2 286.9 278.2 272.4 267.3 261.2 250.5 223.3 223.3 239.9 259.2 264.5 274.8 278.1 275.1 267.6 258 248.2 239.9 233.5 228.6 224.7 222.4 218 213.5 209.5 205.2 201.8 199.2 192.5 188.5 188.7 188.8 188.3 187.2 184.9 185.4 192.2 199.4 212.2 225.9 239.4 254 269.9 277.6 280.5 280.8 277.9 272.1 267.6 261.6 256.2 251.1 247.3 242.3 236.5 231.9 229.1 227 224.4 220.8 216.4 208.9 197.6 192.8 205.9 218.5 233.8 248.9 263.9 273.6 281.8 286.8 291.9 297.4 301.6 304.6
544.7 546 546.8 545.9 543.6 541.9 538.6 536.2 539.9 539.6 537.7 536 531.4 524.5 517.8 509 499.9 494.3 490.1 486.7 481.2 475.6 473 471 468.3 466.9 465.7 462.6 460.7 461.6 462.3 463.1 465.8 471.7 474.4 477.6 479.3 481.4 483.5 488.1 491.7 491.8 489.8 487.1 482.3 477.2 470.7 464.8 456.7 458.5 454.3 445.2 435 425.6 417 410 404 395.1 393.4 402.5 407.4 413.6 427.5 437.1 441.6 440.5 437.8 431.5 421 406 396.4 388.7 379 368.9 363.8 360.7 357.8 357 356.1 363.2 375.2 385.7 397.5 409.9 419 426.6 437.7 448.7 457.9 467 480.4 487.1 487.3 487.1 481.1 473.4 465.7 458.5 451.6 440.8 432.5 427.9 422.9 417.5 411.7 405.3 397.3 389.5 382.6 375.4 368 356.7 343.8 330 322.5 316.1 308.6 305.6 303.6 305.6 308.5 307.5 300.7 294.2 287.4 279.1 274.7 267.9 259.3 241.9 223.8 228 253.3 269.9 275.2 277 276.8 273.9 268.9 262.3 253.9 246.3 238.8 233 229.7 226 222.6 219.6 213.6 212.3 208.4 206.9 204.3 200.6 197 195.4 193.2 198.5 204 210.4 218.4 227.1 237.9 253.1 262.9 273.5 279.9 281.7 283.8 282.2 279.8 273.2 266 260.2 255.7 250.4 246 242 236.9 233.1 229.5 225.9 223.5 219.5 214.9 205.8 197.7 196.6 210.1 226.1 242.4 256 266.5 274.2 279.7 283.9 284.8 288.6 295 298.2
554.7 555.4 557.5 557.3 556.2 553.8 552.2 550.1 551.6 550.7 549 545.8 543.2 534.6 525.8 518.4 507.7 503.5 498 492.1 485.5 480.3 477.6 475.4 472.7 471.2 468.6 464.3 464.3 466.5 467.4 468.9 470.9 474.3 477.9 479.7 480.6 482.3 484.2 487.4 491.4 492.9 491.7 490.5 490 487 481.8 473.1 468.3 466.5 462.7 454.1 443.6 433.1 425.6 419.3 413.5 394.1 404.8 416.2 413.5 418.7 430.5 443 450.1 449.4 445.7 439.4 429.5 421.5 417.4 416 406.3 392.4 382.6 374.4 369 366.1 366 367.3 364.9 379 390 400.9 412.1 419.7 429.1 438.1 446.4 455.5 469.8 474.7 479.5 482 479.1 474.1 470.1 463 456.6 450 443.1 436.9 432.3 428 423 420.6 413.7 402.5 391.5 380.5 373 363.4 351.3 337.9 329.8 321.7 315.7 312 308.9 308.5 308 306.1 300.9 294.1 287.9 283.2 275.4 269.4 257 231.7 224.8 245.5 270.7 291.1 293.4 286.5 281.9 277.6 273.8 266.9 258.9 250 243 237.2 232.6 229.1 225.8 223.2 220 217.5 215.7 214.5 212.9 209.9 208.8 207.8 195.2 208.8 220.4 229.4 238.4 248.8 260.5 270 275.6 280.9 284.9 285.2 284 282.9 279.3 272.1 265.2 260.2 255.4 249.8 245.9 242.2 237.6 234.2 230.6 227 223.8 219.9 214.9 206.4 198.6 194 213.3 233.2 245.9 259.5 268 273.7 276.5 278.1 279.9 282 286 291.8
562.9 563.4 564.8 566.1 565.8 564.9 564.1 562.6 562.7 561.3 559.4 554.7 549.3 542.8 532.1 523.2 517.2 512.4 506.8 500 491.3 483.6 480.2 479.1 476.3 474.5 471.3 469.1 468.3 471 472.1 473.8 476.1 478.9 480.6 482.1 483.1 483.4 485.4 487.7 493.3 494.3 494.2 494.8 494.7 493.6 488.7 480.2 481 478 473.6 466.6 457 446.2 440 431.9 425.4 404.3 422.5 428.4 425.5 425.5 432.4 447 458.4 462.2 457.1 450.8 443.6 438.7 435.4 433.5 423.3 402.3 402.9 392.9 384.2 378.7 377 377.3 379.9 381.6 388.3 399.3 409 418.8 426.7 432.7 437.5 442.5 454.9 464.4 472.4 472.5 473.8 471.2 470 464.7 459 454.7 448.9 442.6 437.2 434.9 432.5 432 423.3 408 396.5 385.8 376.7 365.9 352.4 340.8 332.5 324.4 318.4 314.4 310.3 308.1 306.5 304.2 300.7 296.7 290.7 283.9 275.9 265 244.7 227.4 241.9 268.9 287.7 303.8 303.9 298 291.1 284.5 278.5 272.1 265.4 256.6 248.3 242.6 237.9 234 231.5 227.9 226.4 224.1 221.9 221.8 220.7 217.9 217.8 210.8 202.1 217.8 232 243.1 253.5 265 274.4 280.6 283 284.9 285.9 282.3 281.2 280.8 278.9 272.4 265.9 259.5 254.3 250.3 246.5 243 238.5 235.1 231.8 228.3 225.4 220.5 214.7 206.3 200 201 221.4 239 251.3 259.3 265.4 268.6 270.5 273.6 276.2 278.3 281.3 285.4
570.2 572.2 573.2 574.4 575.1 574.9 573.8 572.2 570.4 569.9 567.4 563.2 556.6 548 539.1 533 524.7 516.4 510.9 505.6 500.5 490.2 484.1 480.4 478.4 476.4 473.7 472.5 472.9 475.8 476.9 479.3 482.9 486 487.4 489.8 488.5 488.4 489.3 492.5 496.2 496.8 497.5 498.5 499.7 499.3 497.5 494.2 493.2 488.9 486.5 482.2 474.8 466.8 457.1 448 434.5 423.4 438.9 441.9 441.1 438.1 440.9 452 465.1 473.2 477.4 477 466.7 453.3 443.8 435.9 427 423.3 418.2 411.1 397 394.4 391.1 389.8 390.2 392.1 397.4 405.1 411.5 418.3 425.7 429.8 432.6 435.5 441.1 451.5 460.4 465.1 466.2 467.4 467.1 463.8 458.4 452.9 449.2 443.1 437.8 434.7 432.6 428.7 419.6 405.4 395.2 387.8 379.4 368 354.9 343.9 334.4 326.6 320.1 314.5 310.3 306.8 304.1 301.4 297.7 292.2 288.3 282.1 273.9 258.5 236.2 229.4 261.2 284.9 299.4 309.6 311.6 307.1 300.7 293.6 284.2 276.5 269.2 262.1 255.3 250.3 244.1 240.9 236.9 235.2 232.7 230.8 229.1 228.7 226.7 226.1 225.4 223.9 206.2 224.3 239.7 251.3 260.3 271.7 282.7 287.3 288.3 287.9 283.4 279.8 278.7 276.9 275.3 270.2 264.7 260.1 255.7 251.4 247.4 243.9 240 236.1 232.9 230 226.3 221.4 214.8 204 196.7 212.2 228.5 241.8 254.8 259.5 262.3 264.7 268.1 271.1 273.4 275.2 277.1 281.4
577 579.6 581.1 581.6 582.4 583 582.3 580.3 578.2 576.2 574.5 569.6 564.3 555.9 547.6 540.8 532.6 521.8 517 509.7 504.5 496.3 487.5 482.3 480.2 477.6 476.9 475.5 477.8 481.4 484.2 488.6 491.2 493 493.4 495.2 496.6 495.7 496.7 498.6 500.9 501.7 502.5 502.3 504.2 504.4 503 502.1 500.5 499 496.6 494 489.7 484.1 475.9 461.6 449.3 436.2 451.9 456.5 455.8 456.3 457.2 465.2 475.8 485.9 491.5 490.4 484 476.1 467 451 438.8 432.4 428 420.1 410.4 408 406.2 407.2 409.7 407.4 407.1 412.7 416.7 419.7 423.8 425.1 428.4 431.1 435.3 443.1 450.3 456.5 460 462.3 462.1 460.8 455.6 448 442.7 437.6 434.9 429.6 427.2 420.9 413.3 401.2 393.1 385.6 378.4 368.4 357.8 346.9 336.6 328.7 321.5 315.8 309.7 305.2 301.9 299 295.1 290 285 281.2 269.1 243.9 231 243.8 272.7 296.2 310.2 316.2 317.1 311.2 306.3 301.4 292.9 284 275.4 266.7 260.8 255 250.8 246.9 242.9 241.9 240 239.3 237.8 234.9 234.3 232.7 230.9 228.7 212.2 228 243.9 256.9 267.1 278.4 287.8 290.9 292.7 288.8 285.2 283.2 280.2 276.2 272.2 267.6 263.4 259.4 255.3 252.1 249.1 245.9 242.6 238.9 235.7 232.9 229.9 224.7 217.8 206.8 199.9 216.6 230.3 239.3 253.5 257.9 257 259.5 262.1 266.2 269.6 270.9 273.8 279.9
582.5 584.7 586.4 588.1 588.7 589.4 589.1 587.7 585.8 582.9 580.2 575.9 570.3 560.8 552.7 545.3 536.8 526.8 520.4 512.8 507 497.1 488.8 485.1 482 481.3 480.4 479.4 482.8 486.3 489.9 494.6 496.6 499.1 500.6 501.9 501.1 502 503.8 504.6 506.6 507.8 506.3 505.9 506.8 508.1 507.6 508.4 508.1 506.2 507.6 507.5 502.8 495.9 486.6 471.2 450.7 455.2 464.3 467.8 468.3 470.2 475.8 482.2 491.6 500 502.4 499.8 494.4 489.4 483.9 473.1 457.7 443.4 436.4 426.8 426.1 426.2 426.3 428.8 428.9 427.4 424.1 420.9 421.4 423.3 424.1 423.2 424.1 425.7 429.1 434 439 447.5 455.4 457.1 456.4 453.6 448.9 440.5 434 430.5 429.3 423.5 416.3 410.4 406.3 397.3 390.9 383.8 378.8 372.3 362.9 352.2 341.6 331.2 325.9 320.1 314.2 306 301.9 298.2 293.2 288.1 278.7 266.4 256 241.8 232 249.9 273.8 298.6 315.4 319.8 321.6 319.8 313.5 306.4 300.2 291.3 282.2 274.9 266.4 260.4 257.1 252.8 249.2 246.3 245.2 244.9 243.4 242 240.9 238.3 234.9 232.4 221.9 226.7 244.3 259.6 271.3 280.3 289.9 295.7 297.3 293.6 288.5 285.4 280.7 274.9 270.9 268.6 266.6 264.6 260.4 256.4 251.9 249.4 246.2 242.1 238.9 236.3 233.5 228.2 221.5 211.6 200.1 210.4 223.2 235 242.2 246 245.5 250.4 253.9 259.2 262.5 266 271.6 277.3
585.7 589.6 592.3 593.8 595.1 595.6 594.8 593.3 590.3 587.7 584.6 579.4 573.3 564.7 554.8 548.5 539.3 530.6 523.5 516.2 508.5 500.1 491.6 488.1 484.3 484.5 484.1 485.2 488.1 491.2 494.7 499.5 501.6 503.4 505.4 507.4 508.6 508.3 508.2 509.6 511.7 514.2 515.3 514.7 513 512.4 511.7 513.8 513.8 514.2 517.9 518.2 513.3 504.4 493.4 477.3 450.8 472.4 477.9 480.2 481.2 484.3 492.8 498.5 508.5 511.7 512.6 511.7 507.4 501.6 497.8 487.5 474.2 460 446.6 433.8 441.4 444.4 446.7 447.5 444.3 442.3 436.8 435.6 429.9 427.2 425.7 421.3 419.7 421.7 424.1 426.4 431.6 442.2 448.7 449.6 448.4 443 437.2 431.3 425.5 420.1 416.2 413.3 406 400.4 397.3 394.7 390.1 383.3 379.3 372.8 365.2 357.9 348.5 336 328.9 323 316.4 309.5 303.5 298.8 294.2 289.6 284.4 278.8 266.9 239.6 234.4 254.2 274 295.9 314.2 320.3 323.3 323.2 318.5 312.6 304.4 299 291.4 282.7 275.5 268.9 262.9 258.9 255.3 252.8 251 253.1 252.1 250.2 247.4 243.2 240.3 237.1 231.8 221.5 241.9 259.5 272.6 282.4 290.8 298.4 299.8 298.3 294.4 289.2 281.5 275.1 272.5 271.8 270.4 268.4 265.4 261.1 256.7 252.7 248.6 245.3 242.3 239.2 235.9 230.9 225.3 217.2 206.7 203.3 213.2 224.5 225.8 229 232 237 244.1 250.7 257.6 264.2 272.2 276.5
589 593 596.9 599.5 601.4 600.5 599.1 597.3 594.2 590.8 586.8 581.6 574.8 566.9 558.7 550.9 539.7 531.3 525 518.7 511.3 502 494.4 490.2 488.7 488.7 488.9 489.5 492.6 495.7 498.9 502.4 504.6 506.3 508 509.4 509.3 509.5 510.2 512.8 516.5 520.5 523.4 525.5 522.6 521.2 520.7 519.9 522.1 524.9 527.3 525.5 519.4 511.2 501.5 487.7 477.4 486.8 490 494.3 495 500 508.6 513.4 520.4 522.5 523.8 523.3 519.7 513.3 507.8 495.9 482.2 470.5 457.8 449.6 456.5 460.9 463.4 463.4 457.7 453.5 448.1 444.1 440.2 433.5 428.4 424.6 419.8 414.8 418 420.5 425.7 435.8 441.8 443.7 442.3 437 429.5 422.6 416.1 409.6 405.8 403.5 399.4 394.7 390.7 389.1 386.2 380.3 375.2 370.2 363.8 357.7 351 340.5 332.6 326.5 320 312.6 305.7 300.2 295.6 290.9 284.7 274.4 252.9 235.1 238 261.4 271.1 291.6 306.4 317.6 323.9 324.9 323.1 320.1 313.2 305.2 298.8 293.9 287.6 279.9 272.2 268.5 264.7 262.6 261.6 262.1 260.8 258 256.1 253.9 248.9 244.2 238 226.5 236.6 256.7 271.5 282.9 292.4 298.1 299 298.4 294.1 287.9 281 276 275.5 275 273.6 271.1 267.4 263.4 258.6 254.4 250.5 246.7 243.5 240.5 237.5 233.5 228.4 221.9 210.5 205.2 211 213.7 219.6 227 230.9 236.7 242.2 245.4 252.8 262.7 269 272.4
592.3 596.5 600.8 603.1 604.9 604.7 602.9 599.6 596.2 592.5 588.2 582.9 576.3 568.7 560.7 551.4 541 532.5 526.9 519.6 512.5 503.7 497.7 493.6 492.8 492.4 491.8 492 494.3 497.4 500.4 503.5 505.6 507.4 508.8 508.8 508.4 508.4 509.8 513.3 518.5 523.8 527.7 531 530.4 528 526.6 528.7 531.6 535.9 534.3 530.8 525.8 517.3 508.6 498.7 493.5 499.1 501.1 506.9 509.7 513.5 521.2 525.5 530.2 531.9 531.9 529.7 523.9 517.2 509.4 498.4 486.7 476.4 468 465.3 469.1 472.5 474.1 474.4 469.6 463.5 458 451.9 446 439.2 429.5 422.8 418.1 413.4 410.9 413.1 420.1 430.4 434.6 435.8 432.3 427 421.9 414.3 407.9 401.6 398.1 397.2 394.9 390.1 384.6 381.9 379.6 374.4 368.5 362.4 356.9 352.5 347.5 339.8 331.5 323.7 317.9 312 306.9 300.4 295.2 290.1 280.6 263.8 238 243.8 241.5 263.1 275.9 291 304.9 317.7 322.3 326 327.7 326.1 320.4 313.6 307.2 301 296.7 290.9 284.5 280.5 275.6 271.7 272.1 270.8 268.7 267.3 265.2 262.6 260.1 256.1 249.9 235.6 233 251.3 267.5 280.3 290.8 298.9 303 299.3 293.6 287.3 281.3 279.9 278.7 277.4 276.8 273.9 269.7 264.7 260.5 256.3 252.3 248.4 244.7 241.9 238.8 235.3 231.3 225.8 215.6 208.8 217.9 223.1 231.7 238 242.4 246.7 251.5 253.9 254.8 259 265.6 269.4
593.6 598.6 603.2 606.7 608.1 608.2 605.4 601.8 597.7 593.4 588.5 582.9 577.1 569.7 561.8 552.7 544.3 537.3 531.7 522.6 513.7 505.7 501.1 497.5 495.9 494.7 494.2 494.9 496.6 498.6 500.7 503.3 505.4 506.8 507.5 506.6 506.4 505.6 510.7 514.1 518.5 524.3 529.5 533.8 535.8 537 536.4 538.4 543.8 543.5 538.8 533.6 529 524.3 515.3 513.2 508.3 511.7 515.1 518.6 521.4 526.2 531.2 534.8 536.8 536.6 533.9 528.3 522.9 515.5 506.9 496.3 489.2 482.7 480.4 480.4 480.2 481 482 481.8 474.8 468.5 461.8 457 449.9 441.3 434.1 424.2 413.5 411.9 402.2 408.4 414.1 423.2 427 426.8 424.2 418.6 412.1 405.7 399.4 395.5 392.7 390.2 388.1 384 378.8 373 370 366.5 361.3 354.7 348.3 343.6 340.2 333.3 328.7 322.1 318 311.7 304.5 299.8 293.2 285.5 272.7 252.7 240.3 264.6 255.8 257.1 274.1 294 304.8 317.8 323 326.4 326.6 325.8 324.3 317.9 313.1 307.8 302.4 298.5 294.8 289.7 285.3 281 279.1 277.9 276.7 275.1 272.4 269.9 267.2 264.6 255.9 243.3 238.7 243 260 275.2 286.4 294.8 301.9 299.8 296 288.8 283.9 281.9 281.1 279.6 277.9 274.6 270.5 265.4 260.7 256.6 253.2 249.3 245.8 243 240.7 237.2 234 229.7 221 219.1 221 229.8 236.2 244.6 250.8 255.4 258.7 260.8 261.1 260 262.9 265.6
594.3 599.5 604.6 608.9 610.5 609.4 606.8 602.8 598.4 593.9 588.6 582.7 576.8 570.7 563.9 556.6 551.1 543.3 535.1 525.6 515.8 508.2 501.4 499.5 498.4 496.8 496.7 496.8 497.3 498.8 500.2 502.2 503.6 504.4 504.3 504.1 501.5 504.7 510.3 515.5 520.3 524.4 529.9 535 539.8 542.2 545.5 549.6 552.6 550.5 545.2 537.9 532.1 529.8 526.2 522 519 518.6 525.1 528.4 531.2 535.5 538.8 539.9 539.7 536.5 530.4 523.1 517.1 511.3 503.2 495.3 489.8 486.3 483.4 486.5 486.1 487.5 485 484.8 481.3 469.9 462.6 457.6 450.1 443.3 436.1 427.4 416.6 407 402.2 395.8 408.1 415.2 417.4 417.4 416.5 411.7 405.5 398.9 392.3 388.6 385.9 383.6 382.3 379.1 374.2 367 359.4 355 351.7 346.9 340.7 335.2 330.4 328.1 323.5 318.4 313.6 306.3 300.3 296.5 289.4 279.1 258.8 242.3 257.2 274.9 268.4 253.9 266.6 289.2 304.9 316.7 322.7 325.7 325.8 325.5 323.9 322.6 315.4 310.1 308.3 305.5 300.7 296.8 293.9 290.8 288.6 287.4 284.8 282.1 279.4 277 273.7 270.2 256.7 254.2 249.7 243.7 249.4 267.1 279.9 289.4 296.8 299 297.7 292.4 288.9 283.1 280.7 278.9 277.5 274.2 270.3 265.9 260.8 257.2 253.8 249.8 246.9 244 242.1 239.5 236.5 232.8 226 221 219.2 230.1 241.4 250.3 258.7 263.1 264.6 265.5 265.3 264.1 263.2 264.8
592.4 598.5 604 608.5 610.5 609.6 606.6 602.3 597.6 592.9 588.2 582.1 577.3 571.3 565.6 559.4 554.3 547.3 540 527.8 518.2 509.7 503.5 501.8 500.3 498.8 498 498 497.7 497.2 498.5 499.2 500.3 501.1 501.3 499.8 498 502.3 507.1 513.6 519 522.2 528.3 534.8 541.6 546.6 552.4 555.4 557.8 555.5 551.3 547 539.1 538 535.4 531.5 528.9 530.9 533.9 537.7 541.1 542.7 543.1 541.6 538.4 532.9 523.3 515.1 509.1 503.6 497.6 493.1 488.4 483.9 482.8 482.3 484 483.5 480.1 476.9 473.7 468 460.2 455.9 448.8 441.8 435.7 428.8 419.9 408.4 398.4 383.9 399.4 406.3 409 409.3 408.1 403.6 397.2 390.7 386.3 383 381.1 378.2 375.4 374.2 369.6 363.1 356.4 347.8 341 336.5 332.3 328.2 323.5 321.2 317.8 312.9 310.5 303.4 298.6 293.2 288.3 275.6 253.9 244.5 272.7 282.6 277.1 260.2 264.1 278.9 299 312.2 321.3 324.8 324.6 323.7 324.3 323.7 323.9 321.2 317.4 313.1 306.7 303.7 301.1 297.4 296.3 293.7 292.7 289.6 286.3 282.4 278.8 275.4 266.1 263.2 258.9 254.8 249.4 259.2 270 281.1 291.5 296.9 296.8 295.1 292.9 288.8 283.6 277.8 274.6 271.8 268.7 264.3 260.6 257.6 254.2 250.8 248 245.1 243.2 241.4 238.4 235.1 225.7 223.8 215.5 233.4 244.1 251.7 261.4 266.3 268.2 268.7 268.6 268 267 267.7
591.2 596.6 602.6 606.8 608.7 608.4 605.5 601.3 596.6 591.9 587.2 581.8 577.1 572.3 567.3 561.9 557 549.7 542.6 531.3 522.2 513.3 506 502.8 501.8 500.5 498.3 497.1 495.2 495.1 495.8 496.2 496.7 497.1 496.6 495.1 495.5 498.5 504.2 509.9 515 519.3 526.8 535.6 543.8 551.2 556.9 560.5 563.4 564.2 557.4 551.6 549.5 548.2 545.6 541.8 541 541.3 541.6 544.4 546.7 548.3 545.7 539.4 532.4 523.4 514.1 505.8 496.3 493.2 487.7 484.5 480.7 475.5 472 469.7 470.2 470.9 471.9 469.5 464.9 462.3 455.9 448.8 441.4 437.1 432.7 427.2 419.6 407.3 395.4 385.6 387.9 396.4 398.8 399.4 398.6 394.9 389 383.1 378.8 377.9 378.3 378 377.2 373.7 366.5 359.7 349.7 343 336 330.7 325.9 323.1 319.6 317.6 314.6 309.5 306.2 300.1 293.9 290.5 285.2 266.8 248.7 259.3 284.7 292.9 285.9 275.2 259.5 272.9 292.7 307 317.7 322.3 326.7 326.7 328.7 330.8 329.8 326.5 323.7 319.5 315.1 310.4 306.4 303.2 301.1 299.3 296.3 295.7 292.9 290.9 285.2 279.8 274.7 270.8 266 264.6 262.7 259.8 262.1 271.4 287.2 293.8 296.8 295.8 291.6 289.1 284.9 280.4 273.8 269.5 266.6 262.7 259.9 257 254.2 251.4 248.9 246.2 244.2 241.8 238.2 228.4 222.9 229 216.2 228.7 241.9 251.5 259.9 265.7 268.8 270.6 270.4 270.9 270.8 270.3
588.2 594.3 598.7 604 606.4 605.3 602.6 598.8 594.9 590.5 586 581.2 576.4 572.3 568.4 563.9 559.5 552.7 545 534.9 526.2 517.7 508.2 506 503.9 500.7 497.6 495 492.5 491.1 491.2 491.6 492.1 491.4 489.1 487.8 489.2 492.8 494.8 501 508.3 514.4 525.2 534.7 543.8 553.1 559.6 564 568 570 567.8 563.7 559.8 558.5 556.5 552.6 550 549.5 549.3 548.3 548.5 546.7 538.7 526.9 517.2 507.7 496.7 487.8 480 475.3 468.4 464.2 461.4 457.2 452.8 450.5 449.6 450.2 451 452.5 452.1 451.4 447.9 441.1 433.6 428.7 425.9 421.6 412.4 406.3 394.4 383.8 365.4 379.9 384.3 387.4 386.5 382.2 377.3 372.2 369 370.5 373.6 378.2 383.4 380.9 372.2 362.3 354.6 346.7 337.3 327.6 322.8 317.9 316.9 315 312.8 307.9 303.3 298.5 293.4 285.1 281 263 247.2 274.4 292.9 296.7 295 288.3 273.8 270.5 289.9 303.1 315.2 322.8 326.3 330.6 334.2 334.3 334.2 331.8 328.4 324.2 318.6 315.1 311.4 307.7 304.1 301.4 299 298 294.9 293.4 291.3 284.1 282.7 277 274.8 272.7 272.1 272.8 267.1 261.9 282.7 292 295.4 296.4 293.3 290.1 284.7 278.9 274.2 270 265.8 262 259.1 256.3 254.2 251.7 249.2 246.6 244.8 241 231.1 232 232.6 233.4 223.9 224.6 237.6 246.8 255.3 263.7 268.4 270.8 272.4 272.5 272.7 273.4
586.9 592 597.2 601.4 602.7 602.3 599.4 595.6 591.9 588.1 584.3 579.6 575.9 572.1 568.2 564.5 560.1 553.2 545.7 539.3 530.7 521.9 515.3 510.5 505.6 503 498.7 495.4 490.9 488.1 485.3 485.5 484.7 484.2 482.8 478 484.1 488 491.4 497.4 505.2 509.5 525 536.8 544.1 553.1 560.2 566.2 571.5 573.7 575.5 573.9 568.8 566.7 566.2 562.1 559.4 558.5 556.8 553.1 549 543.3 531.3 515.6 502.3 495.8 487.1 477.4 469.3 461.7 454.2 449 446.2 441.3 437.2 435.3 434.1 433.9 432.6 436.3 440.4 441.3 439 432.5 424.1 417.5 413.8 411.5 409.1 404 394.8 384.2 374 356.3 362.1 367.6 371.1 369.9 363.3 359.6 357.9 360.3 367 376.6 384.9 383.7 376.6 367.7 359.4 351.4 341.5 331.7 323.1 317 305.5 310.6 306.7 303.9 299.9 296.2 291.1 284.9 273.9 259.7 254.3 283.7 295.2 296.9 296.5 293.5 281.2 274 289.6 302.5 314.5 321.7 327.6 332.2 335.4 337 336.9 335 331.2 326.5 321.3 316.8 312.7 308.7 305.2 303.3 301.3 298.2 296.1 294.1 289.6 288.7 286.6 283.6 281.4 282.1 285.9 283.2 277.4 260.6 279.4 288.2 292.7 296.3 293.7 290 285.4 280.1 275.3 271.1 266.7 262.6 259.3 256.3 253.7 251.7 249.2 246.5 244.1 237.2 239.6 237 231.8 228.9 226.6 223.3 231.1 241.2 252.4 261.9 266.6 271.1 273 274 275.4 276.6
583.6 590 595 598.2 598.6 597.7 594.4 590.7 587.7 584.8 581.6 577.9 574.9 571.5 567.9 564.2 560.3 554.3 548.9 543.3 535.7 528.7 522 516.3 513 507.9 502 495.6 489.3 484.1 480.8 478.7 478.4 479 476.8 473.1 480.5 485.6 492.2 497.2 502.1 509.2 526.6 538.2 546 553.1 560.9 569 575 579.4 582 582.3 578.3 576.3 574.3 571.4 570.7 566.4 560.8 556.5 547.6 533.5 516.2 501.5 492.6 486.1 477.2 468.7 460.5 453.2 446 440.4 435.9 431.4 427.8 423.9 421.5 419.9 421.3 424.9 429.5 432.2 431 425.3 417 408.6 404.3 401.9 402.9 401.4 393 384.5 374.7 361.6 350.3 352.3 352.1 350.7 348.8 348 350.1 351.4 361.6 372.5 382.9 384.2 377.3 369.3 361.4 354 346 334.5 325.8 316.4 311 302.6 298.8 294 293.4 291.8 287.1 275.9 260.3 250.9 270.7 290.4 296.3 297 296.3 294.4 282.5 286.3 293.6 302.2 314.7 323.7 329.6 332.7 335.7 337.8 338.5 336.4 332.4 327 322.1 317.2 312.5 307.7 303.8 301.8 299.3 298.4 295.9 293.9 293.1 291.6 290.6 288.5 286 285.3 286.8 284.3 280.3 268.3 276.1 286.3 292.1 295 292.9 289.3 285.7 282.1 278.5 272.9 268.3 263.9 260.4 257.3 254.4 251.4 249 247 242.8 239.8 242.8 237 240 239.1 225.8 233.1 228.9 237.7 249.6 259.2 263.2 269.5 273.7 275.7 277.9 279
580.2 587.7 591.7 594.2 595.1 594.1 590.8 587.8 584.9 581.9 578.8 575.7 573.2 570.1 565.4 561.6 557.9 554.1 549.4 544.3 538.3 531.3 526.9 522.1 517.3 513 506.1 499.4 489.9 486.3 478 472.6 472.7 472.8 470.1 470.2 477.1 483.1 488.4 494.1 496.2 513.4 528.5 539.3 546.8 553.6 562 570.2 578 584.1 587.4 588.2 587.9 587 584.1 581.8 579.9 573.8 563.5 555.6 542.7 525.9 508.8 494.9 484.4 476.4 467.7 458.2 454.1 444.6 439.2 435 428.5 426.8 420.6 416.5 415.8 415.3 414.6 415.1 419.9 424 424.2 419.5 411.8 402.1 395.7 394.2 394.5 393.7 389.2 383 374.5 366.3 350 344 343.8 343.1 342.5 343 344.2 346.2 358.8 370.5 376.3 376 371.3 367.2 362.4 355.2 347.1 335.9 327.3 317 310 304.9 300.4 293.5 281.6 282.9 273.5 257.8 256.5 261.2 283.8 295.8 297.1 297 295.5 290 291.8 290.6 297.9 304.4 314.4 324.9 330.8 334.5 336.7 337 337.7 335.1 330.6 326.2 321.2 316.1 311.1 306.7 302.6 301.8 301.3 300.7 298.5 296.2 295 295.4 296.2 295.7 293 290.7 288.1 285.8 282.8 277.6 277 286.7 288.6 294.6 293 289.4 286.5 283.5 281.3 276.3 271.1 267 262.9 259 256 253.1 250.9 247.9 243.1 245 239.2 243.1 244 241.8 226.6 238 234.4 234.7 244.3 253.9 261.6 266.7 274.2 277.9 279.9 281.9
576.7 582.9 586.7 589.7 590.7 590.3 587.6 584.8 582 579.1 576 573.5 571.3 567.5 564.2 560.7 555.1 551.5 548.7 543.9 539 534.5 530.7 526.4 521.5 515.6 508.9 502.7 497.5 492.1 482.1 469.1 464.3 464.6 462.2 465.5 474 481.7 486.3 490.2 500.8 517 529.2 538.6 547.8 555.1 563 572 580.7 586.9 592.1 593.5 594 593.2 592 588.9 584.4 577.1 564.1 551.3 542.8 528.7 511.9 498.5 485.6 479.1 473.3 469.5 462.8 454.5 447.3 441 437.3 432.4 427.9 423.7 418.5 416.1 408.7 409.4 408.6 417.1 419.8 416.6 409.3 397.7 390.1 386.6 383.1 384.1 382.2 379.5 375.1 362.4 353.8 337 337.7 339 338.4 338.8 338.7 343.5 353.5 361.9 366.1 364.8 364.4 362.4 361 356.8 347.9 337.1 326.3 318.2 311.4 305.1 300.6 296.2 291.5 283.3 264.4 266.9 255.6 270.7 289.1 297.7 298.5 297.7 295.7 288.9 294.5 295.5 301.8 308.3 315.6 325.1 331.7 335.3 338.1 337.6 334.3 332.1 329.1 323.5 320.3 315.9 312.8 307.6 307.9 306.3 304.9 303.8 301.7 300.7 300 300.1 300.8 299.7 297.2 292.6 290.2 287.3 285 277 279.4 285.5 290.7 292 292.7 290.3 287.6 286.2 283.3 278 273.3 268.8 265 261.5 257.7 255 252.3 248.4 246.3 243.9 244 247.2 245.9 242.8 237.2 242.7 241.3 240.2 242.7 252.8 261 267.4 273.8 279.8 282 284.1
571.9 577 581.1 584.4 585.6 584.5 583.4 580.8 578.2 575.5 572.8 569.7 566.6 564.2 561.1 557.4 552.6 548.4 545.4 541.3 539.2 535.9 532.8 528.6 523.6 517.9 511.9 506.9 503.8 496.7 485.2 469.1 455.5 454.7 454.4 458.5 468.1 478.2 481.8 493.9 507 519.6 530.1 538.6 547.8 556.5 564.3 573.3 581.5 588.2 594.4 596.4 598.1 597.8 597.2 594.3 589.6 583 572.3 562.7 552.1 537.2 515.5 507.9 499.3 489.9 483.9 478.4 473.5 464.7 457.9 450.9 443.8 437.7 433.4 428.5 423.6 420.2 416.8 408.8 403.9 412.1 416.7 415.2 408.3 398 384.8 379.5 374 368.8 366.1 365 361.9 358.5 350.2 340.9 334.2 333.8 334.8 333.5 332.9 338 343.7 350.6 352.8 353.8 355.9 358.3 356.4 350.9 344 333.9 324.8 318.3 310.5 306.4 302.2 297.8 291 270.6 269.4 278.6 285.2 289.8 294.5 298.2 299.1 297.8 295.7 290.8 296.4 299.5 307.1 313 320.7 327.9 333.1 336.3 337.6 336.9 336.1 333.7 329.3 324.6 321.5 317.3 313.3 313.2 314.6 313 309.6 308 307.6 306.7 308 310.2 310.8 308.5 304 298.5 293.7 290.9 288.2 284.3 280.7 287.1 291.8 292 286 290.2 287.3 286.3 284.1 280.6 274.5 269.9 266 262.3 258.8 254.4 252.5 248.8 245.2 245.9 248.1 247.7 245.7 233.7 245.4 246.9 248.5 250.6 247.8 252 261.8 269.3 276.1 281.1 284.8 287.8
566.7 571.2 574.2 577.1 578.9 578.7 578.1 576.6 573.9 570.8 568.3 565.6 563 558.9 556.6 552.9 547.8 544.2 541.6 538.2 537.1 534.9 532.8 528.8 523.9 519.1 511.8 511.2 507.2 498.5 485.5 467.6 453.2 445 447 455.6 466.7 476.4 486.8 498.3 509.1 519.5 529.4 537.6 547.5 557.3 564 572.3 581.3 588 595 598.4 600.3 601.6 602.5 600.6 597 589.5 582.5 572.5 562.9 550.1 538.4 528.5 518.6 506.5 497.5 491.5 485.5 475.7 467.7 458.5 451 446.6 441.5 435.6 428.6 426.1 422.4 415.5 403.1 405.1 411.4 409.4 404.4 395.6 381.2 373 367.9 363.1 358.2 353.9 350.3 348 344.5 341.4 332.1 326.2 328.6 326.6 326.5 326.2 331.9 335.7 338.6 342.6 344.6 351.3 350.1 343.7 336.2 329.3 323.2 316.9 311.7 306.8 302.3 294.7 286.5 267.8 278.2 282.7 290.3 293.9 297.4 299.5 299.2 297.4 296.3 292.4 297.9 306.8 311.8 319.2 325.3 331.3 337.6 341.4 340.5 339.7 337.3 336.2 332.8 328.8 323.7 319.8 316.2 318 318.9 319.8 318.3 315.4 315.2 314.4 316.4 318.7 318.3 317 313.8 303.5 297.2 292.5 289.7 286 281.3 285.9 290.3 292.9 293.9 290.6 286.9 286.4 282.6 278.3 272.7 268 264.5 260.4 257.8 254.9 249.3 248 249.2 249.9 248.1 246 238.1 246.8 249.7 251 254.1 255.2 254.6 250.2 260.3 268.6 275.9 281 287.7 292.5
558.4 562.6 565.3 568.8 570.8 572.1 571.8 571 568.7 566.1 563.1 558.9 555.6 551.8 548.6 545.8 543.4 540.1 537.5 534.9 533.5 532.1 530.4 528.3 523.9 519 515.4 513.9 508.4 498.3 484.4 467 453 444.6 442.6 455.5 465.8 476.8 487.9 498.8 509.8 517.1 527.5 535 544.8 557.2 564.8 572.2 579.3 587.2 594.1 598.9 602.5 606.3 608.8 608.9 605.8 599.3 593.1 585.2 573.2 562.3 555.8 542.8 534 521.6 514.3 508.1 499.8 489.9 479.5 468.7 459.7 454.3 447.4 441.3 436 432.2 428.8 420.5 408.9 396.2 399 397.8 391.8 386.6 376.2 366.8 362.9 359.1 354.8 350.9 345.7 342.5 339 336.1 334.1 327.8 316.9 319.9 319.5 320.5 320.3 321 325 326.5 331.6 339.5 344.3 337.4 331.7 325.3 319.4 314.7 310.2 303.7 297.1 279.3 270.7 277.8 283.5 286.7 294.1 295.8 298.7 300.6 299.6 298.7 297.2 294.1 302.4 310.5 319.1 324.1 330.4 336.4 343.8 348.9 346.3 343.1 340.1 338.1 334.4 329.6 327.9 323.9 322.1 322.6 322.8 323.3 324.6 323.8 323.2 324.1 322.9 324.9 325.5 322.8 317.4 311.1 302.8 296.6 291.8 286.4 284.4 285.8 289.6 293.3 296.2 297 294.3 282.3 280.5 272.9 267.8 264.4 263.7 257.6 256.2 251.4 250.5 251 250.3 248.8 242.8 243.6 249.5 252.7 255.7 258.7 260.3 260.9 258.6 256.3 260 266.9 275.7 282.3 288.6 294.3
547.7 552.2 557 560.7 563.2 564.4 564.5 563.2 561 560 556.5 550.8 548.1 543.8 541.8 539.2 536.3 535.1 533.4 530.3 528.4 527.3 527 526.5 523.3 521.4 520.3 515.8 507.8 496.4 480.5 463.1 451 443.2 439 453.6 464.1 476.8 487.8 497.5 507.6 513.4 523.2 535.4 545 556.1 562.8 568.8 576.6 584.4 591.9 598.3 603.7 609.1 611.7 613.3 612.1 606.5 598.3 591.1 580.4 571.4 564.6 551.3 544.4 534.3 530.6 523 514.2 503.6 491.5 479.5 469 460.1 454.1 450.1 443.7 438.3 432.4 422.8 414 396.2 390.5 386.6 381.1 375.3 368.8 362.7 359 355.2 351.6 348 343.9 338.9 334.1 333 330 326.5 319.9 313.8 311.2 312.1 311.1 314.7 317.9 318.7 320.1 327 332.1 328.1 322.4 319.4 314.4 309.8 302.5 298.8 279.3 273 282.2 284.6 287.2 293 298.5 299 300.3 301.3 301 300.3 297.9 298.9 306.5 314.5 323.6 329.7 336.4 341.2 348 354.5 355 352.4 346.9 343.2 336.1 331.5 329.4 328.4 327.8 327.3 328.3 330.7 331 329.9 329.9 329.8 330 330 329.4 326.1 320.5 315.1 308.1 301.5 296.1 289.5 285.9 288.5 294.3 297.9 299.1 299.6 297.1 293.4 287.8 280.8 275.5 271.1 266.5 262 257.3 254.8 252.6 251.7 248.7 248.7 249.9 252.3 256.2 259.8 263.1 265.2 267.2 265.6 262.6 259.8 260.3 267.1 275 282.2 289.9 295
