ncols 200
nrows 86
xllcorner 220000
yllcorner 932900
cellsize 50
77.2 85.2 70.4 58.7 60.7 49.5 36.8 36.8 36.8 36.8 36.8 36.8 36.8 36.8 54.3 71 85.9 85.3 100.7 106.3 116 115 115.2 122.1 134.3 151.3 152.8 152.4 156.5 162.9 163.7 161.9 161.9 161.9 161.9 166.9 172.4 180 177.8 170.7 162.2 152.5 139 146.2 161.8 158.5 167.4 167.7 166.6 176.5 175.3 172.3 169.3 177.1 173.8 174.8 180.7 190.1 209.1 213.6 215.7 220.4 229.9 254.5 264.1 269.6 264.1 254.5 245.6 237.2 234 230.1 233.7 240.5 244.6 247.6 254.1 263.3 267.1 275.9 275 284 290.4 296.7 301.3 304.6 301.8 295.9 286.9 292.6 297.6 315.6 311.3 310.2 310.9 311.6 324.2 338.4 337.6 337.9 342.5 375.5 380.1 378.2 373.9 371.4 365.6 372.8 384.7 392.4 388.2 382.4 373.6 368.3 359.6 359.6 355.7 363.5 373.7 378.9 373.6 364.3 357.7 355.8 357.7 361.8 358.3 361.2 362.4 354.5 347.8 342.4 339.4 336.7 331.6 327.4 323.4 315.9 310.4 305.4 299 293.6 288.2 277.8 279.9 276.3 275 268.9 263.7 265.3 262.5 266.2 271.9 282 298.2 293.9 288.2 284.5 281.4 275.5 269.7 268.9 265.5 263.1 257.7 256 261.6 259.1 258.1 263.2 260.3 253.9 250.7 248.6 247 241.9 248.6 251.1 250.5 256.1 258.5 270.8 285.3 306.9 324.6 329.9 332.4 327 325.9 322.5 321.2 318.4 319.2 327.6 336.6 338.1 340.3 338 334.5 329.9
75.6 84.8 73.7 64.7 66 44.8 36.8 36.8 36.8 36.8 36.8 36.8 36.8 36.8 45.3 58.5 65.8 73.7 79.4 87.5 94.9 109.8 118.5 123.9 140.1 147.5 151.5 152.9 153.2 163.5 164.3 165.8 166.6 165.7 168.1 165.8 165.6 161.7 159.4 160.2 149.8 139.7 137.4 157.9 166.6 169 174.9 174.6 173.6 172.6 172.1 171.5 183.1 187.5 186.9 187.6 189.3 196.2 214.7 231.3 226.6 223.7 230.6 254.8 270.4 277.4 264.9 255.9 250.9 246.6 240.6 256.1 261.2 262.9 262 255.5 264.5 272 273.2 274.8 284.8 290.9 300.7 304 309.5 315.5 311.6 310.9 303.9 296.1 297.6 302.1 305.6 306.7 310.3 321.3 346.1 353.9 345.9 341.8 364.2 397.5 406.8 395.8 389.7 390.5 379.5 387.5 387.6 389.9 392.8 389.8 381.4 372.1 362.8 359.8 355.3 355.3 370.7 376.9 371.8 362.2 357.8 352.4 349.9 348 350.9 347.5 347.5 346.2 344 338.3 335.5 329.3 324.3 322.8 318.7 310.1 303.9 299 291.9 286.2 280.6 268.9 267.7 264.7 260.5 247.8 250.9 251.9 251 248.1 244.7 246.5 251.6 255.4 265.7 273.3 272.7 272.9 266.3 258.3 253.9 249.5 248 243.3 246.4 248.3 252.2 257.1 254.9 248.7 240.9 240.7 234.8 233.7 236 237 239.2 241.3 243.7 256.3 272.7 301.6 305 307.6 314.9 307.7 310 307 310.2 310.3 309.9 321.6 332.1 333.8 335.4 335.1 333.4 333.1
76.4 83.8 72.2 66.4 61.4 43.7 36.8 36.8 36.8 36.8 36.8 36.8 36.8 37.3 40.1 45.3 50 63.9 73 81.7 88.6 102.4 118.9 125 130.2 131.4 136.3 142 148.1 148.6 157.5 163.7 166.6 169.8 169.5 163.6 159 155.5 150 145.5 136.1 119.9 146.3 157.9 163 172.6 179.6 184.9 185.4 181.6 174.5 179.5 193.6 201.5 199.1 201.2 201.6 197 223.9 240.1 236.5 233.7 235.7 246.3 266.4 269.1 264.7 257.7 257.9 254 265.5 266.8 267.5 272.8 266.8 264.9 276 283.8 284.7 281.7 302.9 307.4 308.7 315.3 321.6 323.9 319.5 323 327.9 311.9 303.9 310 310 315.7 328.7 345.3 350 352.1 349.9 367 380.1 395.3 416.6 409.9 402.4 411.8 402.3 390.5 389.5 389.2 391.8 390.4 387.3 378.7 370.3 365.9 357.9 355.3 355.3 369 365 359.2 354.5 349 346.5 341.7 339.6 344.3 353.3 343.7 343.4 339.8 330.4 324 318.6 313 307.4 307.1 295.3 290.5 284.4 278 270.9 260.4 257.1 255.9 249.7 238.7 238.1 239.8 239.1 235.4 230.1 225.2 227.2 228.7 236.7 243.8 260.7 265 260.6 254.5 245 241.5 238.2 231.2 227.9 225.8 221.8 223.6 240.4 240.7 235.6 231.9 229.7 230.2 225.2 225.6 225.6 225.6 229.6 239.6 254.5 265.3 275 277.7 280.4 282.8 284.6 294.4 299.9 299.8 301.8 306.2 318.6 326.6 331.6 331.7 332.8 335.1
77.3 72.4 67.9 58.9 48.9 36.8 36.8 36.8 36.8 36.8 36.8 36.8 36.8 36.8 36.8 49.9 65.6 81.1 88.7 84.8 85 101.9 115.4 123.4 130.2 132.4 132.2 141.2 142.8 143.6 147.1 160.7 162.3 155.5 159.9 164.2 164.2 160.3 149.8 134.5 115.7 142.8 145.8 155.4 159.5 167.5 179.6 193.3 194.3 188.8 182.6 186.1 199.9 212.4 209.1 212 211.8 206.7 227.3 247.1 244.5 239 236.7 239.7 263.9 267.6 262.9 262.1 266.6 270.7 277.6 280.5 282.8 278.3 271.8 281.2 297.8 290.2 291.3 300.3 316.3 317.1 318.2 321.8 327.9 330.5 333.9 332.4 334 325.5 319.2 315.7 316.8 325.7 338.8 357.9 367.6 357.5 376.8 391.8 401 415.6 420.5 420.1 420.3 414.1 410.2 404.6 394.7 396.9 397.6 388.2 390.5 379.8 372.8 365.8 359 356.1 359.8 357.5 356.4 354.6 351.9 347.4 342.6 339.1 336 334.3 338.2 338.3 332.5 334.3 329.9 320.6 311.4 304 295.1 289.8 287.4 280.7 272.2 267.2 262.5 255.4 243.2 245.3 242.1 236.5 223.2 229.2 227 223.1 218.3 217.5 215 213.3 220 220.7 227.3 242.3 251.7 242 233.1 229.3 225.5 224.1 217.5 209.6 207.3 202.8 211.6 226.5 226.4 224.7 219.5 220.4 217.7 217.1 217.4 208.2 219.6 227.5 235.2 243.2 255.5 250.6 257.9 264.2 271.5 280.2 287.8 290.5 292.8 296.1 304.5 325 327.3 329.5 333.2 333
66 71.5 60.6 58 46.8 36.8 36.8 36.8 36.8 36.8 36.8 36.8 36.8 36.8 37.2 45.8 59.5 79.6 93.2 94 89.4 99.8 114.3 125.5 129.1 130.9 130.1 136.2 140.2 141.9 141.5 147.4 148.3 155.7 158.6 154.4 156.3 147.6 132.4 112.2 141.1 145.1 147 156.7 167.3 175.7 187.3 187.4 185.4 181.5 187.9 194.1 202.7 209.6 210.2 208.9 213.6 206 224.4 242.1 245.6 238.2 236.9 239.6 251.3 255.7 257.5 268.7 271.9 277.3 280.6 287.9 285.2 283 279.8 299.1 301.9 296.6 298.9 310 326 328 328.2 329.2 337.3 342.6 346.4 342.7 340.6 331.9 323.1 319.5 318 323.3 344.8 361.5 374.8 381.6 386.9 393.9 403.3 412.4 420.7 419.5 416.6 412.8 417.6 418 412.5 397.7 399.6 394.4 386.8 383.3 381.8 374.3 368.5 368.3 360.7 354.5 355.7 353.9 348.9 346.1 342.4 337.9 336.4 340.3 332.4 325.1 325.1 325.4 326.8 317.8 307.6 297.7 287.5 279.8 275.9 265.2 260.6 257.5 252.6 247 237.9 232.4 232.6 228.7 220.1 216.7 216.2 211.6 209.6 207.9 205.7 205.4 210 206.9 204 202.8 211.1 223.7 219.2 214.2 214.1 210.5 206.1 198.2 194 192.6 195.9 209.4 218.2 217.4 211.4 208.4 206.5 208.1 211.4 203.6 203.6 214.7 216.2 223.9 228.7 228.1 237.7 246.6 260.7 275.7 279.9 280 279.3 287 299.7 318.9 318.1 324.9 329.3 326.7
58.5 65 61.6 60.8 40.6 36.8 36.8 36.8 36.8 36.8 36.8 36.8 36.8 45.6 49.7 54.8 55 70.3 87.2 94.7 98 97.8 111.6 122.7 127.7 131.9 131.7 130.4 135.7 133.7 130.9 141.3 152 150.7 145 145.8 147.2 125.8 107.9 138.4 143.4 149.6 151.5 161.3 180.5 185 184.2 179.2 179.8 183.3 191.9 204.9 202.1 204.8 206.4 205.5 205.5 205.5 207 225.1 237.3 233.5 232.8 234.9 235.4 240.3 253.2 259.9 267.3 286.8 291.7 285.7 291.4 285.9 290 303.5 309 309.8 307.3 326 337.3 337.8 335.5 337.8 343.2 352 358.1 357.4 348.5 340.7 340.6 331.4 326.6 342.7 353.2 365.9 383.4 391 389.7 394.1 407.1 414.3 416.9 412.5 404.5 417 416.8 416.9 414.2 409.4 401.8 405.9 397.1 384.9 381.4 385 394.9 388.4 378.3 364.3 373.7 374.3 363.3 352.7 348 340.7 345.9 338.2 331 323.7 315.3 310.4 312.8 308.6 298.5 287.5 277.9 273.8 265 260 253.1 248.8 244.5 239.4 230.4 223.5 218.6 219.6 214.3 204.6 204 199.2 200.4 198.2 196.5 192.3 195.3 192.4 185.2 177.8 182.5 187.7 196.7 192.2 195.2 194.9 191 189.3 189.4 187.8 187.1 190.5 201.3 210.2 201.1 199.5 193.6 199.1 201.7 195.2 194.3 199.8 201 206.9 210.1 216 213 234 250.7 271.2 275.3 266.1 264.3 279.8 289.2 308 302.8 311.7 320.6 317.8
57.8 60.9 69.6 67.2 36.8 36.8 36.8 36.8 36.8 36.8 36.8 36.8 36.8 41.5 46.3 65 61.9 61.7 73.2 79.1 96.5 99.3 104.1 112.4 125.6 127.6 130.3 126.9 128.6 122.6 134.4 140.4 143.3 141.1 140.1 135.4 120.3 109.8 120 132.9 138.7 144.6 148.1 154.8 166.1 172.8 172 175.6 186.8 196.7 196.8 205.6 204.5 203.4 203.1 206.4 205.5 205.5 205.5 206.5 215.6 225.1 226.7 230.8 237.3 242.1 257.4 270 277.4 287.3 279.7 294.1 295.7 289.1 303 309.1 312.9 315 320.2 326.5 344.4 348.5 345.7 345.4 347.5 356.6 370.9 370.6 359.6 349.3 346.6 345 341.3 346 364.3 386.9 397.7 398.7 399.9 400.5 406.1 411.1 414 405.2 405.2 411.7 414.4 420 421.5 418.1 407.9 399.4 398 392.6 389.9 390.8 403.3 403.4 387.1 375.6 371.5 378.8 372.7 363.3 356.7 352.5 349.6 339.3 329.4 323 315.6 306.8 291.1 290.5 283 278.7 271.3 265.3 257.9 251.8 246.3 242.7 235.4 229.8 225.4 220.6 213.8 209.7 207 201.3 195.5 193.2 191 189.2 188.1 187.1 186.2 181.6 177.7 177.2 174 174 174 176.5 180 183.1 187.1 185.2 183.6 180.5 180.8 182.8 184.7 196.4 193.7 187.2 183 185.1 188.4 185.5 186.5 185 192.3 193.1 197.1 202.9 205.8 210.8 229.8 247.4 251.7 246.7 245.5 248.8 269.2 284.1 282.2 287.4 295.7 303.5
53.4 60.3 71 53.7 37.3 36.8 36.8 36.8 36.8 36.8 36.8 36.8 40.7 43.3 44.2 50.2 65.7 62.1 64 73.9 80.4 91.7 93.5 98.4 113.4 120.4 123.5 119.7 116.1 130.8 134.1 133.9 136 140 133.5 112.2 103.4 120 122.7 126.7 131.5 138.1 143 150.8 155.2 158.5 165.7 166.9 184 195.2 195.6 200.6 201.2 207.4 206.5 208.6 205.5 205.5 206.3 211.2 210.7 210.4 219 235.9 245.7 247.6 254.4 269.2 272.7 268.5 280.9 294.8 297.9 293 307.4 313.5 315.5 317.6 323.6 331.7 355.1 358.5 354.5 359.7 365.9 369.6 373.5 376.4 376.7 358.4 354.6 355.2 362.5 357.2 365.9 385.5 404 404.4 403.9 403.8 401.9 399.5 396.2 394.2 402.2 406.6 408.3 411.7 413.9 412 409.7 411 399.2 405 410.6 396.3 402.6 399.2 397.9 394.3 381.9 377.9 379.3 377.8 369.8 357.9 343 334.2 328.8 326.4 314.6 304.2 291.6 281.8 274.3 269.4 264.3 257.9 249.5 247.9 241.2 239.2 233.8 226.8 220.9 213.8 209.8 205.6 198.7 195.1 189.9 187.5 184.4 180.5 181.2 177.3 179.3 174 174 174 174 174 174 174 174.4 178.4 182.9 181.2 176.5 176.5 176.5 178 180.1 179.9 183.6 181.8 178.9 176.5 177.5 178.7 178.3 176.6 181.5 184.9 185 191.8 194.2 198.9 222.2 228.4 224.7 222.7 226.3 228.4 237.6 259.1 256 261.1 270.6 289.1
60.3 46.7 51.7 48.5 36.8 36.8 36.8 36.8 36.8 36.8 36.8 36.8 41.4 45.3 46 44.7 56.7 60 62.2 63.8 69.7 81.4 92.5 88.1 96 105.2 114.1 113 117.7 124.6 131.1 127.7 132.6 131.3 113.8 85 104.6 114.7 118.1 125.7 127.2 139.8 141.1 144.5 151.3 160.1 163.2 167.1 179.2 186.4 191.1 195.3 201.7 202.8 202.8 208 208.8 209.4 213.5 222.6 224.3 215.8 216.1 225.7 240.6 247.3 252.9 256 267.3 266.5 279.1 288 293.7 302 319.6 319.2 320.6 322.3 328.5 328.5 338.6 351.4 357.3 371.2 383.8 385.6 384.5 389 390.5 370 360.6 363 372.1 371.1 373.1 386.7 397 396.8 395 392.5 392.6 392.9 397 393.7 392 400.8 403.3 405 411.2 413.3 413.6 411.8 409.4 398.9 404.4 396.8 405.4 404.6 394 392.5 398.3 383.8 386.8 380.8 368.6 353.5 342.6 331.5 322 316.8 307 298.2 288.3 279.4 269.8 262.7 256.9 245.5 241.5 242.6 238 230.5 227.4 224 218.2 212.8 209.6 202.8 198.5 192.3 187.4 183.8 181.3 178.3 176.2 174 174 174 174 174 174 174 174 174 174 175 178.6 180.4 176.5 176.5 176.5 176.5 176.5 176.5 176.5 176.5 176.5 176.5 176.5 176.5 176.5 176.5 176.5 176.5 176.5 180.7 182.7 186.2 189.5 203.7 206.1 204.6 211.2 210.8 213.1 233.2 235.1 237.3 247 278.6
64.1 55.9 38.5 37.1 36.8 36.8 36.8 36.8 36.8 36.8 36.8 36.8 41 49 51.8 52.2 57.5 59.5 59.5 61.1 62.7 69.8 77.4 84.2 86.5 96.8 104.9 115.3 118.3 116.3 111.5 112.7 110.4 104.6 81 97 99.7 109.9 118.2 121.8 132 135.6 140.8 146.7 151.7 158.8 169.1 177.6 178.8 185.7 189.5 190.9 200 198.7 200.7 205.5 210.9 218.2 223.6 236.2 234.4 227 218.1 219 230 234.3 237.6 242.5 256.7 265.5 280.3 290.5 294.6 309.6 321.8 321.9 323.2 329.5 333.6 335.8 335.6 341 351.2 371.3 398.1 398.9 402.3 412.5 397.5 375.1 367.3 368.7 374.8 382.1 386.2 383.7 384.8 391 395 398.4 397.4 402.4 405.2 396.7 391.8 405 407.4 411.2 415.7 420 422.8 417 413 406 398.5 395.5 402.3 396.2 388.3 384.3 382.5 382.4 381.9 378.1 369.3 352.8 341.6 329.4 319.4 311.6 302.2 289.8 283.9 274.2 267.4 256.3 253.5 248.3 241.3 237.4 234.4 227.7 225.4 222.2 216.1 210.5 209.8 200.6 192.6 190.3 184.4 181 179.8 177.5 174 174 174 174 174 174 174 174 174 174 174 174 179 178.9 176.5 176.5 176.5 176.5 176.5 176.5 176.5 176.5 176.5 176.5 176.5 176.5 176.5 176.5 176.5 176.5 176.5 176.5 176.5 176.5 176.5 185.9 189.1 191.3 194.6 195.9 195.7 206.7 214 217.5 226.4 247.9
71.3 64.7 46 36.8 36.8 36.8 36.8 36.8 36.8 36.8 36.8 36.8 36.8 50.3 61.2 58 62.8 64.9 67.9 60.5 61.4 64 73 85.6 84.1 88 97.8 111.4 115.5 116.8 99.2 93.7 90.6 79.6 85.6 95.5 111.9 120.1 119.4 118.5 122.9 131.1 144.6 147.7 150.1 162.9 175.8 178.7 183.4 187.6 190.7 187.1 190.3 194.8 198.1 202.5 207.7 218.4 228.4 236.3 239.2 242.4 236.5 226.5 227.7 230.7 231.9 238.6 257 272.1 286.8 296 291.9 299.7 315.5 324.6 323.8 333 337 333.3 339.2 343.6 359.2 384.3 400.3 404.3 405.3 409.4 405.3 382.1 370.2 368.7 379.6 392.5 396.1 404.7 388.3 395.6 397.6 402 405.7 410.6 410.3 399.8 390.1 405.4 412.8 416.9 417.6 418.6 417.8 417.4 421 409.2 403.4 396 393.6 388.3 384.8 381.3 378.5 381.6 384.2 372.2 361.3 349 340.1 326.8 316.8 306.7 293.8 286.1 280.4 274.1 263.9 256.7 250.6 250.4 247.8 238.1 228.7 225.5 222.9 223.3 220.7 207.8 202.2 195.8 188.6 183.6 181.4 179.1 177 175.8 174 174 174 174 174 174 174 174 174 174 174 180.2 180.9 176.5 176.5 176.5 176.5 176.5 176.5 176.5 176.5 176.5 176.5 176.5 176.5 176.5 176.5 176.5 176.5 176.5 176.5 176.5 176.5 176.5 176.5 178.6 179.7 182.5 180.8 180.8 181.5 190.5 200.6 207.3 213.6 234.7
75.4 73.8 63.7 48.9 37.3 41.1 36.8 36.8 36.8 36.8 36.8 36.8 42.1 49.3 52.1 57.6 60.3 65.2 66.8 73.8 82.6 79 65.5 72.2 77.5 80.5 96.3 104.7 102.3 101.7 95.6 83.3 75.2 75.3 86.2 97.4 110.7 121.8 120.1 123.2 131.9 133.2 134 142.8 146.4 163.9 176.8 181 185.3 186.2 185.4 187.6 188.6 193.8 195.9 199 210 212.8 222.9 228 240.4 247.2 245.8 239.2 232.5 230.9 230.8 240.3 254.2 272.8 286.5 292.9 287.8 293.5 303.4 309.5 314.2 316.3 320.9 331.1 334.2 345.3 361 376.5 394.3 404.4 406.7 407.7 394.6 386.9 382.3 379.3 383.9 405.3 403.9 400 396.4 389.8 396.1 403.5 406.2 399.6 399.7 393.4 387.3 390.5 401.9 406.1 407.4 409.5 415.4 413.9 408.7 404.7 397.7 394.6 391.6 386.4 382.9 376.9 375 374.4 373.5 364.8 352.8 342.3 330.3 319.7 307.1 294.7 290.1 282.1 272.6 267.3 259.9 254.1 246.1 241.9 241.2 234.4 225.7 222.9 222.8 220.3 215.4 205.9 200.1 191.2 185.4 181 178.4 177.9 175.4 174 174 174 174 174 174 174 174 174 174 174 183.2 181.7 176.7 176.5 176.5 176.5 176.5 176.5 176.5 176.5 176.5 176.5 176.5 176.5 176.5 176.5 176.5 176.5 176.5 176.5 176.5 176.5 176.5 176.5 176.5 177.6 178.5 178.8 178.2 178.6 179.3 182.4 186.3 194.7 207.8 226
79.5 75.5 77.1 52.4 50.5 54.9 47.7 36.8 36.8 36.8 36.8 36.8 40.9 50.1 50.7 52.2 62.2 72.3 75.6 79.2 89.2 92.2 73.9 74.6 83.9 80.5 85.6 89.1 85.2 81.3 76.6 67.3 69.9 76.1 86.3 99.6 106.2 116.6 118.3 127.8 137.7 136 128.5 131.3 142.9 158.3 167.2 173.3 180.5 180.4 185.1 188.5 191.9 193 196.8 204.8 209.7 216.9 228.8 230.3 233 241 246.7 243.2 238.4 232.3 230.7 249.7 258.7 271.4 274.7 282.5 288.2 294.3 304.3 306 314.1 326 326.5 332.4 337.8 357.1 376.7 390.5 404.3 413.9 406 401.9 386.9 387.1 399.9 401.7 388.5 400.4 403.7 395.8 389.9 390 396.7 402.6 395.8 395.8 395.5 391.4 388.1 388.1 385.3 392.7 396.5 398.9 407.9 412.4 407.4 407 397.9 393.4 386.8 384.2 382.3 378.8 372.6 369.1 357.1 348.1 343.7 333.5 323.2 311.1 300.9 293.6 290.7 280.8 275.7 266.8 259 251.9 245.1 238.1 232.4 228 223.9 222.8 217.4 222.7 207.7 198 195.1 187.9 188.7 180.7 177.2 174 174 174 174 174 174 174 174 174 174 174 174 174 183.7 178.2 176.5 176.5 176.5 176.5 176.5 176.5 176.5 176.5 176.5 176.5 176.5 176.5 176.5 176.5 176.5 176.5 176.5 176.5 176.5 176.5 176.5 176.5 180.5 181.2 181.1 177.1 178.4 178.5 178 178.7 181.4 187 194.4 215.8
83.9 79.2 75.2 64.8 49.2 60.6 49.7 38.5 36.6 36.8 36.8 36.8 36.8 45.7 51.2 59.3 63.8 76.2 78.9 84.4 96.2 96.5 87.2 78.2 80.5 87.3 72.4 70.5 69.3 64.8 64.6 68.5 76.4 85 91.6 100.8 107.3 113.1 109.3 114 129 127.8 126.3 125.6 141.2 150.5 158.5 158.7 161.9 176.1 187.1 194.3 200 197.6 196.2 206.8 209.8 213.5 221.7 230.3 229.9 231.9 238.4 239.9 240.3 236.8 234.1 251.6 255.3 259.5 269.2 280.9 293.7 304 314.4 317.3 321.7 329 339.7 355.7 354.7 373.7 389.1 400 409.2 408.3 399.5 397.4 387 387 401.5 407 403.7 392.4 389.9 389.9 392.2 389.9 399 397.1 397.8 399.5 400.6 396.8 386.6 385.3 386.3 392.9 393.7 401.8 414.1 415.5 410.9 404.2 399.5 392.9 386.7 380.2 377.9 376.9 376.1 367.7 357 349.7 336.2 329.1 316.5 304 293.9 292.5 288.4 280.5 269.8 262.2 252.8 245.1 239.2 237.8 225.5 217.8 215.5 214.2 209.2 202.8 197.3 193.1 187.3 184.7 185.9 181.1 175.4 174 174 174 174 174 174 174 174 174 174 174 174 174.7 176.5 176.5 176.5 176.5 176.5 176.5 176.5 176.5 176.5 176.5 176.5 176.5 176.5 176.5 176.5 176.5 176.5 176.5 176.5 176.5 176.5 176.5 176.5 176.5 181.6 186.7 183 179.1 177.2 178.6 176.9 177.3 179.1 183.9 191.7 198.6
91.3 83.8 77.8 63.7 48.8 59.7 59.1 56.6 44.5 36.6 36.6 42.8 47.9 48.7 54.2 63.7 68.4 79.1 87.5 94.6 103.6 108.2 93.1 84.2 80.4 79.8 75.4 60.3 61.7 62.5 65.7 69.4 80.8 93.3 97.1 99.2 97.5 103.4 102.3 104.4 120.7 129.8 125 129.1 134.3 141.6 144.3 146.4 153.6 172.5 183.1 188 196.8 201.1 203.8 206.8 211 218.7 218.3 224.8 231.7 232.3 228.3 236.5 243.5 244.3 236 245.7 247.1 255.2 261.5 278.8 293.1 300 307.5 316.2 320.6 342 355.6 366.4 373 384.9 391.5 400.8 401.4 393.2 395.9 395.8 387 393.3 402.8 406.1 404.5 393.5 389.9 389.9 390.6 392.3 389.9 392.3 393.8 404.6 405.6 398.9 394.6 390.6 390.7 385.3 390.8 398.9 400.6 404 403.8 404.1 400.2 396.8 387 378.8 379 380.1 369 364.2 359.7 355 338.9 320 307.9 299.7 292.9 284.2 276.9 269.2 261.7 255.3 252.7 246.4 238 235.1 225.4 215.6 210.3 206.4 201.3 200.5 193.8 187.5 180.7 178.3 176.2 174 174 174 174 174 174 174 174 174 174 174 174 174 174 181.6 178.1 176.5 176.5 176.5 176.5 176.5 176.5 176.5 176.5 176.5 176.5 179.8 176.5 176.5 176.5 176.5 176.5 176.5 176.5 176.5 176.5 176.5 176.5 176.5 180.4 181.2 179.9 179.1 178 178 181.1 177.8 179.8 181.7 188.2 194
98.1 93.8 84.2 76.3 50.6 48.8 50.3 50.5 46.1 40 43 44.9 55.1 61.2 56.3 64.4 67.9 73.1 88.8 99 106.2 104.2 102.1 97.8 88.2 73.6 63.3 59.3 61.2 62.5 67.1 73.6 85.1 97.6 101.3 98.3 95.2 95.7 98.4 102.4 115.8 121.9 123.5 123.7 119.9 129.5 135.6 139.9 148.8 166.6 181.7 181.4 183.3 194.9 210.2 211.7 211.1 212.7 217.1 221.6 225.5 225.9 228.7 232.1 233.9 242 244.7 240.5 241.9 251.1 256.8 267.9 276.3 287.5 295.9 316.8 329.2 334.9 360.8 374.6 381.8 390 393.9 394.8 394.3 389.6 390.1 387 387 394.5 403.5 407.1 403.7 399.8 389.9 389.9 389.9 392.9 390.6 392.9 393.5 401.9 404.3 402.1 392.8 385.6 385.3 385.3 385.3 390.1 400.4 399.6 400.7 414.4 412.8 403.8 390.8 382.4 374.7 364.7 358.8 355.5 349.9 340.2 329.4 318.5 307.2 299.6 295.5 287.8 276 268 259.6 246.3 243.7 237.1 238.3 230.9 221.8 215.7 216.9 214.4 203.7 197.8 191.4 187.1 180.6 176 175 174 174 174 174 174 174 174 174 174 174 174 174 174 180 185.3 179.8 176.5 176.5 179.2 182.9 184.9 182.3 188.8 186.8 189.7 183.6 179.8 180.7 181 176.8 177.1 176.5 178 176.5 176.5 176.5 177.8 179.4 179.5 179.6 179.5 180 178.5 179.6 180.7 183.5 180 177.6 180.2 182.5 184.7
91.2 92.2 86.8 82.2 73.8 51.4 48.8 48.8 50.2 48.3 45.4 49 50.8 57.1 61 60.9 64.7 65.6 70.6 93.7 97.4 103 101.3 92.7 74.2 66 56.7 57.9 57.3 58.6 69.5 83.6 92.4 101.7 98.4 94.1 91.6 94.9 108.5 111.4 108 108.5 114.2 116.3 119.2 124 130 137.9 142.9 162 179.3 179.2 178.5 190.6 201.1 208.3 214.7 211 212 218.3 215.5 224 228.1 229.2 230 236.6 237.4 228.1 229 234.8 249.9 260.8 276.1 291.1 301.3 314.4 323.2 327.8 344.3 360.8 363.5 380.1 385 391.6 387 386.4 387 387 392.2 400.4 396.3 390.8 400.4 399.6 392.9 389.9 389.9 392.4 402.2 396.4 392.7 389.9 391.7 391.2 392.1 385.3 388.7 390.3 385.6 387.4 394 399.5 405.7 403.6 399.5 396.8 386.7 374.4 366.7 361.6 360.9 361.3 351.9 335.6 325.7 315.2 302.8 297.9 290.9 283.9 276.2 268 254.4 248.4 238.7 231.8 228.7 226 216.2 213.5 212.2 206.4 201.1 192.8 188.1 182 177.6 174.4 174 174 174 174 174 174 174 174 174 174 174 174 174 174 187.9 187.4 182.5 179.2 185.7 193.3 194 186.7 191.4 192.5 191.3 186.2 184.5 181.2 183.2 182.2 181.6 178.9 177.3 179.7 176.5 176.5 177.1 180.8 180.3 181.6 179.4 180.1 180.9 181.3 179.9 180.9 185.2 180.4 180.6 179.3 181.8 184.1
88.4 88.9 86.6 85 83.4 75.5 51.8 49.8 58.6 57.2 59 57.3 54.1 53.9 50.8 64.8 61.8 57.8 59.1 71.2 81.9 91.5 89.3 78.1 71.9 55 56.2 56.6 57 63.6 63.5 85.9 95.3 94.8 87.5 87.3 87.3 88.6 100.5 111.6 109 111 120.1 121.3 124.1 128.3 129.1 135.2 149.3 158.7 163.9 166.1 180.5 188.1 194 201.5 211 217.3 211.4 210.1 215.9 224 225.7 225.9 229.7 233 231.2 228.1 228.1 235.3 239.2 261 269.6 282.3 291.2 298.8 303.5 309.7 312.1 322 332.2 352.3 369.8 384.2 393.9 389.8 387 387 391 393.4 390.4 393.1 405.7 403.3 395.7 389.9 394.9 389.9 389.9 389.9 389.9 389.9 393.1 393.4 394.8 389.9 385.3 385.9 389.8 387.6 390.5 408.6 406 403.1 398.2 389.5 381.4 372.9 367.1 363.7 365 357.1 344.1 339.2 328.4 317.1 307.7 296.9 283.9 273.9 262.7 256.3 245.9 242.6 233.8 239.3 234.2 224.8 213.9 214.6 209.2 202.1 193.7 189.5 183.7 178.9 178.7 174 174 174 174 174 174 174 174 174 174 174 174 174 174 187.2 191 188.7 186.1 181.9 196.6 199.9 196.4 194.3 191.9 197.4 194.7 190.7 186.4 183.5 185 182.9 183.8 187.9 186.5 185.4 181.4 180 183.7 184.2 184.3 185.7 185.2 183.3 182.5 182.4 181.3 181.3 182.4 182.7 182 181.2 182.9 186.3
94.5 99.1 90.2 88.8 94 86 84.7 60.7 59.4 60.5 63.4 68.2 62.6 50.8 50.8 50.9 56.5 56.5 52.4 60.1 69.6 69.9 70.2 67.2 52.7 54.1 54 55.6 55.4 84.4 84.4 87 87.3 87.3 87.3 87.3 87.3 87.3 92.1 103.8 107.9 118.8 124 129.1 132.1 128.1 125.7 129.1 139.3 139.1 144.6 156.3 175.3 183.9 186.3 191.8 195 202.4 207.9 208.6 209.7 212.5 230.8 237.4 231.1 230.7 229.2 234.6 228.1 229 235.2 255.6 274 280.4 289.2 298.1 308.6 312.3 312.5 316.9 333.9 353.7 369.5 393.5 395.4 396.2 390.9 387 387 387 388.4 396.7 401.9 402.7 404.4 397.3 395.1 391.3 389.9 389.9 398.7 402 402.5 405.5 403.6 391.6 385.3 388.1 385.3 389.3 397.6 407.1 405 404.7 394.6 385.5 382.3 386.7 378.4 369.4 358.8 350.2 341.3 332.5 319.8 307.4 298.7 286.5 269.9 259.2 253.2 242.6 237.2 231.9 231 244.4 239.2 226.2 215.3 210.6 205.4 198.4 189.2 185.1 179.4 175.1 174 174 174 174 174 174 174 174 174 174 174 174 174 174 178.6 184.7 190.6 192.5 192.1 191.7 199.2 202.2 202.2 203.2 199.4 198.7 196.4 191.9 187 185.5 186.2 186 195.4 201.9 198.3 194.8 193.9 188 190.4 190.1 192.5 191.3 189.2 186.3 184.4 183.8 182.7 182.1 185.7 185.3 185.1 180.5 182.1 184.8
103.5 103.1 95.6 88.5 93.1 96 86.6 72.5 60.7 60.8 64.6 69.4 66.6 59.3 56.6 54.3 54.3 50.8 50.8 52 50.8 57.5 60.9 50.8 50.8 50.8 50.8 52.8 66.7 87.7 91.6 93.7 96.5 90.3 87.3 87.3 87.3 87.3 87.3 87.3 99.3 116.7 112.6 117.4 122.2 124.1 120.9 126.9 132.4 135.3 139.4 151.6 159.9 170.9 173.3 181.6 180.2 185.1 194 206.9 218.6 220.5 229.5 231 227.2 226.4 228.4 241.3 238.9 228.1 228.1 254.6 271 285.1 295.7 306.7 312.2 327.3 323.5 327.9 333.6 346.3 368.2 387.8 401.5 403.4 394.7 392.1 390.7 390.8 388 400.7 406.9 405.8 410.1 407.2 408.6 407.2 397.6 389.9 389.9 392.5 391.6 388.7 386 385.3 385.3 385.3 385.3 388.4 397 390.2 390.5 386.7 382.6 378.2 380.2 375.2 372.1 362 353.4 340.6 326.3 318.8 306.9 292.8 280.1 273.7 264.4 262.1 253.6 241.8 228.9 225.6 228.9 227.7 230.9 230.4 220 213.6 204.2 194.9 186 183.3 177.7 175.5 177.6 174 174 174 174 174 174 174 174 174 174 174 174 174.7 187.7 187 192 195.7 195.6 199.1 204.1 205.8 209.3 205 202.7 199.4 197.7 192 188.3 188.4 189.8 192.3 202 211.4 210.9 207.8 208.1 201.6 198.2 200.4 199.3 197 194.3 192.9 190.2 187.5 186.7 186.7 189.3 188.7 187.5 188 186.7 183.1
116.5 114.9 102 93.4 105.3 98.6 93.5 86.5 69.5 67.9 73.9 78 77.6 72.2 65.8 55.3 57.6 57.9 55.3 52.4 60.8 53 50.8 50.8 50.8 50.8 51.8 73.3 83.2 98.7 110.7 104.9 107.5 102.4 99.6 87.3 87.3 87.3 87.3 87.3 94.2 105.1 106.5 107.3 113.7 118.2 120.3 127.5 129.7 138 149.3 152 155.3 168.2 183.7 187.2 185.2 184.9 194.5 202.8 219.5 222.9 219.9 219.7 220.3 217.6 226.9 239 238.5 228.1 234 247.8 270.1 283.2 304 308.3 319.2 344.8 341.5 342.8 343.2 344.6 366.8 387.2 398.7 409.1 404.4 399.7 399 405.2 393.4 402.7 408.2 408.9 418.5 413.4 403.8 403.8 411.7 405.3 398.1 401.8 399.4 395.1 387 385.3 385.3 385.3 385.3 385.3 385.3 390.4 385.3 385.3 396.2 388.8 373.7 364.1 352.5 349 341.7 332.5 319.7 314.1 301.8 288 278.5 269.4 262 254 244.2 234.1 224.2 223.1 213 215.7 218.6 222.9 216.8 213.3 205.3 192.6 185 183.2 178.9 181.7 178.8 174 174 174 174 174 174 174 174 174 174 174 174 190.3 190.4 190.4 191.2 196.8 198.7 200.7 212.1 213.2 213.9 211.2 212.4 208.2 201.5 198 195.7 198.3 197.2 198.4 211.7 225.6 229.1 223 218.6 215.5 216.2 215.9 213.3 212.1 209 201.8 195.8 196.1 195.8 196.9 197.5 197.1 194.1 192.3 188.7 189.2
122.8 125.1 115 110.7 112.9 114.3 104.2 106.4 87.5 76.2 84.6 84.8 78 68.1 58.5 55.4 60.5 63.8 63.1 62.3 55.9 50.8 50.8 50.8 50.8 57.9 83.7 92.4 101.1 102.1 112.3 116.5 115.8 110.5 110.8 87.8 87.3 87.3 87.3 87.3 101.9 108.3 111.4 112.7 116.1 115.8 120.8 130 124.7 132.2 136.5 146.9 160.3 167.8 182.3 184.5 185.5 188.5 198.1 204.6 202.3 208.6 219.2 221 212.9 210.6 220.5 238.8 238.8 233.2 234 243.8 257.2 278.1 292.5 309.4 327.2 350.1 358.8 355.1 352.1 353.3 361.9 388.6 400.6 415.2 412.8 403.6 402.9 407 404.4 411.5 407.8 409.7 414.5 416.6 403.8 403.8 403.8 404.8 413.8 418.2 417.7 408 402.6 395.2 386.6 385.3 385.3 385.3 385.3 385.3 385.3 387.2 401.7 388.6 376.2 356.1 343.1 337.8 328.3 321.5 325.3 317.5 302 289.1 279.4 267.4 255.5 248.4 239.9 234.8 216.3 203.5 205.3 206.3 210.3 215.2 214.4 213.8 200.2 193.5 184.1 178.4 179.8 179.7 174 174 174 174 174 174 174 174 174 174 174 174 174 186.6 188.2 188.4 192.1 199 203.5 207.2 221.2 216.8 216.3 218.5 213.5 211.2 208.4 201.9 202.6 205.7 201.3 204.4 224.1 236.4 248.7 243.3 236.5 232.5 232.1 228.6 226.5 225.5 223.6 217.9 209.1 203.9 207.4 206.7 205 203.6 198.4 195 191.5 189.7
137.8 133 122.3 121.8 123.1 124.3 124.3 116.6 104.1 87 93.5 89.2 72.4 62.9 60.1 61.1 64.9 68.4 68.9 68.4 63 50.8 50.8 50.8 59.8 73.4 86.4 101.3 116.4 116.4 109 112.3 114.4 109.7 103.2 90.9 87.3 87.3 87.3 88 103.5 114.6 114.9 116.4 118 120.8 120.1 120.6 126.9 128.7 131.3 139.3 154 164 171.6 181.8 179.9 184.1 188.5 195.6 201 204.6 216.7 208.1 205.2 211.7 213 222.3 232.1 232 239.5 244 251.9 261.2 287.6 298.8 338.3 365.8 374.7 369.2 361.6 363.8 364.9 403.4 413.8 416.3 415.9 409.5 412.4 415.3 416.6 414.1 421.6 415.5 420.5 419.7 410.4 404 403.8 408.7 412.4 416.1 421.6 420.9 408.8 399.8 394.4 393.3 390.4 390.3 388 385.3 390.7 397.9 399.1 380.6 367.4 354.7 345.5 332.6 320.4 313.6 314.9 309.7 291.8 292.7 280.9 269.3 252.4 238.3 224.2 214.9 207 202.8 199.2 200.8 207.8 213.5 214.8 214.6 194.5 188.2 190.2 177.3 174 174 174 174 174 174 174 174 174 174 174 174 174 174 174 182.3 188.2 193.1 196.1 207.2 209.5 215.8 227.2 224.1 224.6 219.9 219 215.2 211.7 211.7 213.9 214.2 209.5 207.2 221.8 238.5 251.9 258.6 257.4 251.2 249.7 244.4 246 242.4 235.3 231 224.2 217.2 217.6 218 211 209.6 204.6 200.5 197.8 194.2
137.1 134 127.6 124.7 124.9 135.5 135.3 127.7 116.7 96.2 86.9 82.2 74.6 67.2 62.1 74.6 79.1 73.2 69.5 66.7 62.5 56.5 64 61 75.7 87.9 97.1 105.1 111.7 121.4 118.9 110.8 115.7 117 111.8 102.8 100.6 87.3 91.9 96.2 105.9 117.5 122 122.4 123.6 130.1 128.5 120.6 125.9 136.8 133 133.4 140.6 149.8 158 168 171.7 169.6 173.3 182.1 194.2 200.2 195.7 198.6 203.5 209.8 217 220.4 231.7 235.7 231.5 238.4 238.7 249.9 270.9 292.2 321.7 365.5 376.5 377.1 367.7 366.8 368.9 395.6 408.4 410.2 415.3 414 414.1 417.5 422.4 423.8 425.9 420.5 415.5 419.4 416 410.8 409.7 418.1 424 417.2 412.7 410.3 406.2 404.2 401.7 404.5 403.3 396.8 399 398.3 398.7 393.7 378.8 365.9 365 358.6 337.4 324.1 315.3 303.9 295.5 285.9 286.4 278.1 270.7 257.1 243.8 230.4 219.7 207.7 201.5 199.2 199.2 199.2 205.3 211.7 214.7 207.2 185.4 185.9 187.5 174 174 174 174 174 174 174 174 174 174 174 174 174 174 174 185.4 184.8 193.7 202.6 210.2 219.1 222.4 232 235.2 233.7 228.2 225 223.7 218.6 217 216.9 220.1 221.3 221 221.2 219.3 236.5 250.6 261.3 266.4 264.5 262.1 264.6 274.1 272 264 251.9 247.5 240.1 234.7 228.1 220.9 219.9 210.4 209.6 204.8 200.7
131.4 133.7 129.4 125.9 131.7 136.7 135.4 125.4 124.7 114.6 88.2 85 86 80 75.1 84.7 91.3 84.4 74.6 69.9 62.5 73.4 90.7 81.9 84.4 105.6 109.7 108.3 108.9 111.7 116.1 113 113.2 116 109.5 108.6 104.1 92.9 95.3 102.9 113.2 122.9 129.3 129.3 127.5 126 119.2 118.8 118.8 131.3 141.5 137.5 139.6 141.6 147.6 151.4 162.2 165.3 166.7 169.2 177.6 184.4 185.4 193.3 194.7 200.1 215.8 234.3 235.7 241.2 235.3 230.4 230.4 233.1 256 281.9 316.8 348.9 365.8 376.7 370.7 368.5 373.5 371.9 385 402.7 411 407.1 405.7 407.3 414.6 418.2 416.2 414.3 409.8 408.2 412 407.1 407.3 417.8 424.9 424.9 419.1 413.1 412.4 410 413.9 408.7 406.1 394.7 391.4 396.5 390.1 382.3 366.4 358.6 348.6 335 330.9 320 315.5 305.2 293.6 282.1 273.8 263.6 258.8 253.9 242.5 234.4 218.7 202.4 199.2 199.2 199.2 199.2 199.2 206.8 206.1 187 174 179 174 174 174 174 174 174 174 174 174 174 174 174 174 174 174 184.2 188.3 193.9 202.7 210.4 222.1 229.2 231.8 243.3 246.4 240.6 232.8 234.6 230 228.5 228.2 228 230.4 228.8 231.5 233.8 236.5 235.3 239.2 247.7 256.9 261.2 267.8 282.2 299.6 294.9 285 283.5 281.6 267.9 258.8 245.8 240.6 232.7 224.9 220.9 213.6 208.7
139.6 129.2 119.5 115.2 115.1 116.4 112.6 108 109.8 108.9 96.7 87.6 87.1 89.7 93.6 96.1 99.2 95.7 84.1 80.9 83.1 99.5 91 94.7 86.4 100.3 116.5 113.3 107.1 108.3 113 118.5 117.7 120.8 119.2 119.9 116 108.6 106.1 108.9 116.4 129.8 135.5 133.5 126.2 122.5 121 118.8 118.8 129.3 138.4 145.1 145.3 148 156.7 161.7 166.6 171 169.5 170.7 165.7 167.7 175.3 181.5 189.1 194.2 205.4 222.6 240.6 241.8 236.8 230.4 230.4 236.3 243.6 273.4 308.6 331.7 357.6 367.8 369 370.2 369.6 371.2 368.7 380.8 399.2 402.3 395.1 397.2 404 404.3 401.8 401.5 402.1 404.8 399.5 401.3 400.6 404.5 427.4 428.2 425.7 421.2 424.8 423.9 415.8 404.7 398 388.7 385 378.8 371.6 370.8 367.8 361.2 337.3 330.8 327.6 325.9 317.7 312 302.7 285.2 275.9 265.5 250.4 253.3 245.6 230.8 213.4 199.7 199.2 199.2 199.2 199.2 200.7 202.3 194.3 174 174 175.9 174 174 174 174 174 174 174 174 174 174 174 174 174 174 189.2 192.5 198 201.7 211.2 223.5 234.6 236.8 243.5 252.7 250.4 246.4 244.1 244 241 245.3 250 247.6 244 241.3 240.4 243.2 246.7 251.7 253.3 260.1 270 272.5 278.5 283.7 291.5 299.1 295.2 286.5 282.3 282.4 284.1 271.8 258.9 248.4 240.5 232.1 225.4 217.3
132 116.9 108.3 105.5 106.6 107.8 108.8 109.3 103.1 102.9 97.5 90.3 94.2 101.7 107.9 107.2 107.4 100.3 87.5 80.1 98.3 107.1 95.4 106.4 101 92.8 112.4 113.1 107.1 105.6 114.4 120.2 120.4 120.4 122.2 124.5 121.2 119.7 118.4 126.1 128.2 134.1 134.1 132.2 129.8 125.5 122.3 118.8 122 131.2 140.5 152.9 161.6 157.2 165.4 173.2 172.4 171.9 173.2 175.1 168.9 166.4 171 196.9 193.6 189.7 201.3 220.3 248.4 251.3 249 236.8 230.4 233 242.4 266.6 293.5 314 338 353 359.8 367.7 373.2 367.8 368.6 366.6 381.1 388.9 385.2 387.6 388.6 397.1 396.4 392.5 394.4 403 394.8 397.6 398.5 398.7 413.3 430.6 429.5 425.7 431.2 425.4 418.3 403 394.7 385.7 382.3 372 362 355.8 356.4 358.2 356.6 339.9 328.4 320.9 308 299.2 290.2 279 268.8 261.8 244.2 235.6 229.7 217.2 207.6 204.2 199.2 199.2 199.2 202 205 191.4 174 174 174 174 174 174 174 174 174 174 174 174 174 174 174 174 174 184.9 197.4 200.7 212.2 216.8 231.8 244.3 247.5 247.8 250.7 253.7 254.5 252.7 255.1 254.1 255.2 260.2 267.6 266.7 267.7 266.1 267.5 267.8 265.9 271.5 275.7 283 295.9 295.2 299.8 300.8 304.1 307.4 309 298.8 288.9 286.6 289.5 289.4 284.6 267 257.4 245.4 236.1 227.8
111.9 106.5 106.1 104 106.3 106.7 109.5 110 103.8 100.5 101.2 95.2 96.7 103.5 112.6 116.6 123.7 110 92.4 90.9 112.3 107.8 110.8 128 114.9 100.5 98.9 105.3 104.5 104 110 118.7 119.4 117.7 119 120.9 123.3 128.1 131.5 134.4 142.6 139.2 139.7 143.4 141.4 131.4 122.7 118.8 127.5 133.4 145.2 162.2 171.1 172.3 164.1 168.3 170.1 170.6 172.6 173.1 169.6 167.8 186.7 197.7 196.4 190.8 205.6 213.2 233.1 244.7 253.1 250.1 244.7 242.3 239.7 262.9 281.7 309.1 330.5 348.4 357.1 365.2 365.4 362.1 362.9 363.3 362.2 368 373.6 376.5 380.6 382.7 383.1 384 382.3 387.7 396.2 394.7 404.5 401.2 399.5 404 410.5 429.8 425.9 420.2 420.5 404.7 391.4 393.1 379.3 367.6 359.8 351.5 341.2 336.6 338.5 344.9 345 324.1 308.5 285.9 279.6 280.6 278.7 265.5 251.9 238.4 227.9 213.9 212.6 213.7 216.8 215.7 210.1 210.9 198.6 175.1 174 174 174 174 174 174 174 174 174 174 174 174 174 174 174 174 191.4 201.1 206.5 223.4 229.6 243.4 250.9 254 257 254.8 257.2 257.6 259.5 260.8 264.3 263.9 267.4 275.8 282.2 289.5 291.1 292.9 294.4 300.9 301.1 305.6 304 306 315.6 317.3 313.7 316.9 315.1 319.7 314.4 315.1 311.2 300.3 296.7 302 297.2 288 274.6 261.9 251.4 239.8
100.4 98 106.8 110.7 107 105.8 111 108 104.6 98.9 98.9 99.4 98.8 112.4 119.8 124.3 122.7 111.1 93.3 93.8 115.9 113.9 113.1 131.5 133 126.3 106.6 101.6 102.7 103 110.2 114.5 121.8 116.6 111.7 114.2 132.1 136.4 138.1 140.1 139.6 141.2 149.5 152 147.7 138.1 130.2 130.5 132.3 143.6 158.7 162.5 167.5 173.4 165.7 163.2 162 165.2 167.7 167.6 169.6 186.3 201.3 205.1 197 193 206.4 209.4 231.4 243.3 247.1 253.2 257.5 249.7 247.3 262.7 277.7 292.9 314.7 333.2 345.4 352.2 358.1 360.7 356.8 354.5 355.3 353.8 350.6 375.1 373.8 372.8 378.4 380.1 379.1 378.6 385.2 390.7 394.1 394.2 392.4 393.4 406.2 417.5 426.5 412.2 407.6 403.6 390.1 383.8 371.8 363.8 352.7 344 333.7 320 317.7 323.1 329.5 316.7 289.8 279.6 283.4 283.6 278.3 267.8 254 241 223 218.4 223.7 222 218.2 213.2 208.1 197 183.3 174 174 174 174 174 174 174 174 174 174 174 174 174 174 174 181.9 194.7 206.5 212.8 227.3 243.2 250.4 262.7 265.3 263.7 262.8 264.5 268 266 269.3 271.1 276.2 284.8 289.7 300.8 310.9 315.9 316.8 320.1 325 325.9 326.4 331.2 331.2 332.5 334.2 332.9 328.5 327.5 324.2 321.5 330 332.9 321.5 321.1 313.2 305.3 306.9 313.8 298.4 279.2 266 254
93 101.3 110.1 118.3 118.3 106.6 109.9 106.9 102.7 107.8 105.6 100.6 100.9 92.7 114 119.4 113.9 97.3 87 103.7 117.8 117.2 115.7 128.8 132.9 129.5 120.4 110.9 111.8 106.9 105 105.7 111.8 116.1 107.2 115 132.6 137.2 139.6 140.4 141.4 146.7 153.3 153 145.6 144.6 138.7 136 142.5 147.7 156 160 162 162.6 161.5 160.7 159.2 160.1 162.2 165.8 177.5 196.3 203.2 209.4 212.3 220.5 218.9 227.6 236.3 246 242.6 253.3 265.9 260.2 250.4 260.8 275.8 290.4 301 317.7 327.7 337.5 344.6 345.9 342.3 351.1 364.7 355.4 350.1 358.4 376 373.7 373.1 376.6 374.2 370.3 368 384.2 391 390.8 394.4 388.1 395.1 398.1 413.6 396.4 388.4 393.6 387.9 372.7 358.4 345.6 335.8 328.5 317.7 306.3 297.2 302.4 301.8 296.7 288 279.4 277 285.2 280.6 259.6 239.6 222.9 217 217.9 217.3 217 207.7 192.6 184.9 175.6 174 174 174 174 174 174 174 174 174 174 174 174 174 174 174 187 201 204.2 214.8 229.7 255.6 261.2 269.4 275.4 275.7 277.1 277.8 278 276.6 278.3 281.2 291.4 298 303.7 314.9 324 332.8 343.6 345.7 353.8 358.1 356.9 353.9 358 356.7 350.5 351.9 346.1 340.7 337.8 333.2 342.1 349.5 348.9 339.2 345.8 329.3 325.4 332.1 335.1 320.7 297.2 286.3 273.6
96.3 102.6 113.2 116.4 115.4 103.5 103.9 105.2 105.7 113.9 105.1 109.1 107.5 100.2 98.7 110.9 110.5 91.2 87.2 102.8 116.6 118.5 112.8 113 121.3 126.1 124.4 115.5 112.5 116.8 108 106.7 106.2 106.6 106.9 107.9 128.3 135.5 137.5 139.7 145.2 148.1 156.4 152.2 144.1 137.3 136.8 138.7 142.6 147.1 154.3 161.5 157.1 157.4 159.6 159 156.5 157.6 160.9 160.1 171.7 201.3 213.3 225.2 233.5 231.1 233.6 242 248.3 255.7 265.8 271.1 276.7 277.7 271.8 269.7 286.9 296.6 302.9 304.3 314.3 315.1 324.3 327.7 329.7 341 357.2 351.6 349.9 350.3 371.5 364.7 368.7 367.6 368.3 372.6 368.6 366.8 371.8 392.1 391.7 386.2 375 376.9 379.2 368.9 368.5 377.7 379.1 375.4 361.9 343.1 325.6 311 301.7 294.2 290.5 293.3 301.8 301.6 296.8 285 262.9 255.2 266.5 249.1 230.8 212.8 198.7 190.7 192.4 194.2 189.3 182.2 174 174 174 174 174 174 174 174 174 174 174 174 174 174 174 191 198.4 203.2 206.9 223.2 234 251.8 261.5 271.2 279.1 280.8 283.5 282.9 285.6 286.3 285.7 288.8 299.8 309.5 320.7 326.2 333.9 347.2 361.8 375.4 378.1 384.2 383.5 383.7 375.6 372.9 370.6 365.7 360.5 356.4 351.5 348.3 349.5 359 366.3 362.8 358 352 349.3 355.7 364.4 357.8 333.1 319.7 304.9 289.7
97.4 105.1 114.5 116.8 112.7 99.8 98.3 98.3 104.4 107.2 103.5 106.3 105.9 103.4 94.5 100.1 107.5 94.5 87.7 106.3 119.3 116.9 106 104.5 125 129 128.9 120.4 118.3 114.9 122.4 119.7 110.4 109.1 109 113.2 126.2 133 136 135.5 145.8 147.7 147.2 147 138.8 136.5 137.2 136.5 140.2 144 147.4 149.4 143.5 157.3 158.5 155.6 145 138.6 138.6 145.3 161.1 177.5 195 206.1 214.4 223.7 235.1 239.7 248.3 259.9 263 264.7 272.3 277.5 279.5 279.4 287.8 295.2 297.8 297.2 305.6 311.1 316.3 321.1 325.7 338.4 345 346.8 344.6 340.8 344.6 346.7 363.5 362 361.1 364.6 370.3 366.9 369.5 366.2 383.2 382.8 370.4 360.8 353.7 350.6 361.3 368 368 364 352.6 338.2 320.5 306 293.1 284.3 282.3 284.5 287.3 299.1 288.2 273.4 257.4 235.5 234.4 234.4 223.7 210 201.3 188.8 183.1 182.4 177.1 174 174 174 174 174 174 174 174 174 174 174 174 174 174 182.5 210.5 217.4 216.5 212.1 216 229.4 241.7 254.5 261.6 274.5 281.5 285.1 290 293.1 294.9 295 299.7 310.5 323.3 329.5 338.7 346.5 359.7 370.1 387.9 396.2 400.5 408.8 405 398.9 391.9 389.1 385.5 378.7 372.3 369.4 371 367.7 368.2 369 372.2 372.8 370.5 367.8 366.4 365.5 362.8 352.6 344.7 330.1 316.2 306.9
93 93 104.8 117.5 106.4 101.5 98.3 98.3 98.3 98.3 103.2 107.2 109.3 102.4 100.2 94.1 97.8 96.9 92.8 109.9 110.9 108.5 101.5 102.1 123.1 123.3 123.3 127.8 134.7 133.1 122.8 120.6 123.3 118 116.8 119.2 127.5 129.9 133.2 136.3 137.3 137.3 141.6 145.5 145.2 142.9 139.4 137.6 136.9 140.7 144.2 141.4 141.9 148 155 150 139 138.6 138.6 138.6 138.6 138.6 160.5 189.9 192.9 207.6 225.5 238.4 245 254.5 268.6 268.8 274.6 273.7 283.5 283 276.8 287.1 290.8 298.8 300.9 307.2 308 311.6 316.4 320.6 318.8 317.4 315.6 321.6 325.4 335.6 350.8 362.9 367.3 365.9 362.2 358.4 374.4 370.3 364.4 372.8 368.9 356.1 344 347 353.5 358.3 354.7 351.3 342.7 325.4 311.4 298.9 289.4 285.2 271.5 269.8 264.9 270 263.7 256.3 234.3 211.6 216.6 221.6 203.1 191.9 188.4 186.6 190.5 182.3 179.7 174 174 174 174 174 174 174 174 174 174 174 174 174 188.1 218.1 223.7 225.9 220.3 226.4 232.1 236.3 250.4 255.6 271.8 284.8 288.5 291.9 294.8 300.2 303.6 308.7 319.9 334.4 345.9 350.1 356.3 367.7 381 390.6 405.7 416.7 421.6 423.3 418.2 411.6 406.1 401.7 395.1 386.8 380 384.4 386.5 383.5 383.5 382.5 383.2 382.7 381.5 385.7 379 371.3 362.3 354.7 345.3 336.9 326.4 318.5
99.9 104.1 103.8 97.9 98.3 101.1 99.6 98.3 98.3 98.3 98.3 107.6 108.6 108.2 106.5 96 94 92.3 89.9 109.3 106.7 105.4 101.6 101.8 115.5 118.4 123.4 124.5 131.9 133.8 126.7 117.6 115.6 124.5 126.4 123.1 123.1 124.5 126.7 134.1 139.6 140.3 140.5 140 145.4 149.4 145.9 140.9 140.5 140.5 140.5 141.1 146 147.8 147.4 144.4 145.5 139.7 138.6 138.6 138.6 138.6 138.6 161.7 176.2 187.4 210.7 239 246.5 257.5 263.7 264.7 272.3 268.1 267.1 267.3 267.5 264 263.1 282.2 303.4 312.5 311.1 310.3 308.9 309.5 319.2 314.9 313 312.5 320 321.4 340.2 353.5 362 363.2 359.8 352.1 354.2 364.5 361.6 356.7 359.6 353.8 341.7 333.9 346.1 351.7 345.3 333 320.1 311.9 300.3 293 278 279.1 269.8 261.7 252.3 246 234.5 224.2 217 198.9 189.1 187.2 193.7 189.5 177.9 178.4 176.1 182 174 174 175.2 174.9 174 174 174 174 174 174 174 174 174 181.6 220 229.1 228.3 229.3 230.5 236.3 241.5 252.1 264.5 275.8 290.6 291.5 295.4 300.5 305.5 311.4 323 337.5 346.3 357.5 368.3 373.4 386.2 394.8 400 409.4 423.2 427.5 428.9 431.1 426.8 420.4 415.1 409.9 404.8 394.7 390.7 393.4 397 400.7 401.2 400.2 405.4 396.2 398.1 393.8 387.4 376.1 367.2 358.3 350.2 342.6 335.6 326.3
95.7 99 100.2 101.8 107.4 98.3 101.6 98.3 98.3 98.3 98.3 98.7 113.7 117.5 117.1 109.4 98.5 87.3 96.3 102.6 103.8 99.8 100.8 106.1 102.1 110.9 114.2 121.4 120.9 124 119.5 115.3 114.9 118.7 138.1 140.1 137.1 123.9 115.5 122.4 135.1 138.5 147.4 141.6 142.1 140.1 145.4 142.9 142.2 141.6 142.7 146.8 144.9 146.2 139.3 138.6 140.2 146.8 143 138.6 138.6 138.6 138.6 148.4 172.1 174.6 192.2 216.6 228.9 228.2 247.6 255.7 261.3 258.3 249.7 247.7 258.3 256.2 257.5 261.5 261.3 276.4 306.2 312.6 312.1 317.7 318.4 315.1 311.9 313.2 315.2 322.7 347.1 360.8 357.3 354.1 349.7 344.3 343.4 344.4 351.8 353 348.2 348.6 339 333.7 331.8 329.7 333.3 323.7 310.8 302.1 299 283.2 271.6 270.3 266.6 267.6 261.9 241 224.8 212.3 206.4 191.9 178.8 174 174 178.7 180.1 174 174 174 174 174 174 174 174 174 174 174 174 174 175.5 185.9 188.1 212.6 230 233 233.8 239.8 240.3 242.9 264.2 281 287.1 294.2 297.8 301.5 309.3 315.5 321.1 333.6 347.9 360.8 369.6 374.6 385 395.4 406 411 419.5 427.1 431 434.7 439.9 440.7 437 429.9 426.7 422.9 410.4 405.4 401.9 401.7 406.5 415.4 417.3 416.2 413.3 413.4 411.2 405.8 391.7 382.1 372.5 365.9 357.6 349.4 341.9 331.3
93 95 98.7 107.4 104.8 101.4 102 106.1 108.4 98.5 111.7 125.2 124.7 123.6 127.4 116.2 97.5 86.5 98.6 100.7 100.3 103.3 108.4 103.5 109 104.6 106.7 120.6 116.4 105.5 107.7 108.4 110.6 112.8 128.2 142.2 139.7 129.9 118.6 113.2 122 129.6 137.5 142.7 142.5 138.2 136.7 139 138.4 139.2 146.8 140.2 138.6 138.6 143.8 144.3 138.6 138.6 144.1 138.6 140.7 138.6 138.6 153.9 180.4 179.5 196.4 211.3 214.4 217.5 232.6 241.6 242 251.3 250.3 247.4 256.9 258.5 265.6 267.6 265.7 267.9 276.3 282 300.7 313.8 316.6 307.9 303.6 307.7 325.2 339.2 354.4 358.1 356.6 352.7 344.5 342.1 342.2 348.3 346.1 350.2 343.2 335.6 328.9 328.5 324.5 326.5 312.3 300.7 299.6 300.1 287.1 275.8 258.9 251 235.4 238.7 245.9 240.5 233.8 216.1 207.2 188.4 176.9 174 174 174 174 174 174 174 174 174 174 174 174 174 174 174 174 179.6 191.2 196.1 209.2 230.3 237.7 238.7 243.1 246.5 245.8 261.7 284.1 292.6 298.9 302.5 308.8 319 325.4 329.7 339.7 359.1 373.5 384 394.2 400.5 412 417.9 421.4 429.4 434.2 434.8 437.5 445.4 451 451.1 442.3 434.3 430.5 424.9 419.4 420.1 417.6 415.3 415.8 421.1 432.5 425.2 425.5 430.3 424.7 412.8 403.3 392.3 383 373.8 367.9 357.2 345.7 336.4
97.6 102.6 109.6 114 108.7 103.6 103.1 109.1 113.2 114.6 124.5 134.8 137.7 132 132.2 115.3 102.4 88 86.5 109.9 108.1 109.2 118.7 116.4 107.9 109 109 108.5 108.5 109 109 109.3 113.2 114.6 117.1 128.9 130.8 126.2 121 112.9 106.9 109.5 119.5 126.3 130.3 132.4 132.1 136.5 142.7 142.2 142.2 141.6 138.6 138.6 140.7 138.6 140 138.6 138.6 138.6 142.9 150.8 155 162.3 183.4 190.1 212.5 216 220 218.4 230.3 231.8 232.1 239.3 245 248.8 238.9 246.8 252.3 259.4 262.8 263.8 262.4 270 283.2 287.1 293 299 307.8 313.5 333.3 339.4 343.8 348.3 352.7 353.6 346 343.5 340 342.9 339.8 337.2 330.6 322.4 325.8 318 310.1 303.5 301.7 291.8 278 281.5 273.2 257.3 245.3 236.6 223.4 214 209.4 211.3 210.6 206.2 197.7 186.1 180.8 174 178.4 174 174 174 174 174 174 174 174 174 174 174 174 187.3 201.3 208.5 213.6 216.9 232.8 236.6 239.9 246.1 255.9 255.8 264.1 281.1 292.5 304.7 307.2 315.3 323.8 330 338.6 346.9 362.3 379.2 392.3 402.2 410.7 421.4 430.3 433.4 431.5 437.6 442.1 448.2 445.9 452.7 459 456.2 444.1 439.1 432.4 429.4 433.6 431.8 432.1 432.2 433.8 438.9 433.4 431.6 434.8 436.5 431.3 420.8 415 412.9 399.5 384.3 377 366.5 353.6 342.9
103.2 113.1 128.7 134 134 126.8 116.2 120.8 131.1 138.1 141.2 143.5 142.8 138.1 131.5 121.7 106.6 90.5 86.5 86.5 109.4 112.9 117.4 116.2 116.6 106.8 109 109 109 109 109 118.6 127 126.2 120 122.2 131.3 124.3 121.3 118.1 113.7 104.4 105.1 114 113.9 114 118.2 140.9 142.5 142.4 142.5 141 139.1 143.6 144.9 149.5 144.1 138.6 147.7 143.4 143.9 148.4 163.7 179.8 186.4 198.5 212.9 216.1 218.2 228 222.5 225.7 226.9 230.8 242.7 253.2 259.1 238.9 238.9 238.9 262.1 267.1 265.5 267.1 279.1 279.5 278.7 291.1 299.3 319.5 333.6 333.7 338.6 333.5 337.1 339 343.2 342.3 336.2 333.9 333 330 324.3 319.2 327.9 321.9 308.3 294.2 282.9 284.7 278.4 260.8 242.3 232.6 220.8 216.2 218.3 199.6 195.7 185.8 185.7 187.1 184.4 175 174 174 174 178.3 174 174 174 174 174 174 174 174 174 174 192.3 225.4 234.8 233.2 228.4 233.5 235.8 243.1 250.2 261.6 265 270.2 283.1 294.1 305 313.5 319.5 328.2 335.5 346.2 353.2 356.6 379.4 398.4 412.1 420.5 427.6 435.3 440.9 439.9 435.3 445.8 452.2 453.3 454 456 456.3 451.5 444.9 440.7 431.3 444.6 449.7 442.9 445.1 442.2 440.6 440.1 441.5 447.8 465.6 453.7 439.6 433.1 427.2 425.7 418.9 401.9 386.3 375.9 366.3 355.8
116.1 123.7 127.7 130 131.4 128 133.6 139.2 147 155.8 150.4 146.6 142.1 133.2 129.2 122.7 111 101.1 94.6 86.5 107.4 114 111.8 112.6 118.6 111.5 107.3 109 109 109 111.1 118.3 132.2 127.5 126.1 130.1 129.6 123.5 123 124.7 123.5 106.3 103.7 104.2 106.4 109.2 113.4 118.4 121.5 131.7 137.1 137.4 136.3 135.9 136.9 135.9 137.5 142.7 152 159.2 161.4 151.8 156.3 170.1 183.9 197.1 206.4 212.9 216.8 222.5 226.8 227.6 226.3 231.2 243.7 258.6 255.1 241.8 238.9 238.9 238.9 255.4 267 269.7 274.7 274.3 274.4 285.5 304.7 314.3 314.8 308.7 317.2 323.5 326.4 330.9 334 331.6 329.4 328.8 323.8 315.3 313.5 315 307 307.9 290.7 271.1 262.2 252.4 239.4 225 212.7 210.2 194.5 182.7 185.6 181.4 189.2 178.2 188.9 189.1 186.9 180.9 174.9 174 174 174 179.6 174 174 174 174 174 174 174 175 188.7 222.1 241 241.9 241.9 239.4 238.8 248.2 259.1 263.1 272 277.3 285.4 297.2 307.7 319.6 329.2 334 339.5 349.3 361.5 372.2 382.1 393.6 410.6 422.5 434.3 443.6 445.7 442.9 440.4 442.5 448.6 454.3 463.1 468.5 462.8 459.3 452.3 448.3 441.8 452.2 460.2 462 458.8 459.2 455 447.7 454.1 463.1 467.5 473.8 457.6 450 454.3 449.5 442.4 434.5 420.9 403.8 389.3 382.8 369.9
122.1 127.1 128 129.8 131.7 125.6 126.1 131.9 141.5 152.9 154.9 148.2 142.6 131.8 128.2 118.5 106.7 97.9 104 90.7 110 112.7 109.3 108.7 117.6 114.9 110.1 109 109 107.7 113.8 121.3 129.1 137.7 142 135 125.5 125.9 124.3 130.1 130.6 114.5 103.3 103.9 106.7 110.8 112.3 114.7 121.4 124.3 138.8 135.5 135.2 133.8 132.5 133.2 135.1 139.5 154.1 159.9 173.1 162 164.8 174.3 182.4 193.1 205 210.2 216.7 213.8 217.3 222.6 223.4 229 240.4 246.7 250.3 250.2 244.3 238.9 254.5 260.5 265.1 273.8 274 270 281.8 288.5 288.6 290.2 286.9 287.1 286.8 277.6 281 287.4 303.9 320 317.5 315.6 313.3 310.3 309.1 302.3 296.5 285.6 268.1 256.4 244.2 235.6 218.4 204.5 195.4 183.7 172.2 166.1 162.1 162.4 157.9 158.6 165 174.5 188.4 195.1 180.9 174 179.2 185.3 180.6 177 178.4 183.5 186.5 182.2 181.7 184.8 192.4 213.8 247.4 247.3 247.1 245.6 244.5 249.8 254.2 261.7 269.1 277.6 288.6 302.8 314.5 322.3 335.8 345 350.3 352.7 366.4 384 396.5 402.1 410.6 423.1 434.3 445 450.6 447.1 444.9 452.7 456 455.2 465.1 472.3 477.1 467.2 458.9 454 448.3 457.4 466.4 468.7 466.4 471.4 467.5 460.6 465.4 472.5 474.7 471.4 471.9 465.4 462.7 466.3 464.8 460.1 449.2 437.2 424.2 411.1 398.5 386.9
122.7 124.4 127.2 131.4 127.9 124.5 124.5 129.9 137.1 151.1 153.9 149.4 143.8 131.1 120.9 116.2 107.3 99.6 108.6 106.2 105.7 111.2 106.3 106.4 111.6 119.8 114.7 109 101.7 113.4 114.2 119.4 128.3 131.9 141.5 134.1 123.6 125.2 130.8 127.4 135.4 128.2 113.7 103.4 104.4 116 113.4 113.3 118.1 125.1 129.6 130.8 129.6 125.6 130.3 132.5 131.5 134.7 146.9 153.6 159 163.6 162 172.2 183.6 184.4 189.7 190.4 194.6 191.7 195.1 202.5 217.3 232.2 240.1 248.7 252.9 253.5 255.1 238.9 247.8 259.9 268.3 271 262.3 260.2 273 269.3 269 272.5 271.6 263.8 260.5 260.5 260.5 263.4 273.2 286.4 299.3 301.6 301 302.1 297.1 296.9 284.1 266.1 257.1 248.6 236.5 220.4 211.5 200.5 193.7 186 175.4 169.6 163.4 158.1 154.3 153 159.3 172.2 198.6 182.1 174 186.9 189.7 194.8 185.5 181.3 182.1 189.6 187.5 189.7 188.2 194.1 214.5 244.7 255.9 254.6 252.1 252.7 255.6 260.8 264.2 268.6 275.4 288 307.6 314.4 321 336.9 359.7 369 371 385.7 395.6 413.6 421.8 422.6 439.6 442.3 444.9 446.3 449.3 446.6 451.6 461.5 459 466.7 474 482.2 479.1 465.6 454.2 446.2 443.9 454.1 463.2 465.5 470.1 465.4 461.8 469 480.3 485.5 482.2 485.5 483.8 479.6 477.5 478 480.6 476.5 467.6 454.9 444.1 429.7 417.6 410.6
123.7 124.9 126.9 125.8 120.3 123.4 124.5 128.6 134.6 144.8 148.3 147.1 140.2 126.4 119.3 112.6 102.2 103.3 114 112 106.5 110.5 104.3 100.8 103.9 110.1 115.6 107.7 105.2 113.9 115.3 119.7 126.8 133.2 137.4 134.4 123.2 123.5 128.4 124.9 136.5 130.6 123.9 110.6 103.1 111.3 117.4 115 113.9 114.3 122.8 126.5 121.2 120.9 125.2 128 125.9 121.1 132.3 133.8 136.1 144 150.1 157.6 166.5 161.4 160.6 161.7 172.6 180 193.4 205.3 222.1 234.8 241.7 249.3 256.9 263.2 266.8 256.7 238.9 253.4 261.1 267.7 256.9 252.1 247.5 252.6 258.3 261.9 266.3 264.2 260.5 261 266.4 268.1 256.5 267.3 278 290.9 287.1 283.7 286 282.4 273.5 249.3 244.4 232.1 220.1 206 197 191.8 191.4 180.1 170.5 164.6 159.3 153 152.7 152.7 152.7 165.6 182.4 176.4 176.5 180.8 190.3 188.8 185.8 182 182.7 182.1 182.3 187.3 199.2 218 244.5 261.4 260 256.3 256.4 260 261.9 265.8 266.8 275.6 289.7 307 312.2 321.3 336.1 358.8 386 398.8 404.6 412 425.6 434.7 439.4 448.1 451.5 454.5 454.3 447.9 447.3 448.2 453.8 461.4 464 470.4 475.4 478.3 470 458 448.2 438 440.6 448 454.2 459.3 456.3 451.2 457.9 477.1 481.1 486.2 489.9 492.6 487.2 492.2 494.4 498 496.3 489.8 481.5 468.8 458.5 454.7 441.1 433.9
132.7 128.5 124.3 122.4 120.3 123 124.5 128.2 134.4 144.6 146.2 140.8 130.1 123.3 116.2 108.4 102.1 114.7 114.8 111.7 110.6 104 102.1 100.5 101.3 110.4 112.8 107.6 102.8 110.3 110.7 117.6 125.8 125.6 126.2 130.9 121.9 122.6 125.7 117.4 126.8 133.7 133.4 121.2 108.1 104.9 118.6 117.2 116.3 112 110.7 111.3 114.6 121.6 119.5 120.6 117.8 111 110.8 111 115.6 119.3 124.2 133.4 140.6 139.5 143.3 151.4 163.1 179 194.4 207.6 225.5 239.7 245.1 252.5 256.8 260.2 264.7 262.2 248.3 246.7 256.9 262.5 257.4 237.8 235.8 232.8 237 251.2 247.5 241 240 246.9 250.3 246.6 239.9 242.5 246.6 257.9 260.6 271.7 275.3 265.1 248.4 236.4 229.2 217.9 209.1 201.3 193.2 185.1 182.6 174.2 166.7 161.9 168 156.4 152.7 152.7 152.7 156.6 168.2 174.1 176.2 176.7 178 182.8 183.2 182.4 181.2 183.3 184.6 193.1 212.8 239.6 267.3 267 261.6 258.8 260.3 262.8 265.2 266.6 269.4 281.5 302 308.8 315.2 328.9 351.4 380.6 403.9 417.7 425.5 435.7 442.7 449.1 453 454.6 457.2 459.1 460.5 458.4 450.6 446 447 462 464.9 468.9 471.9 474.1 462.2 450.7 438.2 438 437.4 439.6 442.7 445.2 441 440.5 455.4 473.5 484.1 494.5 496.7 498 496.8 503.4 506.5 512.9 509 506.3 495 481.4 474.6 469.7 459 450.7
130.5 129.8 127.4 118.1 123.5 124.6 125.8 127.9 134.9 145.1 148.9 136.7 128.1 124 111.6 100.8 105.1 114.3 114.9 104.9 107.8 94.1 100.7 97.4 95.8 102.6 104.8 101.7 95.9 93.5 101.4 106.5 108.3 119.4 119.6 116.3 117 112.6 111.1 112.1 114.6 117.9 121.7 124.4 112.3 103.4 104 113.4 110.6 113.1 110.8 109 107 107.3 100.6 99.5 99.9 95 93.8 95.9 100.6 101.9 107.2 111.5 122.4 125.6 137.7 142.7 151.9 159.6 173.4 200.4 226.3 236.4 243.4 245.9 252 254.7 255.9 255 250.9 245.2 255.2 257 253.4 238.1 222.1 219.3 217.2 221.1 226.7 225.8 228.6 242.5 240.5 243.5 243.1 236.9 236.9 240.8 247.5 244 248.2 237.3 225.8 226.4 218.3 210.3 203.2 200.3 195.8 186.3 178.3 167.7 162.2 152.8 161.4 152.4 156.9 152.7 152.7 159.7 181.6 176.8 177.2 175.7 177.4 179.3 182.1 182.5 182.5 184.5 189.2 208 235.9 265.4 270.5 266.5 262.6 259 261.1 265.9 269.3 269.4 272.4 282.4 295.1 305.7 315.2 330.5 357.2 386.4 407.7 424.3 430.4 440.1 451.7 457.1 458.3 457.9 458.3 469.7 472.2 473 461.5 450.3 445.7 453.5 454 458.5 463 461 451.6 439.4 440.3 436.6 435.2 437.6 435.6 434 434.4 442.1 464.6 478.4 493.6 505.5 503.9 503.1 509.1 523.4 522.3 525.1 524.6 519 508.9 500.8 489 480.9 473.5 469.1
121.6 124.2 125.3 119.3 125.2 125.8 126.8 129 141.2 144.7 147.9 139.7 132.6 123.7 107.6 100.8 100.8 112.8 109.5 106 101.2 92.1 87.8 85.6 81.5 80.4 82.4 78.6 76.7 78.8 79.6 91.1 91.9 99.4 106.7 108.3 108.9 109.1 103.2 103.7 105 108.6 108.3 110.9 113.2 104.9 101.5 90.2 95.6 99.5 103.2 100.3 97.6 93.9 90.3 89.2 88.4 85.7 89.5 90.9 91.5 94.2 95 99.7 104.9 110.8 117.1 128.6 136.5 151.1 158.7 174.2 206.3 220.1 230 233 243.7 260.1 256.8 256 251.8 238.9 242.6 240.4 236.7 228.2 215.5 208.7 208.5 206.1 207.3 206.6 219.6 229.3 238.1 244.1 243.6 238.6 236.9 236.1 231.9 230.9 225.4 215.6 218.9 218.2 219.3 211.8 202.8 199.8 188.2 184.5 185.4 180.3 164.2 146 145.1 165.5 158 152.7 152.7 167.8 183.8 188.9 181.2 178.5 178.7 179.1 183.5 184.5 184.7 185.2 198.8 226.9 261.3 275.3 271.4 266.5 261.1 257.5 260.5 264.1 267.3 267.8 271.6 276.9 282.1 294.8 308.6 328.2 350.1 379.2 400.6 411.4 421.1 436.3 446.9 449.7 451 441.3 454.2 471.2 479.1 480.4 465.8 450.1 442.3 442.8 444 446.1 450 447.1 434.4 435.4 434.5 432.7 432.8 432.9 426.8 429.2 433.4 447.3 468.7 491.2 506.3 512.6 513.7 509.3 513.5 529.8 536.6 532.3 531 528.6 526.4 513.2 502 493.9 485.8 479.3
114.1 116.9 119.2 111.3 115.5 127.6 129.3 132.6 134.6 141.4 144.7 139.5 129.5 121.7 102.4 100.8 105.2 114.2 109.2 106.7 100.3 95.3 85.9 85.6 86.4 80.5 62.2 54.8 57.8 57.6 63 66.8 77.8 84 85.1 92 98 96.7 89.7 91.2 91.5 94.4 99.4 96.8 96 96.9 92.1 86.9 80.7 81.7 86.9 93.8 99.2 88.6 87.1 85.6 85.4 83.3 86.6 88.1 86.1 90.6 92.9 90.4 93 96.8 95.2 110.2 125.5 136.4 148.6 158.3 175.6 198 204.6 215 218 246.2 257.6 256.5 247 234.8 237.9 235.6 236.6 221.5 214.6 206.6 203.3 203.3 203.3 203.3 208.2 224.9 238.2 247.8 243.1 240.9 238.7 237.9 233.1 216.1 208.4 213.3 217.4 216.6 212.9 213 209 199.3 193 181.4 171.3 167.5 154.2 139.8 149.1 170 161.8 154.5 156.7 176 176.8 188 182.1 181.1 181.8 183.2 186.1 188 185.7 190.4 215.4 253.2 274.4 276.4 271.9 264.3 255.7 254.8 256.1 259.4 263.5 264.5 266.4 269.4 276.4 287.5 302.1 321.8 343.8 367.6 383 390.3 405.9 421.5 431.2 423.1 417.9 415.5 424.5 441.4 457.4 485.8 460.4 442 430.9 432.9 432.5 434.8 437.1 428.1 425.2 430 435.2 434 430.3 424.3 421.7 427.1 434.9 452 474.9 493.8 512.2 521.6 528.9 514.7 519.6 524.6 533.7 537.5 534.5 529.5 522.5 517 510.9 506 497.2 485.9
106.1 107.9 110.6 109.3 119 125.6 125.1 124.5 132.4 137.8 140.8 128.8 125.2 121 106.5 104.1 110.4 115.7 108.8 108.7 106.1 99.8 87.6 89.8 89.2 84.8 73.7 58.9 45.2 44.5 46.1 53 61 64.9 68.4 80 90.2 87.3 83.2 80.5 75.7 79.3 75.2 70.4 71.9 76.3 72.5 74.3 78.1 68.5 73.3 90.3 88.8 83.3 87.6 78.5 77.1 78.5 80.6 85.5 78.6 83.2 88.1 85.4 87 86.2 83.9 89.5 99 119.1 128.6 125.6 138 161.6 185.5 195.3 210.2 220.2 251.5 257.4 245.4 231.6 221.3 224.4 224.7 221.4 221.6 207.5 203.3 203.3 203.3 203.3 210.1 222.7 237.6 237.6 234.3 234.7 240.9 237.3 225.8 211.4 200.2 214.5 217.8 219.2 215.9 211.2 207.1 200.2 188.9 163.4 146.9 146.2 139.3 131.3 152.6 164.7 164.9 155.4 164.2 176.1 173.7 173.6 178.6 187.6 187.7 188.7 191.1 192 192.6 199.8 242.7 273.4 278.4 272.5 267.9 259.5 251.7 251.5 253.2 256.4 259.7 261.3 262.5 265.3 267 281.2 299.2 318.9 334.6 341 355.2 366.6 378.2 385.9 386.9 387.9 388.7 401.3 412.1 434 463.9 471.7 450.1 427.5 419.5 418.8 419.9 422.1 419.7 418.6 420.9 428.1 435.5 431.2 422.2 415.8 420.3 426.5 445.3 470.1 487.6 502.8 516.7 525.2 524.2 527.4 529.5 531.1 534.3 538.6 538.3 531.3 525.4 523.1 523 520.8 507.5 500.5
98.4 98.7 101.1 106.4 117.7 121.2 119.8 120.7 125.3 133.4 132.5 122.9 121.7 113.5 106 111.7 109.5 115.5 106.2 111 109.4 107.5 101 93.9 93.1 84.1 71 61.8 54.1 52 42 46.8 51.9 59.5 66.2 69.2 74.4 74.4 77.4 72.6 69.7 69.9 59.5 59.3 67.1 68.9 65.3 67.1 69.2 71.3 64.6 68.6 79.5 80.2 82.2 74.1 71.3 72.5 72.8 76.3 71.7 72.7 72.3 76.9 74.8 72 72.2 76 79 80.8 90.2 101 119.9 139.1 151.9 163.8 183.7 204.6 248.6 256.7 259.6 238.8 214.4 218.4 216.9 220.4 224.1 211 212.9 207.7 203.3 203.3 203.3 211.4 221.9 228.1 217.7 215.5 222.1 227.9 219.4 206.8 192.6 197.6 211.2 211.1 211.4 208.2 202.9 181.9 168.3 149.4 133.3 125.3 125.2 136.5 150.9 170.4 166.8 162.4 167.4 171.2 171.1 173.2 179.6 196.1 193.4 195.7 195.6 197.1 205.1 229.2 276 278 273 266.2 261.1 253.1 246.7 247.1 251.6 253.7 255.9 259.1 259.8 261.4 263.7 276.2 291.8 305 316 328.1 340.8 351.4 360.7 364.8 368.1 373.9 373.1 391.2 410.8 416.7 432.9 442.6 439.1 425.2 413.9 412.1 412.8 409.6 408.4 411.7 416.2 424.4 424.6 418 411.7 410.6 420.1 438.4 455.2 476.8 495.7 510.2 518.9 526.9 529.3 524.1 526.1 527.9 536.2 535.6 537.9 532.9 529.2 524.8 527.8 526.9 527.3 521.1
89.1 91.6 88.2 95 111 110.5 114.3 117.4 120.2 122.3 114.7 116.4 114.4 103.1 102.3 114.7 107.8 105.7 105.1 110.2 110.6 105.2 101.6 86.1 92.2 74.6 66.4 58.1 57 55.5 54.1 40.9 49.9 55.3 68.9 67.5 68 64.5 68.5 63 61.4 60.7 56.3 57.3 60.4 63.1 63.3 62.8 64.3 62.5 57.6 55.6 62.7 70.3 71.1 65.1 59.7 58 60.3 65.8 63.9 66 65.2 63.5 68 69.4 67.8 65.4 73.3 77.4 78.8 86.5 103.8 123.2 136.2 150.6 168.3 189.4 218.6 240.4 251.3 235.5 213 207 211.6 216.6 212.1 205.1 207.8 212 208.5 203.3 203.3 203.3 210.7 208 213.2 206.4 198.4 201.1 199.3 193.1 186.9 189.2 194.3 190.8 188.1 181.3 178 161.7 148.9 138 125.4 121.4 128 141.4 158.5 169 169.7 165 168.9 172 170.5 174.8 185.9 196.3 202.5 199.8 199.5 207.6 222.9 269.9 277.4 274 268.3 261.5 254.9 248.1 243.3 243.6 249.3 251.8 252.4 252.5 255.3 256.4 259.1 267.2 275.5 287.6 304.1 324.6 337.4 343.7 348 350.5 353.8 360 360.5 372 391 402.6 410.1 421 421.5 412.5 410.4 406.8 401.7 395.7 402.1 404.7 403.2 407.4 408.8 408.5 406.5 414.9 427.8 441.6 459.7 478.7 498.8 516.1 525.1 532.2 522.4 522 523.5 528 532.1 533.7 526.5 518.6 515.8 517.1 523.3 534.4 538.7 534.7
77.5 76.1 68.8 86.2 91.3 97.8 107.7 113.8 117 118.4 109.5 106.8 109.9 93.3 95.8 107 101.5 105.6 107 103 104.7 102.3 99.5 88.3 79.5 68.2 64.3 58.4 54.5 51.8 52.6 47.4 40.7 51.7 53.7 56.4 57.6 61.1 58.1 56.4 58.6 53.2 54.1 55.5 55.7 59 59.9 55.8 57.5 55.5 53.9 53.3 45.1 50.2 50.9 54.5 53.3 54.6 53.8 57.9 57.3 53.7 51.9 52.8 55.3 51.7 46.8 51.8 60.8 69.3 66.9 72.3 87.1 88.1 97.3 115.5 137 171.6 185.3 198.5 216.5 222.9 220.5 203 201.8 199.6 197.2 201 206.8 211.4 210.9 206.3 212.9 203.5 204.6 201.5 199.9 200 187.2 178.6 184.6 182 172 178.3 181.7 179.7 176.1 176.1 171.2 150 138 127 119.7 119.7 135.2 157.2 167.4 169.1 171 172.4 174.9 179.6 181.6 186.7 197 199.2 201.4 204.9 211.6 223.4 240.6 272.3 272.7 267.7 261.8 256 249.2 243.9 240.9 242 246.8 251.7 250.2 249 252.1 251.6 252.5 256.3 265.6 280.8 301.9 318 329.8 336.2 340 344 345.9 347.5 348.4 352.8 363.7 377.9 388.1 402.3 406.1 398.6 391.3 386 382.4 377.5 384.4 384.3 385.5 390.5 402.6 402.4 412 419 432.4 447.9 460.5 479.6 495.7 512.9 518.7 517.7 515.1 521.2 520.4 518.4 518.3 519.7 516.5 513.2 505.6 509.1 517.2 533.7 545.9 542.6
55.1 56.5 57 70.5 79.3 84.9 97.6 107.1 111.3 109.2 103.7 101.2 99 84.9 82.8 90.1 94.5 103 103.5 102.6 99.5 97.7 99.9 89.6 66.5 62.2 56.4 54.9 49.2 49.6 42 41.6 39.8 41.7 47 47.4 52.7 54 53.6 52.9 50.8 53.7 51.1 53.4 51.2 52.7 50.7 48.8 47.9 45.1 43.1 42.6 39.6 34 38.6 44.7 47 45.8 46 42.5 40.8 35.6 33.8 34.4 35.7 33.7 33.1 36.7 40.6 45.9 43.7 51.4 62.2 66.5 67.6 80.9 112.1 129.9 157.1 170.4 175.3 188.2 212.3 198.1 185.7 187.2 197.3 203.3 209.1 219.5 216.4 209.4 204.7 202.2 191.1 187.5 192.6 190.5 180.4 167 168.8 159.8 147.5 156.2 160.5 162.3 166.7 161.5 152.6 137.9 128 120.5 118 127.2 140.3 173.1 177.6 176.8 177.9 181.8 181.8 184.8 191.1 197 201.6 204.9 206.1 214.8 227.9 246 263.9 267.5 266.3 259.4 254.4 249.8 242.9 242 240.8 241 245.4 248.4 247.2 248 246.8 246.9 246.3 251 259.7 277.6 299.1 312.7 319.9 323.2 323.3 327.2 331.2 336.3 338.7 340.2 343.6 349.8 373.7 391.2 392.7 383.6 373.7 367.5 362.3 359.8 361.7 363.4 369 378 386.7 397 411.1 427.3 438.6 447.2 464.4 479.9 496.4 508.6 510 506.7 510.3 510.5 507.1 504.4 504.5 504.3 507.8 497.2 493.2 501 512.6 521.7 532.5 528.6
33.9 37.1 44.9 57.8 71.1 75.4 86.5 98.4 101.8 101.3 98.1 93.8 87.4 73.1 70.6 78.4 84.1 90.5 89.2 92.5 99.4 95.9 90.1 79.8 59.2 56.3 52.5 49.8 37.3 35.7 34.1 36.1 40.5 41.6 45.6 47.8 52.9 54.5 53.6 45.6 52 54 45.4 51.4 49 45 42.3 39.1 34.7 31.1 27.8 30.6 32.2 27.8 10.9 21.5 30.8 33.1 32.3 29 19.8 15 17.9 21.3 23.7 21.7 17.3 19.6 24.3 28.5 29.6 38.4 41.5 45.6 52.4 64.1 83.4 98.5 115.2 136 151.8 172.7 190.2 191.4 177.8 186.8 196.5 203.6 205.3 209 203.9 198.1 199.4 191.6 184.2 170.6 177.5 186.8 167.8 164.7 149.8 143.7 133.7 132.9 134 137.3 140.2 143.1 137.3 127.1 124.6 118.1 117.1 128.5 140.4 163.4 185.2 186.3 182.4 184.6 192.7 201.3 200.4 205.2 203.3 204.9 210.4 229.2 246.2 262.3 265.6 263.3 259 255 250.9 247 242.1 240.7 240.2 239.4 242.6 244.8 244.7 247.3 244.6 243.8 245.9 249.4 250.4 266.1 278.9 284.8 290.6 300.9 304.9 309.7 313.3 318.7 323.4 329.4 332.5 345.6 374.4 382.8 378.6 371.1 361.9 352.1 344.7 342.2 346.5 354.7 360.5 369 376.7 399.7 421 427.7 442.1 456.2 467.1 484.4 492.8 495.3 492.4 489.7 493 494.6 493.6 488.5 494.2 499.9 488.1 483.5 483.9 492 502.8 508.7 513.6 512.6
15.6 30.1 36.7 45.1 56.1 68.8 76.7 83.7 87.6 91.4 91.9 84.4 71.4 68.8 63.8 65.5 76.2 76.2 72.1 79.5 90.9 91.9 88.7 71.2 56.4 50.9 52.8 45.3 34.4 27.7 31 36.7 40.1 43.3 44.3 42.7 48 50.8 49.9 42.6 37.3 42.7 43.6 42 40.4 35.4 29.7 25.3 24 18.3 20.4 22.2 16.8 10.7 5.7 -1.8 -1.8 -1.8 18.3 16.9 8.7 2.3 3.1 5.7 9 6.3 6.8 8.4 12 12.4 11.7 15.2 16.8 26.5 38.2 48.3 60.1 70.8 86.9 109.7 136.9 155.8 181.4 187.5 168.8 176.3 190.4 193.6 195.4 186.9 190.5 188.6 187.9 182.4 170.8 164.9 167.3 165.1 155 153.2 139.5 138.4 132.9 130.1 130.4 132.5 135.2 129.8 122.2 117 117.5 115.7 116.4 122.7 144.2 160.8 185.5 193.2 189.2 187.3 194.7 206.2 205.9 210.3 207.9 204.9 207.7 234.8 253.8 261.9 262.7 259.7 257.6 253.5 247.5 241.4 238.4 238.1 236.8 237 240.4 242.3 242.2 238.5 237.4 238.6 239.8 239.5 235.9 238.7 244.2 246.7 256.2 271.1 279.2 289 294.9 301.3 308.7 315.5 331 359.7 369.3 370.4 369.3 362.2 355.8 345.6 331.8 327.9 328.7 336.7 349.2 360 370.4 396.7 409.9 419.7 440.8 453.9 472.4 489.9 483.9 479.8 476.5 473.7 477.4 478.1 475.5 475.5 485.8 491.4 485.8 474.1 473.3 483.6 482.6 499.2 500.9 496.5
8.4 19.6 27.2 43.4 50.1 58.9 65.1 72 74.9 80.8 77.6 64.3 55.3 58.6 61.4 56.1 70.6 65 64.6 73.2 78.9 87.3 84.6 69.1 53.4 44.6 41.4 37.6 29.5 24.6 30.7 37.6 36.6 42.5 41.4 44.6 38.6 37.4 42.5 38 31.6 34.7 33.3 30.2 34.6 24.3 17.8 17 10.4 2.3 5.2 6.9 3.3 -1.8 -1.8 -1.8 -1.8 -1.8 -1.8 -1.8 -1.8 -1.8 -1.8 -1.8 -1.8 -1.8 2.1 2.6 2 -1.8 -1.8 -1.8 -1.8 -1.8 12.6 21.5 37.6 52.8 63.8 80 114.2 133.7 149.9 170.9 160.9 153 172.7 177.8 180.3 177.2 176.8 176.9 178.5 173.8 163.1 159.4 161.2 154.8 147.3 142 134.8 127.6 122.7 121.8 128.1 133.4 128.6 118.6 112 110 115.6 111.8 114 123.4 147.1 162.4 181.5 195.2 192.8 192.5 199.6 204.1 205.7 202.5 199.9 201.1 215.1 233.1 245.4 255.5 257.7 255.6 254.3 250.1 243.5 238.5 236.1 233 231.6 230.7 232.6 234.6 235 232.6 231.1 231.7 231 227 225.3 226.3 225.3 227 225.8 234.8 244.1 255.7 268.7 276.6 283.8 298.1 312.4 341.7 357.7 363.2 360.3 354.4 347.5 335 320.5 315.4 315.6 323.6 339.2 341.8 356.7 381 393.2 417 435.6 442.3 452.9 463.6 464.4 455.4 459.3 469.8 467.9 468.9 468.6 474.7 483.8 482.4 475.9 473.9 468.8 470.3 481.9 489.7 482.5 476.5
-1.8 -1.8 16.7 35.8 39.6 44.3 49.2 54.7 64.9 64.2 61.9 47.4 41.6 49.9 57.3 50.9 50 56.3 56.1 70.9 77.7 81.4 75.4 66.2 51.1 42.9 40.1 30.8 27 24.3 29 32.3 33 35.2 38.8 43.8 38.4 33.2 35.5 26.4 25.6 27.6 28.3 22.9 15.4 11.3 10.2 3.1 -1.8 -1.8 1 2.3 2.5 -1.8 -1.8 2.1 -1.8 -1.8 -1.8 -1.8 -1.8 -1.8 -1.8 -1.8 -1.8 -1.8 -1.8 -1.8 -1.8 -1.8 -1.8 -1.8 -1.8 -1.8 -1.8 9.2 16 26.3 43.5 58.6 86.7 108.3 128 143 146.8 134.7 144.1 151.9 160.6 163.5 165.3 161.9 161 158.8 155.4 146.7 150.8 147 137.1 130.5 132.4 124.3 118.9 117.5 122.2 124.6 113.8 103.8 101.4 106.3 104.1 111.9 114.7 126 146 158.6 178.3 190.2 193.4 198.5 204.4 204.8 203.9 201.2 199.6 200.5 212.9 228.5 243.6 254.3 256.1 256.3 254.3 248.5 242.6 236.5 230.1 226.3 223.2 221.7 221.7 219.2 218.9 218.5 213.1 214.3 216.8 216.1 213.2 210.4 210.7 209 210.4 208.7 211.3 221.6 236.4 252.8 264.2 278.3 289.5 310.3 337.4 347.9 347.7 340.5 332.2 317.6 309.4 303.9 306.9 317.8 323 328.2 342.4 361.8 376 400.6 417.4 422.4 434.7 439.3 436.7 430.8 441.9 458.4 460.4 468.2 459.6 470.8 474.8 472.3 466.7 466.5 471.4 464 468.8 473.4 467.8 462.9
-1.8 -1.8 -1.8 26.7 27.3 34.1 39.7 44.2 50.8 50.3 35.3 27.9 30.6 41.8 47.1 44.9 40 45.6 48.1 65.7 67.6 72.1 66.3 56.7 49.6 40.9 43 25.7 22.8 24.6 22.7 27 28.2 32.1 38.1 43.8 35.1 39 31.7 25.1 18.5 20 17.5 13 1.7 -1.8 -1.8 -1.8 -1.8 -1.8 -1.8 9.3 7.8 2.5 2.3 7.2 2.7 -1.8 -1.8 -1.8 -1.8 -1.8 -1.8 -1.8 -1.8 -1.8 -1.8 -1.8 -1.8 -1.8 -1.8 -1.8 -1.8 -1.8 -1.8 -1.8 -1.8 15.2 24.6 43.9 55.7 71.1 81.8 89 123.7 116.6 121 125.2 135.8 142.9 144 141.5 149.2 147 145.3 142 139.8 122.9 118.4 113.1 127.6 123.2 109.1 100.3 101.8 97.5 95.4 95.7 97.8 101.5 111.9 115 119.2 129.5 145.2 160.7 181.2 195.2 200.6 201 202.6 203.2 202.9 200.3 198.4 202.3 211.9 226 246.2 252.6 249.5 247 242.3 235.8 228.2 222.1 219.2 215.7 209.7 205.7 205.3 201.4 196.1 198.3 202.7 204.3 199.3 195 191.7 188.9 185.1 185.7 191.6 197.8 198 196.7 207.8 228.7 252.9 274.5 278.2 289.9 315 331.2 338.1 327.9 317.3 308.1 299.2 293.8 298.7 311.5 309.9 317.4 330.9 345.8 357.7 374 395.2 407.2 408 411.3 416 420.6 425.4 436.8 448.3 453.6 458.5 468.5 473.2 473.7 468.8 467.1 466.3 460 456.8 457.7 456.8 446.7
-1.8 -1.8 -1.8 -1.8 11.6 22.6 35.7 43.1 40.6 38.3 15.2 22.2 22.6 23.6 28.3 29.6 29.9 34.1 43.5 49.6 53.3 57.4 53.6 45.3 47.4 32.6 33.4 28.3 17.9 22 16.8 18.6 21.1 24 24.3 30 37.2 37 36.3 24 19.5 15.9 17.2 13.2 -1.8 -1.8 -1.8 -1.8 -1.8 -1.8 -1.8 5.1 6.2 2.3 2.3 2.3 2.3 2.3 1.9 -1.8 -1.8 -1.8 -1.8 -1.8 -1.8 -1.8 -1.8 -1.8 -1.8 -1.8 -1.8 -1.8 -1.8 -1.8 -1.8 -1.8 -1.8 3.4 12.9 22.9 35.2 46.6 52.4 60.6 74.1 88.1 101.3 113.8 118.3 114.3 118 123 131.9 141.3 139.5 127.3 120.3 104.9 103.5 99.2 104 105.7 95.2 76.4 79.3 90.9 100 103.2 108 117.6 125.2 130.5 129.6 138.2 148.8 160.3 176.5 194.9 200.3 198.6 201.4 200.3 198 196.8 196.4 203.7 210.1 226.6 236.2 243.2 240.1 235.5 230.1 223.5 217.9 215.3 205.2 201.6 196.9 192.7 195.5 193.3 188.3 189.4 189.9 190.9 188.6 183.6 182.6 182 176.5 174.4 173.7 176.8 182.7 184 188.9 203.1 232.6 261.4 266.7 284.4 303.2 305.5 305.8 297.8 290 285.1 281.7 271.3 284 293.2 295.5 303.8 317.4 328.3 338.4 351.5 362.7 375.2 388.9 402.8 413.1 415.3 424.2 430.1 435 446.8 461.8 468.5 469.6 472.8 473.5 476.2 476.3 464 455.6 455.6 449.4 438.7
-1.8 -1.8 -1.8 -1.8 -1.8 24.8 33 35.2 29.5 13.6 4.8 15.4 15.9 17.1 25.7 21.2 21.2 27.2 40.4 49 59.1 51.7 45 40.5 35.7 32.5 30.1 25.5 17.5 16.4 12.9 12.4 12.1 8.5 12.6 21.7 28.5 33 26.8 17.3 17.1 16.1 17.3 10.2 -1.8 -1.8 -1.8 -1.8 -1.8 -1.8 -1.8 4.6 14.6 2.3 2.8 8.4 1.3 3 8.1 2.8 -1.8 -1.8 -1.8 -1.8 -1.8 -1.8 -1.8 -1.8 -1.8 -1.8 -1.8 -1.8 -1.8 -1.8 -1.8 -1.8 -1.8 -1.8 -1.8 12.2 20.3 25.8 36 45.8 53.8 67.9 84.8 102.9 101.7 102.4 104.9 109.9 111.9 109.4 111.8 106.7 105.6 91.7 90.7 93.5 92.9 88 83 64.4 78.8 86.1 96.4 103.4 108.1 114.8 123.3 127.9 132.2 139.4 148.5 157.1 170.6 182.9 189.6 192.4 194 195.6 197 193.7 189 197 207.4 216.5 227.4 235.2 233 227.4 220.9 214.3 209 203.3 194.9 188.3 184.9 182.9 182.2 180.6 180.5 178 174 173.9 170.5 169.1 171.5 173.6 172.5 167.1 166.5 163 166.8 168.9 174 180.1 200.1 218 240 259.2 285.1 288.6 295 294.6 278.2 264.6 258.6 244.7 267.5 273.4 277.5 292.5 309.7 315.7 329.6 344.7 363.2 378.4 387.1 398.5 404.3 411.3 416.6 431.2 435.3 436.3 451.9 458 463.9 471.1 475.9 479.8 474.9 476 466.3 454.4 444.2 431.1
-1.8 -1.8 -1.8 -1.8 -1.8 18.6 27.7 31.2 15.8 -1.8 -1.8 -1.8 -1.8 11.2 14.5 18.7 20.4 23.1 34.3 43.1 47 44.5 34.7 31.5 30.6 27.2 22.9 23.3 17.4 12.4 7.4 12.3 6.4 2.3 6 18.9 23.1 18.8 11.2 7.2 7.8 11.4 9.6 3 -1.8 -1.8 -1.8 -1.8 -1.8 -1.8 2.3 6.5 7.5 2.2 4.4 6.8 3.3 2.3 -1.8 7.6 -1.8 -1.8 -1.8 -1.5 -1.8 -1.8 -1.8 -1.8 -1.8 -1.8 -1.8 -1.8 -1.8 -1.8 -1.8 -1.8 -1.8 -1.8 -1.8 -1.8 -1.8 12.3 18 25.3 35.1 53.7 72.7 86.7 96.3 80.7 80.8 87.8 91.7 89.5 85.9 82.2 82.6 75.4 75.2 87.6 83.7 72.6 58.3 55.3 74.2 87.9 99.1 108.2 117.9 124.5 131.2 134.3 143.5 154.1 158.4 162.3 166.6 175.5 182.3 186.7 188.3 187.9 190.8 188.3 181 176.9 185.6 204.1 220.5 222.9 223.5 221.9 217.1 210.8 202.9 194.9 187 183.2 181.7 178.8 175.6 175.2 174.4 171 165.5 165.9 161.8 162.7 164.4 161.5 161.1 161.3 158 151.7 149.7 148.8 156.1 159.9 167.3 184.3 197.4 214.2 235.4 249.5 265.5 264.1 255.9 249.6 240.6 226 249.4 259.2 267.4 277.7 288.2 321.6 344.1 356.9 363.9 368.3 379.9 394.7 397.6 407.8 419.3 434.2 433.4 432.6 436.7 441.5 455.3 464.9 476.1 473.8 483.9 491.1 480.8 467.6 446.9 428
-1.8 -1.8 -1.8 -1.8 -1.8 -1.8 15 13.2 -1.8 -1.8 -1.8 -1.8 -1.8 -1.8 -1.8 8.8 19.5 28.3 41.2 40.9 42.2 39.2 28.9 20.3 18.5 20 19.7 11.3 14.4 9.7 3 -1.8 2.2 2.3 2.3 14.2 16.1 5.1 5.9 3.7 8 10.9 6.8 -1.8 -1.8 -1.8 -1.8 -1.8 -1.8 -1.8 -1.8 -1.8 -1.8 5.6 1.9 1.3 1.5 1.5 6.4 9.6 -1.8 -1.8 -1.8 3.5 6.9 -1.8 -1.8 -1.8 -1.8 -1.8 -1.8 -1.8 -1.8 -1.8 -1.8 -1.8 -1.8 -1.8 -1.8 -1.8 -1.8 -1.8 -1.8 -1.8 21.2 36.2 44.4 65.9 70.9 63.4 65.5 72.8 75 71.8 64.1 58.1 58.9 53.7 54.8 63.9 63.1 49.6 24.7 50.7 64.4 76 99.6 109.6 115.4 126.1 137 149.9 163.7 172.3 174 171.4 175.9 180.5 179.2 182.1 179.7 178.4 177.7 179.3 175.4 166.9 162.5 178.5 187.8 196.2 200.3 201.2 209.1 204.9 197.4 189.2 182.4 178.8 175.2 172.2 170.8 170.3 169.3 163.2 160.8 158.9 155.8 153.3 148.3 145.1 142.8 141.7 141.8 141.4 139.2 141.9 140.4 142.2 147.8 152.8 164.8 175 193 210.3 228.9 232.6 225 224.5 224.1 202.9 226.7 245.2 237.4 259.8 280.1 311.1 319 337.7 352.3 367.8 380.6 379.3 386.5 402.4 413.6 413.4 413.3 424.1 432.3 440 444 459.7 472.4 483.1 511.8 505.5 491.8 469.8 451.1 429.1
-1.8 -1.8 -1.8 -1.8 -1.8 -1.8 -1.8 -1.8 -1.8 -1.8 -1.8 -1.8 -1.8 -1.8 -1.8 7.8 15.9 22.5 39 46.1 38.7 32.6 18.3 8.2 9 15.6 10.4 2.5 -1.8 -1.8 -1.8 -1.8 -1.8 -1.8 2.3 2.3 6.9 3.5 2.6 4 9.2 -1.8 -1.8 -1.8 -1.8 -1.8 -1.8 11.6 25.7 26.2 -1.8 -1.8 -1.8 -1.8 -1.8 -1.8 -1.8 -0.1 2.8 -1.8 -1.8 -1.8 -1.8 -1.8 -1.2 -1.8 -1.8 -1.8 -1.8 -1.8 -1.8 -1.8 -1.8 -1.8 -1.8 -1.8 -1.8 -1.8 -1.8 -1.8 -1.8 -1.8 -1.8 -1.8 -1.8 15.7 25.4 36.4 47.6 48.2 46.8 58.4 57 53.1 48.6 35.2 34.6 39.1 47.3 56.9 42.2 24.9 20.7 36.1 45.4 60 78.3 99.7 113.6 123.5 136 151.3 159.2 170.4 179.4 183.8 185 185.1 180.3 178.4 179.1 176.6 172.6 164.9 161.9 158.3 154.6 157.5 160.7 170 172 168 163.5 159.1 187 182.3 176.8 172.4 169.8 166.9 163.7 159.6 155.5 153.8 152.7 150.2 148.7 145.4 142.4 141.4 135.4 134.2 128.4 122.1 120.2 123.1 127.8 128.7 132.2 137.6 138.2 143.6 158.4 166.3 184.8 196.8 209.4 205.6 200.5 179.8 202.7 221.1 213.7 250.7 266.4 291.8 301.3 320.9 339.8 357.2 364.9 371.6 378.6 391.6 410.2 405.9 403.1 421.6 437.1 442 446.9 453.3 467.1 506.4 518.1 515.4 495.8 478 462.1 445.2
-1.8 -1.8 -1.8 -1.8 -1.8 -1.8 -1.8 -1.8 -1.8 -1.8 -1.8 -1.8 -1.8 -1.8 -1.8 14.5 23.1 33.5 37.2 33.1 32.4 9.7 8.8 -1.8 -1.8 -1.8 -1.8 -1.8 -1.8 -1.8 -1.8 -1.8 -1.8 -1.8 2.3 2.3 1.8 4.8 2.3 2.3 1.9 -1.8 -1.8 -1.8 -1.8 -1.8 6.7 16.4 30 37.7 31.7 20.5 -1.8 -1.8 -1.8 -1.8 -1.8 -1.8 1.5 -1.8 -1.8 -1.8 -1.8 -1.8 -1.8 -1.8 -1.8 -1.8 -1.8 -1.8 -1.8 -1.8 -1.8 -1.8 -1.8 -1.8 -1.8 -1.8 -1.8 -1.8 -1.8 -1.8 -1.8 -1.8 -1.8 -1.8 -1.8 22.6 33.9 38.2 35.3 36.7 39.1 35.6 29.9 23.2 26.1 32.6 33.5 34 20.2 12.9 17.8 29.1 33 48.8 65.5 87.6 114.1 130.1 139.5 154 161.1 169.1 178.3 184.8 191.6 184.6 180.4 175.8 171.2 173.9 165.2 155.1 149.2 147 142.1 139.3 136.1 132.8 128.8 128.4 125.2 122.2 114.7 123.7 126.9 152.3 147.7 159.7 156.6 151.7 149.7 147 145.3 143.6 143 138.1 133.8 131.9 128.3 124.1 120.2 115.5 113.1 113.5 112 113.3 116.6 119.1 121.9 123.4 127.1 134.6 143.2 167.8 181 178 174.2 158.4 177.2 189.9 185.1 223.1 247.3 279.6 288.7 308.7 335.9 352 354.1 361.5 368.5 371.9 379.1 389.7 403.9 416.3 428 441.7 451 454.1 471.1 489.9 505.7 512.6 499.5 485.9 483.5 465
-1.8 -1.8 -1.8 -1.8 -1.8 -1.8 -1.8 -1.8 -1.8 -1.8 -1.8 -1.8 -1.8 -1.8 -1.8 19.1 25.4 36.3 33.4 26.8 19.1 4.5 -1.8 -1.8 -1.8 -1.8 -1.8 -1.8 -1.8 -1.8 -1.8 -1.8 -1.8 -1.8 -1.8 -0.2 0.8 2.2 5.7 2.3 0.1 -1.8 -1.8 -1.8 -1.8 -1.8 6.7 12.7 32.3 42.1 42.9 34.8 21.5 7.9 -1.8 -1.8 -1.8 -1.8 -1.8 -1.8 -1.8 -1.8 -1.8 -1.8 -1.8 -1.8 -1.8 -1.8 -1.8 -1.8 -1.8 -1.8 -1.8 -1.8 -1.8 -1.8 -1.8 -1.8 -1.8 -1.8 -1.8 -1.8 -1.8 -1.8 -1.8 -1.8 -1.8 -1.8 6.9 33.9 32.5 37.3 42.4 32.1 23.9 14.3 22.2 17.8 15.7 17.2 8.9 11.4 15.3 22 31.7 39.7 54.5 71.7 94.7 108.2 128.1 133 138.5 153.8 170.8 191.2 193 185.3 181 172.1 162.8 155.3 150.8 145.9 139 135.7 131.2 123.8 120.4 116.4 108 105 97.6 90.9 85.4 82.8 88.1 93.1 95 94.2 101.8 92.7 102.2 94.4 96.6 134.4 134.5 126 122.4 119.9 114.1 111 109.9 106.6 108.3 108.9 104.4 100.8 99.3 99.4 103.6 106 107.9 110.2 112.1 129.1 141.1 147.6 148.6 129.3 151 162.1 165.1 190.5 217.9 252.7 277.8 289.7 321.6 333.9 338.5 337.3 354.8 367.8 376.1 385.1 402.4 414.6 433.2 452.7 453.5 457 477.1 492.6 499.7 503.8 496.4 484.3 485.1 466.3
-1.8 -1.8 -1.8 -1.8 -1.8 -1.8 -1.8 -1.8 -1.8 -1.8 -1.8 -1.8 -1.8 -1.8 14.3 22.2 25.5 30.3 29.7 15.7 -1.8 -1.8 -1.8 -1.8 -1.8 -1.8 -1.8 -1.8 -1.8 -1.8 -1.8 -1.8 -1.8 -1.8 -1.8 -0.9 0.9 2.3 4.6 2.3 6.3 -1.8 -1.8 -1.8 -1.8 -1.8 22 23.3 39.4 42.3 41.7 35.3 27.6 28.1 25.6 -1.8 -1.8 -1.8 -1.8 -1.8 -1.8 -1.8 -1.8 -1.8 -1.8 -1.8 -1.8 -1.8 -1.8 -1.8 -1.8 -1.8 -1.8 -1.8 -1.8 -1.8 -1.8 -1.8 -1.8 -1.8 -1.8 -1.8 -1.8 -1.8 -1.8 -1.8 -1.8 -1.8 -1.8 12 31.7 28.2 23 25.5 16.5 7.8 11.2 3.4 12.2 2.4 7.8 17.8 18.3 20.3 24.9 28.1 35 42.7 59.9 86.1 109.8 122.5 119.7 122 143.6 156.9 161.3 164.8 165.1 157.4 147 143.7 144 141.9 134.9 127.3 127 114.6 103.2 98.1 94 88.4 83.2 77.9 73.8 66.6 64.1 63.8 67.1 60.1 58.7 58.8 60.4 61.4 61.1 69.6 80.5 85.5 110.8 109.7 104.3 101.5 96.7 99.3 99 94.7 94.1 89.9 83.1 82.9 86.2 89.4 94.4 94.1 93.7 91.8 103.1 106.6 103.9 107.1 118.6 129.2 144.5 169.3 215.2 248 249.4 270.5 297.8 314.1 311.1 312.9 346 352.1 363 375.7 396.5 416.1 436.5 444.7 462.6 460.7 473.8 488.1 492.2 491.5 491.7 481.9 478.7 468.3
-1.8 -1.8 -1.8 -1.8 -1.8 -1.8 -1.8 -1.8 -1.8 -1.8 -1.8 -1.8 -1.8 -1.8 6.8 23.2 20.7 19.5 25.5 -1.8 -1.8 -1.8 -1.8 -1.8 -1.8 -1.8 -1.8 -1.8 -1.8 -1.8 -1.8 -1.8 -1.8 -1.8 -1.8 -1.8 -1.8 2.3 2.4 8.2 17.5 -1.8 -1.8 -1.8 -1.8 18.3 31.2 37.9 43.5 48.5 41.3 39.5 27.1 25.7 21.6 -1.8 -1.8 -1.8 -1.8 -1.8 -1.8 -1.8 -1.8 -1.8 -1.8 -1.8 -1.8 -1.8 -1.8 -1.8 -1.8 -1.8 -1.8 -1.8 -1.8 -1.8 -1.8 -1.8 -1.8 -1.8 -1.8 -1.8 -1.8 -1.8 -1.8 -1.8 -1.8 -1.8 -1.8 -1.8 -1.8 21.2 13.1 -1.8 -1.8 -1.8 -1.8 -1.8 -1.8 -1.8 12.2 20 24.9 20.8 21.7 26.9 30.3 30.4 38.4 62.1 83.3 100.1 101.2 114.1 125.1 135.4 133.5 137.4 146.1 146.4 140.6 139.8 136.1 134.2 124.5 111.4 110.4 100.9 92.6 90 81.7 75.4 68.8 67.2 62.7 59.2 62.8 53.2 44.4 42.1 37.1 32.1 29.7 29.2 31.6 33.9 35.7 37.7 39.6 47.4 76.6 85.9 86.7 90.1 86.6 81.5 81 76.6 72.5 73.6 72.8 71.4 77.3 77.7 77.4 81.7 83.1 83.8 81.7 88 98.2 105.1 122.2 150.5 178 203.6 230.1 248.6 266.2 270.8 280.8 290.1 313.4 330 346.3 364.2 390.8 408.9 422.1 443.7 458.9 465.9 470.5 476.4 479.2 478.8 477 480 470 467
-1.8 -1.8 -1.8 -1.8 -1.8 -1.8 -1.8 -1.8 -1.8 -1.8 -1.8 -1.8 -1.8 -1.8 -1.8 -1.8 -0.4 -1.8 0.8 -1.8 -1.8 -1.8 -1.8 -1.8 -1.8 -1.8 -1.8 -1.8 -1.8 -1.8 -1.8 -1.8 -1.8 -1.8 -1.8 -1.8 -1.8 0.9 2.3 5.6 13.9 10 -1.8 -1.8 21.1 38.3 41.4 40.3 41.4 43.3 40 30.9 21.6 14.9 -1.8 -1.8 -1.8 -1.8 -1.8 -1.8 -1.8 -1.8 -1.8 -1.8 -1.8 -1.8 -1.8 -1.8 -1.8 -1.8 -1.8 -1.8 -1.8 -1.8 -1.8 -1.8 -1.8 -1.8 -1.8 -1.8 -1.8 -1.8 -1.8 -1.8 -1.8 -1.8 -1.8 -1.8 -1.8 -1.8 -1.8 -1.8 5.3 -1.8 -1.8 -1.8 -1.8 -1.8 -1.8 -1.8 -1.8 13.9 19.3 20.7 21 18.8 20.9 22.6 31 49.9 63.3 75.6 81.1 90.4 102.8 117.1 127.3 130.8 133.6 130 128.4 129.3 122.3 122 110.5 98.6 97 91 80 72.5 64.7 61.8 60.3 54.6 49.8 47.5 43.9 34.9 33 33.7 26.6 23.5 19.3 13.2 9.2 -1.8 -1.8 -1.8 -1.8 -1.8 -1.8 31.1 50.6 66.7 68.6 63.9 63.3 63.9 64.8 65.2 63.8 59.2 58.1 58.9 59.8 62.1 61.4 65 64.6 70.1 79 88.9 105.8 126.2 152.7 179.1 196.9 220 230.3 245.2 249.2 255.5 278.4 306.1 324.1 343.6 362.6 396 423.6 438.7 450.5 461 466.4 467.7 465.8 467 478 474.5 467.3 460
-1.8 -1.8 -1.8 -1.8 -1.8 -1.8 -1.8 -1.8 -1.8 -1.8 -1.8 -1.8 -1.8 -1.8 -1.8 -1.8 -1.8 -1.8 -1.8 -1.8 -1.8 -1.8 -1.8 -1.8 -1.8 -1.8 -1.8 -1.8 -1.8 -1.8 -1.8 -1.8 -1.8 -1.8 -1.8 -1.8 -1.8 -1.8 -1.8 -1.8 -1.8 -1.8 -1.8 -1.8 27.2 41.4 49.6 42.6 41.1 30.4 28.8 17.5 11 -1.8 -1.8 -1.8 -1.8 -1.8 -1.8 -0.7 -1.8 -1.8 -1.8 -1.8 -1.8 -1.8 -1.8 -1.8 -1.8 -1.8 -1.8 -1.8 -1.8 -1.8 -1.8 -1.8 -1.8 -1.8 -1.8 -1.8 -1.8 -1.8 -1.8 -1.8 -1.8 -1.8 -1.8 -1.8 -1.8 -1.8 -1.8 -1.8 -1.8 -1.8 -1.8 -1.8 -1.8 -1.8 -1.8 -1.8 -1.8 -1.8 -1.8 27.7 30.2 19 12.1 10.9 26.2 45.2 47.2 51.8 60.3 71.8 86.5 103 116 121.1 119 121 113.7 105.8 100.7 97 90.1 77.4 80.3 67 57.5 55.2 55.4 55.6 50.8 40.3 35.1 28.6 26.5 25 20.4 20.8 16.7 11.8 7.7 5.5 -1.8 -1.8 -1.8 -1.8 -1.8 -1.8 -1.8 -1.8 -1.8 18.6 31.2 26 27.8 41.3 49.7 50.8 49.8 46.5 45.2 45.1 45.1 44.2 44.8 46.7 50.9 58.6 57.3 71.1 87.2 108.2 134.3 159.5 172.1 190.4 209 212.3 221.2 222.6 234.9 268 293.3 325.1 353.7 370.1 404.5 437.3 454.5 458.2 463.2 464.4 460.8 461.2 465.3 464.6 464.7 456.5
-1.8 -1.8 -1.8 -1.8 -1.8 -1.8 -1.8 -1.8 -1.8 -1.8 -1.8 -1.8 -1.8 -1.8 -1.8 -1.8 -1.8 -1.8 -1.8 -1.8 -1.8 -1.8 -1.8 -1.8 -1.8 -1.8 -1.8 -1.8 -1.8 -1.8 -1.8 -1.8 -1.8 -1.8 -1.8 -1.8 -1.8 -1.8 -1.8 -1.8 -1.8 -1.8 8.7 18.8 31.6 43.3 53.7 42.6 30.8 24.2 11.5 -1.8 -1.8 -1.8 -1.8 -1.8 -1.8 14.4 17 13.6 1.6 -1.8 -1.8 -1.8 -1.8 -1.8 -1.8 -1.8 -1.8 -1.8 -1.8 -1.8 -1.8 -1.8 -1.8 -1.8 -1.8 -1.8 -1.8 -1.8 -1.8 -1.8 -1.8 -1.8 -1.8 -1.8 -1.8 -1.8 -1.8 -1.8 -1.8 -1.8 -1.8 -1.8 -1.8 -1.8 -1.8 -1.8 -1.8 -1.8 -1.8 -1.8 -1.8 -1.8 19.6 21 5.5 2.2 11.5 27.4 30.9 38.7 41.7 55.1 60.8 85 97.5 103 97.4 93.3 84.4 80.7 78.6 70.9 60.5 55 48 45.1 49.8 41.7 36.3 31.6 35.3 22.2 19.7 14.4 7.9 4.9 -1.8 -1.8 -1.8 -1.8 -1.8 -1.8 -1.8 -1.8 -1.8 -1.8 -1.8 -1.8 -1.8 -1.8 -1.8 -1.8 -1.8 -1.8 -1.8 -1.8 27.3 35.7 32.3 30.3 31 32 27.6 25.7 26.5 28.1 32.5 39.4 40.2 56.8 71.2 99 110.7 125.8 151.7 167.9 167.8 185.5 187.2 183.4 197.7 223.3 263.9 297.6 321 329.8 372.7 420 448.7 459.5 460 457.5 456.8 460.6 458.5 454.7 452.4 451
-1.8 -1.8 -1.8 -1.8 -1.8 -1.8 -1.8 -1.8 -1.8 -1.8 -1.8 -1.8 -1.8 -1.8 -1.8 -1.8 -1.8 -1.8 -1.8 -1.8 -1.8 -1.8 -1.8 -1.8 -1.8 -1.8 -1.8 -1.8 -1.8 -1.8 -1.8 -1.8 -1.8 -1.8 -1.8 -1.8 -1.8 -1.8 -1.8 -1.8 -1.8 -1.8 -1.8 29.7 27.2 27.9 31.2 33.9 18.8 -1.8 -1.8 -1.8 -1.8 -1.8 -1.8 -1.8 26.4 27.6 31.1 26.9 8 -1.8 -1.8 -1.8 -1.8 -1.8 -1.8 -1.8 -1.8 -1.8 -1.8 -1.8 -1.8 -1.8 -1.8 -1.8 -1.8 -1.8 -1.8 -1.8 -1.8 -1.8 -1.8 -1.8 -1.8 -1.8 -1.8 -1.8 -1.8 -1.8 -1.8 -1.8 -1.8 -1.8 -1.8 -1.8 -1.8 -1.8 -1.8 -1.8 -1.8 -1.8 -1.8 -1.8 -1.8 5.5 -1.8 -1.8 -1.8 5.8 7.4 5.7 7.7 32.2 47.4 63.9 75.8 81.6 71.4 63 55.9 48.2 40 39.9 31.8 25.4 22 27.2 27.5 27.1 8.8 -1.8 -1.8 -1.8 -1.8 -1.8 -1.8 -1.8 -1.8 -1.8 -1.8 -1.8 -1.8 -1.8 -1.8 -1.8 -1.8 -1.8 -1.8 -1.8 -1.8 -1.8 -1.8 -1.8 -1.8 -1.8 -1.8 -1.8 -1.8 20.2 19.7 20 19.9 21.2 17.7 11.4 13.3 17.1 22.1 27.5 28.6 43.1 57.5 72.4 88.3 114.6 131 136.9 139.9 159.1 157.8 157.1 168.8 208.5 241.3 257.1 275.2 298.4 341.9 367.3 430.6 448.9 445.8 441.5 446.6 455.3 455 453.7 446.2 445.4
-1.8 -1.8 -1.8 -1.8 -1.8 -1.8 -1.8 -1.8 -1.8 -1.8 -1.8 -1.8 -1.8 -1.8 -1.8 -1.8 -1.8 -1.8 -1.8 -1.8 -1.8 -1.8 -1.8 -1.8 -1.8 -1.8 -1.8 -1.8 -1.8 -1.8 -1.8 -1.8 -1.8 -1.8 -1.8 -1.8 -1.8 -1.8 -1.8 -1.8 -1.8 -1.8 -1.8 -1.8 28.5 27.2 27.2 17.8 -1.8 -1.8 -1.8 -1.8 -1.8 -1.8 8 16.8 25 34.6 28.8 26.5 7.7 -1.8 -1.8 -1.8 -1.8 -1.8 -1.8 -1.8 -1.8 -1.8 -1.8 -1.8 -1.8 -1.8 -1.8 -1.8 -1.8 -1.8 -1.8 -1.8 -1.8 -1.8 -1.8 -1.8 -1.8 -1.8 -1.8 -1.8 -1.8 -1.8 -1.8 -1.8 -1.8 -1.8 -1.8 -1.8 -1.8 -1.8 -1.8 -1.8 -1.8 -1.8 -1.8 -1.8 -1.8 -1.8 -1.8 -1.8 -1.8 -1.8 -1.8 -1.8 -1.8 -1.8 -1.8 30.3 56.7 52.9 41.9 35 25.5 20.4 15.8 -1.8 -1.8 4.1 4.4 9 7.9 -1.8 -1.8 -1.8 -1.8 -1.8 -1.8 -1.8 -1.8 -1.8 -1.8 -1.8 -1.8 -1.8 -1.8 -1.8 -1.8 -1.8 -1.8 -1.8 -1.8 -1.8 -1.8 -1.8 -1.8 -1.8 -1.8 -1.8 -1.8 -1.8 -1.8 -1.8 -1.8 -1.8 6 7.8 4.3 3.7 5.8 10.9 12.7 15.7 16 29.2 41.3 55.7 83.8 120 110 108.6 113.2 119.8 123.1 128.7 142.5 162.5 202.6 219 239.6 260.5 287.6 324.2 409.6 427.6 422.6 430.2 435.7 444.9 448.7 446.9 442.4 435.9
-1.8 -1.8 -1.8 -1.8 -1.8 -1.8 -1.8 -1.8 -1.8 -1.8 -1.8 -1.8 -1.8 -1.8 -1.8 -1.8 -1.8 -1.8 -1.8 -1.8 -1.8 -1.8 -1.8 -1.8 -1.8 -1.8 -1.8 -1.8 -1.8 -1.8 -1.8 -1.8 -1.8 -1.8 -1.8 -1.8 -1.8 -1.8 -1.8 -1.8 -1.8 -1.8 -1.8 -1.8 -1.8 22.8 13.1 -1.8 -1.8 -1.8 -1.8 -1.8 -1.8 -1.8 20.3 25.8 24.5 25.4 26.4 10.9 -1.8 -1.8 -1.8 -1.8 -1.8 -1.8 -1.8 -1.8 -1.8 -1.8 -1.8 -1.8 -1.8 -1.8 -1.8 -1.8 -1.8 -1.8 -1.8 -1.8 -1.8 -1.8 -1.8 -1.8 -1.8 -1.8 -1.8 -1.8 -1.8 -1.8 -1.8 -1.8 -1.8 -1.8 -1.8 -1.8 -1.8 -1.8 -1.8 -1.8 -1.8 -1.8 -1.8 -1.8 -1.8 -1.8 -1.8 -1.8 -1.8 -1.8 -1.8 -1.8 -1.8 -1.8 -1.8 -1.8 -1.8 17.1 -1.8 -1.8 -1.8 -1.8 -1.8 -1.8 -1.8 -1.8 -1.8 -1.8 -1.8 -1.8 -1.8 -1.8 -1.8 -1.8 -1.8 -1.8 -1.8 -1.8 -1.8 -1.8 -1.8 -1.8 -1.8 -1.8 -1.8 -1.8 -1.8 -1.8 -1.8 -1.8 -1.8 -1.8 -1.8 -1.8 -1.8 -1.8 -1.8 -1.8 -1.8 -1.8 -1.8 -1.8 -1.8 -1.8 -1.8 -1.8 1.9 4.5 5.7 5.9 6.9 16.8 28.1 52.3 93.6 105.1 94 89.5 89.3 92.1 96.2 102.7 119 133.3 169.4 192.6 204.9 218.7 240.8 274.2 307.8 336.7 388.7 415.6 426.3 437.9 441.9 440.2 435.7 431.7
-1.8 -1.8 -1.8 -1.8 -1.8 -1.8 -1.8 -1.8 -1.8 -1.8 -1.8 -1.8 -1.8 -1.8 -1.8 -1.8 -1.8 -1.8 -1.8 -1.8 -1.8 -1.8 -1.8 -1.8 -1.8 -1.8 -1.8 -1.8 -1.8 -1.8 -1.8 -1.8 -1.8 -1.8 -1.8 -1.8 -1.8 -1.8 -1.8 -1.8 -1.8 -1.8 -1.8 -1.8 -1.8 0.1 -1.8 -1.8 -1.8 -1.8 -1.8 -1.8 -1.8 16.7 32.8 26.9 22.2 14.4 14.8 4.2 -1.8 -1.8 -1.8 -1.8 -1.8 8.5 8.8 -1.8 -1.8 -1.8 -1.8 -1.8 -1.8 -1.8 -1.8 -1.8 -1.8 -1.8 -1.8 -1.8 -1.8 -1.8 -1.8 -1.8 -1.8 -1.8 -1.8 -1.8 -1.8 -1.8 -1.8 -1.8 -1.8 -1.8 -1.8 -1.8 -1.8 -1.8 -1.8 -1.8 -1.8 -1.8 -1.8 -1.8 -1.8 -1.8 -1.8 -1.8 -1.8 -1.8 -1.8 -1.8 -1.8 -1.8 -1.8 -1.8 -1.8 -1.8 -1.8 -1.8 -1.8 -1.8 -1.8 -1.8 -1.8 -1.8 -1.8 -1.8 -1.8 -1.8 -1.8 -1.8 -1.8 -1.8 -1.8 -1.8 -1.8 -1.8 -1.8 -1.8 -1.8 -1.8 -1.8 -1.8 -1.8 -1.8 -1.8 -1.8 -1.8 -1.8 -1.8 -1.8 -1.8 -1.8 -1.8 -1.8 -1.8 -1.8 -1.8 -1.8 -1.8 -1.8 -1.8 -1.8 -1.8 -1.8 -1.8 -1.8 -1.8 1.3 2.6 3.3 17 65.3 78.2 74.5 72.7 74.2 74.2 74 71.3 83 89.2 100.5 120.8 146.7 171.4 182.4 200.6 225.1 249.5 294.1 324.6 376.1 409.3 428.9 433.6 428.3 427 422.9
-1.8 -1.8 -1.8 -1.8 -1.8 -1.8 -1.8 -1.8 -1.8 -1.8 -1.8 -1.8 -1.8 -1.8 -1.8 -1.8 -1.8 -1.8 -1.8 -1.8 -1.8 -1.8 -1.8 -1.8 -1.8 -1.8 -1.8 -1.8 -1.8 -1.8 -1.8 -1.8 -1.8 -1.8 -1.8 -1.8 -1.8 -1.8 -1.8 -1.8 -1.8 -1.8 -1.8 -1.8 -1.8 -1.8 -1.8 -1.8 -1.8 -1.8 -1.8 -1.8 17.1 22.2 27.4 29 13.1 10.1 7.6 -1.8 -1.8 -1.8 -1.8 -1.8 12.7 21.2 31 17.3 -1.8 -1.8 -1.8 -1.8 -1.8 -1.8 -1.8 -1.8 -1.8 -1.8 -1.8 -1.8 -1.8 -1.8 -1.8 -1.8 -1.8 -1.8 -1.8 -1.8 -1.8 -1.8 -1.8 -1.8 -1.8 -1.8 -1.8 -1.8 -1.8 -1.8 -1.8 -1.8 -1.8 -1.8 -1.8 -1.8 -1.8 -1.8 -1.8 -1.8 -1.8 -1.8 -1.8 -1.8 -1.8 -1.8 -1.8 -1.8 -1.8 -1.8 -1.8 -1.8 -1.8 -1.8 -1.8 -1.8 -1.8 -1.8 -1.8 -1.8 -1.8 -1.8 -1.8 -1.8 -1.8 -1.8 -1.8 -1.8 -1.8 -1.8 -1.8 -1.8 -1.8 -1.8 -1.8 -1.8 -1.8 -1.8 -1.8 -1.8 -1.8 -1.8 -1.8 -1.8 -1.8 -1.8 -1.8 -1.8 -1.8 -1.8 -1.8 -1.8 -1.8 -1.8 -1.8 -1.8 -1.8 -1.8 -1.8 -1.8 -1.8 -1.8 0.6 1.5 10.2 45.5 54.5 56 56 54.7 55.8 56.2 53.8 59.4 66.5 73.5 83.4 102.5 119.8 141.3 160.7 176.7 225 252.1 277.8 319.7 361.4 404.5 420.5 419.7 413.9 409.1
-1.8 -1.8 -1.8 -1.8 -1.8 -1.8 -1.8 -1.8 -1.8 -1.8 -1.8 -1.8 -1.8 -1.8 -1.8 -1.8 -1.8 -1.8 -1.8 -1.8 -1.8 -1.8 -1.8 -1.8 -1.8 -1.8 -1.8 -1.8 -1.8 -1.8 -1.8 -1.8 -1.8 -1.8 -1.8 -1.8 -1.8 -1.8 -1.8 -1.8 -1.8 -1.8 -1.8 -1.8 -1.8 -1.8 -1.8 -1.8 -1.8 -1.8 22.2 31.6 43.3 35.2 26.9 22.2 14.4 8.8 -1.8 -1.8 -1.8 -1.8 -1.8 -1.8 16.1 31.9 39.4 26 16.1 -1.8 -1.8 -1.8 -1.8 -1.8 -1.8 -1.8 -1.8 -1.8 -1.8 -1.8 -1.8 -1.8 -1.8 -1.8 -1.8 -1.8 -1.8 -1.8 -1.8 -1.8 -1.8 -1.8 -1.8 -1.8 -1.8 -1.8 -1.8 -1.8 -1.8 -1.8 -1.8 -1.8 -1.8 -1.8 -1.8 -1.8 -1.8 -1.8 -1.8 -1.8 -1.8 -1.8 -1.8 -1.8 -1.8 -1.8 -1.8 -1.8 -1.8 -1.8 -1.8 -1.8 -1.8 -1.8 -1.8 -1.8 -1.8 -1.8 -1.8 -1.8 -1.8 -1.8 -1.8 -1.8 -1.8 -1.8 -1.8 -1.8 -1.8 -1.8 -1.8 -1.8 -1.8 -1.8 -1.8 -1.8 -1.8 -1.8 -1.8 -1.8 -1.8 -1.8 -1.8 -1.8 -1.8 -1.8 -1.8 -1.8 -1.8 -1.8 -1.8 -1.8 -1.8 -1.8 -1.8 -1.8 -1.8 -1.8 -1.8 -1.8 -0.9 0.9 4.8 14.8 25.1 42.9 40.4 40.6 37.8 40.1 41.6 42.7 44.5 50.1 59.6 73.1 90.4 101.9 125.7 153.7 175.4 213.2 240.6 268.6 318.1 354 390.4 399.9 383.7 393.8
-1.8 -1.8 -1.8 -1.8 -1.8 -1.8 -1.8 -1.8 -1.8 -1.8 -1.8 -1.8 -1.8 -1.8 -1.8 -1.8 -1.8 -1.8 -1.8 -1.8 -1.8 -1.8 -1.8 -1.8 -1.8 -1.8 -1.8 -1.8 -1.8 -1.8 -1.8 -1.8 -1.8 -1.8 -1.8 -1.8 -1.8 -1.8 -1.8 -1.8 -1.8 -1.8 -1.8 -1.8 -1.8 -1.8 -1.8 -1.8 -1.8 -1.8 21.2 47.8 46.9 38.1 27.4 21.7 14.1 1.8 -1.8 -1.8 -1.8 -1.8 1.3 19.6 30.8 46.3 41.2 27.9 27.1 30.5 22.5 12.9 16.5 -1.8 -1.8 -1.8 -1.8 -1.8 -1.8 -1.8 -1.8 -1.8 -1.8 -1.8 -1.8 -1.8 -1.8 -1.8 -1.8 -1.8 -1.8 -1.8 -1.8 -1.8 -1.8 -1.8 -1.8 -1.8 -1.8 -1.8 -1.8 -1.8 -1.8 -1.8 -1.8 -1.8 -1.8 -1.8 -1.8 -1.8 -1.8 -1.8 -1.8 -1.8 -1.8 -1.8 -1.8 -1.8 -1.8 -1.8 -1.8 -1.8 -1.8 -1.8 -1.8 -1.8 -1.8 -1.8 -1.8 -1.8 -1.8 -1.8 -1.8 -1.8 -1.8 -1.8 -1.8 -1.8 -1.8 -1.8 -1.8 -1.8 -1.8 -1.8 -1.8 -1.8 -1.8 -1.8 -1.8 -1.8 -1.8 -1.8 -1.8 -1.8 -1.8 -1.8 -1.8 -1.8 -1.8 -1.8 -1.8 -1.8 -1.8 -1.8 -1.8 -1.8 -1.8 -1.8 -1.8 -1.8 -1.8 -1.8 2.1 11.4 9.6 15.1 21 21.6 25.6 26.4 29.8 26.7 28.9 33.8 39.3 48.7 61.6 80.8 94.9 111.5 143.4 164.5 197.8 222.1 263.5 297.4 330.7 345.8 332.7 342.4
-1.8 -1.8 -1.8 -1.8 -1.8 -1.8 -1.8 -1.8 6.3 19.7 15.6 20.1 -1.8 7.6 -1.8 -1.8 -1.8 -1.8 -1.8 -1.8 -1.8 -1.8 -1.8 -1.8 -1.8 -1.8 -1.8 -1.8 -1.8 -1.8 -1.8 -1.8 -1.8 -1.8 -1.8 -1.8 -1.8 -1.8 -1.8 -1.8 -1.8 -1.8 -1.8 -1.8 -1.8 -1.8 -1.8 -1.8 -1.8 -1.8 14 48.1 48.3 47.2 36.1 22.2 17.5 12.7 -1.8 -1.8 -1.8 11.8 16.9 34 45.9 53.1 45.1 36.5 34.9 36.1 30.1 22.8 16.3 -1.8 -1.8 -1.8 -1.8 -1.8 -1.8 -1.8 -1.8 -1.8 -1.8 -1.8 -1.8 -1.8 -1.8 -1.8 -1.8 -1.8 -1.8 -1.8 -1.8 -1.8 -1.8 -1.8 -1.8 -1.8 -1.8 -1.8 -1.8 -1.8 -1.8 -1.8 -1.8 -1.8 -1.8 -1.8 -1.8 -1.8 -1.8 -1.8 -1.8 -1.8 -1.8 -1.8 -1.8 -1.8 -1.8 -1.8 -1.8 -1.8 -1.8 -1.8 -1.8 -1.8 -1.8 -1.8 -1.8 -1.8 -1.8 -1.8 -1.8 -1.8 -1.8 -1.8 -1.8 -1.8 -1.8 -1.8 -1.8 -1.8 -1.8 -1.8 -1.8 -1.8 -1.8 -1.8 -1.8 -1.8 -1.8 -1.8 -1.8 -1.8 -1.8 -1.8 -1.8 -1.8 -1.8 -1.8 -1.8 -1.8 -1.8 -1.8 -1.8 -1.8 -1.8 -1.8 -1.8 -1.8 -1.8 -0.7 -1.8 -1.8 -1.8 8.8 10.7 14.4 18.8 19.2 19.6 20.5 21.2 24.1 25.6 32.2 43 53.5 62.4 82.2 105.1 134.6 158 175.1 198.2 240.4 267.3 273.2 285.8 300
-1.8 -1.8 -1.8 -1.8 -1.8 -1.8 -1.8 -1.8 11 23 28.1 42.2 42.9 28.5 -1.8 -1.8 -1.8 -1.8 -1.8 -1.8 -1.8 -1.8 -1.8 -1.8 -1.8 -1.8 -1.8 -1.8 -1.8 -1.8 -1.8 -1.8 -1.8 -1.8 -1.8 -1.8 -1.8 -1.8 -1.8 -1.8 -1.8 -1.8 -1.8 -1.8 -1.8 -1.8 -1.8 -1.8 13.4 31.7 31.9 25.3 24.6 21.2 24.9 20.3 19.2 32.5 35.3 31.5 27.5 30 29.9 36.8 42.6 47 46.6 45.2 40 43.7 39.6 35.5 24.4 8.8 -1.8 -1.8 -1.8 -1.8 -1.8 -1.8 -1.8 -1.8 -1.8 -1.8 -1.8 -1.8 -1.8 -1.8 -1.8 -1.8 -1.8 -1.8 -1.8 -1.8 -1.8 -1.8 -1.8 -1.8 -1.8 -1.8 -1.8 7.6 4.6 2.3 1.5 -1.8 -1.8 -1.8 -1.8 -1.8 -1.8 -1.8 -1.8 -1.8 -1.8 -1.8 -1.8 -1.8 -1.8 -1.8 -1.8 -1.8 -1.8 -1.8 -1.8 -1.8 -1.8 -1.8 -1.8 -1.8 -1.8 -1.8 -1.8 -1.8 -1.8 -1.8 -1.8 -1.8 -1.8 -1.8 -1.8 -1.8 -1.8 -1.8 -1.8 -1.8 -1.8 -1.8 -1.8 -1.8 -1.8 -1.8 -1.8 -1.8 -1.8 -1.8 -1.8 -1.8 -1.8 -1.8 -1.8 -1.8 -1.8 -1.8 -1.8 -1.8 -1.8 -1.8 -1.8 3.1 1.1 1.2 0.4 -1.8 -1.8 7.9 13 17.2 24.8 21.9 20.8 21.2 21.9 22.5 22.6 25.3 30.3 37.6 47 60.3 80.9 104.5 123.6 138.3 160.4 188.7 216.1 226.1 237.8 250.7
-1.8 -1.8 -1.8 -1.8 -1.8 -1.8 -1.8 -1.8 16.9 24.9 31 39.8 44.5 19.5 -1.8 -1.8 -1.8 -1.8 -1.8 -1.8 -1.8 -1.8 -1.8 -1.8 -1.8 -1.8 -1.8 -1.8 -1.8 -1.8 -1.8 -1.8 -1.8 -1.8 -1.8 -1.8 -1.8 -1.8 -1.8 -1.8 -1.8 -1.8 -1.8 -1.8 -1.8 -1.8 -1.8 -1.8 17 28.3 33.2 36.6 30.8 21.2 19.8 23.9 39.2 48.2 52.7 50 56.2 53.3 44.6 48 50.6 50.7 48.3 49 46.2 42.5 39.3 32.4 18.8 11 -1.8 -1.8 -1.8 -1.8 -1.8 -1.8 -1.8 -1.8 -1.8 -1.8 -1.8 -1.8 -1.8 -1.8 -1.8 -1.8 -1.8 -1.8 -1.8 -1.8 -1.8 -1.8 6 10 -1.8 -1.8 6.1 7.1 7.7 10.4 12.6 12.5 13.2 -1.8 16.8 -1.8 -1.8 -1.8 -1.8 -1.8 -1.8 -1.8 -1.8 -1.8 -1.8 -1.8 -1.8 -1.8 -1.8 -1.8 -1.8 -1.8 -1.8 -1.8 -1.8 -1.8 -1.8 -1.8 -1.8 -1.8 -1.8 -1.8 -1.8 -1.8 -1.8 -1.8 -1.8 -1.8 -1.8 -1.8 -1.8 -1.8 -1.8 -1.8 -1.8 -1.8 -1.8 -1.8 -1.8 -1.8 -1.8 -1.8 -1.8 -1.8 -1.8 9 6 1.7 -1.8 -1.8 -1.8 1.7 4.6 7.9 9.9 10.3 8.9 5.5 2.6 5.4 8.5 14.3 20 27 38.3 36.8 29.1 22.5 23 23.8 24 24.2 25.3 26.9 33.8 45.4 65.6 81.8 95.9 111.3 131 152.1 172 188.6 198.6 212.1
-1.8 -1.8 -1.8 -1.8 -1.8 -1.8 -1.8 -1.8 -1.8 13.9 26.8 40 41.7 -1.8 -1.8 -1.8 -1.8 -1.8 -1.8 -1.8 -1.8 -1.8 -1.8 -1.8 -1.8 -1.8 -1.8 -1.8 -1.8 -1.8 -1.8 -1.8 -1.8 -1.8 -1.8 -1.8 -1.8 -1.8 -1.8 -1.8 -1.8 -1.8 -1.8 -1.8 -1.8 -1.8 -1.8 -1.8 -1.8 20.2 34.8 38.1 42.5 43.2 41.5 29.7 28.6 39.6 48.2 59.2 71.9 72.5 66.1 65.7 64.3 58.5 63.1 58.6 51.9 41 34.2 26.2 18.8 13 -1.8 -1.8 -1.8 -1.8 -1.8 -1.8 -1.8 -1.8 -1.8 -1.8 -1.8 -1.8 -1.8 -1.8 -1.8 -1.8 -1.8 -1.8 -1.8 -1.8 -1.8 -1.8 5.9 8.8 9.7 9.2 16 14.9 12.9 16.3 17.6 23.6 15.5 16.9 26.6 24.8 14.2 9.6 2.6 -1.8 -1.8 -1.8 -1.8 -1.8 -1.8 -1.8 -1.8 -1.8 -1.8 -1.8 -1.8 -1.8 -1.8 -1.8 -1.8 -1.8 -1.8 2.9 -1.8 -1.8 -1.8 -1.8 -1.8 -1.8 -1.8 -1.8 -1.8 -1.8 -1.8 -1.8 -1.8 -1.8 -1.8 -1.8 -1.8 -1.8 -1.8 -1.8 -1.8 31.6 35.2 32.5 31.6 27.8 23.4 18.5 18.7 12.8 10.2 9.7 6.1 10.4 17.5 19.8 21.5 21.8 16.5 11.9 12.1 12.9 20 25.8 33.3 45.5 60.9 68.9 53.5 45.4 33.8 28.2 28.2 27.8 25.4 25.5 28.9 34.1 47.1 57.9 69.1 81.3 100.9 123.8 140.9 154.6 164.4 176.5
-1.8 -1.8 -1.8 -1.8 -1.8 -1.8 -1.8 -1.8 -1.8 -1.8 -1.8 11.3 15.1 -1.8 -1.8 -1.8 -1.8 -1.8 -1.8 -1.8 -1.8 -1.8 -1.8 -1.8 -1.8 -1.8 -1.8 -1.8 -1.8 -1.8 -1.8 -1.8 -1.8 -1.8 -1.8 -1.8 -1.8 -1.8 -1.8 -1.8 -1.8 -1.8 -1.8 -1.8 -1.8 -1.8 -1.8 -1.8 -1.8 -1.8 33.9 40.3 50.6 59.7 61 54.1 47.6 36.5 46.9 49.9 60.1 73.2 75.7 74.5 72.2 64.6 57.9 59.3 53.8 44.4 32.4 18.9 13.3 4.9 -1.8 -1.8 -1.8 -1.8 -1.8 -1.8 -1.8 -1.8 -1.8 -1.8 -1.8 -1.8 -1.8 -1.8 -1.8 -1.8 -1.8 -1.8 -1.8 -1.8 -1.8 10.6 13.9 16.1 24.3 19.7 19.8 21.9 20.2 15.1 18.9 20.9 22.9 31.4 30.1 36.9 29.2 17.3 14.6 13.1 15.8 12.4 9.3 8.8 7.2 13.4 -1.8 -1.8 -1.8 -1.8 -1.8 3.1 8.3 10.2 8.8 12.5 14.1 22.2 21.4 8.7 -1.8 -1.8 -1.8 -1.8 -1.8 -1.8 -1.8 -1.8 -1.8 -1.8 18.1 25.4 36.6 52.1 55.3 52.5 57.5 53.7 53.5 55.6 56 55.4 54.4 51.3 47.1 42.3 36.4 31.8 31.3 26.9 23.7 24.9 33.2 38.2 36.8 33.7 27.1 23.8 25.4 30.9 40.3 49.2 57.2 67 89.1 89.7 84.7 71.9 64.9 59.8 38.2 31.9 31.1 29 27.3 27.4 33 40.7 48.4 61.5 76.5 95.9 108.3 120.7 131 140.6
-1.8 -1.8 -1.8 -1.8 -1.8 -1.8 -1.8 -1.8 -1.8 -1.8 -1.8 -1.8 -1.8 -1.8 -1.8 -1.8 -1.8 -1.8 -1.8 -1.8 25.1 20.4 30.8 36.5 -1.8 -1.8 -1.8 -1.8 -1.8 -1.8 -1.8 -1.8 -1.8 -1.8 -1.8 -1.8 -1.8 -1.8 -1.8 -1.8 -1.8 -1.8 -1.8 -1.8 -1.8 -1.8 -1.8 -1.8 -1.8 -1.8 14.6 37.8 48 61.4 64.9 63 59.9 57.2 50 42.8 46.4 60.2 74.2 83.2 74.9 66 58 55.6 55.6 52.6 33.6 23.1 13.6 4.9 1.6 -1.8 -1.8 -1.8 -1.8 -1.8 -1.8 -1.8 -1.8 -1.8 -1.8 -1.8 -1.8 -1.8 -1.8 -1.8 -1.8 -1.8 -1.8 -1.8 15.9 24.1 37.2 44.1 37.3 32.3 37.9 33.1 25.8 16.7 17.7 27.5 35.4 44.7 44.2 43.4 40.5 40.8 27.4 22.7 23.8 22 20.6 20.2 19 27 25.9 19.5 9.4 10.1 10.9 11.2 18.6 25.3 21.2 26.3 22.6 28.6 21.5 16.7 16 26.1 21.6 16.8 16.4 15.9 16.6 32.8 57.1 61 66.5 71.5 76.4 80.5 80.4 77.7 80.6 81.3 80.9 84.4 86.4 89.7 92.4 87.5 83.8 79.4 69.3 64.6 67.6 58.4 45.7 49.5 49.2 55 54.3 50.7 42.9 47.6 52.8 61.4 73.2 83.8 90.6 98.5 107.1 118.6 114.5 106.1 122 95.9 73.6 54.3 40.3 36.6 31.9 28.8 31.5 32.2 36 42.6 53.1 65.6 75.3 86.1 95.9 106.4
-1.8 -1.8 -1.8 -1.8 -1.8 -1.8 -1.8 -1.8 -1.8 -1.8 -1.8 -1.8 -1.8 -1.8 -1.8 -1.8 -1.8 -1.8 11 42.3 51.6 55.1 56 59.9 56.8 53.4 38 -1.8 -1.8 -1.8 -1.8 -1.8 -1.8 -1.8 -1.8 -1.8 -1.8 -1.8 -1.8 -1.8 -1.8 -1.8 -1.8 -1.8 -1.8 -1.8 -1.8 -1.8 -1.8 -1.8 -1.8 22.5 39 49.3 62.2 64.1 61.4 61 55.7 55.7 51.4 55.3 66.3 69.5 74.8 68 62.2 54.6 56.4 54.7 33.6 25.2 19.4 12.8 8.2 7.4 -1.8 -1.8 -1.8 -1.8 -1.8 -1.8 -1.8 -1.8 -1.8 -1.8 -1.8 -1.8 -1.8 4 -1.8 -1.8 -1.8 25.7 27.4 39.6 54.6 53.9 60.8 59.1 40.6 37.7 31.9 21 23.9 31.2 39.3 48.2 57.9 54.6 54.6 57.3 56.8 42.8 42.1 36.4 30.5 28.2 29.4 32.4 35.8 35.8 23.7 22.4 22.1 26.1 30.1 34.2 34.9 37.5 32.8 34.4 34.9 33.5 37 48 46.9 56.4 56.8 66.9 65.4 84.7 87.4 83.9 84.5 92.4 100.9 107.1 106.2 102.1 105.1 106.3 115.6 120.3 132.7 152.5 153.8 156.9 149.2 129.4 128.2 114.8 104.6 89.1 78.6 77.9 75.1 72 75.7 72.8 68.6 75.4 83.4 94.2 107 121.1 129.2 138.6 157.9 173.7 149.9 164.4 157.9 143.5 117.3 83.8 72.3 53.1 38.6 34.4 29.9 31.4 32.5 33.8 38.3 42.8 52.7 63.4 70.9 77.7
17.2 17.8 15 -1.8 -1.8 -1.8 -1.8 -1.8 -1.8 -1.8 -1.8 -1.8 -1.8 -1.8 -1.8 -1.8 -1.8 -1.8 24 38.2 78.3 77.4 82.8 80.6 88.8 82.5 52.7 13.5 -1.8 -1.8 -1.8 -1.8 -1.8 -1.8 -1.8 -1.8 -1.8 -1.8 -1.8 -1.8 -1.8 -1.8 -1.8 -1.8 -1.8 -1.8 -1.8 -1.8 -1.8 -1.8 -1.8 11.7 21.1 34.8 49.2 56.8 57.6 53 52.5 52.6 58.6 55.5 54.5 55.1 60.6 65.9 65.7 57.6 47.4 43.3 36.1 31.1 25.8 18.9 15.7 9.9 -1.8 -1.8 -1.8 -1.8 -1.8 -1.8 -1.8 -1.8 -1.8 -1.8 -1.8 -1.8 8.8 13.1 22.3 22.6 33.6 44.6 57 53 59.6 67.4 70.7 74.3 63.9 41.5 31.2 34.8 36.9 38.6 42.7 50.2 59.3 63.8 66.6 69 78.8 74.6 63.3 55.4 47.7 43 42.1 40.6 39.3 37.5 41.7 34.1 33.6 34.7 43.4 47.8 44.6 47.5 49.9 53.4 53.5 65.4 64.8 78.6 82.3 87.9 89.6 93.7 100.4 98.3 97.3 97.4 106.3 118.4 130.8 138.7 140.8 134.7 152 164 170.9 190.6 204.7 206.7 216.5 225.1 213.4 181.3 169.1 153.2 143.8 138 125.5 120.3 113.6 94.7 100.2 100 101.4 108.9 114.9 133 165.8 180.2 176.5 203.5 209 231.7 224.5 202.7 206.9 173.9 151.5 132 106.4 88.7 68.5 46.2 36.5 36.5 34.4 35.7 34.7 37.9 39.2 42.3 48.5 56.7
31.9 38 36.2 25 -1.8 -1.8 -1.8 -1.8 -1.8 -1.8 -1.8 -1.8 -1.8 -1.8 -1.8 -1.8 -1.8 -1.8 31.6 55.3 84.8 96 101.2 99.9 99.5 86.4 58.6 35.1 15.7 -1.8 -1.8 -1.8 -1.8 -1.8 -1.8 -1.8 -1.8 -1.8 -1.8 -1.8 -1.8 -1.8 -1.8 -1.8 -1.8 -1.8 14.9 32.6 -1.8 -1.8 -1.8 2.3 8.6 18.9 24.3 31.9 38.9 46.4 43.5 43.6 44.2 46 45.8 48.6 50.6 52.2 52.3 49.3 43.5 37 35 34 25.1 20.2 13.6 9.2 -1.8 -1.8 -1.8 -1.8 -1.8 -1.8 -1.8 -1.8 -1.8 -1.8 -1.8 -1.8 12.9 19.2 43.2 53 47.3 60.2 65.7 64.5 64.7 73.9 75.7 74.5 67.9 55.6 50.9 48.5 49.5 51.9 56.6 58.1 71.5 70.1 73.3 78.8 83.1 97.5 85.7 75.7 63.7 59.5 53.4 50.8 47.6 42.8 45.2 47.4 46.2 46.9 59.3 63.6 62.1 67 72.2 79.1 95.2 97.9 94.2 100.7 102.2 100.1 102.1 104.9 108.9 107 113.9 121.7 137.1 154 173.5 178.3 186.2 209.3 200.3 227.4 273.6 274 277.3 281.4 285.2 285.3 280.2 243.7 228.6 193.2 180.9 186.9 172.3 161.8 141.5 113.2 125.5 130.4 142.4 158.9 174 174.9 214.7 223.6 256.9 272.2 297.4 306.1 289.5 266.4 249.9 228.1 191 164.8 143.3 118.9 93.8 68.1 54.1 41.7 38.4 38.2 38.6 38.9 39.6 40.1 41.9 45.8
40.6 59.1 71.6 49.5 21.3 8.8 -1.8 -1.8 -1.8 -1.8 -1.8 -1.8 -1.8 -1.8 -1.8 -1.8 -1.8 -1.8 38.6 60.7 87.7 103.7 108.3 109.8 106.7 96.2 59.6 44 25.3 -1.8 -1.8 -1.8 -1.8 -1.8 -1.8 -1.8 -1.8 -1.8 -1.3 -1.8 -1.8 -1.8 -1.8 -1.8 20.4 27.7 26 47.6 62.4 54.1 51.2 37.9 16.3 5.6 12.2 22.9 29.4 31.3 31.4 32.1 36.7 39.7 42.4 44.2 46.9 50.2 49.7 49.9 47.1 39.6 32.8 23.8 24.4 20.4 10.9 4.7 -1.8 -1.8 -1.8 -1.8 -1.8 -1.8 -1.8 -1.8 -1.8 -1.8 -1.8 -1.8 6.3 28.8 63.2 81 77.8 63.5 65.1 71.9 77.3 81.1 81.5 71.6 67.2 65.2 62.7 62.2 55.8 58.8 61.1 66.8 77.7 82.3 81.1 87 88.1 95 104 89.1 77.8 68.3 63.6 62.2 60.5 56 52.6 54.1 56.3 62.3 71.7 74.8 82.1 91.7 104.7 110.2 112.3 111.9 111 111.3 113.7 110.5 111.9 117.1 121.1 128.7 138.3 151.6 182.7 226.5 236 247.6 246.7 266.6 252.3 297.1 312.9 324.2 327.1 325.5 320.7 316 313.5 303.5 281.7 241.5 242.5 263.9 221.7 182.1 138.5 146.8 155.4 166.6 201.8 203.4 235.2 258 269.5 290.5 294.8 303.1 315.8 324.4 322.7 314.3 282.7 256.8 213.2 221.7 185.7 144.4 115.6 92.2 78.4 66.7 62.5 50.9 44 43.5 44.9 46.7 50.5 59.2
49.6 66.5 84.6 72.3 39.4 19.2 -1.8 -1.8 -1.8 -1.8 -1.8 -1.8 -1.8 -1.8 -1.8 -1.8 -1.8 18.7 29.4 61.1 85.1 106.6 107.4 114.5 113.2 90.4 64.9 51.9 24.8 -1.8 -1.8 -1.8 -1.8 -1.8 -1.8 -1.8 -1.8 -1.8 16.1 -1.8 -1.8 -1.8 -1.8 13.5 35 49.2 48.7 47.6 67.7 76 73.8 78.9 70.5 54 28.3 18.5 20.6 30.8 30.5 34.9 39.7 40.7 45.1 46.9 51.6 52.8 54.7 54.6 55.9 54.1 43.6 27.8 18.4 12.4 8.9 -1.8 -1.8 -1.8 -1.8 -1.8 -1.8 -1.8 -1.8 -1.8 -1.8 -1.8 -1.8 -1.8 11 37.1 70.6 89.5 95.7 83.2 80.1 69.6 81.3 83.8 84.6 77.3 72.8 78.7 86 87.1 75.2 68 68 74.3 82.4 89.7 97.9 97.1 95.9 97.8 100.6 98.9 86.4 77.1 73.4 69.2 67.8 67.4 72.9 75.6 81.2 87.2 99 104.1 114.5 125.3 126.2 127.1 122.4 121.4 119.2 120.6 122.1 125 130.2 136.8 142.1 158.7 176.8 213.5 236.6 247.9 264 299.9 306.3 298.5 297.3 317.1 342.5 348.8 353.2 356.4 354.3 345.9 337.2 325.5 318.4 315.4 307.8 295 226.7 178.6 170 172.1 183.8 222.5 257.1 287.2 282.2 311 320.7 318.9 317.3 325.9 331.1 332 332.4 333.5 308.2 289.8 262 258.1 229.9 185.8 150 120.6 114.5 101 87.1 72.6 68.8 66.6 64.1 64.2 66.1 74
