ncols 200
nrows 82
xllcorner 390000
yllcorner 605050
cellsize 50
401.4 401.8 398.2 393.3 387.4 374.4 364.5 354.5 342.9 330.3 334.6 333.9 331.1 327.6 319.3 304.3 308.6 324.9 339.5 345.7 345.8 340.8 332 317.6 292.3 274.4 270.3 264 261 257.6 251.3 245.7 237.8 234.3 234.5 243.8 248.9 248.9 237.5 221.7 213 209.4 210.9 247.4 284.5 317.8 325 324.6 317.3 295.8 269.4 248.2 237.7 267.5 290.9 307.7 319.8 331.4 332.3 326.5 321 311.4 308 309.1 317.1 324 329.7 334.6 337.9 342.9 349.6 354.4 362.9 366.8 370.9 372.1 375.7 378.4 378.8 378 374.3 370.5 368.8 368 371.5 375.8 378.6 380.5 383.3 384.5 384.3 384.5 382 378.2 374.3 369.7 364.5 349.7 323.8 304.2 285.1 283.7 306.1 330.4 351 369.3 383.1 391.5 395.4 394.4 390.8 387.2 383.5 379.6 370.3 358.5 347.8 338.3 330.9 325.6 321.5 319 317.8 316.3 312.3 312.3 315.5 316.2 315.3 313.2 310.5 308.5 306.6 303.7 299.8 296.6 294 291.5 289.1 284.5 278.2 273.7 269.9 264.3 261.5 257.5 253.6 251.8 253.2 251.7 252.4 254.2 254.1 253 251.4 251.5 251.7 249.9 246.8 242 239.1 234.6 231.3 228.8 224.8 218.8 211.9 201.5 197.2 193.3 187.9 184.5 180.5 178.3 176.1 174.8 171.9 170 168.5 167.6 165 162.3 161.9 162.1 157.6 156.5 157 158 168.1 174.3 179.6 184.6 188.1 189.4 188.6 185.5 184 182.9 181.4 180.8
400.2 401.1 400.5 397.5 392.1 384.6 372.2 359.6 350.2 339.5 326.4 317.3 318.5 313.6 305.6 317.5 334 346.7 356.1 356.1 352.1 345.4 336.3 323 296.2 302.7 297.8 290.9 290.9 286.8 279.3 275.2 258.7 249.5 261.8 272.7 270.7 258.2 240.5 224.1 210.3 209.2 211.9 250.5 287.9 315.5 323.4 320.4 310.6 286.2 259.7 233 251 281.4 305.8 321.1 332.8 338.9 341.6 335.5 330.3 327.1 327.1 329.6 330.9 330.4 333.8 338.9 341.2 347.2 352.1 359.6 364.4 367.6 369.6 372.4 375.4 376.9 377.2 374.3 370 366.3 364.5 363.5 364.3 367.2 371.7 378.4 381.9 385.3 387.4 387.2 385.2 381.8 379.1 375.3 369.5 357.2 330.2 308.5 290.1 275.1 297.9 319.3 342 363.1 379.1 387.8 392.2 392.6 389.7 385.4 380.4 378.1 370.6 357.7 348.3 339.5 332.4 328.3 324.5 323.3 320.7 315 311.7 313.7 314.4 313.8 312.4 308.7 305.9 305.2 303.2 301 296.9 291.5 287.3 284.7 281.9 276.7 271.6 268.6 264.6 258 253.1 248.3 247.5 249.3 248.6 245.8 247.2 249.7 250.6 248.8 248.4 249 249.3 246.7 240.6 236 232.7 228.7 224.7 221.9 216.8 209 201.1 198.5 190.8 186.8 183.8 182.2 180.9 176.9 174.5 172.7 170.8 168.4 167 167.1 164.3 161.2 159.8 159.6 157 156.3 155.5 157.2 164.6 172.1 177.3 182.2 185.5 187.8 187 183.6 182.1 180.6 179.4 178.7
400.2 403.5 404.1 402.1 399 392.9 385.8 375.7 362.8 351 340.4 331.9 324.1 322 326.2 336.4 351.9 361.5 361.9 357.9 352.3 345.8 336.8 323.3 318 325.5 327.5 323.8 322.8 316.7 308.4 294.3 268.4 269.8 286.3 289.7 283.2 265 243.3 224 208.8 207.3 225.4 263.2 295.5 308.8 316.6 315.5 303.4 276.5 250.5 227.7 257.8 289.5 314.5 331.9 338.4 340.9 342.4 340.1 336.8 339 338.3 338.3 337 336.2 336.5 339.2 342.6 349.2 353.7 357.8 361.4 365.4 366.2 369.4 371.1 371.6 370.1 368.6 364.5 361.7 359.5 358.5 359.9 362.5 367.8 375.9 383.5 387.4 389.5 389.4 387.4 384.5 381.4 377.8 372.4 363.9 340.1 315.6 297.6 275.7 285.2 308.5 332.9 355.6 373.7 382 387.4 391.1 390.5 386.2 378.9 372.7 367.5 356 347.1 341.3 336.5 330 328.8 324.3 319.8 317.1 314.8 313.2 313.4 312.5 309.6 306.3 303 302 299 295.6 291.8 286.8 282 277.4 274 270.2 267 261.5 256.5 250.2 245.8 244.8 244.5 242.9 240.6 242.1 243.2 246 246.2 246.9 247.3 244.8 242.1 238.5 235.3 231.3 228.8 224.6 220.7 211.5 203.5 200.7 194.2 191 186.5 184.3 183.1 181.4 177.8 175.6 173.6 171.8 169.6 166.7 165.9 165.2 162.5 159.4 157 156.6 155.3 155.8 154.6 154.7 162.7 171 177 181.1 184.2 185 184 182.5 180.2 178.5 177.9 177.8
400.3 404.7 406.9 406.8 404.5 399.7 394.5 388.6 381.1 370.6 360.2 352.7 346.3 343.1 347.8 353.4 358.7 361.6 360.9 356.9 351.1 345.6 338.6 333.4 333.3 338.4 340.6 339.5 335.4 328.2 319.8 296.3 272.1 287.8 302.1 306.1 292.1 270.4 245.6 224.4 208.7 206.6 228.1 262.9 289.3 301 307 306.5 298.4 268.8 244.5 230 260.9 290.8 315.4 335.8 338.6 341.6 343.6 341.7 342.3 344.5 343 342.9 340.4 339.4 339.3 341.4 343.7 350.1 354 356.8 359.1 361.1 362.3 363.9 364.6 365.2 365.3 361.6 357.7 355.2 354.1 354.3 356.3 360.5 370.9 379.6 385.6 389.8 391.9 389.6 387.4 384.6 380.9 377.3 372.9 366.8 355.5 328.8 304.5 283.6 272.5 298.2 323.2 347.1 365.6 375.6 382.2 383.2 385.6 380.8 372.9 367.8 360.4 351.9 345.4 340.5 335.9 332.4 328.3 325.4 323.8 320 316.5 314.3 313.3 312.2 308.5 302.4 298.6 295.4 292.8 288.7 285 281.6 277 265 264.7 260 254.9 252.1 249.9 244.8 242.4 239.5 237.8 236.5 236.1 237.8 240 242.5 243.5 244.4 243.2 242 237.5 234.6 231.7 227.8 225.3 220.4 213.4 204.3 196.7 197.3 193.3 186.7 184.3 182.1 180.6 177.6 177 174.8 172.7 170.9 168.4 165.2 163 161.7 158.5 156.7 154.8 155 155.2 154.7 153.9 153.8 161.4 170 176.4 180.3 183.3 183.2 182.8 181.5 179 177.5 177.3 177.4
399.6 404.3 407.9 408.6 407.1 401.8 397.7 393.2 386.1 379.4 371.5 362.8 357.9 355.4 356.4 357.9 358.2 359.7 357.9 354.6 351 347.3 345 344.2 346.1 349.5 350.1 345.3 338.1 330.5 315.3 296.5 285.6 302.5 316.1 315.6 302.4 275.7 250.1 226.1 208.2 205.8 225.5 257 281.1 295.6 299.2 300.3 292.5 263.1 238 232.3 264.6 293.1 312.6 329.4 335.6 339.4 343 345 348.1 349.8 348.3 348.3 345.3 342.7 342.4 341.2 343.4 348.8 351.5 354.4 356 355.4 355.9 358.3 360.9 361.2 358 354.9 351.8 349.4 348.3 348.9 354.8 365.5 374 382.5 387.6 392 391.9 389.2 387 383.7 379.9 375.9 371.7 366.6 363 338.8 311 291.4 268.8 287.1 313.3 336.8 354.6 367.3 374.8 375 376.3 372.3 365.7 360 354.3 347.7 345 340.8 335.9 330.6 331 328.8 323.1 320.2 316.7 313.1 310 307.9 305 298.2 292.8 287.5 281.2 277.3 275 270.3 265.5 257.5 254.6 250.8 247.7 245.4 242.7 239.8 237.3 234.5 233.1 233.1 233.6 236 238.3 240.7 241.2 241.2 239.4 236.9 233.6 230.6 227 222.6 215.1 207.3 203.6 197.8 192.3 191.9 188.1 184.4 184.1 183 180.3 177.1 174.5 173.7 171.7 170 167.6 164.7 161.5 158.9 157.6 155.1 154.1 154.6 154.3 153.9 153.4 152.9 160.5 168.6 174.1 178.4 181.3 182.8 182.4 180.2 178.1 177 177.2 177.5
396.5 401.1 405.7 407 405.9 401.6 397.1 392.3 386.3 378.5 370.2 363.8 359.9 358.8 357.2 356.7 356 356.1 356.2 355.2 353.5 352.1 352.1 351.7 353.9 354.8 351.5 347.1 340.4 331.1 312.7 295.8 303 314.3 323.7 323.4 308.2 283.3 255.9 232.8 208.7 206.5 220.8 247.6 271.1 281.9 289.9 295.2 287.5 260 232.9 230.6 261.9 280.1 297.1 310.9 327.4 336.8 345.6 351.1 352.5 351.7 350.4 348.2 345.9 343.3 341 340.5 342.4 345.7 347.6 348.1 348.6 348 347.6 349.9 353.6 353.9 351.5 348.2 345.6 343.7 342.4 347.7 359.4 368.9 376.6 384 387 389.9 387.8 387.4 385.1 382.4 378.6 374.1 369.9 364.8 360.8 346 318.1 293.7 269.2 274.9 301.4 325.3 345.8 360.3 367.4 365 362.1 359.5 354.2 349.7 344.3 341.6 341 337.4 330.2 336.6 335.8 331.5 326.8 321.1 316.2 310.8 307.2 303.7 298.5 291.9 284.1 277.1 270.7 265.6 261.1 257.6 252.7 248.4 243.9 242.2 241.3 239.2 236.8 235.2 233.3 231 230.9 232 233.1 237.2 241.4 243.5 242.3 240.5 239.1 235.3 231.5 227.6 219.2 214.3 210 206 200.5 195.6 191.9 188.5 186.2 185.2 183.5 180.1 176.7 174.9 174.3 172.8 170.6 168.8 166.6 163.6 160.9 158.1 155.7 153.4 153.4 153.3 153.2 153 152.2 152.1 158.3 166.9 172.4 176.5 179.5 181.9 181.5 179.7 177.8 177.2 177.5 179.6
392.8 397.3 399.5 403.4 404.7 400.4 394 387.1 380.7 373.4 366.5 361.6 359 356.1 354.9 354.3 353.9 353.6 354.5 355.7 356.5 356.8 357.8 358.8 360.4 359.2 353.2 346.1 340.8 330.4 313.9 303.8 315.3 326.6 333.6 332.4 317.7 293.3 267.1 242.5 217.3 205.9 209.8 229.4 249.1 262.8 276.2 287.9 280.8 256.1 233.3 225.4 250.4 264.4 283.9 308.6 328.2 339.3 346.3 349.7 349.7 348.4 346.8 343 341.1 339.2 337 336.5 339.3 341.7 343.3 343 341.2 339.8 337.9 338.3 340.1 344.5 344.6 341.8 339.5 338.7 340.4 351.5 364.3 372.8 378.7 383.2 387.2 386.5 387.7 388.7 386 382 377 372.4 367.5 362.5 357.4 348.8 322.4 296.6 275.1 265.1 290.6 316.8 339.7 351.4 355.7 356 349.7 343.6 337.6 335.6 331.4 330.7 332.3 332.9 336.2 336.6 332.6 329.5 325.2 318.3 310.6 306.5 303.4 298.6 290.3 282.7 274.1 265.7 257.5 254.1 250.9 247.2 242.9 238.9 235.1 233.7 233.8 233.6 232.7 231.7 230.1 228 231.6 234.8 239.9 244.1 244.7 244.9 242.2 238.9 235.7 231.2 226.4 223.1 218.4 212.8 207.4 201.1 196.2 193.6 190.4 188.5 186.5 183.8 180.3 177.6 176.2 175.5 174.6 171.9 169.7 167.4 165 162.2 159.9 157.7 154.5 152 152 152 152.4 152.2 150.9 151.4 157 165.7 170.7 174.5 177.6 180 180.8 179.4 177.6 178 180.1 183.8
392.1 394.6 396.3 397.7 399.9 397.5 390.2 380.7 372.9 367.1 362.6 360 356.8 353.7 351 350.1 350 350.2 353.3 355.6 357.5 360.8 363 365 364.5 360.2 353.6 348.6 343.5 335.4 322.7 314.9 324.3 334.3 338.8 337.2 329.6 306.7 280 256.2 230.4 206.9 203.9 212.5 225.6 240.6 257.5 271 275.6 250.3 227.5 223.1 248.5 274.5 297.3 316.1 328.9 337.5 342.3 343.8 345 344.1 340.8 339.4 338.6 336.9 334.2 333.1 336.7 338.7 338 335.9 333.9 331.9 330.1 329.2 331 333.1 335.5 335.3 334 335.7 346.2 359.3 367.7 374.3 380.2 384.7 384.2 384.2 385.4 385.2 382.1 378.3 373.7 367.6 362.5 358.7 353.7 345.7 327.1 300.6 279.2 259.3 283.1 310.5 332 341.6 346 343.8 335.9 327.4 320.8 317.5 316.1 318.4 324.2 327.7 329.1 332.1 329 324.5 319.2 313.1 305.5 299.1 294.9 287.7 280.2 271.2 260.9 251.5 248.1 244.2 237.5 237.2 233.3 230.6 229.4 226.9 226.4 226.8 227.8 228.3 227.3 229.9 235.4 243.5 247.1 247.9 244.7 241.1 237.4 232.4 229.6 226.4 225.1 220.4 214.2 208.7 203.1 197.4 194 190.8 188.4 186.6 183.9 180.9 177.8 176.3 176.2 175.2 173.3 171 169.2 167.7 164.5 161.4 158.6 156.2 153.7 150.8 151.3 151.3 151.4 151.3 150 150.7 155.8 163.7 169 172.3 175.4 177.6 178.5 179.2 177.6 180.3 183.4 186.5
391.8 393 394.3 393.8 391.7 388.4 383.2 375.1 368.2 362.6 358.2 355.2 353.9 352.2 348.4 346.2 346.5 347.7 350.9 355.8 358.9 363.3 366.6 369.3 366.8 360.6 354.9 350.6 345.3 339.1 329.8 325.4 330.6 337.6 341 340.8 339 322.1 295.4 268.6 242.5 220.1 203.6 203.5 207.2 223.4 239.2 253.3 261.4 245.3 220.3 223.4 255.9 287.3 306.5 318 327.5 337.3 340.7 342 341.5 340.3 336.7 335.6 335.6 332.5 330 330.5 335.1 335.9 334.6 330.6 327.9 325.7 322.9 321.9 324.3 327.4 328.8 328.2 334.2 348.5 354.3 363.4 369.8 373.9 377.5 377.6 381.7 381.1 380.3 378.9 375.5 371.2 366.1 359.7 356.7 353.5 349.1 342.3 330.9 303.9 280.6 259.8 275.6 302.7 320.6 329.6 329.6 324.4 316.4 311.5 304.8 299.8 300 305.3 314.3 295.9 280.4 279.3 285.9 281.3 292.7 305.7 300.6 291.4 284.8 277 269.4 257.6 249.4 244.8 240.4 235.8 231.1 227.3 225.7 224 222.6 221.5 221.2 222.3 223.3 223.4 226.4 231.6 240.7 246.7 247.1 243.9 240 234.2 229.1 227.2 225.3 222.9 220.3 212.7 206.3 203.4 199.4 197 194 191.1 187 184.9 181.8 178.1 175.9 175.2 175.2 174.4 171.9 169.9 168.5 167.4 164.9 161.5 158.7 156.2 152.6 150.1 150.6 150.4 150.3 150.3 148.4 149.4 152.5 161.7 167 170.1 172.6 174.6 176.3 176.8 177.2 180 184.8 186.4
390.2 391.8 393 392.7 389.5 384.7 377.1 370 364 358.7 355 352 349.8 346.7 344.6 343.3 342.9 343.3 345.5 353.4 359.1 364.6 368.5 368.6 364.9 361.3 355.2 350 344.7 340 333.2 331.5 336.3 340.1 342.5 345.5 343.1 334.4 308.3 281.9 263.2 245.3 221.2 202.6 201.4 202 221.8 234.8 243.4 238.5 209.7 228.2 261.7 292.1 307.3 319.5 327 337 339.7 339.2 338 336.2 333.7 331.8 329.3 329.4 327.1 326.7 329.5 330.8 329.1 326.5 323.6 320.2 316.6 315.5 318.7 318.7 318.1 332.3 343.6 355 361.8 364.7 368.7 371.8 370.9 370.3 373.2 371.3 370.4 369.5 366.5 363.9 359.8 353.8 350.4 346.1 341.7 335 328.9 307.1 284.1 264.5 266.9 293 304.4 307.2 304.6 303.1 300 292.2 286.6 284.7 287.9 296.2 283.8 260.7 259.1 255.6 249.7 251.4 259.4 283.4 291.8 284 277.1 266.3 254.1 247.6 242.3 237.1 233.6 230.2 225.9 223 218.1 216.9 217.2 216.7 217.9 218.8 219.4 217.1 223.6 230.8 240.3 242.6 239.8 235.2 229.8 225.6 223.2 221.4 219.4 215.6 213.1 209.8 206.3 205 202.3 197.1 193.4 189.6 185.8 183.3 179.1 177 175 173.8 173.7 172.7 170.5 168.8 167.8 166.1 164 161.6 159.2 156.7 153.8 150.3 149.9 149.7 149.4 149.4 148.7 149 151.7 158.3 161.9 168.3 170 171.8 173.6 176 176.8 181 186.7 187.6
387.7 391 390.3 389.3 386.1 378.7 371.9 366.3 360.4 355.9 351.9 349 346.2 342.9 341 339.6 339.5 339.4 340.9 345.1 352 358.6 362.2 360.8 358.1 354.9 350.4 345.3 341.5 338.9 336.1 336.5 339.3 342.2 346.1 345.6 343.9 336.7 321.3 298.4 285.1 269 245 222.3 201.6 200.9 200.8 216.1 231 228.1 207.6 235.7 268.6 296.5 307.6 315.6 322.4 332.8 337.9 336.1 333.9 330 327.7 326.9 324.2 323.3 320.5 322 323.1 326 323.2 321.8 319 313.6 310.3 308.1 306.8 311.3 324.7 342.7 354.2 359.8 364.3 369.1 369 367.8 365.4 364.4 364.3 364.3 364 362.2 361.3 359.3 354.3 349.4 344.7 338.7 332.6 327.1 320.5 310.7 288.8 269.1 256.8 277.7 280.5 275.5 276.2 277.1 272.6 268 268.4 273.3 279.4 274 260.2 258.5 259.3 259.6 259.9 261.9 270.3 283.8 282.9 274.8 263.7 254.4 245.8 240.9 236.3 232.4 228 225.5 222.4 219.6 215.2 213.5 212.6 213 212.7 214 214.7 215.9 217.4 223.8 228.5 229.7 227.7 224 220.1 219.2 217.7 216.8 215.1 212.4 212.5 213 212 207.8 202.1 195.6 191.7 188.4 184.1 179.7 177 176.2 174 173 172.2 171 171.1 170.5 168.8 166.5 164.2 161.8 158.4 155.7 153 150.3 148.3 148.5 148.6 148.6 148.2 147 153.3 157.1 161 164.4 167.9 169.7 172.8 177.2 177.4 183.8 186.4 187.4
386.9 388.7 387 384 379.5 373 366.8 361.6 357.1 353 349 346.8 344.6 341.8 338.5 336.1 336 335.9 337.7 340.3 344.2 348.7 351.9 351.2 348.6 345.4 340.7 339.8 338.5 337.8 338.2 339.8 342.6 345.3 348 345.5 342.2 338.6 330 317.2 298.5 285.3 264.7 240 216.7 200.2 199.8 200 213.7 212.4 210 241.8 272.8 291 299.5 307.3 314.5 323.1 332.4 330.7 325.1 321.6 319.6 317.7 316.4 314.5 313.4 313 314 319.3 316.3 313.6 309.7 306.2 302.8 298.7 304.8 318.9 336.3 349.5 356.7 361.7 365.9 368 369.4 364.6 361.1 359.1 357.9 356.4 356.6 355.8 354.1 351 346.1 340.6 335.2 330.1 324.2 319.8 314.2 306.3 294.6 276.9 254.7 256.5 259.5 258.7 259.7 259.1 258 258.3 260.2 262.9 269.7 256.7 256.2 255.4 257 274.2 276.3 276.2 274.3 269.8 263.2 255.4 248.8 243.3 239.4 236.2 232.5 228.8 224.1 220.9 217.8 213.9 211.1 212.3 207.2 207.5 209.5 208 208.9 209 208.9 213 213.6 214.9 212.9 213.2 213.7 213.6 213.6 213 212.2 212.9 217.1 215.3 214.3 209.3 200.7 194.2 191.9 185.9 182.3 178.4 176 173.9 172.7 172.5 171.1 171.6 172.5 170.9 168.9 167 165.2 163.3 160.6 157.6 154.5 150.7 148.1 147.7 147.7 147.8 147.6 146.7 149.6 153.9 157.7 161.4 164.7 165.2 169.6 177.5 181.8 182.8 184.8 187.9
385 384.1 380.2 376.3 369.8 366.2 361.3 357.6 353.9 350.2 346.4 344.1 342.1 340 337.1 333.6 330.9 330.7 333.6 336.9 341 344 344.4 342.2 341.3 338.1 335.2 333.6 335.8 337.4 341.2 343.4 347.8 350.3 349.5 346.4 343.2 337.1 329 322.1 309.5 297.9 277.3 255.5 232.9 217 200.3 198.4 198.9 202.9 217.5 243.5 271.6 277 280.8 286.5 295.6 308.8 318.9 319.6 315.1 309.8 305.7 306.3 307.2 305.4 303.8 304.7 304.5 303.1 301.7 299.7 294.7 292.1 294.9 308.9 321.2 335.6 346.1 356.9 362.3 365 368.1 366.8 365.3 361.7 358.9 352.7 350.1 345.5 348.2 344.8 342.6 339.4 334.6 329.7 324.1 317 313.3 310.2 306.3 301 294.2 282.3 266 251.5 246.2 246.7 255.9 259.8 258.2 254.1 253.6 254.5 259 262.6 256.2 260.6 257.8 256.4 252.5 251.1 250.3 246 246 241.9 239.9 237.5 234 231.3 227.8 224.2 221.1 217.4 213.3 210.7 207 204.7 201.4 201.8 202.4 202 201.1 200.8 201.8 203.4 203.6 202.6 202 203.4 204.4 205.9 207.6 208.4 208.5 207.7 207.2 209.4 208.6 202.1 197.8 192.4 188 184 180.2 177.8 175.9 173.6 172.1 171.6 172.3 173.7 173.1 171.2 169.4 167.6 166.2 164.6 162 158.7 155.3 151.6 148.1 147.1 147.6 147.1 146.4 145.9 146.5 150.1 154.3 158.2 159.3 165.7 170.4 176.3 180.8 181.1 185.1 188.1
381.7 377 372.2 368 363.1 360.3 357.6 354.3 350.7 347.2 343.9 341.5 339.5 337.1 334.6 332.1 328.2 325.6 330.5 334.4 337.6 339.2 338.6 335.7 334 331.8 330.8 332 334.3 338.3 343.5 350.8 354.4 353.9 350.9 347 342.1 333.8 326.8 320.7 313.5 306.6 293.2 269.8 250.1 239.6 224.7 204.4 198.2 199 213.1 231.7 249.8 257 261.8 265.8 273.4 281.9 294 301.8 296.5 290.6 285.7 283.9 287.3 292.3 292.2 292.3 290.6 287.8 284.5 282.2 284.4 300.8 312.4 325.3 335.4 345.8 356.3 361.9 367 369.1 368.1 366.5 361.8 356.8 352.6 346.9 340.1 333.1 333.4 331.7 328.4 324.2 319.9 316 310 305.8 303.3 299.9 297 296.7 291.5 283.5 276.6 270.5 258.5 242 254.4 256.6 253.8 250.9 247.5 245.2 242.8 244.8 244.8 244.6 242.2 241 240.1 238.7 237.3 236.2 236.2 235.9 234.6 232.1 228.2 225.5 222.3 216.2 213 211 209.2 205.1 204.9 205.3 202.8 199.2 200 198.7 195.7 195.3 194.8 194.8 195.1 195 195 195.2 197.2 199 200.8 201.9 201.2 200.9 199.7 198.5 199 195.1 194.6 190.3 186.8 182.4 179.1 177.7 175.8 173.4 171.8 172.7 174.6 174.4 173.4 171.7 169.8 168.1 166.7 164.6 162.1 159.2 156 152.5 149.3 147.1 146.6 145.7 146.1 145.8 145.5 148.1 151.3 155 160 165.4 169.1 174.4 179.7 181.5 184.4 187.3
374.9 369.6 363.2 360.1 358.1 356.6 355.7 352.9 351.1 347.2 342.9 339.2 335.7 333.5 331.3 329 326.5 321.7 323.9 328.3 330.1 330.3 329 325.9 323.5 322.3 322 324.7 328.6 338.6 350 357 359.7 358.1 352.9 346.6 340.8 333.5 326.5 321 316.8 310.2 303.7 288.2 272.3 265.5 248.7 226 201.3 196.1 197.4 212.7 229 238.3 242.7 245.5 248.9 254.6 264.5 275.9 275.9 270.2 265.5 263.5 265.9 271.8 276.9 277.9 276.8 274 272.3 284.6 302.2 316.4 326.4 339.6 350.4 358.3 363.7 367.8 367.2 368.7 368.3 363.4 360.3 357.4 351.9 345.7 338.8 327.8 323.3 317.6 315.7 313 312 307.8 303.1 298.1 295.9 291.6 288.5 286.5 282.6 277.9 272.5 267.8 260.5 241.7 251.3 250.7 250.8 247.1 240.8 237.3 238 236.8 235.2 234.7 234.7 233.7 233.6 233.4 233.6 232.5 229.5 230.2 227.3 224.7 222.1 219.7 216.1 211.6 208.3 206.1 204.8 202.5 202.5 202.3 200.9 195.9 195.3 195.1 191.1 189.5 189 188.9 188.4 188.1 187.9 188.2 190.1 192.1 194 194.4 193.6 194.1 193.3 192.4 190.6 188.6 187.8 185.3 182.5 179.7 177.9 175.6 173.2 171.9 173.1 174.3 174.9 174.3 173.4 172 170.3 168.6 166.7 164.5 162.3 159.2 156.2 153 149.8 147.7 145.9 145.7 145.2 144.2 145.1 147 150.4 154.7 159 163.6 168.3 172.4 178.1 180.9 183.3 185.8
368.7 363.1 357.6 355.1 354.3 354.2 353.2 352.4 350.7 348.3 343.3 338.9 335.1 331.2 329 324.9 322.7 319.3 315.6 318.6 318.8 317.7 318 316 314.3 310.9 307.9 313.4 329.1 341.4 351.6 361 363.4 361.2 355.7 347.7 340.5 333.7 327.4 322.3 318 313.3 305.4 297.8 293.3 287 270.1 245.1 220 196.2 195.6 197.7 211 222.7 226 225.3 226.7 231.7 239.2 248.4 250.1 249.8 245.3 241.4 246.5 249.7 257.7 260.2 265.3 281.5 294.7 310.6 322.8 333.1 343 352.3 358.2 364.5 368.8 372.1 373.8 372.4 367.2 361 357.4 352.5 348.4 344.2 335.5 326 313.6 306.3 304.8 303 301.2 299.1 295.7 290.8 287.8 283.5 277.7 273.5 270.3 266.4 264.8 260.4 258.3 242 240.8 236.3 233.4 227.4 223.9 222.8 226.2 226.3 231.2 231.6 229.3 228.3 226.6 226.7 227.3 225.4 223.3 222.4 219.8 217 215.3 212.6 210.2 207.8 205.8 204.1 202.2 200.7 199.9 198.1 196 192.8 190.6 190.2 187.5 185.4 184.5 184.3 182.8 181.8 181.9 182.3 183.6 184.6 185.6 185.6 185.8 186.8 187.4 186.8 184.6 183.4 182.5 181.6 180.5 178 175.4 172.3 171.6 170.8 171.6 172.7 173.2 173.5 173.4 172.2 170.6 168.8 166.6 164.4 162.2 159.5 156.3 153.1 150.4 149 147.4 144.2 144.3 144 143.6 145.7 149.1 153.5 159.4 163.9 168 172.1 176.9 179.8 182.4 184.3
360.6 355.4 351.9 350.2 351.1 352.3 352.5 350.9 348.1 345.7 343.3 339.3 335.8 332.4 332.2 328.7 323.9 319 315 309.1 309 308.9 310.1 305 299.5 299.3 290 300.6 311.1 317.3 332.4 351.6 362.6 359.2 352.7 346.2 337.3 332.2 326.4 321.5 316.5 311.8 305 299.7 299 289.9 280.2 263.1 239.6 217.2 200.9 195.2 195.4 207.7 206.7 205.7 208.8 215 218.3 221.8 225.1 229.2 242.2 253.6 258.2 261.3 266.2 272.9 289.7 300.3 314.3 329.2 341.8 351.6 357.1 361.2 364.7 369.9 374 375.9 378.3 375.2 368 360.3 356.7 350.9 346.3 342.1 334.8 323.8 315.6 306 298.3 292.1 290.6 288.7 285.9 283.5 280.6 274.2 268.5 265 261.5 259 257.6 255.3 254.5 247.9 238.6 238.8 239.9 237.4 232.9 228.9 223.6 218.7 216.4 216 218.3 223.6 222.2 219.8 219.9 217.9 216.1 215.4 213.9 212 210.3 208.2 206.1 204.2 202.7 201.3 198.8 198.1 196.8 195.9 194.1 191.7 187.9 186.7 184.7 183 181.4 180.2 179.5 178.7 177.7 177.3 178.1 178.8 178.7 177.9 178.1 179.5 180.1 179.6 179.5 178.3 177.9 176.9 175.1 174.6 172 170.8 170.1 169.4 169.7 170.3 171.2 171.9 172.3 171.9 170.3 168.6 166.3 164.1 161.8 159.4 156.9 154.1 150.8 149.4 147.5 143.8 143.1 143.2 142.7 144.3 147.9 152.6 159 163.4 167.5 171.7 175.6 177.7 179.2 182
355.7 349.8 346.4 345.8 347.8 350.7 352.8 352.3 348.9 346 342.5 339.4 335.9 335.8 335.6 332.2 326.5 320.9 315.3 313.3 310.8 309.9 295.2 294 291 288.3 285.3 276.7 289.3 297.3 314.7 325.5 330.2 333.2 335.9 339.1 334.5 329.1 323.8 316.8 311.9 306.2 301.4 295.9 293.2 287.9 278.1 267.4 246 225.8 210.5 194.5 193.9 198.2 208.8 229.8 233.5 233.7 235.1 239.8 248.5 259.3 272.1 281.8 286.2 285.4 284.8 291 305.9 318.3 330.2 342.9 354.9 363.5 369.3 373.3 374.2 375 377 378.1 375.4 372.3 363.9 356.9 353.2 346.9 341.7 336.7 328.8 319 310.8 304.1 297.6 291.2 284.2 278.9 276.2 274.5 272.3 265.6 260.4 259 257 255.6 254.4 254.4 253.6 251.4 247.7 245.3 247.4 243 239.6 237.2 231.7 226.7 220.9 215.8 211.9 212.2 211.9 212.1 214.7 213.5 212.1 210.9 210.2 209.2 208.1 206.3 204.4 201.8 200.1 198.6 196.3 195.3 194.4 193.5 190.7 187.9 185.8 184.1 182.6 181.3 179.5 177.3 176.7 174.8 173.2 172.4 173.4 173.5 174 173.4 173.4 174.1 175.2 175.1 174.4 174.3 174 172.5 171.3 170.4 168.3 167.8 167.5 167.1 167.2 168.7 169.7 170.5 170.9 170.3 168.2 167 165.7 163.5 161.2 158.7 156.8 154.9 151.8 150 147.9 144.6 142.4 142.3 141.9 142.8 146.6 150.9 156.8 162.2 166.8 170.7 173.1 174.8 178.4 181.7
352.5 345.8 341.5 343.6 347.6 350.1 351.1 350.2 348.4 346.1 342.2 339.7 336.7 336 335.3 331.3 324.7 320.3 320.5 318.9 315.6 312.1 308.2 307.9 305.4 306.9 306.9 293.2 274.6 277.5 292.6 297.7 302.3 305.9 314.5 330 332.1 324.3 319.4 312.6 306.2 300 295 289.9 286.2 281.9 272.6 259.6 241 222.6 206.1 193.1 193.7 196 217.8 246.4 264.1 263.5 265.9 269.9 277.7 289.4 300.1 306.8 309.8 307.5 306.6 310.1 320.9 334 346.7 360.1 369.6 376.5 380.7 380.8 378.3 377.2 376.2 374.3 369.6 365 358.2 354.3 343.8 337.6 332.7 328.2 319.8 312.9 306 299.9 294.9 289.7 278.2 271.3 272.5 269.8 265.4 260.4 258 254.6 252.4 251.5 250.8 252.8 252.2 249.6 246.9 245.8 243.7 239.7 236.2 233.8 231 227.5 223.1 218.2 214.2 210.8 208.6 208 204.8 206.7 208.8 207.8 207.8 207.4 205.8 204.6 202.6 199.2 197.2 195.6 194.2 192.3 191.5 190.4 187.9 186.4 184.6 182.9 181.2 178.4 177.6 175.4 172.9 171.2 170.2 169.6 168.6 167.8 171.1 172 170.8 171.2 171.3 171.3 171 170.2 169.7 168.6 167.6 167.2 166.4 165.5 165.1 164.7 164.9 166.6 168.1 168.5 169 168.2 166.2 165.2 165 162.8 160.5 158.3 157.1 155.4 152.5 149.2 147.7 145.1 142 141.5 142.1 142.1 147.2 151.1 154.9 160.8 165.4 169 171.9 174 177.5 180.4
346.6 339.9 334.6 341.6 348.5 351.8 353.8 352.7 351.4 348.2 346 341.9 337.7 333.7 332.6 327.6 327.5 327 325.9 324.7 322.7 320.4 319.5 320 324.1 326.8 327.6 312 295.6 275.5 265.8 271.2 274.9 282 297 317.7 329.9 324.4 316.3 309 300.6 292.5 285 282.5 278.8 274.7 265.7 250.6 230 213.1 194.8 192.3 193.1 194.1 222.4 257.9 288.6 293.1 293.3 296.7 300.9 310 317.6 321.1 321.5 319.2 318.3 320.6 328.5 341.9 354.4 364.2 374.9 380.9 385.2 383.5 380.4 375.6 372.3 366.1 358.4 351.8 349.9 340.7 331.5 325.8 322 316.4 311.2 305.1 299.7 294.2 288.6 282.7 275.2 270 263.4 263 260.5 257 253.8 252.2 250.7 248.6 246 246.9 244.9 245.4 244.4 242.5 238.7 234.1 230.1 226.3 223.6 220 217.9 215.5 216.3 216.3 215.2 213 209.6 205.1 202 202.8 203.3 202.2 200.3 198.8 197.8 195.6 193.5 192 190.6 190.8 189.4 188 186.6 185.3 183.4 182 180.4 175.7 173.8 172.8 172.2 171 170.1 169.2 168.3 167.3 167.4 167.6 167.1 167.9 167.7 167.5 167.8 167.1 166.1 165.7 166.8 165.6 164.9 164.1 163.1 162.2 162.5 164.3 165.5 165.9 165.7 165.5 164.2 163.4 163.2 162.2 159.9 158.6 157.4 154.5 151.4 148.5 147.5 144.9 142.4 141.3 141.2 141.6 146.9 150.5 153.3 159.1 163.3 166.9 169.4 172.7 174.7 176
336.3 327.6 328.6 338.9 348.1 354.6 357 356.2 354.8 351.8 346.7 341.9 339.9 336.9 330.9 330.1 332.5 332.1 331.7 331.8 331.4 329.5 330.5 337.9 342.9 346.2 345.6 330.6 310.2 293.9 286.8 276.3 268.4 261.6 281.9 307.4 326.7 324 316.9 308.8 299.1 288.2 275.4 270.1 271.7 264.8 255.6 243 222 200.3 190.8 191.1 191.9 203.3 238.2 268.6 301.1 313.2 310.9 314.9 317 320.1 322.2 322.8 321 316.7 315.5 321 334.4 346.3 357.2 364.8 372.6 377.9 382 378.1 376.7 368.1 363.2 354.4 348.1 340.2 331.4 320.7 309.6 302.8 302.2 298.4 294.8 291.8 286.6 282.5 277.8 273.5 267.4 262.9 258.2 256.1 253.6 252.2 248.9 248.2 246.8 246.1 243.7 240.6 241.8 241.4 238.1 238 234.5 231.3 227.8 222.7 219.9 217.9 218.3 215 215.2 217.2 217 215.7 212.8 208.5 202.9 199.7 198 197.2 195.2 193.9 192.4 191.7 191.4 189.9 188.3 188.5 188.2 186.5 185 183.7 181.5 179.1 175.5 174.6 173.8 172.3 172.3 170.9 170.4 169.4 170.2 167.9 166.8 165.4 164 164.1 164.2 164 165 165.6 163.6 161.9 164.2 164.7 163.4 162.7 161.7 160.5 160.9 161.6 162.7 163.6 164.1 162.7 162.2 161.6 161.4 161.2 160.1 158.6 156.4 153.8 151.3 148.5 146.8 145.8 142.9 140.8 141 142.1 146.3 149.7 152.7 156.9 161.1 164.6 165.9 166.5 167.2 168.9
321.6 316 325.2 334.4 343.6 350.5 354.5 354.8 354.9 352 348 345.3 341.8 336.8 334.4 333.3 334.5 334.4 335 336.9 336.7 336.1 348 355.8 361.2 364.2 365.2 351.9 334.5 320.6 301 288.1 272.2 251.2 277.2 302.8 323.7 322.5 316.8 309.8 299.5 286.8 270.9 259.4 257.2 252.4 243 231.4 207.2 190.5 189.9 190 191.5 219.9 253.2 286.3 313.4 312.9 313 317.7 317.8 319.5 319.8 319.8 316.1 311.6 310.5 320 335.3 345 352.3 359.3 364.9 367.5 367.1 363.5 357.2 351.3 343.5 343.4 335.8 323.7 309 294.8 285.8 280.2 275.6 271.9 269.9 269.8 269.9 269.1 266.9 263.9 259.8 256.9 254.4 251.7 249.3 247.1 244.1 242.6 243.2 243 241 238.8 238.1 236.8 234.2 232.3 230.1 226.7 224.4 221.5 219.2 217.5 217.2 215.4 214.7 214.6 213.1 212.7 211 207.2 203.5 200.5 197 195.9 194.4 193.4 191.8 190.1 189.7 188.2 186 186.3 185.3 183.9 182 179.2 178.8 177.9 176.5 174.5 174.2 173.9 172.7 172.8 172.8 172.1 170.9 169.3 167.9 166 164.2 163.5 163.1 161.9 161.9 160.9 160.2 159.4 158.7 159.8 161 161.1 160.1 159.8 160.5 161.3 162.4 162.1 162.2 161.1 160.6 160.6 160.3 160.2 158.8 156.5 155 153.7 151.5 148.6 146 144.5 143.6 140.4 140 139.9 145 148.3 151.5 155.2 158.7 161.6 163.2 163.8 165.1 166.2
310.3 307.8 318.7 326.8 336.6 345.5 350 351.1 350.8 349.3 348.5 344.6 339 338 337.5 336.1 335 337.3 338.7 341 341 352.4 362.5 370.4 376.1 380.6 378.3 367.5 355 329.3 302 280.1 263.5 252.8 284.1 309 321.7 319.7 316.6 309.9 300.4 286.4 266.8 250.3 234.2 233.8 232 214.3 191.3 188.9 189.8 198.5 221.3 247.2 273.9 298.1 307.2 305.8 305.7 309.3 307.3 307.8 307.5 305.7 302.2 294 304.5 319.3 332.6 339.6 344.6 347 350.3 352.9 350.2 343.5 334.9 327.8 322.6 319.5 309.7 295.5 282.8 275.2 271.1 268 265.2 263.7 263 263.9 263.5 262.4 259.6 257 253.8 250.9 248.4 248.3 248.2 247.3 245.5 241.2 240.8 237.8 235.7 235.6 233 230.5 229.1 226.3 223 220.3 219.7 216.9 216.4 214.9 214.3 212.9 210.3 208.6 206.4 204.8 205.6 201.8 201.6 200.6 196 194.8 193.6 192.3 191.2 189.7 188.3 186.5 185.7 184.2 183.2 182.3 181.2 179.9 178.7 177.9 176.5 176.3 175 174.2 173.8 172.6 173.8 172.2 171 170 170.1 168.2 166.7 166.9 165.7 161.8 160.4 160.4 159.1 158.2 157.3 156.6 156.1 157 159.2 159.3 160.2 160.9 161.9 161.3 160.6 160.3 160.2 160.6 160.1 158.9 156.6 154.1 153.5 152.3 151.4 149.8 146.1 142.7 140.8 140 140 138.9 142.6 145.3 148.9 153 155.7 158.5 160.8 162.2 162.1 162.2
298.4 306.3 314.5 323.9 334 340.6 345.2 346.8 348.5 348.2 344.9 340.4 341.1 341.6 340.3 339.3 338.8 339.9 343.5 345.8 356 368 375.6 384.9 388.2 392.3 388.1 371.7 349.2 318.3 291.4 271.7 253.7 264.2 292.5 318.4 330.1 325 320.7 314.3 305.6 290.5 272.7 255.9 239.4 224.4 207.2 191.4 188.3 188.6 194.5 224.6 252.7 273.9 297.4 297.8 295.7 292.4 290.3 286.7 285.2 285.5 282.2 280 279.5 284.6 297.8 315.2 325.7 330.4 329.4 330.3 330 331 328.7 321.5 311.1 305.2 298.6 290.7 280.2 273.1 270 266.1 263.7 260.8 258.7 257.6 260.3 260.1 259.4 256.9 254.1 250.8 248.6 249.2 249 248.5 248.7 247 242.6 240 238.3 236.1 236.5 233.6 232.3 231.2 229.1 225.5 222.4 222.4 218.1 214.1 212.5 209.1 209 206.7 209.5 207.1 204.1 204.7 205.4 203.9 203.7 200.4 196.6 194.6 193 191.4 189.7 188.7 187.3 186.9 186 185 183.8 182.5 181 180.2 179.7 179.6 178.9 178.9 178.1 176.5 175.9 175 174.6 173.3 171.9 171.8 173.1 170.6 168.4 167.8 166.7 168.5 168.2 164.9 162.9 162.5 161.7 157.9 155.8 154.8 156.4 159.2 159.6 159.6 159.4 159 159.2 159.8 158.7 158.4 158.6 156.8 154.8 152.8 152.1 151.7 151 150.2 146.9 142.8 139.8 139.8 139.6 139.2 138.7 142.4 146.6 150.8 153.2 155.5 158 157.9 157.4 158
295.9 306.3 314.8 323.6 330.1 335.7 339.1 340.6 342.3 343.9 341.3 343.3 344.4 343.4 343.4 343.6 344.9 348.1 356.4 362 369.2 375.2 380.6 386.2 389.9 388.4 382.6 367.2 341 309.7 285.1 265.7 242 266.6 292.1 318.1 333 326.9 321.8 314.2 304.8 291.9 275.8 258.8 239.8 219.1 197 186.8 187.3 192.3 217.3 245.1 264.9 274 283.7 281.8 276.4 271.8 266.4 264.9 262.3 264 264.9 266.4 270.5 280 292.8 305.8 310.2 308.7 304.7 301.2 301.3 304.4 302.9 295.6 287.8 281.4 276.3 273.9 272.5 270.6 267.8 264.4 260 257.2 256 254.5 256.3 257.3 256.6 253.8 251.1 250.2 248.9 248.2 246.8 245.7 243.8 242.7 237.5 236.9 234 235.2 234.8 233.1 230.7 228.5 226.3 223.2 220.8 218.4 214.3 211.7 213 214.7 212.8 211 209.8 208.1 208.9 207.3 206.2 204.6 202.6 198.3 195.6 195.3 193.1 192.1 190.8 188.5 186.7 186.5 186.6 186.4 185.9 184.4 184 183.9 183.9 183.8 183.8 183.3 182.5 179.9 178.6 176.5 175.1 176.1 175.2 176.6 175.9 174.7 171.8 170.1 170.5 170.3 169.1 166.1 163.5 163 162.8 160.9 157.3 154.9 153.5 157.1 157.4 156.6 156.7 157.3 156.5 157.9 157.5 156.9 156 155.2 154.1 152.1 151.7 151.7 151.2 149.4 146.3 141.6 139.1 138.8 139 138.2 137.8 139 143.9 147.2 149.5 151.8 154 154 153.8 154
299.3 307.4 313.6 319.4 324.9 330 333.1 335.6 337.3 338.4 341 343.5 344.6 344.8 345.1 347.7 352.1 361.1 368.1 370.7 371.5 374.3 377.3 381.2 384.8 383.3 374 364.2 342.9 309.6 283.9 264.4 238.8 257.8 282.3 306.4 327.1 327 319.2 312 301.7 288.4 272.7 252.4 232.3 209.9 186.1 186.1 200.4 220.2 245.8 262.4 259.6 260.7 260.6 257.9 251.4 249.2 248.2 249.8 251.6 255.4 258.1 260.6 265.9 274.4 283.2 288 287.4 284.1 281.5 280.9 280.6 281.4 278.5 274.6 271.4 270.1 270.4 271.4 270.6 269.3 266.4 262.5 257.1 254.9 252 251 255.1 255.7 253 249.6 250.2 248.3 245.7 244.6 243.8 241.9 239.1 239.7 238.5 235.2 234.6 228.6 229.9 229.5 227 225.1 222.4 219.4 215.8 217.9 218.6 217.5 216.2 214.9 214.6 213.1 211.8 211.9 210.5 208.9 207.1 205.4 202.5 201 199 197 195.6 194.3 193.5 193.3 192.5 192.2 192.5 192 190.6 188.1 188.4 189 188.6 188.3 188 186.7 185 183.4 182.2 180.5 178.7 179 179.7 179.1 178.1 176.3 174.4 172.1 171.2 170.3 169.3 168.7 165.6 163.1 161.9 160.7 159.4 156.7 154.2 152.4 151.3 151.1 153 153.9 153.7 155.7 155.3 153.7 153.6 153 153.7 151.7 151.6 151.7 150 148.1 145.2 140.7 138.5 138.1 138.5 137.3 137.1 137 141.9 144.1 146.3 148.2 149.9 150.6 150.6 151.2
299.6 305.1 309.3 314.7 318.9 323.5 327.1 331.7 334.3 336 339.7 343.1 344.6 346.2 349.7 359.4 369.6 374.9 377.3 372.6 371.7 370.5 370.6 371.5 374 372.8 366.4 360.4 346.1 319.8 291 267.1 248.3 242.2 268.1 295.3 319.5 323.6 317.3 307.4 296.6 283.7 267.4 246 223 195.7 185.3 189.7 222.5 248.6 264.3 262.6 255.5 247.5 243.4 242.9 241.5 238.5 236 237.8 241.4 247.2 250.8 254.1 258.3 260.6 264.9 272.6 275.3 273.2 274.2 274.1 275.3 275.5 273.8 271.1 266.4 265.1 266.8 267.7 268.9 267.8 262.5 257.8 253.9 250.3 247.5 249.6 250.8 251.3 249.7 250.1 248.5 245.6 243.6 242.6 241.1 239.2 237.9 237.8 236.3 233.9 229.5 225.7 222.9 223 220.8 220.4 220.4 221 220.7 220.6 219.3 218.4 217.9 217.5 217.3 216.2 215.5 215.9 214 212.4 210.6 208.6 207 205.3 203.1 200.9 199.5 198.6 198.4 198.3 197.9 197 196.3 195.5 192.3 190.9 192 191.8 190.7 190.5 189.4 188.1 186.8 185.3 184.3 183.8 182.3 181.6 181.7 180.7 178.9 176.8 174.7 174.9 173 170.9 170.4 170 168.7 167.3 165.8 164.1 161.5 157.5 153.8 152.4 152.4 150.6 149.7 150 150.7 152.8 153.9 152.1 150.9 150.9 151.6 151.9 151.2 150.1 148.6 146.9 144.4 140.3 138.4 137.4 137.7 136.7 136.5 136.3 139 142.5 144.6 146 146.3 147 147.4 148.3
296.6 301 304.6 308 311.9 315.5 323 327.7 330.5 336.2 340.9 344.6 349.2 359.6 369.4 375.8 380.1 382.1 381 376.5 370.3 367.4 364.2 363.7 363.1 361.1 357.6 353.5 341.2 323.1 298.9 274.8 257.3 234.5 258.5 289.2 314.9 320.2 313.3 302.1 291.6 279.5 263.1 238.9 215.1 191.2 185.1 198.2 230.5 249.6 256.1 255.3 247.6 240.6 236.2 233.4 231.4 228.5 227 226.9 230.6 235.8 240.9 247.4 251.8 254.1 258.1 263.3 265.7 263.9 261.1 265.1 267.1 269.2 268.1 265.4 261.3 258.7 260.8 262.8 263.1 260.4 254.9 250.2 248.6 245.5 245.7 246.1 248.9 250 249 247.8 246.1 244.7 242.6 240.3 239.5 237.6 236.6 233.1 230.4 229.4 229.1 227.8 226 225.7 226 226.6 225.1 223.8 223 222.4 222.1 221.9 221 220.2 219.8 219.8 221.1 220.4 218 216.3 214.3 212.6 211 209.3 207.1 205 203.8 203.4 203.1 203 202.5 201.2 200.2 197 195.2 194.7 194.6 194 192.1 191.8 190.5 189.1 187.8 186.6 185.6 185 184.5 183.5 182 181 179.1 178 178.7 178.3 175.4 172.8 171.7 171 169.6 168 166.5 164.3 162.9 159.3 156.7 154.8 153.6 153.1 150.5 149.6 148.3 151.4 151.8 151.6 150.8 148.4 149.1 150.3 149.5 147.8 146.4 146.1 143.4 140.8 138.9 137.8 136.7 136.1 135.9 135.7 138 141.1 142.7 143.6 143.9 144.5 145.4 147.2
291.7 295.7 300 302.8 304.4 307.4 317.7 326.7 333.5 339.5 345.8 354.9 368.3 378.5 385.7 385.2 382.1 383.2 380.7 374.5 368.5 366 359.6 355.2 352.9 350.3 346.3 337.9 326 304.9 285.9 271 253.9 229.2 261.1 290.6 310.5 316.4 310.9 299 289.3 277.2 266.3 239.6 218.4 194 183.4 198.3 225.3 235.8 243.8 244.7 239.5 234.1 229.5 224.8 221.5 220.3 219.8 220.8 224 227.6 232.6 239.2 243.9 248.4 251.8 254.9 255.8 252.7 250.4 256.1 257.7 260.5 259.9 256.6 254.6 251.5 251.4 252.7 254.4 254.4 251 248.5 245.3 245.5 245.1 244.4 245.3 248.2 248.5 247.2 245.6 242 238.1 235.5 234 234.8 233.8 233.7 233.5 231.9 231.6 230.9 230.8 230.8 230.3 230 229 227.6 226.2 225.9 225.5 224.1 224.1 223.9 224.3 225.2 225.2 224.3 222.4 220.1 218 216 214.2 212.6 210.9 210.4 209 208.2 207.9 207.6 206.4 204.7 201.8 200.7 198.3 197.6 196.3 195.4 194.4 192.7 191.5 190.2 188.7 187.7 186.9 186.3 185.5 183.2 182.2 181.6 181.5 182.1 183.2 181.5 177.6 175.6 173.7 171.7 170.3 168.4 166.1 163.7 162.5 161.4 159.2 156.7 153.7 152.8 151.4 153.1 148.2 150 149 148.2 148.2 148.1 146.9 147.9 146.9 145.6 145.8 145.9 143.2 141 138.9 138.5 136.8 135.6 135.4 135.1 137.7 139.6 141.1 141.3 141.9 142.9 143.9 145.7
285.3 289.6 292.7 293.3 299.1 311.7 322.4 330.3 338 350 364.8 376.9 385.2 389.3 391.1 387.8 377.7 375.1 372.7 369.1 366.4 364.8 357 349.5 346.7 344.6 342.9 328 305 288 270.9 254.1 238.6 241.3 269.9 299.7 321.4 315.2 306.5 296 285.4 274 259.8 239.2 219.2 193.2 183.1 189.7 215.9 222.9 229.8 234.4 233.7 228.9 224.6 220.5 217.4 214.6 215.2 216.1 216.7 218.6 223.3 230.6 236.9 241.8 244.5 245.4 245.2 242.4 241.2 248.2 252.7 253.3 252.1 250.2 248.5 246.8 244.9 245.6 247.7 246.9 245.1 245.1 243.2 243 243.6 243.1 245 248 245.9 243.8 241.9 239.6 237.1 240 238.7 237.6 236.7 235.6 235.3 235.6 235.3 234.8 234.4 233.8 233.6 233.3 232.5 230.1 228.4 228.8 228.5 227.8 227.1 227.6 229.1 228.9 228.7 228.4 226.7 225.2 222.9 220.6 218.9 217.4 216.8 216.1 214.2 213.4 212.6 211 209.4 206 204.6 202.9 201.1 200.6 199.1 197.5 196.3 194.8 193.2 192.3 190.2 189.2 188.2 187.6 185.9 184.9 185 184.4 185.3 185.7 184.5 183 179 176 175 173.6 173.1 170.3 167.4 164.9 163.1 161.9 159.5 156.8 155 153.5 152.2 150.7 148.8 148.2 146.7 146.1 145.3 146.3 145.4 145.9 145.7 144.3 145.3 145.7 143.8 141.2 139.2 139.2 137.7 136.2 135.1 134.9 136.8 138.3 139.1 139.6 140.4 141.4 142.4 144.3
279.5 282.3 282.5 293.2 305.8 317.6 325 333.3 350.8 368.7 381.1 389.5 392.7 395.8 394.9 390.9 378 373.7 371.7 369.8 366.3 362 354.4 344.9 338.2 337.5 335.6 319.5 293.3 273.3 258.1 242.5 224.2 251.7 282.3 310.1 321.8 314.2 304.3 293.7 282.5 272.8 260.4 238.3 220.3 195.9 182.5 182.5 198.9 209.9 216.6 222.5 225.6 224.6 221.6 217.7 213.4 210.2 209.5 209.5 210.3 211.9 216.4 223.4 228.6 232.9 236.2 236.5 234.7 233.8 236.6 241.7 246.6 246.4 249.5 247 245.8 244.1 241.9 240.9 242.3 243.3 242.5 240.2 241.2 242 243.3 242.5 243.7 243.7 241.8 240.3 240.3 241.8 238.4 241.6 241.2 239.7 239 238.1 238.4 237.7 237.3 237.2 237.3 237.1 236.2 234.8 233.2 230.9 230.7 231.6 231.4 230.3 230.4 231.1 231.9 232.3 232.3 231.9 231.3 229.8 228.1 226.2 224.5 223 222.1 221 219.5 217.7 214.7 212.1 210 207.4 206.9 205.6 204.2 203.3 202.2 200.6 199.4 197.5 195.6 194.2 192.9 191.1 190.1 188.8 187.8 186.9 186.7 187 187.2 186.3 183.8 182.1 178.8 177.1 176.1 174.6 173.6 170.8 168.7 167.4 165.4 164.1 161.8 159.1 157 155.5 153.3 151.8 150.4 149.8 147.3 146.9 144.5 144.5 144.4 144.3 144.3 143.9 144.5 145.4 144.5 141.9 140.4 139.9 139 137.4 135.3 134.4 134 137.2 137.9 138.7 139.4 140.1 140.9 142.7
270.9 276.9 288.5 299.7 312.1 323.4 334.4 349.9 366.2 381.7 388 392.1 392.1 393.2 391.5 387 379 373.5 372.8 370.1 365 359.5 351.4 340.9 331.1 328.6 324.4 307.4 282.9 265.8 248.5 235.1 230.9 260 288.8 311.4 319.5 312.7 301.5 290.4 282.8 278.4 269 246.9 226.9 203.8 182.5 181.1 181.8 190.2 200 207.9 213.3 216.9 217.1 215 212.3 209.5 207.4 206.3 206.4 207.3 211 216.7 221.8 227.9 230.1 229 227.5 228.6 231.6 235.4 239.1 241.1 243.7 242.5 242.7 238.5 235.5 237.3 238.3 237.5 240.5 241.6 242.4 243.2 243.5 243.4 242.6 241.6 240.8 241.4 242.2 241.1 241.1 244.5 243 242.5 242.1 240.9 240.4 240 239.9 239.9 239.4 237.9 236.6 234.7 234 233.5 232.9 233.8 233.9 232.2 233 232.6 234 235 235.4 235.5 235 234 232.8 231.6 229.4 228 225.6 223.2 221.7 218.9 216.8 213.3 211.2 210.1 209.4 208.7 207.3 206.4 205.5 204.5 203.6 201.6 200 198.5 195.7 194 192.4 191.1 190 188.9 187.9 186.6 185.2 184.2 183.1 181.9 179.5 178.5 177.1 175.5 174.3 172.8 171.1 169.8 168.6 167.3 165.2 162.8 161.2 159.7 158.9 158.4 156.3 157 156.6 152.9 146.3 143.8 143.6 143.6 143.1 143.2 143.5 144.6 144.9 142.4 142 140.7 139.8 138.5 136.3 134.6 133.3 136.7 137.2 137.8 138.5 139.1 139.7 141
274 283.4 295.4 307.6 322.2 334.6 349.9 366 381.3 390.5 390 390.7 389.9 388.5 383.5 380 376.3 370.3 370 369.1 364.1 358.2 347.9 336.8 326 320.5 316.4 301.1 272.8 255.6 239 224.2 236.2 267.7 297.8 311.9 308.7 304.5 296.1 288.6 283.2 280.2 276.3 261.6 235.4 215 186.5 180.2 179.8 180.7 181.7 191.2 202.7 207.5 209.5 208.9 208 207.8 206.7 205.9 205.2 205.4 208 211.7 218 224.2 225.8 225.5 224.7 223.7 225.5 226.2 227.6 231.1 232.8 233.3 230.3 235.9 236.9 236.8 239.5 243.6 246.6 247.4 247 245.9 247.7 246.5 245.1 245.2 243.3 243.7 242.9 242.9 245 247.3 247 244.3 245.1 243.8 243 242.8 242.8 241.7 240.6 238.9 237.5 237.5 237 236.6 236.2 235.8 235.3 233.4 234.8 234.5 235.8 237.3 237.6 237.8 237.9 237.3 236.6 234.3 232.3 230.2 227.8 225.4 222.9 219.4 216.9 215.9 215 214.3 213.3 212.9 212 210.6 210.6 209.3 208 206.5 204 200.4 198.9 196.6 194.5 193.4 191.2 189.3 188.1 187.3 186.8 185.8 184.1 182.4 180.7 179.4 178.1 177.3 176.3 175 173.5 172.6 171.3 170.1 169.1 167 165.5 164.9 165 163.2 160.6 159.5 157.4 153.7 149.3 145.4 142.8 142.2 142.1 141.2 141.7 141.5 142.7 142.6 142.3 141.7 140.6 139.3 137.3 135.1 133.2 134.5 136.9 136.8 137.2 137.7 138.6 139.7
284.1 295 305.5 319.1 337.2 355.2 363.6 375.9 388.6 390.3 389.1 390 387.5 386.2 380.7 376.8 375.8 370 367.6 366.6 361.6 354.1 341.8 331.8 319.3 311.6 307.1 292.6 267.4 246 232.1 216.2 245.1 275.3 300.8 307.9 302.7 294.9 287.8 281.7 279.4 277.9 273.8 266.6 244.8 227.1 206.3 181.6 178.6 179.2 179.3 180.4 187.1 194 196.4 198.8 200.1 200 199.6 200.8 202 202.9 207.1 214.1 220.1 224 229.4 226.4 225 222.8 220.1 219.5 221.3 223.5 227.8 225.5 234.2 238.5 240.1 242.3 248.5 252 255.5 258.3 254.4 251.9 252.5 249.3 251 250.8 249.8 247 247.1 247.6 249.1 249.3 250.1 247.5 248.2 247.5 244.8 245.2 243.9 242.8 241.8 241 241.1 240.6 239.9 239.7 238.7 237.2 236.4 234.7 236.7 236.9 237.1 237.8 237.9 238.3 238.9 238.9 237.8 235.9 233.8 231.7 229.7 227.6 224.1 221 220.8 220 219 218.3 218.1 217.8 216.4 215.6 215.2 214.1 212.5 210 206.6 204.9 202.2 199.9 197.6 195.3 193.3 191.4 190 189.3 188.6 187.9 186.2 184.5 183.9 182.3 180.6 180.2 179.5 177.7 176.1 176.3 175.7 174.3 173 171.8 171 168.8 167.9 165.7 163.2 160.9 157.8 154.1 149.8 146.9 144.4 144 142.7 142 141.4 139.9 137.8 139.8 141.9 142.2 140.2 139 137.9 135.4 132.6 131.9 134 135.9 135.9 136.3 137.4 138.5
293.8 304.9 318.3 337.7 354.4 368.6 379.7 387.3 390.3 388.9 388.9 390.5 386.9 381.3 378.3 374.1 374.2 370.1 365 360.3 353 344.6 334.3 322.2 307.9 300.2 290.1 281.4 260.2 239.4 223.4 221 252 281 300.4 297.5 291.7 285.4 280.4 275.2 272.3 269.5 265.7 261.1 253.4 242.6 224.9 205.4 185.9 179 178.9 178 181.1 181.5 183.7 187.4 190.3 191.3 191.9 193 195 199.2 204.6 211.2 217.5 223.1 227.7 226.2 226.6 221.5 217.5 215 218 219.6 220.8 231.7 235.8 240.7 247.3 254 257.6 256.9 256.7 256.1 254.5 254.3 253.8 256.1 255.9 254.4 254.8 252.1 252.9 252.4 252.5 251.7 252.5 252.7 250.7 249.4 247.4 246.9 246.8 246 245.2 245.1 243.9 242.5 241.5 240.2 239.1 238.4 237.4 237 237.7 237.7 237.8 238.1 238.2 239.2 239.6 239.5 239.3 237.5 235.4 233.2 231 227.4 225.5 225.2 224.9 224.4 223.2 222.3 222.2 221.8 221.1 220.4 219.1 217.9 216.2 213.3 211.3 207.9 205.6 203.4 201.1 199 196.9 194.9 193.9 192.4 191 189.9 188.9 188.2 187.1 185.5 183.8 182.5 182.2 181.2 179.9 180.8 180.6 179 179.3 176.8 175 172.7 170.8 168.2 165.7 161.9 157.5 153.7 150.5 149.1 146.9 146.2 145.8 145.1 144 142 139.3 136.9 139 141 139.5 138.6 138.2 136.1 133.8 131.3 135.6 136 135.1 135.1 136 137.3
299.7 316.4 336.7 356.1 369.5 380.7 387.3 387.9 387.4 387.3 389.5 387.7 385.9 377.7 372.8 370.1 371.6 368.8 362.6 354.8 347.6 335.9 327.2 317.6 303 286 269.9 259.2 251.9 236.6 217.9 222.9 248.9 278.6 286.7 280.5 279.3 275.6 270.1 267 268.3 267.2 262.8 257.5 251.1 244 235.8 226 210.8 185 178.1 177.2 176.8 178.3 179 179.1 179.8 183.9 183.4 184.7 187 191.4 197.1 203.6 210.6 216.1 219.5 219.8 217.1 211.9 208.9 208.2 213.1 221.2 228.9 235.9 241.7 251.1 254.7 252.9 253.5 257 258.2 256.5 253.7 253.4 255.3 256.3 255.7 255.5 255.8 253.8 256.4 258.2 255.9 253.6 254.6 255.4 253.7 251.7 250 249.6 249.6 248.9 247.5 245.7 244.1 242.8 241.9 241 240.7 240.9 239.1 238.1 238.8 238.7 238.4 239.1 240.4 241.5 241.2 240.9 240.1 238.2 236.2 234.1 230.1 231.2 230.2 229.1 228.9 228.5 227.3 226.2 225.8 225.4 224.9 224.2 222.9 221.5 219.6 216.6 213.9 211.3 209.1 206.8 204.8 203.2 201.5 200.4 198.8 197.2 195.7 193.9 192.7 191.6 190 188.4 186.6 185.4 184.7 184.6 185.2 186.1 185.4 184.4 182.5 180.6 178.2 175.9 173.5 171.2 167.3 162.8 158.7 155.6 152.4 151 149.2 148.6 147.7 146.4 144.9 142.9 142.2 137.4 135.2 138.7 138.5 137.6 136.9 136.3 136.6 130.2 135.5 135.5 134.8 134.3 136.2 136.6
319.7 335.8 355 364.1 377 386.9 387.6 385.3 381.6 380.9 386.2 381.5 376.2 370.7 364.8 363.1 364 360.4 355 349.3 340.8 332.1 321.2 310.6 297.9 280 254.4 242 230.2 230.8 216.5 219 240.2 256.9 262.4 263.6 263.1 262.7 259 260.2 262.5 264.6 259.8 254.1 246.8 242.4 236.4 228.5 221.7 207.6 188.6 176.6 176.4 177.2 177.9 178 176.9 176.8 177 177.1 178.7 181.9 186.5 192.4 198.9 203.9 207 206.1 204.7 200.1 204.5 211.7 219.1 225.3 233 239.5 245.9 248.3 248.1 248.2 249.7 251.3 251.2 249.8 253.6 256.1 256.9 257.3 257.2 257.9 257 255.3 258.3 257.7 257.1 255.4 255.5 254.4 253.6 252.9 252.1 250.9 250.5 248.9 247.7 245 244.4 243.3 243.2 242.1 241.6 241.5 238.9 238.7 240.3 240.9 241.5 241.2 241.9 243.1 242.4 241.2 240.1 238.2 236.2 233.6 234.7 234.3 233.9 233.3 232.2 231.4 230.8 229.6 229 228.2 227.3 226.4 225.6 224.7 222.7 220.1 217.2 215.1 213.1 211.2 209.8 208.1 206.3 205.3 203.8 202 200.4 198.2 196 194.4 192.9 191.3 190.3 190 190.8 191.7 191.7 191.7 190.7 188.5 186.3 183.6 181.5 179.1 176.4 171.9 168.2 165 161.9 158.8 154.3 152.8 151.4 150.4 148.7 146.6 144.3 142.6 141.9 141.2 137.5 135.7 135.9 135.6 136.3 135.6 134.9 130.4 133.5 134.4 133.6 134.3 134.8 135.4
338.5 353.6 366.2 370.3 380.3 386 382.9 378.3 373.5 377 380.1 377.8 372.4 364.8 357.9 356.6 353.5 350.1 345.3 339.7 335.6 329.4 320.5 312.1 302.2 281.2 280.4 264.5 244.6 227.2 215.3 206.5 223.3 237 243 247.4 249.8 251.1 252.1 253.4 258.1 253.7 248.6 242.3 237 232.6 227.6 222 217.5 213.3 207 195.3 175.7 176.4 175.5 175.8 176.2 175.7 175.4 175.4 175.6 175.7 178.8 181.9 186.9 190.3 194.5 195.6 197.3 196.3 204.3 216.3 224.6 229.9 233.8 239.2 244 243.5 242 241.1 240.7 241.2 242.6 245.4 249.3 252.7 255 256 256.6 257.5 257.7 259 259.6 261.1 261.3 261.4 257.7 253.7 252.2 250.9 249.7 249.3 249.5 248.7 247.8 246.6 245.2 244.1 244.2 243.6 243.1 242.3 241.4 242 243 243.6 244.6 244.3 244.8 243 241.7 240.5 238.9 237.8 236.3 237.7 238.9 237.5 236.9 235.9 234.8 233.8 233.9 232.9 232.1 231.6 231 230.2 228.8 227.4 225.7 223.3 220.6 218.7 217.5 216.5 214.9 212.6 211 209.4 207.9 206.7 204.5 202.1 199.8 197.4 196.3 195.6 195.8 196.6 197.3 197.2 196.6 195.7 193.7 191.3 189.2 187 184.8 181.2 176 174.1 171.5 167.8 164.8 161.7 157.2 154.1 152.1 150.1 148 145.8 143.6 142.4 141.2 141 138.7 136.1 134.6 134.3 135.3 135.2 135.6 132.1 130.8 132.5 133 133.1 133.5 134.1
347.9 362.1 368.9 369.6 377.3 380.1 376.6 366.7 362.5 371.9 372.3 368.8 365 356.3 352 348.6 347.3 345.1 340.1 334.9 330 324.5 318.3 311.3 301.9 298.9 292.9 277.5 256.1 239.8 222.6 204.9 208.1 219 226.1 233.7 237.8 243 246.2 248 250.4 252.2 245.2 238.2 230.9 224.5 218.8 212.9 209.1 205.1 201.1 197 183.5 174.7 174.9 174.2 174.3 175.4 175.3 174.7 174.5 174.1 173.8 174.8 177.7 180.6 184.6 184.8 186.4 198.7 212.9 223.1 228.6 230.7 232.1 234.6 236 235.8 235.7 236.2 237.2 239.8 243.2 245.9 249.7 253.2 255.6 256.2 255.9 258.1 259.6 260.8 261.9 262.6 263.6 261.4 257.7 253.6 250.6 249 247.8 247.7 247.5 246.8 246.3 246 245.4 245.3 244.9 244.1 242.5 241.2 243 243.5 243.5 244.3 244.9 244.9 244.5 243.2 241.9 240.5 240.6 240.2 240.2 241.4 240.5 238.5 238.5 238.5 237.4 236.4 236.1 236.2 235.2 234.6 234.1 233.3 231.9 230.2 228.2 226.1 223.9 222.5 221.2 220.3 219 216.9 215.1 213.6 212.1 210.5 208.3 205.9 203.9 202.7 202.8 202.3 202.3 202 201.5 201 199.6 197.9 195.7 193.5 191.1 188.8 185.7 180.2 179.6 177.3 174 170.1 166.8 163.4 159.7 155.4 152.2 149.7 147.8 145.8 144.9 143.7 142 140.5 139.4 137.7 135.5 134.2 132.4 131 131.3 129.5 128.7 129.7 130.7 131.8 132.3 132.7
352.6 363 363.1 364.3 370.6 371.3 365.6 355.5 350.9 360.4 364.1 360.3 353.8 347.7 345.2 344 342.2 340.4 336.4 332.1 326.7 321.7 316.7 312.3 308.5 305.9 299.3 286.5 268.3 249.1 233.3 217.1 200.8 200.4 208.6 217.8 220.8 239.6 245.3 247.9 248.7 247.1 241 235 227.2 221.3 215 209 204.4 200 195.8 192 188.1 173.2 174.7 174 174 173.7 174.8 174.5 174.3 173.4 172.8 173.6 174.5 175.5 178.2 186.8 198.7 209.9 222 225.3 227.8 230.3 231.4 232 231.7 233.2 232.4 234.3 237 240.8 244 247.7 251.2 254.7 256.3 257.4 256.3 255.5 259.2 261 262.6 263 262.2 260.2 255.9 252.1 249.4 247.5 246.1 246.4 246.9 244.6 244.6 244.4 244.2 243.3 243.5 242.4 241.5 242.1 242.6 242.5 242.7 243.6 243.7 244.1 243 242 241.3 240.1 239.6 240.3 241.4 240.3 239.5 240 240.2 240.2 240 239 238 238.4 238.2 237.6 236.7 235.9 234 232.1 230.1 228 227.7 226.3 224.9 223.8 222.7 221 219 217.3 215.7 214.1 212.2 211.3 210.7 209.9 209.8 208.8 208.2 206.9 205 204 201.3 198.5 196 194.6 192.9 189.7 184.3 185.2 182.8 179.5 176.2 172.4 167.5 162.7 159.3 155.5 153.9 151.1 148.5 147.6 146.7 145.3 143.8 142.1 140.5 138.5 136.6 135 132.5 130.9 129.8 128.8 128.8 129.3 128.9 128.6 130.3 131.1
350.1 353.6 353.2 353.6 359.7 360.8 352.7 344.2 345.7 351.8 355.5 351.3 346.1 343 342.6 342.3 340.3 337.5 333.8 330.1 325 321.4 319.2 317.7 315.6 314.9 309.5 294.5 277.9 258.8 237.6 225.1 212.3 202.6 194.4 201.6 222.2 251 256.7 264.2 265.3 257.9 246.5 238.5 229.5 222.3 214.6 208 202.4 197.5 193.1 190.2 186.4 176.6 171.7 173 172.1 172.9 173.9 173.4 173.6 172.9 172.8 173 172.7 176.4 184 196.9 211.5 218.1 222.9 229.9 233.7 231.5 228.2 225.7 228.1 230.7 229.4 235 237.3 241.5 245.9 249.7 253.7 257.4 259.3 258.6 256.8 253.4 256.3 259.3 261 261.2 259.6 256.9 253.9 250.5 248.3 246.1 244.6 244.7 244 242.9 242.9 242.9 242.8 242.4 241.9 240.7 241.1 241.5 241 241.1 241.8 242 241.8 241.8 241.1 240.8 240.6 240 239.1 239.9 240.8 241.1 242.5 243.6 243.4 242.5 241.4 241.1 240.5 240.4 240.5 239.5 237.7 236.2 235.2 233.5 232.2 232 231.6 230.4 228.8 227.7 226.7 225 222.8 221.2 219.6 217.9 217.4 216.8 216.6 215.9 214.2 211.4 208.7 208 206.2 203.5 201.7 199.1 196.6 196 194.8 188.5 189.6 187.1 184.3 181.4 178 172.9 166.8 162.2 158.9 156 153.9 151.8 150.6 148.9 148 146.4 144.8 143.3 141.2 139.1 137.7 136.3 134.8 133.4 132.6 132.3 128.9 127.8 127.8 127.8 128.7 131.2
346.2 348.4 344.9 342.9 349.2 348.9 341.5 335.8 338.2 344.7 345.1 344 340.4 339.3 339.8 339.1 337.6 335.6 333.1 330.3 327 324.2 322.4 322 323.8 322.1 314.6 302.2 286.1 269.3 251.8 236.4 224.6 215.6 200.2 191.7 220.1 247.8 259.3 268.2 269.2 265 255.6 246.1 237.2 226.5 217.6 208.9 204 198.3 194.7 192.2 189.1 186.2 179 171.2 170.5 171.9 172.6 172.4 172.9 172.3 171.8 172.7 173.5 176.3 185 199.8 214.2 220 226.9 232.2 229.4 226 222.7 220.8 226.2 227.5 226.1 232.4 237.3 243.7 250 253.8 258.3 261.6 261.4 259.9 257.2 255.7 250.5 252.7 253.9 254.6 252.4 251.6 249.1 246 244.6 243.2 242.4 241.8 241.5 239.9 240 240.1 239.4 239.1 237.5 237.9 238.6 238 237.9 238 238.6 238.7 238.9 238.8 238.6 238.5 238.6 239.4 239.5 241.1 242.6 243.6 245.2 245.3 244.6 243.7 242.4 241.4 241.6 241.4 240 238.5 237.5 236.9 236.1 235.9 236.3 235.7 234.3 234.4 232.7 231.5 230.4 228.3 226.2 224 222.7 221.2 220.2 218.5 216.4 215.1 213.7 211.5 209.2 207.1 204.5 202.3 200.7 199.2 197.8 196.5 193.5 191.8 189.9 187.8 184.9 182.8 178.8 173.1 167.6 163.9 160.4 158.1 156 154.6 152.9 150.4 149.2 147.6 145.8 143.7 141 138.6 137.3 135.9 134.8 133.6 133.3 132.6 131.5 129.3 127.2 127.2 126.8 127
339.1 336.7 333.6 331.6 334.9 333.4 329.6 325.8 332 338.4 340 339 337.5 337.1 336.7 335.5 334 332.5 329 328.7 326.7 324.3 322.9 324.2 324.2 319.4 311.4 300.2 284.4 272.4 259.2 244.2 229.9 219.6 202.9 189.1 217.3 236.9 242.8 250.1 253 249.7 244.2 234.7 229.2 223.1 214.9 209.2 203.2 198.1 195.3 193.5 190.9 188.6 185.4 182 169.9 170.5 171.6 171.9 171.8 171.3 171.2 171.5 173.8 177.6 186.9 201.2 216 222.5 228 229.1 226 222.4 219.4 219 222.4 222.8 225.6 231.7 237.4 244.8 251 255.7 258.4 259.1 260 258.9 256 254.4 253.7 245.8 247 247.2 246.9 244.9 243.6 242 240.7 240.1 239.2 238.9 238.8 237.6 237.3 236.9 235.2 234.5 234.3 234.3 234.3 234.4 234.8 234.9 235.1 235.8 235.5 235.4 235.3 235.9 237.1 238 239.3 241.6 243.8 244.7 244.4 244.6 244 242.9 242 241.6 240.4 239.4 238.8 237.6 237.4 237 236.5 236.2 237.1 237 233.7 232.7 231.4 229.4 227.5 225.1 223.3 221.6 220.8 219.1 217.4 216.3 214.7 212.7 211.1 208.6 207.1 205.1 202.9 201.9 201.3 201 198.2 195.7 195.2 192.7 191.4 191.2 186.3 182 179.7 173 168.1 164.6 162.4 161.3 160 157.7 154 152 150 147.8 145.7 143.5 140.2 138.1 136.8 136 135.2 134.4 134.1 133 131.9 131.2 127.4 126.2 125.6 126
329 326.2 324.3 325.8 327.5 324.5 321.9 319.4 325.2 331 335 336.4 335.9 334.5 333 330.7 328.6 326.3 323.7 322.1 320.1 318.1 316.2 317.2 317.5 311 303.3 290.1 275.7 265.9 254.1 243 230.5 218.1 197.1 191 224.2 236.3 232.8 235.6 236.2 231.6 224.9 222.4 218.3 214.4 209.7 204.4 200.9 197.4 194.1 192.4 191.3 189.6 186.9 184.1 172.2 168.7 170 170.7 170.7 170.7 170.8 170.9 172.4 179.5 191.1 206.4 215 222.8 227.1 224.8 221.7 218.4 215 217.6 218.8 218.1 223.7 228.7 236.1 245.3 251.2 253.6 255.7 255.5 255.3 254.3 253.3 250.9 248.8 245.9 242.1 238.4 239.3 239.8 239.1 238.1 237.8 237.4 236.2 236.2 236.5 236.3 235.1 234.2 233.2 231.4 230.1 230.6 231.2 231.5 231.9 232 232 232.4 232.2 231.9 232.1 232.7 234.3 235.8 236.8 239.2 241.2 242.2 242.8 242.5 242.4 241.4 239.9 238.5 237.7 237.1 236.6 235.7 235.5 235.1 235.2 235.2 233.4 231.6 229.6 227.6 225.3 223.2 221.8 220.8 218.9 217.6 216.4 215.2 214.1 213.2 212.6 210.3 208.7 207.8 205.9 204.2 202.4 201.7 200.9 199.9 198.5 198.2 197.5 195.8 193.4 190.9 187.9 184.4 180.5 175.4 171.1 167.5 166.5 164.6 162.3 159.2 155.6 152.3 150.2 147.7 145.5 143.3 140.3 137.9 137 136.2 135.3 135.2 134.2 132.8 132 130.5 130.3 129 125.7 124.8
320.7 318.1 317.3 319.7 318.1 316.1 313.9 311.9 317.6 324.2 330.4 333.5 333.4 330.4 327.5 323.7 320.5 318.2 315.4 312.2 309.5 307.1 306.5 307.4 308.4 301.4 292.4 281.3 266.6 253.2 243.2 233.9 222.6 208.6 189.2 197.6 227.7 242.5 231.8 224.4 220.8 219.2 215.9 210.8 206.6 203 200.3 197.4 195 192.9 190 188.4 188.3 188 186.1 181.8 175.1 168.9 169.3 169.3 170.1 170.1 170 169.9 170.8 179.5 194.2 208.3 215.2 221.9 223 219.8 216.4 213 210.2 210.1 211.2 214.6 219.1 224.6 233.9 243.5 249.9 251.8 252.8 251.9 251.1 250.2 247.7 245.3 244 241.9 239.5 236.4 233.5 233.8 235.5 235.6 235.4 234.8 234 232.2 232.9 231.6 230.8 230.7 229.7 228 226.1 226.2 226.3 226.8 227.4 228 228.6 229 228.6 228.8 229 229.5 231 231.5 233.9 235.5 236.5 237.4 238.6 238.1 237.6 237.6 236.8 235.9 235.1 234.7 234.4 233.8 233.4 232.9 233.3 232.2 230.4 228.5 226.1 223.6 221.2 219.5 217.7 216.4 215.2 214.6 213.9 212.9 212.6 211.4 210.9 209.1 208.4 206.6 204.5 202.9 201.5 200.7 200.3 199.3 199.4 199.6 198.1 196.4 194.1 191.8 189.1 183.3 180.6 177.8 173.6 171.5 169.2 166.6 163.7 160.3 156.6 153 150.2 147.8 145.4 143.1 140.2 138 136.9 136 135.8 135 133.8 132.5 131.6 131.3 130 128.6 128.1 125.8
313.2 311.2 311.1 312.7 311.4 308.4 307.4 306.6 311 318.1 326.4 333.9 331.1 328.4 320.3 312.2 307.7 306.3 304.6 299.7 296 292.2 292.7 294.1 293.1 287.7 279.4 268 253.8 241 231.3 221.9 211.5 199.9 185.1 198.2 215.6 216.8 215 209.5 208.8 210.5 209.3 205.2 200.4 197.6 196.8 194.4 191.5 189 186.8 185.8 185.5 186.4 184.5 182.2 176.4 168.9 169.1 168.6 169.3 170.1 170 169.6 170.6 176.9 190 202.9 210.6 216.4 218.5 217 213.8 210.5 208.5 208.4 210 211.7 215.5 223.2 234.5 243.5 248.5 249.6 250.4 249.5 248.9 247.5 246.1 243 241 239.4 237.8 236.4 234.8 232.4 232 232.4 230.7 230.6 232.1 231.3 229.3 228.1 226.8 225.8 226.1 223.5 222.3 222.3 222.6 222.9 222.5 223.4 224.3 225.2 225.5 225.7 225.9 226.4 227.5 228.1 229.2 230.7 232 233.1 234 233.3 232.6 232.7 233 232.6 232.5 232.1 231.5 231.1 230.7 230.3 230.3 229.1 227.8 226.3 223.9 221.4 218.9 216.6 215.3 213.9 213.1 212.4 211.6 211.7 212 211.6 211.8 210.5 208.7 206.6 204.9 203.1 200.9 199.9 199.6 199.7 199.9 199.3 197.3 196.1 194 191.5 188.9 184.7 182.2 179.5 176.5 173.2 169.7 166.4 163.2 159.4 155.2 152.2 149.8 147.4 145 142.9 140 138.3 136.8 135.8 135.8 136.2 134.8 132.8 131.9 131 129.5 127.8 126.9 125.5
304.8 304.7 304.6 306 306.9 304.1 301.8 301.5 306.9 314.2 325 329.6 327.1 321.9 313.5 299.5 290.2 287.9 289.1 286 278.6 276 273.3 272.8 272.6 267.3 259.7 250.1 237.2 228.2 219.9 211.3 203.8 194.2 182.9 182.2 188.2 188.1 186.8 192.1 194.4 196.9 198.5 198.6 195.9 195.2 194 192.4 189.2 186.5 184.7 183.5 182.4 182.6 180.9 179 177.4 167.1 168.4 168.3 169.4 169.9 169.7 169.3 170.2 175 184.8 195.6 204.3 210.5 212 211.7 210.5 208.8 206.7 208.1 209.5 211.1 214.2 223.2 233.9 242.4 247 249.7 249.8 248.7 247.9 247.1 245.2 242.9 241.3 238.9 236.4 234.7 232.1 231.1 228.7 228.4 228 226.6 225.2 226.5 226.8 226.4 225.2 224.1 223 221.7 219.2 218.4 219.1 219.1 218.9 219.3 220.4 221.8 221.4 222.1 222.7 223.5 224.2 224.4 225 226.7 228.2 229.4 229.2 228.4 227.7 227.8 227.9 227.7 227.6 227.6 227.1 227.9 227.4 226.4 225.8 225.3 225 223.7 221.6 219.2 216.4 214.5 213.6 212.3 211 210.3 211.4 212 213 213.6 213.1 211.2 208.9 206.4 204.3 202.5 201.3 201.5 201 200.9 200.7 200.5 197.7 195 193.2 190.9 188 185.8 182.9 178.5 175.2 172.3 168.9 164.9 160.9 156.8 154.1 151.8 149.4 146.8 145 143.2 141.3 138.4 137.4 136.3 134.7 134.9 135.8 133.9 131.9 130.7 129 127.1 125.9 124.5
293.6 295.2 299.6 300.3 299.6 297.2 294.6 294.8 301.9 311.7 319 320.7 317.7 312.5 301.8 287.3 274 266.3 269.1 264.9 257.2 254.7 256.4 256.1 249.6 244 236.1 226.6 221.4 215.4 208.6 203.1 197.6 191.6 184.8 178.6 177.1 175.5 176.2 181 181.9 186.2 189.4 190.1 192.1 191.7 192.9 193.3 192.2 190.1 187.6 184.3 183.8 182.8 179.9 176.5 174.4 166.6 167.9 168 169.2 169.2 169.2 168.9 168.7 173 177 185.2 194 202.8 207.2 207.8 207.6 206.6 205.8 206.6 207.6 210.4 214.6 222.7 233.8 240.7 245.6 248.7 250.2 250.1 251.3 248.8 245.5 243.1 241.3 236.5 232.3 230 228.5 227.5 226.2 225.2 224.8 224.5 224.3 222.8 220.1 220.9 220.2 219.8 219.2 218.6 217.7 215.1 215.4 215.3 215 216 217.7 218.3 219 219.7 220.3 221 221.7 221.7 222.1 223 224.5 224.8 224.4 223.7 222.8 222.7 221.9 220.8 219.8 219.7 219.6 220.7 219.4 220.5 221.3 221.1 221.3 220.8 219.4 216.7 213.3 212.4 211.5 210.5 208.9 209.5 211.3 213.4 215.1 214.7 213 211.1 208.6 206.1 203.7 202.9 202.5 202 200.7 199.8 199.9 199.2 197.5 193.6 191.1 189.2 186.8 183.7 180.2 176.5 173 169.5 166.1 162 158.9 156.1 153 150.8 148.2 146.7 145.5 144.3 142 140.6 139.4 137.2 134.9 132.9 134.1 132.3 130.9 129.5 127.7 125.8 124.3 124
287.4 286.6 290.8 291.8 291.8 289.2 285.2 286.8 293.6 304.1 307.8 309.4 304.3 297.2 285.6 270.8 259.7 246.8 241.3 237.2 235.2 233.7 234.7 232.9 226.9 220.4 214.9 210.4 206.1 202 198.4 194.2 190.3 185.9 181.4 177.3 175.9 173.6 172.9 172.5 176.5 181.4 185 187.5 190.3 189.7 192.4 194.5 194.8 193.7 191.1 187.2 183.4 181.7 178.1 176.1 169.1 166.6 167.6 167.5 168.4 168.3 168.4 168.5 168.3 169.9 173.1 178 184.5 191.7 196.1 197.9 200.2 198.8 204.7 204.4 206.7 210.3 216 225.5 234.1 239.7 242.7 245.2 246.4 248 246.7 245.6 244.3 242.3 241.1 237.3 233.7 228.7 226.3 224.6 222.9 222.5 222.1 221.8 221.6 221.4 221.1 220.3 220 216.8 216.7 213.3 213.8 212.9 212.9 213.1 212.3 214 215.1 215.9 216.6 217.3 217.9 218.6 219.1 219 219.2 219.3 220.4 220 219.6 218.7 218.1 216.7 215.8 215 213.8 213.1 213 213.4 213.4 214.1 215.3 216 216.7 216.9 216.1 213.6 211.1 210.2 209.4 207.9 209.4 211 214.4 216 216.1 214.4 212.4 210.2 207.6 204.9 203.4 202.1 201.4 200.8 199.5 197.6 197 195.2 193.9 191.6 189 186.6 183.4 180.1 176.7 173.5 170.1 166.7 163.5 160.2 158.2 155.9 152.4 150 147.9 146.6 145.3 143.9 142.3 140.2 138.2 136 133.8 132 131.2 130.5 129.7 128.7 127.5 126.2 123.4 122.6
278.9 279.2 281.7 284.4 284 281.9 272.9 279.9 287.3 293.5 294.2 291.8 286.9 279 265.5 250.6 239.9 228.7 225.7 220.1 220.7 219.8 214.1 211.5 206.5 203.5 200.9 198 194.7 192 188.8 186.8 184.2 180.6 177.5 174.8 174.1 173.3 172.1 169.8 172.9 178.2 181.6 184.2 187.8 189 191.3 192.9 193.7 191.7 189.4 186.4 183 179.7 176.4 174.2 165.2 166.4 167 167.3 167.8 167.5 167.4 167.3 169 170.9 171.6 175.1 178.9 184.3 186.8 190.2 192.2 198.9 200.8 203.7 208.3 215.3 223.2 230.8 235.3 238.5 240.7 241.8 243.5 245.6 247.6 247.2 246 243.6 240.8 236.9 233.8 230.4 226.3 222.9 221.2 220.3 219.7 219.1 218.8 218.6 218.8 219.1 218.9 218.7 218.1 217 214.5 211.1 208.1 210.4 210 210.9 212.3 213.1 214 214.8 215.6 215.8 216 216.3 216.3 216.2 216.4 216.5 215.9 214.7 213.2 211.9 210.6 209.5 207.8 207.1 206.9 206 206.8 207.9 208.9 209.8 210.4 210.5 209.1 208.9 208.9 208.4 207 207.5 210.5 210.9 215.3 216 215 213.4 211 208.5 205.9 204.4 203.1 202 200.2 199.6 198.3 195.9 195 192.6 191.1 188.4 185.8 182.9 179.4 176.1 172.9 169.7 166.7 164.4 161.8 159.2 157 154.5 151.9 150.1 147 145.8 144.4 142.9 141.1 139 136.9 134.7 133.2 132.3 131.6 131 130.5 129.6 127.9 126.3 123.2 123.2
270.3 267.9 272.4 275.8 276.7 274.7 265.2 270.4 276.4 274.8 271.6 265.3 259.6 252.9 242.4 228.6 221.5 214.9 210.3 206.8 201.3 199.1 197.1 194 192.8 190.7 188.8 186.9 185.3 183.4 181.9 180.4 178.6 176.9 174.7 172.9 172.3 172 170.7 168.7 168.1 174 177.7 181.5 184.5 186.5 189.3 191.3 190.9 188.5 186.1 183.8 180.6 177.3 174.7 170.8 164.9 165.8 166.4 167 167.1 166.8 166.6 166.6 169.7 171.3 172.2 175 177.5 178.8 180.9 186 193.3 197.2 202.8 208 214.5 220.7 227.9 232.6 235.9 237.8 239.3 240.7 243.1 245 246.8 246.4 244.8 242.3 239.2 235.1 231 227.4 224.6 221.8 220 218.7 218.2 218 217.6 215.9 216.4 216.1 217 217 216.4 215.2 213.9 212.2 209.8 206.3 203.5 207.2 208 210.1 210.8 211.2 211.7 211.3 211.4 212 211.7 212.3 212.8 212.6 211.8 210.4 208.7 207.1 205.7 204.1 201.9 201.1 199.9 199.9 199.7 199.6 201.1 201.8 202.3 201.5 202.6 202.9 203.3 203.6 200.6 206.1 208.8 210.8 213 213.5 212.7 211 210 207.4 205.5 204 202.8 201.4 199.7 197.3 196.2 194 192.8 190.9 188.7 184.9 182 179.5 176.1 172.8 170 167.4 165.6 163.8 161 158.8 156.4 154.3 151.6 148.8 146.3 144.6 142.5 141.6 139.9 137.7 135.8 134.6 134.1 132.7 131.9 131.2 131.2 130.4 128.9 122.8 122.4 122.2
263 252.7 261 262.9 265.7 263.8 258.6 252.4 252.5 247.8 243.1 237.9 232 224.9 218.1 211.6 206.5 201.9 198.2 194 191 186.9 186.2 184.3 183.3 182.1 180.5 179.2 178.1 176.7 175.5 174.3 173.7 173.4 171.9 170.9 169.6 170 169 167.5 165.5 170.1 172.9 176.1 180.1 183.7 186 187.5 186.2 183.8 181.5 178.4 175.6 173.4 168.2 163.8 164.8 165.3 165.8 166.4 166.5 166.1 165.8 166.8 168.7 170.6 172.7 175.7 180 184.8 187.5 190.7 194.3 201.7 209.4 214.7 217.6 223.7 228.5 232.1 235 236.5 237.9 240.3 243.6 246 245.2 244.2 241.7 239.9 237 233.1 229.1 225.7 222.9 221.3 219.7 218.6 218.4 218.1 217.7 216.7 213.9 213 212.2 213.4 213.8 212.5 211.4 209.7 208.1 206.9 205.8 198.1 203.1 205.9 206.3 206.8 207.4 206.5 206.4 206.2 206.9 207.5 207.4 206.3 206.1 205.5 203.7 201.6 200.1 198.2 195.5 194.7 192.7 193.9 194.1 192.4 192.8 193.4 193.7 195.4 196.3 197.3 197.9 197.9 201.7 203.8 205.2 207.6 209 209.5 209.2 209 208.1 206.7 204.8 203 200.8 199 197.5 195.5 194 192.5 189.8 186.8 184.7 181.6 178.5 175.9 173.7 171.5 170.4 168.8 167.3 165.2 162.4 160.3 157.7 154.9 152 149.6 146.9 144.5 142.1 140.3 139.5 138.9 137.3 135.3 133.3 132.7 131.2 131 131 130.5 128.3 122.6 122.5 122
251.5 242.5 240.4 241 244.5 247.6 241.8 233.7 229.5 225.6 220.6 218.3 213.2 207.9 204.3 200.3 196.2 193.3 190.3 187.2 183.7 181.6 179.8 178.6 177.4 175.7 173.9 173.4 172.5 171.2 170.1 169.3 169 168.6 168.7 168.3 167.5 167.6 167.1 165.8 165.3 164.2 168 170.3 174.3 177.5 181 181.7 180.5 178.7 176.7 174.3 171.7 169.5 162.4 163.8 164.1 164.6 165.1 165.6 165.9 165.9 166.6 167.9 172.9 178.1 184.7 188 191.3 197.9 200.1 200.6 201.9 202.8 206.5 211.9 216.6 221.6 226.6 230.6 233.8 235.7 237.7 240.5 243.9 245.5 244.3 242.1 240.1 238.1 234.2 230.7 227.6 224.6 222.1 220.2 218.7 217.8 216.7 216.2 216.6 216.2 214.8 212.2 210.9 209.5 208.7 207.6 205.5 205.9 205.4 204.3 203.1 202.2 197.4 200.9 201.7 202.1 202.4 201.8 202.1 201.9 202.4 203 202.1 201.2 199.5 198.4 197.2 196 194.2 192 190.2 188.7 187.8 187.7 187.4 186.4 186.7 187.1 187.5 188.4 189.1 190.5 190.3 195.8 197.5 199.3 201.9 204.3 206.1 207.5 208.6 208.3 207.3 205.3 203.1 201.3 198.9 196.6 194.6 193.6 189.8 188.9 186.4 183.4 181.2 178.9 176.4 174.6 173.6 172.6 171.8 170.4 168.3 166 163.6 161 157.8 154.7 151.6 149 147 145.7 145 142.8 142.5 141.1 138.8 136.1 134.1 133.5 132.1 130.6 130.1 128.7 126.5 122.3 122.4 123.1
234.7 231.8 229.6 227.4 225.2 224.6 221.6 217.9 214.8 212.2 210.5 207.5 204.5 202.6 199.9 194.7 190.9 188.3 185.2 182.8 179.7 177.5 175.8 174.3 173.3 172.5 170.5 168.6 167.2 165.9 165 164.2 163.8 163.2 164.1 165.7 165.4 165.6 165 164 163.4 162.8 162.8 165.2 167.6 169.6 172.4 174.5 173.9 172.5 170.8 167.8 166 161.5 162.7 163 163.3 163.8 164.3 164.8 165 165.3 171.3 177.6 183.1 189.5 195.1 197.6 199.2 205.7 208.6 208.8 207.4 207.7 208 213.4 217.9 221.7 225.7 229.4 232.5 234 235.8 237.2 239 240 241.3 239.9 238.3 236.2 233.7 230.2 227.3 223.8 221.4 219.1 217.4 216.9 215.8 214.7 215.5 215.2 214.5 213.4 211.3 208.8 208.9 207.3 205.4 204.8 200.8 200.9 199.9 199.1 198.4 193.7 196.1 198.2 197.4 198 197.7 197.4 198.3 198.1 196.8 196.1 195.1 193.6 192.6 191.3 190.7 189.3 187.7 185.9 184.8 184.1 183.2 183.3 183 183.5 184.1 184.6 185.5 184.6 187 190 192.1 195.1 198.1 200.7 202.7 204.7 207.1 207.5 205.9 203.9 202 201 199.6 197.4 194.2 191.1 187.4 185.5 183.6 180.8 179.1 177.5 176.9 176 175.3 175.1 173.1 171 168.9 166 163.1 159.2 156.9 155.4 151.7 149.7 147.8 146.9 146.2 145.1 143.6 142.1 140.4 137.5 135.8 135.1 134 131.3 126.6 125.3 124.5 122 121.4 124.1
226.6 227.8 224.2 222.8 220.4 217.3 213.9 209.3 203 204.8 205.6 201.6 198.5 197.6 195.3 191.2 187.9 185.6 182.1 179.7 177.5 175.5 173.9 171.5 170.3 169.4 167.9 163.1 156.9 156.2 156.5 155.9 157.1 160 162.1 163.5 164.1 163.5 162.9 162.7 162.3 162.3 161.6 160.6 161.4 161.6 164.9 168.2 168.9 168.2 167 160.9 160.8 161 162.3 162.5 162.5 163 163.5 163.9 164.8 172.5 179 183.3 192.6 199.8 203.8 205.4 207 210.4 211.3 210 209.8 210.1 210.9 213.5 217 221 224.4 227.4 229.6 232 233.2 234.1 234.9 235.7 236.8 236.4 235.2 233.6 231.3 228.4 225.7 223.4 220.5 218.5 217.6 216.1 215.3 214.6 212.7 213.3 212.9 211.9 210.9 210.5 208.2 204.6 202.2 201.3 200.1 196.1 195.4 195.1 194.8 193.3 190 193.4 193 192.7 193.5 193.2 193.2 193.3 192.3 192.1 190.9 189.3 188.1 187.5 187.3 186 184.6 183.5 183 182.4 181 181.6 180.7 181.8 182.3 182.7 183.4 184.3 185.6 186.9 189 191.1 194.1 196.8 199.8 202.7 205.4 205 205.1 204 203 201.8 198.7 195.9 192.4 188.5 185.2 183.1 181.1 180 180 179.5 178.6 177.8 176.9 175.5 173.7 171.5 169 166.2 161.7 157.4 155.6 154.8 152.4 150.5 148.6 148.2 147.5 146.6 144.2 142.7 141.4 139.3 137.6 135.9 133.5 129.7 125.7 124 124.4 121.7 121 123.5
229.2 231.5 232.6 224.8 218.9 216.6 210.6 201.7 188.3 181 182.3 180.4 181.8 189 186.1 189.3 188.2 185.7 180.6 173.9 170.9 166.2 163.2 163.2 162.4 159.2 157.5 156.3 156.9 156.2 155.8 155.8 155.3 155 154.5 161.4 162.5 162 161.4 160.9 161.3 160.5 159.7 159.7 163.3 162.9 164.1 165.4 165 164.5 163.5 159.5 160.6 160.7 161.8 161.7 162 162.4 162.7 164.2 172.4 182.9 191.7 195.7 202.1 207.4 209.1 210.2 211.1 211 212.5 211.3 211.3 213.1 215 215.7 217.2 223.4 225.9 229.2 231.4 232.5 232.4 231.9 232.4 232.7 232.8 232.9 231.9 230.9 229 226.6 223.9 221.6 219.4 218 217 215.7 214.6 214.1 212.4 209.5 210.7 209.7 209 207.9 205.8 204.1 201.6 198.4 195.6 194.4 192.5 191.6 190.8 190.3 188.1 188.8 189 188.7 188.9 188.1 188.8 188.8 188.8 188.3 187.3 186.5 185.6 184.9 184 183.2 182.9 182.2 181.3 180.6 179.5 179.8 178.5 180 180.4 180.8 180.2 182.4 183.9 184.9 185.7 187.1 190.2 193.8 197.4 199.6 202.4 204.9 205.4 205.2 203.5 200 196.5 193.3 190.4 187.8 185.3 183.3 183.1 182 181.7 181.3 180.5 179.4 177.6 175.7 173.6 170.5 167.7 164.6 160.8 157.4 155.5 154.6 153.9 151.3 149.5 148.9 147.8 146.7 144.8 143.1 141.8 140.3 137.8 134.6 131.1 127.5 124.9 123.2 122 121.1 120.9 121.5
233 237.3 235.5 227.2 220.2 203.7 198.3 186.8 175.1 165.3 161.6 161.4 168.4 173.5 172 172.4 170.3 168.7 164.4 161.8 161.2 159.8 159.4 159.2 158.6 157.9 158 157.7 156.5 156.3 155.7 155.4 155.1 154.7 154.7 154.5 160.1 160.4 160.2 160.4 159.6 160 158.9 161 163.7 165.4 165.5 166.8 166.4 162.1 159.8 158.5 159.9 160.4 161 160.9 161.7 162.3 162.8 170.1 180.1 188.5 198.1 204.8 208.9 212.9 214.1 215 215.7 215.9 215.6 214.7 215.5 217.6 220.3 222.8 223.7 224.7 228.2 230.6 232.6 233.1 232.4 229.9 230.7 231.9 231.5 230.5 229.1 227.5 226.4 224.3 222.1 219.8 217.9 216.8 215.4 213.9 212.7 212.4 211.4 208.6 207.8 205.9 205 202.7 199.1 196.8 197.4 196.1 194 191.5 190.9 190.1 188.2 187.8 186.6 186.5 185.1 185.2 185.6 185.3 183.1 185.4 185.8 185.5 185.3 184.6 184 183.9 182.9 182.1 181.6 180.8 179.8 181.6 181 180.2 179.8 176.4 176.7 177.6 178 178.9 179.9 181.6 183.3 184.6 185.9 189.8 192.6 196.6 199.2 202.4 204.3 204.1 201.7 199.2 195.2 192.3 190 188.1 186.6 185.4 185.4 184.2 183.7 183.2 181.6 179.9 177.8 174.8 171.7 169.1 166.5 163.1 159.9 157.2 155.6 154.5 153 151.9 150.2 149.1 148.2 146.8 145.3 143.5 142 139.3 135.8 132.7 129 126.4 124.8 124.5 122.6 120.6 120.8 122
210.5 214.6 219 217.9 210.8 193 177.9 167.2 163.2 166.2 168.8 166.7 162.1 160.7 164.6 164.7 163.3 161.9 161.3 161 160.1 159.5 159.2 158.6 157.9 157.7 155.9 156.1 154.8 154.2 153.7 154.7 155.1 154.7 154.1 153.6 153.7 153.8 158.1 157.9 157.7 157.7 158.4 159 162 164.6 164.9 162.8 160.3 157.9 158.8 158.9 159 159.9 160.2 160.5 161.3 162.4 168.7 177.7 185.6 195.1 202.9 209.1 211.4 214.6 216.7 218 218.5 218.8 219 218.9 218.9 220.5 223.4 224.9 225.4 226.1 228.3 230.4 232 232.7 231.7 230 228 229 229 228.4 226.8 224.2 222 220.8 219.4 218 216.5 215.6 214.2 212.9 212 210.6 208.9 207.6 206.3 203.4 204.1 203.9 204.2 202.6 200.2 198.9 195.1 193 191.9 190.9 191.1 189.6 185.6 184.2 184.6 183.6 183.1 183.3 182.7 181.5 182.8 184 183.8 184 182.8 182 181.7 179.6 180.1 179.2 178.3 179.8 179.7 179.8 179.3 177.8 176.1 174.3 175 175.6 176.2 178.6 181.2 183.3 183 184.4 188.1 190.8 195.2 199.7 201.4 201.5 199.4 197 195.3 192.6 190.4 189.6 189 189.1 188.6 186.5 185 183.6 182.1 180.1 177.6 174.5 171.3 168.1 165.1 162.2 159.6 157.4 155.7 154.7 153.7 151.8 151.5 149.6 148.5 147.5 145.9 143 140.6 135.6 133 131.2 129.4 127.4 126.1 125.1 124 119.6 120.4 121.2
181.1 186.6 188.4 188.4 183.1 173.9 164.7 168.7 176.9 182.3 181.7 181.1 176.6 168.7 159.9 159.9 160.1 159.3 159.4 158.2 159.1 157.6 157.8 157.8 157.3 156.4 155.8 155.4 155.4 154.8 154.7 154.5 154.3 153.4 154.1 153.4 153.2 152.9 153.3 153 155 155.8 156 156.4 160.6 163.1 160.4 157.3 157.2 157.1 157.9 157.7 158.8 159.3 159.4 161.1 162.8 170.6 178.1 187.3 194.1 201.3 207.4 212.2 214.1 216.2 215.3 217 216.5 216.7 219.1 220.3 221.8 223.8 224.8 227 227.8 228.1 230.3 233.3 234.5 232.7 231.2 229.8 226.9 225.5 224.4 223.1 222.7 220.2 219 217.7 217.5 217.2 216.6 215 214.1 213 213.4 213 212.5 211.8 210.4 210.3 209.4 208 206.1 204.3 202.6 200.9 199.2 198 196.5 195.5 194.3 192.7 191.7 190.1 189.1 187.9 187.6 187.4 185.7 181.7 178.5 179.4 182.6 182.5 181.4 181.2 180.6 179.9 178.6 177.6 177.2 178 178.6 178.4 177.6 177.1 175.7 173.9 170.9 171.1 173.9 175.6 178.1 178.3 178.1 179.1 182.7 185.1 189.7 194 195.7 196.5 197 195.2 194.4 192.6 192.1 191.8 190.4 189.7 188.6 186.6 185.2 183.3 180.8 178.3 175 171.8 168.7 166.2 163.8 161 158.6 157 155.8 155.3 153.9 153.2 151 150.2 148.6 146.7 144.5 141.3 137.4 134.3 135.4 134.6 131.4 130.1 128.4 127.7 128.1 124.9 118.4 119.7
168.8 167.1 171.9 173.6 168.2 164.1 172.9 192.8 199.4 199.6 196.2 198 201.1 198.4 191.2 182.1 174 171.7 168.8 167 163.5 159.6 158.4 158.7 156.7 157.1 156.4 156.5 155.6 154.8 154.9 154.4 153.5 152.9 153.8 153.2 153.2 153.2 153.2 153 153 155.1 154.5 154.5 156 157.2 155.5 155.5 156.2 157.2 156.8 163.9 163.7 163.7 167.4 169.4 172.4 178.6 186.7 194.6 201.6 206.8 212 215 216.9 218.2 217.7 217.2 216.6 216.9 218.5 221.6 223.7 223.4 223.5 224.6 225.7 226.9 229.9 232.4 233 232.2 230.9 229.4 227.5 223.9 222.1 220.2 218.2 217.7 217.5 216 215 215.9 216.5 215.7 215.1 215.4 214.9 214.2 213.7 213 212.4 210.5 208.6 206.5 204.7 202.5 200.5 199.4 198 196.6 195.6 195.1 194.2 193.5 192.1 191.4 190.7 189.8 189.3 188.1 186.5 185 183.1 181.3 180.2 178.7 178.2 179.4 179.1 179 178.6 178.1 177.6 175.3 174.8 175 173.3 173.8 172.3 171.1 173.2 171.8 168.4 171.9 172.8 172.9 173 173.6 175.1 179.1 183.2 187.5 191.3 193.2 193.1 193.9 193.4 192.3 191.3 190.3 189.5 188.5 186.9 184.8 181.9 180.8 178.4 175.4 172 169.1 166.4 164 161.6 160.1 158 156.5 155.7 155.5 154.3 153 150.6 148.8 146.8 144.1 141.5 138.7 136.5 137.3 138.2 137.9 137.2 133.3 132.2 131.1 129.7 127.4 123.8 118.1
180.7 174.2 173.4 169 169.7 182 201.8 220.9 230.2 226.4 225.5 225.7 223.6 221.4 214.9 210.9 202.2 195.5 188.1 183.2 179.4 173.8 167.9 162.1 157.8 157.2 156.2 155.3 155.3 154.9 154.5 154.6 153.8 153.4 153.4 153.3 153.1 152.5 152.4 153 153.6 153.2 152.9 153.3 154.6 154.2 154.8 155.6 155.6 155.7 171.1 172.9 173.8 174.6 174.7 175.2 178.8 187 194.2 200.9 207.7 212.7 216.1 218.4 220 221.2 220.4 219.5 220 220.6 223.4 225.6 227.4 226 224.6 224 221.3 226.5 228.1 231.1 231.7 232.3 231.6 230.1 228.2 226.2 224.2 221.8 219 216.6 215 213.8 214.4 215 216.2 215.9 215.4 214.4 213.6 212.5 211.4 209.8 208.4 206.9 205.1 203.3 202.3 200.2 198.8 197.8 196.8 195.3 194.7 194.2 193.7 192.8 192.3 191.5 191 190.4 189.7 188.7 187.3 186.1 185.4 184 182.8 180.6 179.6 179.2 176.9 179.9 180.2 179.5 179.8 178.3 177.4 176.5 178.1 175 174.3 172.3 168.6 168.3 168.8 166 168.2 168.9 169.2 169.2 170.1 172.9 176.7 180.7 184.3 187.8 189.3 191 190.2 190 188.2 188.3 186.3 184.6 183 181.4 180.5 177.7 174.6 171.6 169.1 166.7 164.2 162.3 161 160.2 158.2 156.2 155.4 154.8 154 152.9 150.5 148 143.8 140 139.4 141 140.5 142.5 141.5 140.7 138.8 137.8 137.1 134.6 131.2 127.9 127 117.2
219.8 210.1 208.4 210.7 201.5 221.7 231 240.5 244.9 244 240.2 236.6 233.3 228.8 226 220.8 213.7 206.4 198.6 191.6 183 175.1 167.7 163.1 157.2 157.2 156 155.2 155.7 156.7 154.2 153 153.9 153.5 153.3 152.7 152.2 152.3 152.4 152.5 152.4 152 152 152.5 153.8 153.3 153.6 154.5 155.2 168.7 173.3 175.7 177.3 178.7 179.8 181.9 186.9 193.9 200.5 205.5 210.3 215.3 219 221.2 223.1 224.2 223.9 223.2 223.9 228 230.7 231.5 232.2 230.7 228.4 227.2 224.7 222.9 225.6 229.7 229.5 229.9 230 229.4 227.3 225.3 223.9 221.6 219.2 216.8 216 215.3 209.3 211 212.6 212.7 212.3 211.5 209.6 208.1 206.9 205.7 204.5 203.1 201.6 200.4 199.5 198.4 197.1 195.9 195.3 194.3 193.8 193.3 192.8 192.3 190.9 190.4 190.2 190 189.9 188.9 188.3 187.1 186.3 185.2 183.7 181.8 181.3 178.6 173.4 178.8 180.2 179.6 178.7 178.4 177.7 175.3 177.5 175.8 174.5 174.5 173.6 171.1 168.2 165 165.4 167.4 167 166.5 166.6 168.1 170.9 174.5 178.4 181.5 185.9 187.3 185.7 186.1 185 184.9 184.2 182.8 180.9 179.2 177.1 174.4 171.4 168.4 166.6 164.4 163 161.6 160.6 159.1 158.7 156.4 155.6 154.8 152.8 150.8 148.6 145.6 142.9 140.7 141.2 143.2 143.7 143.6 141.8 143 142.5 141.2 139.6 135.4 131.2 130.3 128.9 125.7
240.6 245.3 245.5 246.4 240.1 253.8 254.6 254.6 253.4 252.3 251.8 249.2 244.3 237.8 231.3 225.4 219.8 210.3 200.4 188.9 180.2 172.7 167.3 161 158 157.5 158.1 162.6 172.4 169.2 164.8 161.9 155.4 152.8 152.3 151.9 151.7 151.3 151.7 151.6 152.1 151.5 151.7 151.9 153.1 153.1 160.1 159.4 166.8 170.8 177 180 181.9 184.1 188.8 191.3 194.8 199.3 203.3 207 209.6 213 214.3 219 223.4 224.9 226.3 227.1 227.2 227.1 228.5 229.5 230.4 229.4 227.4 225.5 224.1 218 221.5 224.6 226.2 226.5 226.8 226.6 225.3 223.3 221.3 218.9 217.2 215.5 214.1 213.7 212.9 212.2 206.5 209.3 209.4 208.8 206.8 205.6 204.5 203.4 202 200.7 199.3 198.1 196.3 195.2 194.5 194.4 192.8 192.3 191.7 191.1 190.5 189.7 189.4 188.5 188.3 188.1 188 188 187.6 186.4 185.7 184.7 183.2 181.7 181.6 179.2 174.3 175.7 177.4 177.9 178.6 177 177.2 175.3 175.1 175 173.9 173.3 172.4 171.5 169.1 164.7 163.6 164.8 164.5 164.3 164.2 165.4 167.6 169.8 172.5 175.8 179.4 180.9 181 181.6 182.3 181.8 181.3 180.7 178.6 176 173.6 171 168.3 165.5 164.3 162.9 161.6 160.7 159.3 157.9 157.3 156.6 154.9 152.6 150.8 148.3 144.9 141.9 141.2 143.3 144.2 145.5 146.1 144.4 143.6 144.4 144.4 143.5 141.2 137.7 133.1 131 129.6 128.2
246.6 253.6 257.8 260.6 257.6 260.3 262 263.6 263.3 262 260.3 257.1 252.6 246.1 239.6 233.6 225.4 210.7 195.4 185.6 178.2 171.8 165.2 159.5 159.2 160.8 166.4 173.9 177.9 183.6 180.5 173.7 169.9 161.6 157.3 154.7 152.1 151.7 151.7 151.2 151.1 151.3 151.9 151.9 152.9 155.1 161.5 162.6 169.7 171.9 179.5 185.2 187.7 189.2 196.4 201.7 204.1 205 206.4 207.3 208.5 210.6 211.3 216.4 218.1 220.5 222.7 223.1 224.2 224.2 225.2 226.5 227 226.6 225.2 223.3 222.7 218.8 218.6 219.5 221 223.1 223.4 222.8 222.1 220.9 219.5 217.2 215.8 214.1 212.6 211.9 211 210.3 209.4 203.2 205.2 206 204.4 203.1 201.2 200.2 198.7 196.7 195.6 194.7 192.7 191.5 191.1 190.6 189.6 189.3 189.1 188.6 187.9 187.1 186.9 186.6 186.3 186.1 186.1 186.2 185.8 185.2 184.7 183.8 182.3 180.8 180.1 179.4 177.2 168.7 172.7 174.3 173.7 172.7 172.1 174 173.3 173.7 173.1 172.1 170.9 169.5 167.4 165.3 161.8 162.5 162.4 162.1 162.1 163.7 165.7 166.3 167.7 170.4 174.1 176.2 177.7 178.8 178.7 178.4 177.8 177.1 175.2 172.8 170.3 167.9 165.5 162.7 161 159.9 159.7 158.6 157.1 155.7 154.9 153.8 153.2 151.7 149.4 145.3 143 144.3 146.4 147.6 147.7 147.3 146.4 144.6 144.8 146.4 145.6 144.9 142.6 137.6 133.5 132.1 130.9 129.4
237 260.7 263.1 264 263.2 265.2 269.7 270.9 270.2 268.6 266.4 262.5 256.6 250 244.9 237.4 223.4 207.1 194.5 183.8 176 169.3 167.5 161.6 165.4 171.6 175.5 181.4 185.8 189.7 182.1 180.5 187.8 177.2 170.6 167.1 158.9 152.5 151.8 150.8 151.2 150.5 151.2 151.3 151.5 154.3 158.6 164 171 172.7 175.9 185.4 189.7 190.3 193.2 200.2 203.3 205.7 206.7 207.4 206.3 209.1 209.4 211.9 213.7 215.9 217.9 219.6 221.5 222.8 223.9 224.4 224.9 224.2 222.9 221.5 220.3 219.3 214.1 212.5 215.7 217.5 219.7 219.2 218.5 217.8 216.9 215 213.6 212.2 210.5 209.4 208.5 207.6 206.5 206.5 200.7 199.7 200.6 198.7 197.3 196.5 195.4 193.4 191.4 191.7 189.7 188 187.6 186.9 186 184.5 186 185.9 185 184.2 184.3 184.5 184.4 184.2 184.2 184.2 183.7 183.1 182.4 182 181.4 179.9 178.9 178.2 177.5 174.4 164.6 174 174.9 174.8 173.7 170.1 167.7 168.3 170.5 170.1 169.3 167.5 165.6 164.2 163.4 158.5 159.7 159.7 160.3 162.1 163.3 164.2 166.1 167.2 169.7 172.3 174 175.1 176.3 175.3 175.2 173.8 171.6 170.1 167.8 165.5 163.1 159.4 158.1 157 156.6 156.8 155.4 153.3 151.7 150.5 149.4 149.7 149.1 149.5 148.5 148.9 149.9 150 148.4 147 146.6 145.4 147.5 148.3 147.2 146.4 142.9 138.4 134.2 132.6 131.3 129.4
229.2 250.6 269.6 268.7 268.7 269.8 273.5 274.7 273.4 271.1 268.5 263.9 259 253.9 248.3 237.8 222.4 207.3 194.5 181.7 171.8 168 161.3 160.2 170.6 177.8 180.7 185.9 190.3 188.1 179.5 189.9 191.4 187.8 184 175 166.4 156.2 151.1 150.3 150.3 149.9 151 151 151 151.1 153.9 161.2 169.3 173.4 171 182.2 188.3 189.9 190.2 198.8 200.3 203.4 204.1 204.3 204.1 206 206.9 208.7 209.8 213.3 216.8 219.7 220.7 221.6 222 222.2 222.9 222.7 221.6 220.4 218.9 217.6 214.5 206.7 211.4 213.2 214.4 214.7 214.7 214.5 213.1 212.6 211.3 209.7 208.1 206 204.9 204 202.6 201.8 201 199 195 194.6 193.3 192.5 191.4 190.2 188.3 188.1 186.9 185.9 184.5 183.5 183.4 182.1 182.6 182 182 182.2 182.9 183.5 183.5 182.2 182.1 181.5 180.8 180.2 179.7 178.7 177.7 176.6 177.1 176.9 176.2 174.5 166.4 168.9 172.4 172.3 172.1 171.2 169.9 168.8 163.8 166.6 166.8 165.9 164.6 163.7 162.8 160.8 158.3 156 155.7 159.8 161.1 162.6 163.5 165.2 167.6 169.6 170.5 172.3 173.8 173.5 172.6 171.2 169.4 167.3 164.7 162.1 160.3 157.2 155.6 154.8 153.7 153.6 151.6 150.2 149.6 150.6 150.3 150 152.1 152.2 153 152.3 152.6 151.8 149.7 147.5 146.4 147.3 148.7 149.6 149.2 147.9 144.4 140.5 136.1 132.7 130.9 129.1
231.6 244.3 273.9 275.9 278.3 279.5 279.3 279.3 277.8 274.9 272.1 267.6 262.6 257.8 250.1 239.9 226.5 211.3 196.1 179.6 166.1 162.9 160.2 164.5 176 180 186.2 182.7 183.3 182.3 185.9 198.9 200.3 192.4 187.2 177.8 173.6 166 156.7 150.1 150.3 150.2 150.4 151.1 150.4 150.4 150.6 156 163.6 170.1 168.6 178.4 185 185.1 192.4 198.1 199.4 201.7 204.1 205.1 203.6 203.1 204.2 206 207.5 210.1 213.4 216.2 217.2 218.3 218.8 219.2 219.6 220.5 220.2 218.3 216.6 215.6 213.7 210.7 203.9 208.1 209.8 210 209.6 209.6 209.1 208.2 207.5 206.6 205.5 204.2 203.4 202.7 202.7 200.9 199.8 198.9 198.4 196.3 194.2 192.3 190.4 188.7 185.7 183.7 184 183.8 182.6 182 181.7 181.6 181.6 181.1 181.5 182.3 183 183.6 183.9 183 180.1 179.4 178.8 178.2 177.3 176.3 175.4 174.6 174.6 174.8 174.8 174.2 172.3 162 167 171 170.5 170.2 168.9 167.9 167.2 163.4 162.2 164.3 164.2 163.3 162.1 161.2 160.8 159.9 158 153.3 155.6 160.3 162 163.5 165.5 167.2 168.4 169.3 170.9 170.6 168.8 167.7 164.6 163.5 161.3 159.2 157.4 155 154.1 153.5 152.3 151.7 151.1 152.2 152 153.7 153.6 156.1 156.6 156.4 156.2 155.3 153.3 151.6 149.5 147.6 146.7 147 149 151.3 152.1 149.5 145.9 141.4 136.8 133.6 131.4 129.7
237.5 244.5 263.8 280.6 281.4 283.1 282.5 281.8 280 277.5 272.9 268.1 262.9 257.5 249.1 239.7 227 210.4 192.7 174.2 162.9 162.3 161.4 172.1 182.3 186.8 183.9 191.5 196.3 194.9 200 205.2 199.2 197.1 192.7 186.5 176.1 168.1 159.1 149.1 150.1 149.8 149.4 150.2 149.9 149.7 149.9 151.2 157.8 163.4 164.2 172.3 180.4 179 190.4 195.6 196.7 199.1 203.1 205.7 205.5 201.3 203.8 204.5 205.2 207.4 211.1 213 214.1 216.1 217.8 218.2 219.3 218.7 218.6 216.8 215.2 213.9 212.2 211 206.1 201.1 204.6 206.6 205.5 205.9 206.1 205.1 204.4 204.9 204.2 202.3 201.6 202.2 202 200.5 199.7 198.9 198.4 197.2 195.3 193.3 191.9 190.4 188.9 187 183.9 178.5 181.2 180.8 181.2 181.4 181.5 181.3 179.8 179.6 179.3 179.8 181.4 181.1 178.8 178.3 177.7 177.1 176.4 175.2 173.9 172.9 172.8 172.7 172.6 171.9 171 169.1 159.8 168.5 168.8 168.6 167.9 167 166.3 165.6 164.1 158.4 163.2 162.9 162 161.6 161.1 160.3 159.7 158.7 150.2 154 158.6 160.6 162.3 164.6 166.2 166.7 167.4 167.9 167.6 166 164.4 162.5 160.5 159.7 158.1 156.3 154.3 152.9 152.3 152.4 152.1 151.4 153.4 156.9 160.3 161.3 160.8 159.1 156.8 154.6 152.3 150.6 148.5 147.8 147.3 148.6 150.8 152.9 154.3 152.7 148.4 144.2 138.2 134.5 132.3 129.9
241.4 247.6 259.7 284 285.3 284.2 283.3 282.2 279.8 275.4 270.6 266.4 260.7 253.7 246 236.9 223 206.6 186 163.5 161.4 163.5 170 181.1 189.2 194.9 200.8 204.3 208.1 211.4 208.4 208.9 213.8 211.2 200.6 195.9 182.5 174 164.9 155.4 148.3 149.4 149.3 149.8 149.3 150.5 149 149.4 153 165.1 166.7 164.6 171.7 178.6 187.2 192.2 196.2 196.7 201.1 203.4 203.5 200.6 203.1 204 202.8 204.6 207.3 209.6 211.5 214.4 215.4 216.2 216.8 216 215.3 213.5 211.9 210.6 208.9 207.1 206.8 202.3 198.5 199.3 203.6 200.7 201.7 201.7 201 201.4 202.3 200.2 199.6 199.5 200.6 200 199.4 198.6 198.1 196.8 195 193.2 191.3 189.1 187.8 185.4 183.8 183.1 180.6 177.1 180 179.6 180.3 180.1 179.3 178.9 178.4 178.2 179 178.6 177.8 177.2 176.7 176 175.5 174.3 173 171.9 170.8 169.9 169.3 169.3 168.5 167.8 162 161.7 166.9 166.8 166.7 166 165.3 164.5 163.8 162 157.1 158.6 161.3 161.1 160.8 159.7 158.6 158.2 156.5 149.7 157 157.8 157.5 160.3 163 166.7 166.5 166.7 167.1 167.1 165.9 164.5 163.6 161.9 159.4 156.8 154.9 153.8 153.4 153 153.1 156.7 159.6 162.1 163.5 163.2 161 158.9 156.7 154.2 151.8 150.1 149.6 149 149.5 150.5 151.6 154.1 156.9 155.8 151.3 145.6 138.8 135 131.3 127.8
248.3 254 258.9 283.1 286.1 285.4 284.8 283.5 280.1 275.7 270.8 265.8 256.5 246.5 240 231.3 217.7 198.4 173.2 161.6 165.9 168.5 179.4 188.7 196.1 202.3 209.9 211.8 215.4 216.2 217.9 221.9 218.5 217.3 209.7 200.8 188.7 183 170.3 163.8 152.7 147.8 148.5 149.1 148.3 151.6 148.6 148.6 148.1 158.8 167.2 161.9 168.3 178.3 183.9 188.1 191.4 193.3 198.7 201.3 203 200.7 200.3 202.8 202.5 201.9 203.9 207 207.3 209.2 209.3 209.9 210.4 210.5 210.1 208.8 207.4 206.4 205.4 202.7 201.5 199.5 196.8 194.9 194.5 196.1 195.9 196.2 197.1 197.1 197.8 196 196 195.5 195.9 197.8 199.1 198.2 196.3 196.6 194.8 192.3 190.4 188.9 186.9 184.3 182.7 182.1 180.4 177.1 176.7 178 178.4 179 178.4 178 177.3 177.1 177.5 177.2 176.7 176.1 175.6 174.8 174.5 173.4 172.4 171.5 170.4 169 168.1 166.7 166 165.9 165.5 155.3 164.4 164.5 164.9 164.5 163.8 163 162.5 161.9 160.7 157.4 154.5 156.2 156.9 158.5 158.2 156.3 154.4 146.3 154.4 152.9 154.5 157.2 159.5 163.3 164.3 164.5 165.2 168 167.4 167.6 165.9 163.1 160.3 157.3 155.6 154.6 154.9 157 159.8 164.3 166.6 166.6 165.1 163.6 162 159.2 156.7 154.1 152.7 152.1 151.3 151 151.8 152.8 155.1 156.4 157.8 156.6 152.4 146.8 140.9 136.3 130.6 125.1
249.5 257.5 260.2 284.5 289.9 290 288.3 284.7 279.6 273.3 268.1 263.3 252.4 242.3 235.4 225 210.7 190.8 169.9 163.4 169.3 174.4 185.7 195.7 202.1 210.3 215 218.7 220.5 222.9 222.5 222.2 222.5 215.5 214.9 202 195.4 188.9 178.7 166.1 159.4 152.2 149 150.3 149.4 147 149.1 147.5 147 147.7 158.3 157.3 168.2 176.5 181.4 184.7 187.3 190.2 196.4 199.8 202.4 201 201.4 200.6 203.7 203.4 199 202.2 203.3 204.1 204.5 204.9 205.2 205.8 205 204.1 203.2 202.3 201.5 200.6 198.8 197.4 196.3 195.2 193.1 189.4 189.2 189.3 190.3 191.7 192.7 192.6 192.7 193 193.5 192.7 193.9 195.2 193.4 192.4 193.1 191.2 189.3 187.5 185.1 182.8 181.7 180.4 179.2 177.1 172.8 177 176.2 177.2 177.3 176.9 176.4 175.8 176 175.9 175.5 175.5 175 174 173.3 172.4 171.9 171.3 169.7 168.6 167.4 166.2 165 164.5 164.1 156.5 162 163.1 163 162.8 162.3 161.7 161 160.2 158.8 156.7 156.8 154.9 152.1 149.7 153.3 152 150.3 145.6 146.9 149.1 151.2 152.3 154.7 158 160.5 161.4 163.6 167.7 169.3 169.3 167.6 163.9 160 159.2 158.1 157.4 159.3 163.1 167 169.3 168.7 167.8 166.9 165.5 163.2 159.7 157.4 156.2 155.3 153.7 152.8 152.4 154 156.2 158.9 160.1 158.8 157.3 152 147.1 140.7 135.8 130.5 124.9
245.8 255.2 264.9 282.7 288.3 289.6 287.3 282.8 275 268.6 262.8 258.7 250 239 230.8 217 202.8 182.7 163.8 167.2 171.5 176.5 189.7 200 209 218.3 223.7 227.3 228.1 231.2 229.5 227.7 224.9 220 218.9 208.9 199.5 193.5 185.3 173 164 158.8 154.4 155.2 155.3 154.7 152.5 150.2 146.8 145.6 146.9 153.2 165.9 173.5 178.2 181.6 183.4 189.3 194.9 196.8 199.2 201.8 201.4 195.5 200.1 201.3 199.1 200.2 202.8 202.8 201.4 201.2 200.8 202.1 200.3 199.8 199.1 198.2 197.6 198.4 197.8 196.5 195.6 194.6 193.1 190.3 188.3 186.2 185.4 190.1 189.7 190.7 192 192.3 191.5 191.1 190.8 191.5 191 190.4 188.8 188.4 188 185.6 183.3 182.5 179.9 178.6 178.1 176.6 173.2 173.9 174.8 175.7 175.8 175.6 175.4 175.2 174.9 174.6 173.5 173.8 173.1 172.6 172 170.9 171.1 169.2 167.6 166.9 166.4 165.9 164.2 162 162 157.5 155 159.6 160.6 160.2 160.3 158.9 158.6 157.7 156.7 156.5 155.6 154.6 153.4 152.1 149 148.3 148.2 144.5 142 144.3 146.5 147.3 149.4 152.2 157.1 159.6 161.7 165.2 168.5 167.9 166.8 165 164.4 163.1 163.1 163 164.8 168.8 170.6 169.9 168.4 167.8 166.8 165.7 164.6 161.8 160.4 159.2 157.2 155.2 154.9 155.6 158.4 160.5 161.7 161.2 160.1 156.5 152 145.2 139.2 135.2 129.4 125.8
245.3 253.5 264.4 279.6 288.2 288.1 284.2 275.6 269.1 263.8 261.6 258.3 251 237.8 227.2 211.3 196.4 178.4 162.2 169.3 174.2 179.9 191.7 203.3 213.7 223 232.8 237.1 242.5 241 238.7 234.2 233.8 226.4 218.9 217.1 210.1 193.3 187.4 182.7 173.4 166.7 162.2 162.1 162.4 158.5 159 155.8 152.3 148.1 145.9 144.5 158.2 169.3 174.6 178.8 181.3 186.3 193.1 196.2 197.6 200.9 200 195.6 192.5 194.6 196.2 199.3 202.1 203.2 202 201.7 201.2 200.3 199.6 200.3 199.7 198.6 194.8 193.8 192.3 195.3 194.7 194.1 192.7 191.9 189.9 187.5 184.8 184.5 188.6 189.3 189.7 190.2 190.4 190.2 190 189.6 188.5 188.2 186.8 185.1 185.5 184.2 181.9 180.3 178.3 177.2 176.4 175.8 174.7 170.1 173.6 174 174 173.9 173.9 173.9 173.7 173.4 172.3 171.9 171.5 171 170.6 169.8 169.3 167.8 166.7 165.7 165.1 164.6 163.4 161.2 160.7 159.3 153.9 151.3 156.8 158 158 157.2 156.3 155.2 154.1 154.1 152.9 151.9 150.7 150.2 148.8 147.9 147.4 146.5 142.2 139.8 142.4 144.5 145.4 148.2 152.7 156.7 158.9 162.5 166.5 166.4 166.3 167.7 169.4 168.5 168.2 167.3 167.8 169.4 169.9 169.6 169.2 168.1 168.3 167.5 167.5 166.1 163.6 160.3 158.1 157.9 157.2 159.9 161.2 162.4 162.4 161.2 158.6 154.1 149.5 143.6 138.8 134.6 130.8 128.1
248.4 253.8 263.4 273 284.4 281 275.1 269.4 265.9 264 263.1 261 254.3 239.2 226.3 210.8 193.9 178.4 166.6 166.4 175.3 184.1 194.3 205.4 216.1 226.7 242.3 246.4 250.6 252.6 251.9 241.2 237.9 230.4 225.5 217.3 214.2 203.5 194.5 187.8 175.9 170.7 169 167.3 164.7 160.7 161.2 159.1 154.9 151 147.3 146.9 149.5 163.5 171.9 173.6 177.2 184.9 188.7 192.4 194.3 197.2 198.2 191.6 189.7 191.5 198 198.4 199.1 199.6 200.4 199.3 198.7 199.5 200.1 200.2 199.5 199.2 198.3 197.4 193.4 187 192.3 192.7 191.7 189.6 189.2 188 185.7 183.5 181.1 183.8 184.5 186.6 189.1 189.3 188.7 188.1 187.1 186.3 185.1 183.2 182.6 183.2 180.7 178.4 176.7 176.6 174.8 174.7 174.3 172.8 169.4 171.9 172 172.5 172.6 172.7 172.5 172 171.3 170.7 170.2 169.6 169.1 168.6 167.6 166.4 165.3 164.4 163.5 162.8 161.8 160.7 159.1 157.6 156.5 149.2 151.6 154.9 154.8 153.6 152.7 152.5 151.7 150.9 149.9 148.9 148.2 147.6 146.5 145 144.1 144.1 142.7 140.1 138.2 141.5 142.5 144.2 148.6 153.8 155.9 158.1 162 165.8 167.7 171.8 173.4 172.4 170.8 169.8 169.5 169.6 170 170.7 170.6 170.7 170.7 169.2 169.3 167.2 164 162.8 160.4 160.5 161.6 162.2 162.9 161.9 161.4 159.7 155.8 151.3 147.6 143.2 138.6 136.8 133.2 129.4
252.7 255.3 259.9 267.1 273.6 273.2 271.4 270.2 270.3 268.6 264.4 255.9 247.3 235.7 223.3 208.8 195 181.6 171.7 165.4 170.9 181.5 192.5 203.9 214.9 228.3 242.6 247.4 253.4 256.1 254.8 244.1 236.5 225.9 221.1 216.5 211 205.3 197.6 189.7 177.4 173.2 169.7 166.6 166.4 162 161.1 158.2 153.8 150.1 148.9 147.3 144.6 157.9 169.3 174.5 178.8 182.3 184.6 187.7 190.2 193.3 194.4 193.8 187.4 186.4 194.1 194 194 195.1 196 195.5 194.3 195.3 195.7 196.2 195.9 195.6 194.9 194 191.7 188.8 188.8 188.7 188 185.7 185.4 184.9 183 182.1 181.2 179.3 179.2 182.9 185.7 186.6 186.8 186.6 186 185.6 183.9 182.6 181 179.9 178.3 176.1 175.4 174 173.3 173.4 172.9 172.5 169.5 167.9 170.7 171.3 171.2 171.1 170.8 170.5 170.2 169.5 168.8 168.2 167.5 167 165.8 164.6 163.8 162.9 162.1 161 159.2 158.1 158 156.7 154.6 150.8 148.1 150.5 151.1 151.1 149.6 148.9 148.3 148 146.9 146 145.6 145.1 144.4 142.9 141.4 141.2 140.3 138.4 137.3 138 140 140.4 143.5 149.1 154 155.5 159.4 164 168.3 171.4 173.1 173.3 172.3 170.9 169.8 170.5 170.6 171.5 172.8 173.7 173.2 171.6 170.6 167.4 164.5 163.6 163.8 165.1 164.9 163.3 162.7 160.5 159.6 157.1 153.5 150.9 148 144.8 141 138 134 130.2
255.9 259.8 263.8 269.3 275 278.2 280.2 280.1 276 272.4 265.3 252.5 245.6 236.4 221.2 205.7 196.9 185.7 176.5 169.6 165 175.3 187.6 198.7 209.8 223.5 236.4 245.3 250.1 257.3 260.3 253.5 243.9 235.7 230.9 223.2 217.8 210.6 202.4 194.6 185.2 176 171.3 167.6 165.1 161.8 160.9 157.8 152 149.3 148.1 147.8 144.8 151.7 162.1 169.7 174.1 177.4 179.9 184.2 187.2 188.4 190.9 190.7 188.9 182.2 185.6 189.2 189.3 190 190.4 190 189.5 188.6 188.6 189.7 190.2 189.8 188.7 188.3 186.4 184.5 183.5 183.1 182.7 180.4 179.8 180.1 180.2 179.9 180.2 179.9 177.5 179 181.6 184.6 183.3 183.6 182.5 182.6 182 180.5 178.8 177.6 175.6 174.8 174.3 172.5 172.1 172 172.6 172.3 171.5 168.3 165.9 168.4 168.9 169 168.7 168.7 168.6 167.6 167 166.3 165.6 165.2 163.8 162.9 162.1 161.2 160.4 159.4 158.2 156.9 155.6 154.9 153.1 150.1 148.4 147.1 146.7 147.8 146.9 146 145.5 145.2 144.3 143.1 142.6 142.2 141.3 141.1 139.8 138.6 137.9 136.9 136.4 135.1 137.4 138.1 138.4 142.4 147.2 152.2 154.9 158.6 162.3 165.4 169.1 169.4 170.2 170.2 169.1 170.9 171.6 172 173.6 174.6 175 173.9 171.2 168.4 167 167.7 167.3 167.6 167 163.7 161.9 159.3 157.6 155 153.7 151.3 148.6 145.6 142.2 137.7 133.7 130
260.3 267.3 271.1 275.6 278.5 285 288.6 283.8 277.7 271.5 265.6 252.7 244.3 233.1 220.4 204.6 196 190.6 182.7 175.9 170.5 166.9 177.4 191.2 201.7 213 226.2 237.8 248 251.4 251.9 254.2 250 247.3 243.3 235.7 225.7 217.4 207.6 198 188.9 180.4 173.7 168.9 167.1 163.5 160.6 158.1 153.3 149.6 148.3 147.6 146.6 144.2 154.9 163.1 167.8 171.3 173.1 179.3 183.1 184.5 185.6 187.2 186.9 185.5 182.1 180.8 182 182.1 180 182.1 182.2 182.5 182.4 182.8 183.5 182.7 182.2 181.4 180.5 178.2 175 177 176.6 175.3 174.6 174.6 175.2 175.8 176.5 177.1 175.9 174.6 178.1 181.2 179.5 180.3 180.8 179.6 179.1 178.6 178.1 174.8 173.6 173.1 173.3 171.4 170.8 170.8 171.8 171.1 170.3 170 167.8 165 165.3 167.3 167.3 167.2 166.9 165.8 165.1 164.4 164.4 163 162.1 161.2 160.4 159.5 158.8 157.8 156.7 155.5 154.3 153.2 152.2 150.3 148.7 145.8 142.6 143.3 143.7 142.9 142.6 142.3 141.9 140.8 139.6 138.5 137.8 137.7 137.4 137.2 136 135.3 135.4 133.3 135.1 136.3 135.8 135.5 141.1 145 147.8 151 154.1 157.7 161.5 163.9 165.2 166.5 168.7 170.9 172.8 174.8 175.7 176.1 174.2 172.3 171.2 170.3 169 168.2 166.8 166.7 165.9 163.2 160.5 158.1 156.4 154.7 153.3 151.5 148.9 144.9 140.7 135.9 132.4 129.1
265.3 268.6 271.4 275.5 278.4 281.3 281.5 281.5 277.8 272.2 266.8 254.7 243.6 232.4 219.8 204 195.7 190.2 183.6 179.8 177.3 171.9 168.4 182.5 197.9 210.1 221 232 239.2 246.9 253.6 259.5 261.5 260.2 255.5 245.8 234.2 226 213.5 203.9 192.9 184.2 178.1 171.9 168.8 165.3 161.8 158.8 156.1 150.3 148.4 147.1 146.1 146.1 147.6 155.4 160.6 163.1 161.5 170.4 176.4 180.6 180.8 181.6 183.7 183.7 182.4 179.2 179.1 176.4 174.6 174.7 175 175.4 175.6 174.7 176.3 176.4 176.1 175.6 174.6 173.2 169.1 170.2 171.3 171.5 171.4 171.3 171.1 171.7 172.6 174 173.3 172.6 167.8 177.2 178.9 174.6 175.9 175.3 174.1 173.6 173.3 171.7 169.9 170.3 170.3 169.9 169.5 169.4 169.5 169.5 168.8 168.3 167.6 165.6 163.9 165.9 165.8 166.3 165.2 164 163.2 163.1 162 161.5 160.6 159.7 158.7 157.8 156.7 156.3 155.2 154 152.9 151.8 150.5 148.8 146.9 146.5 143.7 140.9 140.2 140.2 139.6 139.2 138.7 138.6 137.4 136.5 135.7 135.1 135 134.9 134.9 133.8 133.6 132.3 133.6 134 134.1 133.4 135.1 137.4 139.7 142.5 145 149.8 152.2 155 158.7 160.5 164.1 167.3 170.6 173.7 175.7 174.2 173 173.3 172.7 172 170 166.8 165.7 164.7 164 162.2 161.8 159.4 157.4 154.7 153.2 150.4 146.1 141.6 137.6 133.7 130.5 128
263.9 266.3 268.5 271.6 276.3 277.3 278.3 279.7 275.4 270.4 266.5 255.8 244.5 230.7 217.4 208.3 198.1 191.3 184.3 181.1 179.1 172.3 167.9 183.3 195.9 207 218 229.4 240 249.4 258.4 265.1 269.4 270.1 266.6 258.5 249.3 240.4 228.4 213.3 200.9 188.8 181.8 176.7 171.1 167.5 165.1 161.3 159.2 154.5 150.8 146.6 146.2 146.3 143.4 146.8 150.2 154.2 157.3 165.6 172 173 175.7 176 178.7 181 182.8 183.2 180.3 175.9 175.6 173 168.6 168.1 167.3 167.9 171.8 173 172.8 173.3 172.8 172.2 169.8 166.1 165.6 168.9 169.2 169.4 169.8 170 171.5 172 171.8 170.7 165.8 168.1 171 170.5 171.8 171.7 171 168.7 167.6 167.9 166.8 166.7 166.7 167 166 166.6 167.1 167.5 166.7 166.3 166.2 164.6 164.5 163.4 165.1 164.7 163.5 162.8 161.8 161.5 161.3 161.2 160.3 159.4 158.3 157.6 156.3 154.7 153.4 152.6 150.1 148.9 146.6 144.1 143.5 142.2 141.4 141.1 139.7 138.6 138 138 137.3 136.7 136 135.1 134.4 133.6 133.3 132.9 132.6 131.9 131.4 131.4 131.9 131.5 131.1 131.4 131.9 132.6 135 137.2 138 141.4 144.2 147.7 151.2 154 156.7 160.2 164.8 168.6 170.9 172.7 173.1 174.3 173.5 172.2 170.2 167.9 165.3 164.3 163.4 162.7 161.8 160.5 158.4 155.4 152.4 148.6 142.9 138.1 134.1 131.3 128.8 126.7
264.9 266.8 266.6 271.5 274.9 275.6 276.9 279.5 274.1 269.3 264.7 256.3 244.4 231.9 219.6 209.6 199.3 191.9 184.5 180.7 179.5 170.2 170.1 185.1 198.4 210 221.1 232.3 245.6 252.1 260.5 268.7 274.7 277.1 275 269.4 261.7 253.1 241.8 226.8 210.3 196.6 187.2 181.4 174.1 170.6 167.2 165 162 158.9 154.7 149.1 145.6 146 145 146.4 145.6 145.3 152.9 164 167.7 169.3 170.9 170.1 172.9 171.9 174.7 178.9 179.7 177.8 175.6 173.5 167.2 167.3 170.1 167.6 161.3 167.4 170.1 170.1 169.8 169.3 169.7 169 166 166.2 168 168.6 168.7 169.3 169.5 169.5 169.4 169.6 167 163.2 168.6 168.3 169.6 169.1 168.7 167.1 165.5 164.9 164.3 163.5 163.1 163.8 163.8 164.1 164 164.2 164.7 164.7 164.8 165 166 167.7 167.9 164.7 162.4 162.2 162.2 161.8 160.8 159.7 159.8 158.7 158.1 157.2 155.7 152.5 149 146.6 148.2 148.1 148.6 149.2 148.1 146.7 144.8 142.9 141.5 138.9 137.6 137.3 136.1 136.3 136.1 135.2 133.7 132.9 132.2 131.7 131.5 130.8 130.4 130.6 130.4 129.8 129.4 128.7 129.2 128 128.3 131.5 133.5 135.2 137.5 139.8 142.3 145 148.9 154.4 159.3 163.8 167.7 170.5 174.1 175.4 172.4 170.7 170 167.8 165.6 163.8 163 162.4 161.7 160.4 157.9 154.5 150.9 145.9 139.9 135.4 131.8 129.1 126.7 124.6
262.7 265 268.7 271.5 274.6 275.1 275.9 278.8 274.2 270.6 262.6 256.1 240.2 230.5 218.8 211.2 198.4 188.3 184.5 179.9 177.3 167.8 173.8 189.4 203.6 215.3 229.3 243 249.4 253.6 260.6 269.7 277.7 281.9 281.3 276.2 269.9 262.2 252.6 240.5 226 209 196.6 187.5 179.5 174.5 170.1 166.7 163.5 161 157.9 152.2 145.4 145.7 145.5 143.5 145.5 145.2 145.4 159.5 162.5 161.3 162 161.4 164.1 166.9 164.9 171.3 174.3 174.7 173 171.2 169.1 167.2 167.5 167.4 162.1 159.8 162.4 165.7 166.1 167.3 167.3 167.3 167.2 164.6 166 167.5 167.7 167.3 167.2 167.4 167.6 167.9 167.4 162.3 164 166.4 165.7 166.1 166.7 166.1 164.9 164.1 163 162.6 163.4 163.8 164.8 165.1 165.1 163.7 164.1 164.1 164.1 164.1 165.4 168.1 168.8 165.6 159.7 160.7 160.4 156.7 154.1 153.3 153.7 152.6 152.1 153.7 151.1 148.4 149.6 152.8 152.3 151 150.5 149.1 147.7 145.8 144.2 142.5 142 141.8 141.4 140.9 140.4 139.6 140.5 139.2 136.8 135.9 133.3 133.8 131.8 131.4 130.6 131.2 132.2 133.9 130.4 128.7 127.3 127.6 127 126.5 127.5 128.4 132.8 133.4 134 136.6 142.5 148.2 153.5 158.2 160.1 164 170.4 170.9 170.1 168.4 167.8 167 164.8 162.7 162.1 161.5 160.4 159.3 156.6 152.5 147.7 142.5 137.7 133.4 130.1 127.4 125.3 122.7
261.3 264.3 270 273.5 274.5 275 276.3 278.6 272.9 265.7 258.7 252.4 239.1 226.5 218.3 206.4 194.1 185.9 181.5 179.4 178.6 167.1 178.4 195 211.8 224.9 236.3 243.7 248.5 255 261.5 270.8 280 285.5 284.7 280.8 272.7 268.3 260.4 250.5 238 224 208.8 200.5 191.2 182.2 173.7 169.1 165.1 162.4 159.9 155.4 147.8 145.2 145.4 143.8 145.2 144.2 143.6 150.7 152.6 148 147.1 146.2 147.2 151.2 154.9 161 166.9 168.3 167 166.2 165.1 163.4 163 163.7 163.3 160.2 156.4 159 161.9 163.4 164.3 165.3 165.4 163.8 162.3 163.6 163.9 165.6 164.9 165.3 165.9 166.2 166.1 165.6 156.6 164.6 166 162.6 162.6 163.9 164.2 163 162.1 163.7 164.9 164.4 165.4 165.6 165.1 163.9 163.6 163.6 163.5 163.5 162.6 167 166.5 164.7 161.7 160.1 160 160.1 159.1 158.1 158 157.3 154.6 153.3 155.1 155.3 154.5 153.5 152.4 151.3 150.2 149 148 147.4 145.8 144.4 143.3 144.1 143.7 143.7 143.4 141.9 140.8 139.8 138.8 138.1 137.5 136.8 137.6 137.9 137.7 139.6 141 139 136.7 134.8 132.3 128.5 125.9 126.5 125.9 126.2 126 126.8 127.8 129.9 132.4 137.8 145.2 150 152.7 157.2 162.9 166.3 165.6 165.4 164.3 163.7 162.4 161 160.3 159.9 157.7 156 152.3 148.1 143.7 140.3 136.2 132.1 128.5 126.2 123.4 121
