ncols 200
nrows 82
xllcorner 230000
yllcorner 233800
cellsize 50
224.3 222.2 219.1 220.5 221.9 224.9 229.8 234.1 238.3 243.2 248.5 254.6 259.8 261.3 261.2 259.8 256.6 252.6 249.3 245.3 240.9 238 235.3 231.6 228.3 224.9 219.9 213.3 206.4 204.4 200.4 195.9 193.1 188.8 188 186.4 185.2 182.2 177.4 169.9 155.3 148.1 152.8 147.3 150.7 159 163.4 166.1 167.7 168.2 168.5 168.2 171.2 174.3 176.9 179.4 181.3 182.9 184.4 185.3 185.1 184.5 182.8 180.9 178.6 175.5 172.1 167.6 162.7 156.6 149 140.9 130.8 121.2 110.2 99.6 95.8 85.6 91.7 98.5 101.9 118.6 125.4 131.1 134 136.3 138.5 139.9 141.6 143.4 144.4 145.6 146.5 146.8 147.3 147.9 148 147 146.4 143.3 141 137.4 130.9 115.8 89 74.1 67.3 66.2 69.3 93.5 112.1 114.4 109.7 99.8 86.3 77.3 71.3 67.1 66.6 67.9 71.7 79.4 72.1 65.6 67.4 70.5 82.1 96.3 105 110.2 114.9 117.7 121.7 126.4 130.5 135.1 139 142.3 145.6 148.7 150.6 152.7 154.1 155.9 156.7 157.2 158.5 159.2 160.4 160.7 161.7 162.2 162.6 162.9 161.8 160.8 159.2 157.3 154.1 150.4 147.1 142.7 137.7 133.3 129.9 130.2 128.6 128.6 127.9 126.9 125.8 122.3 119.8 117.4 115 112.2 109.5 106 93.1 76.4 68.3 67.1 76 84.1 87.2 90.6 95.6 100.6 103.1 103.7 102.9 98.6 92.1 92.4 98.1 106.8 116 123.9 130.7 136.9
231.3 229.8 229.1 229.7 232.7 235.6 239 240.9 245.4 249 254.5 259.4 263 264.2 264.1 262.7 259.4 256.7 253.5 251.2 248 245.3 242.2 239.5 236.4 234 229.4 225.5 218.5 214.2 209.4 205 200.2 194.7 191.5 189.4 186.3 182.3 174.9 161.1 153.5 161.3 161.2 158.1 151.1 162.1 167.5 170.9 172.9 174 174.1 173.7 174.4 176.9 179.5 181.7 183.3 184.9 186.6 187 186.8 185.8 183.9 181.8 178.8 174.9 170 165.7 159.5 152.3 144.5 127.1 122.7 114.3 102.4 91.6 88.7 87.6 100.6 108.6 102.6 116.1 126.9 132.6 136.5 140.1 142 143.7 145.2 146.8 148 149.4 150.3 151.4 152.3 152.3 151.5 149.9 149.6 147.4 146.2 143.9 140.3 127.5 101.6 82 68.3 67 72.3 96.5 114.7 118.7 117.9 113.7 110.4 101.4 96.2 92.2 92.3 92.5 93.7 82.6 66.3 65.7 68.9 69.1 77 82 92.3 98.9 102.5 113.2 120.2 125.5 130 134 137.6 141 144.2 147.3 149.4 150.7 152 152.7 154 155.7 156.8 158 158.9 160.5 161.5 161.9 162.5 162.8 162 161.6 160.2 158.4 156.8 153.6 150.9 147.7 144.7 138.6 138.3 138.1 135.8 133.9 133.6 132.1 130.1 126.9 123.2 120.4 117.1 113.6 110.7 105.3 95.7 78 70.7 69.5 79 87.1 90.7 95 100.4 106 109.5 110.6 110.7 108.3 103 97.6 96.9 102.5 111.9 121.3 129.4 136.6
239.2 239.5 240.5 241 243.4 244.9 245.9 249.6 252.6 256.3 260.2 263.8 265.3 266 265.7 264.1 262 260.2 258.5 256.1 253.8 250.9 248.7 246.9 244.9 242.3 239.4 235.2 229.4 224.8 219.4 213.8 207.3 200.7 195.1 191.4 188 181.6 169.9 154.9 163.5 168.1 168.1 165.9 152.6 164.7 171.6 175.3 177.3 178.2 178.7 178.6 178.2 179.8 182.1 183.7 185.5 187.2 188.3 188.4 188.3 186.7 184.8 182.3 178.5 173.9 168.4 162 155.6 147.6 130.9 114.2 104.7 104 101.9 98.6 88.4 90.7 105.5 114.5 113.5 112.7 128 135.1 139.7 142.5 144.6 147.1 148.7 149.8 151.6 152.8 154.8 155.4 155.6 155.5 155.3 154.9 154.3 153.1 152.5 152.3 148.6 138 114.2 86.4 70.1 68.1 74.1 93.5 115.3 120.1 121.1 120.3 117.4 115 111.4 110.5 109.2 107.7 100.1 71.4 66.6 66.2 75.9 87.2 80 76.3 79.2 86.3 96.4 105.7 112.8 118.9 123.4 129 133.7 136.7 140.5 142.3 144.4 146.6 149.2 150.2 151.7 152.8 155 156.5 158 159.4 160.9 161.5 162.5 162.8 162.5 162.1 161.4 159.9 158.9 156.9 154.1 151.7 147.4 144.8 144.4 144.8 143.3 140.5 137.8 136 133 129.6 125.3 122 118.5 114.4 110 105.2 96.8 82.7 69.3 69.9 80.2 89 94.3 100.3 106.2 111.1 114.7 117.1 118.5 118 114.4 110.2 105.3 101.1 106.5 117.6 126.8 135.8
248.3 249.2 249 250.4 251.9 252.8 255.3 256.6 259 262 264.8 266.1 267.3 267.1 266.3 264.2 263.1 261.9 260.7 259.9 258.3 256.6 256 255 253.4 251.1 248.1 244.4 239.6 234.8 228.7 222.8 215.1 207 196.7 193.1 188.7 180.1 162.8 162.4 172.1 173.9 174 172.2 162.4 165.5 175.1 179.4 181.3 182.4 182.9 182.7 182.7 183.2 184.9 186.1 187.3 189.4 189.8 189.7 189 187.4 185.2 181.8 177.8 172.4 166.1 158.1 142.8 127 118.9 117.5 115.9 113.4 108.5 99 87.8 92.7 109.6 119.1 123.9 118.5 128.7 138 141.7 145.2 147.9 150.1 151.6 153.5 155.7 157.4 158.7 159.4 159.9 160.2 160.1 159.5 159.2 158.9 155.3 151 142.3 129 101.1 73.9 69.9 69.2 75.3 94.2 113.5 121.3 123.3 123.9 123.5 122.2 121.2 120 117.5 115.3 96.2 66.7 67.5 69.9 82 98.3 103 100.9 92.6 79.4 92.1 98.9 103 107.9 114.3 116.8 123 126 131.5 136.4 137.4 140.5 144.7 146.3 148.4 150.1 152.5 154.5 156.2 157.6 159.4 161.2 161.7 162.4 162.5 162.3 162.1 161.5 160.7 159.3 157.1 154.6 152 150.9 150.3 149.5 148.8 146 142.7 138.5 135.5 130.6 126.5 122.6 118.9 114 108.3 103.2 99.6 88.8 72.6 70.3 79.5 89.5 97.7 104.5 110.6 115.2 118.6 121.5 123.8 125.3 125.5 120.7 117 113 106.4 113.3 125.4 135.2
254.6 254.9 255.5 257.5 258.3 260 262.7 264.4 266.1 266.6 267.7 268 267.6 266.9 265.5 264.4 263.8 263.3 262.7 262.1 262.3 262.1 261.4 260.9 260.2 259.1 256.7 252.9 248 243.5 237.4 230.4 222.7 213.3 202 194.1 186.5 173.6 165 176.3 178.5 179.7 180.2 178.8 174.8 164.9 178.2 182.8 185 186 186.4 186.2 185.9 186.4 187.6 188.7 189.8 190.7 190.9 190.6 189.7 187.9 185.5 181.9 177.7 171.8 163 150.3 134.2 130.5 131.3 130.5 128.5 124.8 114.3 98.7 88.8 94.7 112.2 123.3 129.6 132 128.6 139.1 144.6 148.1 150.2 152.2 155.1 157.1 158.4 160.3 161.8 163.4 164.1 164.9 165.5 164.3 161.5 156.9 147.5 137.4 122.6 102.3 79.5 72.1 70.4 73.4 78 95.3 114.5 123.1 126.6 127.3 128.5 128.9 128 127.4 124.4 118 90.8 67.8 67.9 78.8 95.7 105.3 109.1 111.3 109.5 100.5 85.9 87.6 93.9 96.4 97.8 103.1 112.8 118.2 123.9 128.1 130.9 134.6 137.6 141.3 144.2 147.3 149.8 151.8 154.1 156.5 158.7 160 161.7 162.1 162.6 162.9 163.2 162.7 162.3 161.5 160 157.7 156.2 155.5 154.8 153.6 152.2 149.7 146.7 142.8 137.1 131.2 126.8 122.5 118.1 111.7 103.3 95.7 98.6 94.8 74.5 71.7 80.7 88.8 99.3 106.5 112.9 117.6 121.1 124.4 127.5 129.3 130.9 131.9 130.1 127.4 117.4 113 122.4 133.7
259.6 261.3 262.3 263.4 264.5 266.4 268.4 269.9 270.3 270.3 269 267.8 266.5 264.9 263.8 263.7 263.1 263.4 264.5 264.4 265.1 265.9 266.6 266.1 265.9 265.5 263.5 260.2 257 251.3 245.4 238.5 229.2 218.8 207.2 196.6 185.3 164.8 179.1 181.3 184.2 185.7 186 185.5 182.5 170.4 180.7 185.9 187.8 188.9 189.4 189.4 189.1 189.1 189.9 190.7 191.7 192.2 191.9 191.4 190.3 188.3 185.8 182.4 178 172.6 165.4 153.9 146.8 143.6 143.4 142.3 137.8 130.6 117 98.9 90.1 95.5 112.5 126.8 135.4 139.2 140.1 139.8 146 150 153.1 155.4 157.3 158.7 160.6 162.5 164.3 164.9 166.9 167.5 167.2 163.4 157.7 145.6 130.7 113.9 95.7 77.5 73.4 72.6 73.2 75.2 80 98.2 118 125.9 130 131.4 132.8 133.1 133 131.8 128.2 118.6 91.2 68.3 68.6 88.8 105.4 111.5 114.6 115.9 117.7 117.1 110.4 104.4 101.3 106.5 109.7 108.5 106.3 104.9 110 119.9 126.4 129.9 133 135.8 139.1 142.9 146.4 149.6 151.9 155 157.3 159.2 160.4 161.8 162.7 163.6 164 164.2 163.8 163.3 162 160.4 159.6 158.8 157.7 156.1 154.7 152.8 150.4 146 139.3 130.6 126.1 120.6 114.8 106 93.4 84.9 81.5 79 75.8 71.3 74.3 88.4 97.5 107.8 114.8 119.5 123 127.2 130.3 132.6 135 137.7 138.2 138.6 132.1 113.5 119.2 131.6
260.9 263.1 264.9 266.3 268.1 270.4 272.2 272.4 271.7 270.6 268.8 266.5 263.4 261.6 261.9 262 262.4 263.1 264.4 265.5 267.6 268.6 269.6 270.3 270.9 271 269.5 267.9 264.5 259.3 253.8 245.7 235.4 223.7 210.5 198.8 186.1 169.2 182.2 187.1 189.1 191.5 192.5 192 189.5 182.1 181.3 188.3 190.6 191.7 191.7 192.6 191.8 191.8 192.1 192.7 192.9 193.1 193.3 192.1 190.8 189.2 186.5 183 178.7 174 168.5 163 157.7 153.2 150.6 146.6 140.8 131.3 116.6 99.6 91.6 97.8 114.2 129.6 138.8 142.9 145.2 146.6 148.8 152.5 155 157.2 159.2 160.8 162.3 164.2 166.1 167.2 167.4 167.1 165.2 160 147 129.2 112.2 87.5 76.8 74.4 76.1 75.9 75.8 82.1 98 112.9 121.6 129.8 133.4 135.7 136 135.5 135.6 134.1 131.7 117.6 92 69.2 69.6 94.7 111.3 116.3 120.3 122.4 123.5 125.5 126.9 125.3 122.7 125.5 128.8 130.8 129.2 127.1 125.4 113.8 119.3 124.3 127.2 129.8 135 139.3 142.9 147.6 151.1 153.6 156.5 158.7 160.6 162.3 163.2 164.2 165 165.4 165.2 164.8 164 163 162 160.8 159.5 158.4 156.9 155.5 153.6 148.1 141.9 130.1 124.5 118.4 104 100.2 92.1 91.6 85.4 81.6 81 73.5 74.5 88.7 97.5 108.2 115.7 121 125.2 129.7 134 137.5 140 141.7 142.3 142.4 142.2 130.8 119.3 128.1
261.7 263.8 265.9 268.2 270.6 272.2 272.8 272.8 271.8 270.2 266.5 260.6 257.2 258.1 259.4 259.7 260.3 261.6 263.8 266.4 269.1 270.4 271.7 272.6 273.5 274.6 274.7 273.7 271.5 266.6 261 252.3 241.5 228.7 214.3 201.9 187.7 173.3 187.6 190.5 194.9 197.5 198.8 198.4 196.5 190.5 181.4 191.5 193 194.4 194.3 195.4 195.3 195.1 194.7 194.7 194.5 194.5 194.2 193 191.7 189.9 187.3 184 179.9 175.7 171 166 161.9 157.9 152.9 148.3 143.5 135.6 116.1 99.8 92.4 101.7 116.3 132.2 142.2 146.3 148.7 150.8 152.8 154.4 156.5 158.4 160.7 162.2 163.9 165.3 165.8 165.7 164.7 163.4 160.3 151.1 136.3 114.9 90.7 78.2 76.7 77.6 78.2 80.4 84.9 103.2 123.5 128.1 128.8 133.2 137 138.2 138.4 138.3 138.4 137.7 135.7 122.1 92.5 69.6 74.2 97.4 114.7 119.7 122.7 125.9 128.2 131.1 132.2 132.7 135.3 136.2 136.5 137.9 138.5 138.1 136 129.5 120 122.3 129 128.6 129.1 134 141 145.6 149.5 152.9 155.5 158 160.2 162.8 163.8 164.8 165.6 166.4 165.9 165.4 165.1 164.4 163.6 162.8 162 160.7 159 157 154.5 148.4 139.8 127.9 120.5 115.9 107.5 95.7 91.3 92.5 89.6 93.9 93.3 71.8 77.2 87.1 95.3 107.3 115.6 121.8 126.8 131.9 136.5 140.3 142.3 145.2 146.6 148.4 148.4 146.5 128.8 125.8
259 261.7 265.4 268.4 271.7 273.2 273.4 272.3 270.2 266.1 259.5 254.4 253.5 254.5 256.2 257.6 258.3 259.4 261.9 265.9 269 270.9 272.2 273.5 275.5 277 278 277.9 276.3 273.2 267 257.3 246.4 232.8 218.4 205.9 190.6 177.3 190.7 195.8 199.2 202.9 204.6 204.8 202.8 197.9 184.9 193.3 195.8 197.2 197.2 197.3 197.9 197 196.6 196.6 196.3 195.9 195 193.9 192.5 190.6 188 184.8 181.1 177 172.8 168.6 164 159.3 155.7 151.4 145 134.3 114.1 97.8 93.2 106.2 119.2 136.4 145.3 149.6 152.4 154.5 155.2 156.2 158.1 159.5 161.3 163.5 164.3 165.1 164.9 162.4 160.4 157.6 152.1 139.5 123.1 101 82.1 78.4 79 83.3 86.8 93.3 107.1 125.5 135.5 137 137.2 140 141 141.8 141.6 141.9 143.2 143 140.8 120.9 91.9 69.6 72.9 97.4 116.8 122.3 125.7 129.4 131.7 133.4 136.2 137.7 138.5 139.3 140.1 140.9 141.6 141.4 140.3 138.9 128.9 127 128.5 130.9 133.6 132.9 136.6 144.1 148.7 152.4 154.7 157.4 159.9 161.6 164 165.9 166.3 166.8 166.5 166 165.6 165.5 164.8 164.5 164 162.5 159.7 156.5 150.9 142.3 132.7 124.2 119.9 116 105.9 111.3 108.8 107.5 106.5 104.3 97.7 74.4 76.8 87.8 93.2 106.3 115.6 122.4 128.4 133.7 138.6 142 145.1 147.5 149.1 150.7 151.5 151.9 148.2 141.5
255.2 258.1 261.1 264.8 268.4 270.4 271.1 269.6 265.2 259.4 253.4 249.6 249.2 249.3 249.5 251.6 254.4 256.9 258.9 260.2 264.7 269.6 272.6 274.4 276.3 278.4 281.1 281.2 280.6 278.3 271.9 262.5 250.4 235.9 221.8 210.6 196.3 183.9 195.2 200.1 205.3 208.3 209.6 209.9 208.6 204 193.2 194.7 199 200.3 200.8 201.8 200.3 199.5 198.6 198.1 197.4 196.7 195.9 194.8 193.2 191.3 188.7 185.4 181.8 177.6 173.5 169.5 165.6 160.7 156.5 151.3 142.9 130.3 114.1 97.4 96.8 109.4 122.7 139.3 149.2 153.6 156 157.6 158.6 159.6 160.4 161.8 162.8 163.9 164.7 163.9 162.1 158.9 155.8 149.8 136.4 121.8 106.9 89.2 80.7 79.2 93.4 106.9 112.9 119.5 131.3 139.2 141.2 142.4 143.1 143.8 145.5 145.9 146.8 148 148.5 147.6 145.3 121.7 94.2 70.5 71.8 97.8 119.7 124.3 128.4 131.6 134.3 136.3 137.9 139.2 140.5 141.5 142.3 142.9 143.9 144.1 144 143.5 141.6 142.3 140.6 141.2 142 138.3 136.3 141.1 147.5 151.6 154.8 157.4 159.8 162.2 165 166 166.9 166.8 166.3 166.1 166.2 166 165.7 164.9 164.4 162.2 158.6 150.8 138.6 127.5 123.5 132.2 128.4 125.6 124.4 123.2 120.3 117.5 116 112.8 102.3 76.7 75.9 87.7 94.8 106.6 115.3 123 128.6 135.3 140 143.6 146.7 149.5 150.9 152.3 153.8 155.4 156.5 156.2
248.4 250.6 253.6 256.9 259.3 261 261.2 259.4 254.1 249.5 246.1 244.5 240.9 240.9 243.4 244.4 244.8 249.4 253.9 256.9 259 263.5 268.9 273.4 276.2 279.9 282.7 283.5 283.7 282 275.8 265.8 252.5 238.8 226.4 214.4 202.1 189.2 199.6 205 209.8 212.3 213.8 214.2 213.2 209.8 200.7 193 202.2 203.5 203.7 203.1 203.2 201.9 200.7 199.6 198.2 197.3 196.1 195.3 193.5 191.3 188.6 185.7 182.1 178.3 174.7 171 166.9 162 158.4 151.5 146.2 133.9 115.1 96 102.4 112.8 127.4 143.7 153 156.4 158.6 160.3 161.3 162.3 162.8 164 164.7 165.1 164.4 163.1 159.7 156.3 149.1 136 118 105.2 101 89.5 81.7 80.9 105.7 129.8 134.8 139.2 142.1 143.3 145 146.5 147.5 147.5 149.7 150.7 152.2 152.4 152 150.7 148.3 126.3 98 73.1 70.5 93.5 116.8 125.6 130 133.6 135.6 137.5 139.2 140.7 141.9 143.1 144.4 144.9 146.2 146.6 148.3 148.2 147.9 148 148.6 148.7 148.2 146.1 142.1 140 144.7 150.1 153.7 156.9 158.8 161 163.5 166.4 167.7 167.3 166.3 166.4 165.9 165.1 164.7 163.4 161.8 159.5 151.6 133.8 140 143.2 146.4 146.1 142.2 138.2 133.2 128.2 125.9 122.6 119.6 116.8 108 85.6 76.3 79.1 93.6 106.1 115.7 123.3 128.9 135.7 140.9 145.2 148.2 151.3 152.5 154.6 156.9 159.1 160.3 160.2
242.3 244.1 246 248.4 250 249.5 249.1 247 244.7 241.4 238.6 236.2 234.3 233.5 236 237.4 239.2 240.9 247.3 250.9 254.5 258.1 263.7 269.9 274.4 280.4 284.7 286 286.1 284.3 277.5 268.1 255.3 241.6 229.4 218.9 209.3 194.1 203.4 209.9 214.3 216.7 217.7 217.6 216.6 213.6 205.1 194.9 204.9 206 207.3 206.4 205.6 203.9 202.5 200.8 199 197.8 195.7 195 192.8 190.9 188.4 185.7 182.5 179.3 175.1 170.8 165.7 162 158 153.5 146.8 128.6 111.3 96.5 104.7 117.4 133.3 149.7 155.8 159.2 162 162.8 163.9 164.7 165.4 165.9 166.6 166.2 165.1 162.2 158 153.7 144.1 129.1 127.6 124.1 118.9 102.9 83 80.8 103.8 133.3 140.6 143.4 145.1 146.8 148.3 149.7 151.1 152.3 154 155.8 155.3 155.3 154.7 153.6 150.8 130.7 101.7 75.4 71.6 88.1 113.3 125.8 130 133.7 135.9 137.8 139.3 140.8 142.3 143.5 145 146.7 148 149.2 150 150.7 150.7 151.4 152.3 153 153.1 152.2 149.4 146.4 144.3 145.2 151.8 155.8 157.7 160.2 163 166 167.7 167.3 166.8 166.4 165.9 164.4 162.5 160.9 158.1 148.8 144.1 151.1 154.4 156.3 155 152.4 148.2 144.8 140.5 135.4 129 125.7 121.8 117 106.4 85.3 77.2 79.1 88.1 102.6 114.4 122.3 129.8 135.8 141.4 145.3 149 153.9 155.4 157.2 159.6 161.9 163.2 164.3
233.2 233.4 235.6 237 237 237.4 237.9 236.1 232.5 231.3 230.8 228.2 226.4 226.7 229.2 231.5 232.9 235.1 237.6 243.7 249.7 254.7 260.4 267.5 273.9 280.6 285.6 287.1 287.5 286 279.3 269.6 256.4 243.3 233 225.3 218.1 206.4 208.7 215.7 219.4 221.1 221.2 221.1 219.9 217 210.9 199.8 207 209 209.7 209 207.8 205.8 204.1 202.1 200.2 197.6 195.4 193.7 191.8 189.7 187.6 184.4 181.6 177.6 173.2 169.6 166.5 163.1 159 152.2 137.7 121.2 102.2 97.4 107 121 139.5 152.9 158.3 162.5 164.4 165.6 166.8 167.3 167.6 168 168.3 167.6 165 161.3 157.5 152.3 143.8 141.2 139.9 136.6 131 115 89.8 82.5 102.6 133.9 142.7 145.6 147.4 149.5 151.2 153.1 154.9 156.6 157.2 157.7 157 157 156.4 154.2 151.7 133.1 105.2 80.6 73.1 81 105.5 124.9 129.3 132.8 134.9 135.7 137.3 139.5 141.6 143.8 145.6 147.6 149.3 151 151.8 152.6 154.1 155.5 155.9 155.7 156.2 155.9 154.6 151.2 148.6 148.1 148.1 153.4 156.6 159.5 162.1 164.7 166.5 166.8 167 166.6 165.8 164.2 161.9 158.6 150 154.2 158.1 160.6 161.6 160.7 159 155.7 152 147.7 143.2 137.4 133.2 128.9 122.5 114.8 102.4 80.5 79.6 79.7 80.1 91 108.8 121.6 129.9 136.1 141.3 145 151.6 155.6 157.3 159.1 161.9 164.2 165.9 167.3
222 222.5 224 224.9 226.5 227.8 226.8 224.2 223.6 224 222 219.1 218.5 220 221.4 223.4 225.8 229.6 233.7 239 245 251.7 258.8 266 273.7 281.3 286.2 288.1 288.4 287.5 279.4 269.6 257.5 244.9 236.6 230.6 224.4 216.5 215.8 220.6 223.4 225 224.5 223.8 223 220.2 214.9 205.6 206.7 211.2 212.2 211.7 209.6 208.3 206.3 203.7 200.6 196.7 191.8 188.2 189.5 187.9 185.1 181.7 178.2 174.6 171.9 169.8 166.4 161.1 154.2 139.4 126.1 111.1 100.2 99.7 106.1 126.8 146.6 156.8 162 165.5 167.7 169.1 169.7 169.9 170.3 170.2 170.3 168.3 165.7 162.2 158.4 154.1 149.4 146.2 144.3 141.3 137.2 121 91.5 86.3 104.4 133.4 143.9 145.7 148.8 151.8 153.9 156.4 157.8 158.2 159.3 159.3 158.4 157.8 156 154.3 151 138 112.1 86.1 73.2 73.6 95.4 117.1 127 131.3 133.4 133.9 136.3 138.6 141 143.4 146 147.5 150.1 152 153.3 154.9 156.5 157.6 157.9 158 158.3 157.7 157.1 156 155.1 151.1 151.6 151.5 154.8 158.1 161.8 164.1 165.3 166.2 166.4 166.7 166.6 164.8 161.5 157.8 151.2 159.7 162.8 163.6 163.7 162.7 160.8 157.1 153.9 150 145.9 139.6 135.4 130.9 124.1 117.9 100.3 80.9 83.5 86.6 81.4 82.1 94 114.7 127.5 134.8 141.6 145.7 153.4 155.9 158.7 161.3 163.9 166.5 168.3 169.8
209.6 212.2 213.9 214.9 215.6 216.7 216.9 215.7 215.7 213.2 211.6 211.5 210.4 209.5 211.8 216.2 220.6 225.1 229.9 236.3 243.9 251.9 258.6 265.6 272.7 280.5 286.2 288.5 288.7 285.1 277.6 268.3 257.3 247.3 239.1 234 230.2 225.1 223.2 227.2 227.8 227 227 226.6 225.7 223.2 217.9 212 205.3 213 213.6 213.3 212.4 210.6 208.5 204.8 199.8 193.6 178.4 175.5 167 175.9 171 161.5 167.4 170 169 165.9 160.7 152.2 138.5 123.9 108.5 103.5 107.4 103.5 111.6 132.7 150.9 159.2 165 168.8 169.7 171 172.1 172.8 173 172.7 172.1 170 166.8 163.5 159.9 156 152.2 150.1 148.3 146.2 140.1 113 84.3 91.7 109.6 136.1 142.3 148.2 151.1 154.3 157.2 158.8 159.6 160.1 160.6 160.2 159.2 158.5 156.4 153.9 149.8 141.7 122.1 98 78.1 74.7 75.5 99.2 117.5 127.4 130.5 132.2 134.7 138 140.6 143.2 146 148.5 150.4 153 154.9 156.4 157.5 159.1 159.9 160.5 160.7 160.3 160 159.4 158.7 156.9 154.9 154.1 154.9 156.1 160.1 163.5 165.2 166.8 167.5 167.5 167.4 165.9 163.1 158.6 158.1 163 165 165.1 165 163.7 161.3 158.3 154.7 150.7 146.3 140.4 137.2 132.6 125.9 118.4 96.1 81.5 91 94.8 90.2 83.2 84.4 102.6 120.6 131.7 141.5 146.3 153.1 157.4 160.3 163 166.6 168.1 170.7 172.7
202 202.2 203.8 203.7 203.2 205.1 205.1 205.7 204.6 204 200.1 199.8 202.1 204.7 208.1 211.9 217.1 224.7 231.8 239.4 245.5 253.1 259.9 265.9 272.3 279.2 284.4 287.3 286.8 281.2 274.1 265.6 256.7 248.4 242.2 237.6 234 230.6 228.8 229.7 230.4 230.5 229.5 228.6 227.6 224.9 221.1 216.2 209.8 213.9 215.4 215.5 214.8 213.2 210.4 206.7 201.4 186.8 194.7 194.6 185.8 174.7 175.1 165 150.8 142 144.3 144.8 142.5 131.2 119.5 107.5 111.6 112.9 112.2 103.8 118.4 139.6 155.1 162.9 167.9 169.9 171.4 172.5 173.5 174.2 174.5 174.3 173 171.2 168 164.8 161.3 158 155.1 153.3 151.5 147.5 135 106.8 85.5 96.3 116.2 137.3 143.1 148.5 153 156.6 158.6 159.7 160.7 161.3 161.4 161.1 160.1 159.1 157.1 154.1 149.7 142.7 129.8 106 84.9 75.7 75.3 76.2 97.4 108.2 123.6 130.1 134 137.3 140.6 143.4 145.8 148.3 151.2 153.4 155.7 157.6 158.9 160.4 161.3 161.5 162.6 162.7 162.6 162.3 161 158.9 158.6 158.2 157.7 158.3 160.5 163.4 164.7 167.3 168.3 168.9 168.7 166.6 165.1 160.9 162.2 165.2 166.1 166.3 165.7 163.8 161.2 158.2 155.6 151.8 147.8 143.3 138.5 134 126.5 117.5 93.3 82.2 95.7 101.1 99.3 90.1 85.1 87.3 108.9 125.4 137.4 146.3 151.9 157 160.8 164.3 167.7 170.6 172.3 175.7
190.8 193.6 192.9 192.8 191.9 193.2 194 194.1 191.9 191.7 191.8 194.9 198.5 200.9 207.2 212.9 221.5 229.4 235.7 243.8 250 255.9 262 266.9 271.8 276.5 281 282.7 281.2 276.1 269.5 261.7 254.3 247.9 243.2 239.7 237.2 234.9 233.8 233.3 233.1 232.6 231.7 230.1 228.4 226 222.9 218 214.1 214.4 217.3 217.3 216.8 215.6 212.3 208.6 204.6 200.1 200.6 198.4 194 190 184.8 180 170.1 153.5 134.5 118.5 121.5 111.3 109.3 115 120.8 123.9 117.8 106.6 121.7 143.6 159.4 165.4 169.2 171 172.7 174.1 175.2 175.8 176 175.5 173.6 171.7 168.8 165.7 163.4 160.5 157.8 156 154.3 151.3 127.8 100.2 94 102.2 124.2 140.5 146.4 150.8 154.2 157.6 158.8 159.3 161.3 161.8 161.9 161.8 161 159.8 157.6 154.5 149.6 142.1 131.5 107.2 84.7 86.5 84.6 77.2 87.3 112.8 123.8 129.3 133.3 136.5 139.9 142.8 145.2 148.5 151.3 153.6 155 157.5 159.4 160.8 162.1 163.5 164 164.7 164.8 164.4 163.1 162 161.7 161 161.4 161 161.7 163.4 166.1 168.3 170.4 170.8 170.4 169 167.2 163.4 166.1 167.6 167.8 167.3 165.8 163.8 162.1 159.4 155.5 152.7 149.7 141.7 138.3 133.2 125.4 116.8 93 83.8 99.2 105.7 106.1 101.3 90.4 86.9 94.6 113.3 129.2 142.3 149.4 155.6 159.6 164.3 168 171.7 174.9 178
185.1 185.3 184.3 181.9 180.1 180.2 181.3 183 183.7 186.1 188.8 194.4 199.9 206.4 212.1 219.7 227.6 234.6 241.3 248.2 255.5 259.8 263.8 266.9 270.1 273.5 276.2 276.1 273.8 269.7 263.9 257.4 252.3 247.3 243.5 241.4 239.4 237 236.4 235.6 234.9 234.2 232.5 230.9 228.6 226.8 223.9 220.9 217.3 216 218.5 217.5 218.2 216.5 214.6 212.3 202.1 206 203.8 201.3 197.3 191.8 185.8 179.9 173.2 164.6 148.5 125.9 113.3 113.2 119.4 131.3 133.8 133 127.1 109.6 121.3 145 160.4 166.5 170.1 172.4 174 175.7 176.9 177.4 176.9 176.1 174.1 172.1 169.2 166.3 164.7 162.5 159.9 157.6 155.7 148 119.8 92.2 93.6 103.8 128.4 140.8 146.4 151.1 154.6 157.3 159.2 160.4 161.5 162.2 162.1 162.1 161.8 160.5 158 154.8 149.8 141 126.8 101.8 86.2 92.4 96.4 79.3 77.4 100.7 121.4 127.5 131.4 135.1 138.6 141.6 144 146.9 150.5 153 154.9 157 159.3 160.8 162.6 163.6 164.4 165.7 166.3 166.3 165.2 164.7 164.5 163.9 163.7 164.1 164.1 165 167.5 170.3 171.6 172.7 171.7 171.3 168.8 168.3 168.6 169.9 169.7 168.8 166.8 164.7 162.4 159.5 156.8 152.5 149.8 142.3 137.6 130.7 124.2 116 91.6 88.5 103 109.6 112.4 110.1 102.2 88.6 88.9 99.1 119.5 136.4 145.8 150.6 156.7 162 168.1 173.1 176.5 180.8
178.9 177.4 172.9 171.2 174.8 175.4 179 180.4 187.2 191.6 195.1 201.5 206.1 211.3 218.8 224 232.1 240.4 247.3 253.9 260 262.7 264.7 267.1 268.6 269.7 269.8 267.6 264.8 261.3 256.5 253.2 249.2 246.4 243.1 241 239.5 238.4 237.4 236.4 235.5 234.4 233.3 231.8 229.9 227.5 224.7 222.2 219.2 218.3 219.6 220.3 220.1 218.1 216.5 207.2 212.7 211.2 208.6 204.5 200.4 193.9 186.8 177.3 157.3 148.1 130.1 119.4 117.7 125.4 140.3 152.3 154 151.1 145.8 120.7 118.6 145.2 161.7 167.4 171.5 173.8 176.3 177.5 178.6 178.2 177.6 176.6 174.5 172.5 169.6 167.9 166 164 161.6 159.5 156.1 141.4 114.6 88.3 91 111.8 132.7 142.1 146.5 150.7 154.5 156.9 159 160.8 161.8 162.3 162.2 162 161.9 160.7 158.5 154.1 148.7 129.4 109.2 93.2 94.5 100.5 107.8 93.8 78 90.2 116 124.4 128.5 133 136.3 138.5 142.3 146.7 150 152.2 154.2 157.3 158.8 161 162.8 164.4 165.7 166.7 167.6 168.2 167.5 167.5 167.7 167.4 166.9 167.1 167.5 168.2 170.1 172.2 173.3 174.3 174.5 173.2 172 171.4 172.1 172.7 172.1 170.8 168.6 166.1 163.2 160.5 157.4 152.8 148.3 141.2 133.2 125.7 117.4 110.8 87.7 94.6 105.9 113.1 116.2 116.1 111.5 101.1 90 92.2 106.8 126.2 139.2 145.8 152.2 159.4 167.8 175.3 178.3 182.7
168.6 166.4 171.5 176.9 181.5 184.3 186.4 188.9 192.9 196.7 201.7 205.5 210.2 216.1 222.1 229.7 235.9 246.1 252.6 259.1 261.6 262.6 264.5 265.8 264.5 264.2 261.8 258.7 254.9 252.9 249.3 247.8 246.4 244.3 241.5 239.6 238.3 237.8 236.7 236.3 235.6 234.8 233.8 232.1 230.2 228.6 225.6 222.4 221 221.2 221.9 222.2 221.6 220.9 220.5 219.5 218 215.5 213.4 208.7 204.5 197.2 189.3 178.4 158.1 133 121.9 122.6 129.9 146.5 160.5 165.9 167.1 164.7 155.6 130.9 117.2 141.6 162.4 168.9 173.6 176.4 177.5 179.2 179.6 179.3 178.3 176.8 175 173 171.1 169.2 167.3 165.3 163.3 161.3 157.1 137.1 107.9 90.7 98.2 113.6 133.6 142.8 147.3 151.8 155 157.2 159 160.5 162 162.8 163 162.8 161.6 159.9 157.3 153.5 138.9 116.7 97.4 101 102.5 113.9 120 104.5 79.7 82.5 106.2 119.6 125.7 121 135.3 138.2 142.7 145.1 149.5 152.6 154.7 157.9 160.3 161.6 163.5 164.7 166.2 167.7 168.7 169.6 170.2 170.2 170.9 170.6 170.6 170.2 170.5 171.3 172.4 173.7 175.2 176.3 176.8 175.9 175.9 174.8 174.9 174.6 174.4 173.1 170.9 167.5 164.5 161.2 157.8 153.4 147.4 139.7 130.6 121 112.2 103.4 90.1 95.7 110.2 116.1 120.8 122.2 120.2 113.8 100 92.8 94.9 111.6 126.2 138.3 148.7 157 169.5 176.7 180.4 183.5
162.8 171.7 176.3 180 183.6 186.8 189.8 192.1 196.3 199.7 203.2 208.9 213.7 220.7 226.6 233.3 241.5 250.8 257.2 261.2 262.4 263.1 263.6 263.2 260.1 255.7 250.5 247.8 246 244.5 243.4 242.8 241.4 240.3 239.5 238.1 236.8 236.1 235.7 235.4 235.2 234.3 233.8 233 231.2 229.6 226.1 223.4 223.6 224.3 224.7 225.8 226.4 227.4 226 224.8 224.2 222 218.1 213.7 208.4 200.4 192.4 182 156 132.1 133.8 139.1 156.6 166.6 172.3 175.5 173.7 171.4 160.6 134.7 122.6 148.8 165.2 171.3 175.5 177.9 179.4 180 180.6 179.5 178.6 176.7 175.2 173.5 171.6 169.7 167.9 166 164.1 162 157.8 132 103.3 92.5 110.9 135.2 136.5 144.2 148.2 151.9 155 157.5 159.8 161.4 162.6 163.3 163.5 162.8 161.4 159.1 156.2 152.1 134.5 107.8 105 118.5 123.6 126.4 124.8 112.9 87.9 80.4 92.2 110 121.6 130.6 134.7 139.4 143.2 146.6 149.8 152 154.3 157.4 160 161.8 163.3 164.9 166.6 168.2 169.7 171.4 171.9 173.1 174.1 174.2 174.1 173.2 173.5 175 175.6 177 177.8 178.8 179.1 179.3 179.2 178.7 178.2 177.4 176.7 175.3 173 169.4 166.3 162.6 157.8 152.9 147.5 139.7 131.6 128.1 121.8 108.6 91.7 101.7 115.6 122.3 126.5 126.8 126.3 122.3 113.5 93.6 94.8 102.3 112.1 127.8 142.3 153.8 166.2 177 181.3 183.2
170.1 174.5 177.8 181.1 184.7 187.9 191.2 194.4 197.6 201.3 206.2 212.4 218.2 225 231 237.7 244 252.5 260.1 262.4 262.8 262.4 260.6 257.8 253.1 249.1 243.3 239.1 236.8 236.2 235.8 235.2 235.2 235.1 233 232.5 233.5 233.5 233.9 233.6 234.1 234.1 233.9 233.6 232.6 231.1 226.7 227.3 229.9 229.3 228.9 230.1 231.1 232.3 232.2 231.5 230.9 229.6 225 219.2 212.8 204.9 193.8 174.4 146.5 152.4 161.6 163.1 173.1 179.8 181.9 181.4 178.1 174.5 166.4 146.5 128.4 160.7 169 174.9 177.1 179.1 180.7 181.3 180.7 179.6 178.2 176.7 174.8 173.3 171.6 169.7 167.8 166.2 164.5 162.4 154.2 127.2 97.5 93.4 115.1 141.9 145.6 147.6 150 152.3 155.4 158.3 160.4 162.1 163.2 163.7 163.7 163.1 161.6 159 156.3 151.3 130.1 107.2 122.4 134.9 134.6 132.3 129.7 124.4 100.1 80.2 94.4 118.5 129.8 135.2 138.4 141.2 145.7 146.9 150.7 153.5 155.2 158.2 160 161.6 163.4 165.2 166.7 168.5 170.1 171.4 173 174.1 175.1 175.6 176.2 176.2 177 178.5 179.3 180.8 180.9 181.4 182.2 181.7 181.9 181.4 180.8 179.8 178.9 177.3 174.6 171.2 167.7 164.6 160.5 152.9 145.6 139.1 134.6 131.7 124.2 105.2 92.7 111 122.9 130.4 133.1 134 132 130.4 125 109.3 95.7 97.7 105.4 116.3 133.1 143.5 158.5 170.9 179.1 182.5
170.9 174.6 178.4 181.8 185.5 189.1 192 195.5 198.6 202.7 208.2 214.8 221.6 228.8 234.2 239.3 244.7 251.5 258.6 259.5 258.7 258.2 255.7 251.8 246.4 240.2 233.1 229.1 228.1 228 228.5 228.5 229.1 228.1 228.5 228.2 228.9 228.5 229.4 231.5 233 233.9 234 234 231.9 226 228.7 233.7 233.7 233.6 233.6 235.4 237.1 238.2 239.5 239 239 237.5 233.4 228.3 220.1 208.8 194.6 176.4 153.6 172.3 176.5 177 182.1 184.9 186.1 185.1 182 178 171.6 152.6 142.3 165.5 173 177 178.7 180.1 181.2 181.8 180.5 179.2 177.7 176 174.3 172.6 171.3 169.1 167.4 165.7 164 161.3 149.9 120.9 96.8 101.7 128.3 144.2 147.2 149.5 151.2 153.8 155.9 158.4 160.4 162.1 163.9 163.6 163.8 163.3 161.8 159.4 155.7 139.7 119.6 113.3 135.8 140.4 139.2 137.3 134.6 131.1 110.4 83.5 89.8 113.5 132.4 137 140.9 144.1 146.8 150 152.2 155.1 156.2 159.8 161.1 162.5 163.4 164.9 166.9 168.7 170.4 172 173.8 175.1 176.1 177.2 178 178.9 180.4 182.3 182.7 183.2 184.1 184 183.5 183.5 183.8 183.6 183.3 182.4 180.9 179.1 176.3 173.1 168.7 165.4 161.2 154.3 146.7 140.8 137.5 133.7 125.5 105.2 97 120.8 131.2 137.7 140 140.1 140.3 137 133.4 127.9 111.5 97.2 101.8 107.8 116.5 129.4 148.4 162.1 172.8 179.5
171 174.5 178.2 182.4 186 190 193.4 196.3 199.9 203.9 209.5 215.6 222.9 229.5 234.9 238.6 242.5 244.9 248.9 251.3 250.2 249.8 248 244 237.3 229.8 223.8 219 217.8 219.6 219.9 221.8 222.6 221.8 222.3 223.6 222.9 225.1 227.3 230.1 231.5 233.1 233.5 225.9 228.7 233.9 237.4 238.5 239.1 240.1 239.9 241.3 243.6 245.4 247.1 247.3 246.7 245.2 241.5 235.1 226.8 216.9 205.3 180.9 166.2 180.2 183.1 185.9 188.2 189.9 189.8 188.6 186.1 181.2 175.5 154.9 153.1 169 175.6 178 180 181.4 181.7 181.6 180.3 178.3 176.8 175.2 173.8 171.8 170.3 168.5 166.5 164.6 162.2 154.7 139.5 119.3 95.4 103.3 135.9 144.6 148.5 151.2 153.5 155.7 157.2 159.6 161.4 162.7 163.7 163.9 164 162.9 161.3 159.1 153.5 123.5 119.6 134.9 145.3 145.3 143.9 142.7 140 137 117.5 93.4 83.3 107.4 129.8 139.1 143.8 147.1 150 151.9 154.3 156 158.1 159.6 160.4 161.7 161.7 164.3 166.8 168.2 170.5 172.6 174.4 176.5 177.5 178.8 179.5 181.7 183.1 184.1 185 186 186.9 186.4 186 185.6 185.8 185.4 185.1 184.1 182.5 180.4 178.1 175.2 170.2 165.4 160.2 152.9 147.9 142.5 139.7 135 118.9 99.6 106.9 131.1 138.9 142.4 144.2 145.8 145.9 144.6 143.2 140.5 132.2 119.6 108.9 102 104.5 104.2 127.3 151 168.1 175.6
170.7 174 177 182.6 186.6 190.4 193.3 196.7 200 203.5 208.5 214.6 222.2 228.2 232.4 234.7 236.8 238.5 239.6 240.4 240.4 239.7 237.4 233 227.4 220.5 213.8 210.1 210.3 210.3 213.1 213.9 215.2 216 216.4 217 219.9 222.6 224.8 227 229.5 225.2 226.7 234.1 238.2 239.5 241.1 243.5 245.2 247.4 249.4 250.5 252 254.2 254.7 254.9 254.9 252.9 248.7 242.8 235.7 227.3 215.1 183.9 175.4 189.7 192 193 193.4 194.2 193.7 192.6 190.4 186.1 178.3 154.3 157.6 173.2 177.8 179.8 181.7 182.7 182.8 182.3 180.3 178.3 175.8 173.7 171.4 169.9 167.7 165.2 161.9 156.9 149.7 132.2 114.6 99.4 97.6 111.6 137.1 144.7 149.3 152.6 155 157.3 159.4 161.2 162.6 163.6 164.4 164.6 163.9 163.1 161.2 157.7 146.7 119.2 141.3 149.1 151.1 151.1 149.8 148.5 145.9 143.3 127.7 105.4 84 101.2 125.7 140.8 146.2 150.4 152.7 154.1 155.5 157.7 158.5 159.2 155.3 159.8 161.9 163.5 165.9 168.6 170.8 173.2 175 177.1 178.9 180.3 182.5 184.2 184.9 186.5 187.9 188 189.2 188.6 188.5 187.7 187.6 187.2 186.6 185.5 184.1 181.8 179.3 176.6 173.5 165.4 158.9 152.3 147.5 143.7 139.6 134.3 115.5 96 118.5 138.1 142.8 146.1 148.9 150.3 151.2 150.8 149.7 148 146.1 142.4 133.8 128.7 125.1 113.7 114.2 142.7 163.7 172.8
171.3 174 177.7 182.2 186.1 189.5 193.7 196.9 199.5 202.4 206.9 211.9 217.6 224 227 228.3 228.9 228.8 228.2 228.7 229.1 228.9 227.6 223.3 218.1 211.8 205.7 203.7 204.2 205.1 206.9 207.7 208.7 210.1 212 214.1 216.6 219.1 223.7 224.2 214.8 229.9 235.6 239.4 240.9 242.5 246 249.6 252.5 255 257 257.9 262 263.6 263.9 264 262.8 261.1 257 252.1 244.3 237.2 222.1 185.7 183.5 198.6 199.7 199.6 199.6 199.4 198 195.9 193.8 188.6 180.2 157.3 160.8 176.4 180.3 182.3 183.5 184.1 184.1 182.7 180.8 178.2 175.4 172.2 168.5 164.5 158.9 153.5 147.2 138.3 122.1 108.7 101.3 101.1 104.1 122.9 138.5 144.6 150.6 153.9 156.5 158.8 161 162.8 164.2 165 165.7 165.2 163.9 162.6 160.5 156.4 140.1 132.5 150.8 155.2 156.1 156.5 155.5 153.9 152.8 150.3 141.1 116 90.8 96.4 119.4 141.1 148.8 153 154.4 155.2 156 156 156.7 150.9 156.6 160.9 164 165.2 167.5 168.3 170.9 173.7 175.6 177.6 180 181.8 183.5 185.7 187.5 188.7 189.5 189.9 189.9 189.7 189.6 189.4 189.1 188.5 187.3 186.1 184.4 182.1 179.7 176.5 173 165 157.2 150.8 147.1 143.6 140.3 132.2 115.1 101 128.9 142.4 147.7 151.3 154.5 155.3 156.3 155.4 154.5 154 152.9 153.6 153 148.2 146.2 129 111.2 136.5 158.9 171
169.6 173.2 177.8 181.4 184.6 188.7 192.9 196.7 199.5 201.4 204.4 206.9 210.5 214.4 217 217.7 217.4 217.4 217.8 217.4 217.9 218 216.7 214 209.3 202.8 200.2 198.8 199.1 201.3 202.6 203.7 204.5 205.3 206.7 209.7 212.3 212.1 208.6 215.7 227.5 232.8 239.6 241.5 243.4 246.4 250.8 255.9 260.2 264 266.5 269.2 271.7 272.6 273 271.9 271.5 268.8 265.1 260.7 252.1 243.2 223.2 190.2 196.8 207.3 206.7 205.4 204.4 203.4 201.7 198.8 195.8 190.9 180.4 157.3 167.1 179.6 182.1 184 185.4 185.3 184.7 183.3 180.7 177.1 174 170 164.2 156.6 145.9 136.9 125.8 113.6 104.1 104.6 111.1 101.7 112.1 124 137.9 144.8 152.3 155.4 158.6 161.2 163 164.5 165.8 166.6 167.2 166.4 165 163.4 160.5 153.6 133.9 147.6 157.9 160.2 160.5 161.4 161 160.5 158.9 156.1 153.1 128.3 102.2 89.1 111.8 135.6 149.5 153.9 155 154.1 153.1 152.3 153.8 148.5 157 161.4 163.9 167.1 169.3 170.7 172.4 174.8 176.2 178.3 180.8 183.3 185 187.1 189 190.6 191.8 192.3 191.4 191 190.9 190.3 190.3 189.3 188 186.4 184.4 182 179.6 175.5 171.7 164.1 158.1 150.8 146.3 142.6 131.5 115.6 105.5 117.7 137.9 148.6 153.2 156.2 158.6 159.8 160.4 159.6 159.6 159.9 161.1 163.7 164.7 158.9 152.3 129.8 113.7 132 159 169.3
166.8 171.2 175.5 179 182.4 186.1 190.1 193.7 196.9 198.2 198.2 198 200.6 203.4 206.8 207 207.5 206.5 205.6 206.2 206.9 207.3 206.1 204.3 200.9 198.8 196.6 194.1 196.4 197.3 199.6 200.7 201.3 202 202.7 205.3 205.2 201.8 205.1 222.7 229.1 236.1 240.4 242.5 246.3 250.4 256.1 262.6 267.8 273.2 277.7 279.7 280.8 282.4 282.2 281.5 280.8 278.2 274.5 268.3 257.1 244.8 221 200.9 215.3 215.7 215.5 212.1 208.9 207.3 204.6 202.1 197.5 193.1 183.6 162.4 168.8 181.4 184.4 185.6 186.4 186.5 185.4 183.1 179.8 175.4 171.3 165.6 161.3 151.1 126.3 117 108.7 107.6 117.6 129.4 117.5 107.3 135.9 134.9 132.9 142.8 153 156.5 159.9 162.9 164.8 166.4 168.1 168.3 168.2 167.9 166.2 164.7 162 148.1 142.4 159 162.9 163.3 165.3 166 166.3 165.5 164.8 163.3 159.8 142.3 116.1 93.8 101.4 125.7 146.7 151.9 144.7 138.7 142.7 147.9 144.1 152.8 158.1 164.7 166.9 169 171.2 172.5 174.7 175.5 177.2 180 181.5 183.8 186.5 188.1 190.6 192.3 193.7 194.1 192.8 192.4 191.6 191.9 190.7 189.7 187.9 186 183.9 181.9 178.5 173.9 167.9 162.7 156.6 149.9 144.9 141.5 119.3 105.6 117.5 136.6 147.4 153.8 158 160.5 162.4 163.8 164.2 163.8 165.1 166.8 168 171.9 169.9 158.3 148.2 124 116.3 139.1 160 168.7
162.8 167 170.2 173.5 176.4 179.3 183 186.7 188.6 189.5 189.2 188.3 190.6 194.1 196.5 198.2 197.9 196.4 197.4 196.7 197 196.8 196.4 195.1 193.6 191.3 190.3 190.1 194.2 196 197.3 198 198.2 198.3 198.1 198.5 197.1 203.5 214.9 222.5 229.2 236.4 240.5 243.6 248.1 255.7 263.2 270.7 276.9 281.5 286.2 288.9 290.7 291.6 290.8 290.3 288.4 285.8 280.6 274.2 264.8 243.1 213.9 220.7 226.1 227.3 225.8 220.2 216.2 212.2 209.1 205.3 200.8 195.5 187.4 167.1 171.2 183.4 186.2 187.6 188.3 187.7 186 182.6 178.4 172.1 167.4 163.7 158.3 139.5 116.8 112.9 125 139.2 142.8 139.9 116.6 116.8 139.8 144.6 147.2 151.1 155.9 158.8 161.7 164.9 167.6 169 170.6 170.7 170.5 169.8 168.4 166.1 162.4 142.4 157.3 165 167.5 169.1 169.7 170.7 170.4 169.9 169.5 168.2 164.4 155 133 112.4 91.5 117 136.9 131.8 125.2 136.5 145 148.6 160.1 162.4 164.1 166.6 169.7 171 173.1 174.6 175.7 178 179.2 181.3 182.9 185.9 187.8 189.5 191.5 193.3 194.8 194.6 194.1 193.6 193.1 192 190.9 189.7 187.5 185.1 182.9 180.8 177.3 171.9 164.8 159.3 155.2 149 141.7 125.8 109.4 112.6 136.8 146.4 152.1 157.7 162 164.4 166 166.8 168.2 168.8 170.5 171.9 174.5 177.3 169.7 159 142.9 121.4 119.3 154.9 159.5 167.6
156.9 160 161.7 165.5 168.2 171.3 174.8 177.4 179.3 180.1 180.6 180.8 182.7 185.7 187.6 188.3 187.9 189 188.8 189.2 189 188.5 187.3 187.6 186.6 185.8 182.7 186.7 190 193.5 194.1 193.8 190.9 191.1 192.7 194.5 196.5 206.7 214.6 221.1 227.6 234.6 239.3 243.5 251.4 260.9 271.1 276.7 281.7 288.4 294.3 298.5 300.3 300.7 298.5 296.4 294.2 290.4 285.2 279.3 269.1 246 229.9 237.6 238.1 235.7 231.7 227.4 221.9 218.6 216.6 210.9 205.7 199.2 191.4 173.2 173 186.1 189.6 190.1 190.1 188.9 185.9 182.3 177.4 170.2 164.9 160 152 124.4 119.3 138.2 144.3 144.9 144.2 142.2 127.9 112.3 139.2 147.8 151.5 154.4 158.1 161.1 164.3 167.2 169.6 171.4 173.1 173.3 172.4 172.2 170.4 168 159.8 146.3 164.4 168.8 171.6 173.2 174 174.6 174.2 173.2 172.6 170.9 167 161.9 143.9 115.1 91.7 106.9 109.5 116.2 134.7 151.1 155.8 159.8 163.2 165.5 167.5 169.3 171.3 173.9 175.5 177.1 178.9 179.8 181.3 183.9 186 188 189.9 191.8 193 194.7 195.7 195.8 195.2 194.5 193.7 192.8 191.6 189.1 186.3 183.7 181 178.5 174.1 168.8 163.4 157.9 140.4 132.6 126 113.1 122 137.2 138.8 148.4 156 160.7 165.2 167.6 168.9 170.2 170.9 171.2 173.3 174.8 177.3 176.8 169.3 159.1 140.8 120.7 119.9 152.7 166.9 172.2
150.3 152.9 154.7 158 160.2 163.3 166.5 169.1 171.8 172.8 174.5 174.9 176 177.6 180.5 182.5 181.8 183.5 183.5 181.5 179.1 177.6 175.4 175.1 175.6 175.6 178.3 180.3 183.3 188 189.2 187.3 188.4 189.9 195.9 199.8 201.2 201.4 206.2 217.6 224.4 230.8 237 244.9 255.1 266.1 275.1 279.9 287 294.1 300.8 306.9 310.9 311.4 308.1 302 299.7 296.1 291.6 283.8 270.2 259.9 252.5 252.1 249.4 244.5 238.9 234.1 230 224.6 219.5 216.1 209.8 203.8 193.1 174.8 176.5 190.1 192.3 192.1 192 190.4 187.5 183.1 176.8 169.5 161.4 150.3 137.9 119.1 137 145.8 146.6 147.3 146.8 144.7 134.7 109.4 139 150.1 154.2 157.3 160.1 164.1 167.1 169.7 171.8 173.6 175.4 175.4 174.9 174.8 173.3 170.8 159.8 159.8 169.9 171.6 175.1 176.1 176.8 177 176.7 175.5 174.6 172.1 167.2 161.5 138 109.2 98.6 120 135.3 139.6 149.9 153.2 157.9 162.1 165.4 167.2 169.7 174.3 173.3 175.1 176.7 179.4 181.1 182.7 183.7 186.1 188.1 190.1 192.1 193.6 195 196.1 197 196.9 196.5 195.8 194.5 193.1 191.1 187.9 184.7 182.3 179.4 174.9 170.5 165.4 159.7 141.8 123.7 132.1 131.6 112.8 136 145.5 148.3 150.3 157 163.3 167.4 169.5 171.3 172.6 173.4 174.4 176.1 177.7 179.9 175.3 166.8 156.3 138.4 121.1 128.8 161.3 168.8 173.9
142.1 146.3 144.4 146.7 149.8 154.5 157.8 160.7 164.4 165.7 165.8 165.1 165.4 168.9 169.5 169.6 169.9 169.5 169.3 169.1 169.5 170.7 172.5 175.8 180.7 184.1 185.1 184.8 185.1 184.5 185.4 186.9 191.3 196.6 199.7 202.2 205.7 205.7 205.3 209.3 216.9 226.1 235.9 246.3 257.9 267.8 275.5 283.8 290.8 299.6 307.5 316.4 321 319.3 315.4 309.5 306.1 302.4 296.3 289.9 281.5 273.1 267.5 261.8 256.8 250.8 247.2 241.2 236.3 230.5 225.8 220.8 214.4 205.4 192.1 172.5 181.8 192.9 194.3 194.9 194.1 191.9 188.2 183.1 177 169.6 159.5 142.9 127.5 132.8 146.1 148 149.4 149.7 149.3 147.3 143.3 113.6 138.7 150.8 156.2 161.2 163.4 167.2 169.6 172 174.1 176 177.5 177.9 177.7 177.4 176.1 173.6 162.6 167.4 171.8 174.9 177.2 178.5 178.4 178.7 177.6 176.6 174.6 171.5 166.2 154 131.9 105.3 104 133.5 145.7 149.4 152 155.5 159.8 163.9 166.9 169.6 171.9 173.9 175.7 177.9 179.3 181.6 183.6 185.4 186.4 187.7 189.9 192.1 193.9 195.7 196.9 198 198.7 198.4 197.9 197.1 195.4 192.7 190 186.6 184.4 179.9 176 170.7 166.7 160.1 142.3 128 142 148.4 145 121.5 136.5 148.7 152.8 155.6 159.2 165.2 168.6 171.6 173.5 174.9 176.1 177.4 178.3 179 179.2 172.8 164.8 150.9 137 117.6 142.7 163.5 168.7 173.8
160.2 162.8 159.7 152.3 149.9 150.6 151.1 152.4 154.6 156 157.1 157.5 158.9 159.9 160.8 161.8 164.4 165.4 166.7 168 171.8 174.6 178.7 181.9 184.3 185.9 186.7 187.5 187.9 187.2 190.2 192.9 196.3 200 204.2 208 211.3 212.3 210.6 208.2 213.1 221.5 232.7 243.2 255.2 267.1 277 287.2 295.2 305.2 315.1 324.4 326.3 324.9 322.3 318.4 310.4 306.5 300.8 294.9 288.8 280.4 274.9 269.2 263.2 257.9 253 247.8 241.9 236.8 231.1 224.1 214.7 202.3 184.2 175.3 190.4 195.4 196.7 197.2 196.2 193.7 190.3 185.1 179.2 170.9 162.4 149.2 125.3 145.8 149 150.6 151.8 152.3 152.2 151.6 146.6 122.6 133.1 153 157.7 163 167 170.2 172 174.9 177.1 178.6 179.7 180.1 179.7 179.8 179 176.7 169.4 168.7 173.2 176.7 178.4 178.8 179.2 179.3 177.9 176.3 173.8 170 164 154.2 126.9 103.4 108.4 136.3 148.8 151.2 153.7 157.6 161.4 165.6 168.7 171.5 173.8 175.5 177.5 179.6 181.8 183.2 185.4 186.5 189.2 190.8 192.1 194.1 195.9 197.8 198.5 199.9 200.5 200.7 199.9 198.2 194.8 192.1 189.4 186.3 182.5 177.8 172.1 167.2 159 139.6 137.3 150.1 156.3 154.6 152.5 134.5 132.5 151.8 156 159.5 163.1 166.2 169.7 172.4 174.9 176.7 178.1 179.5 179.8 179.7 177.3 171.4 158.8 148.3 124.6 132.9 155.5 162.8 167.5 173.5
176.8 178.4 177.8 172.2 172.2 166.2 158.6 155.9 154.1 155.5 157.1 160 162.1 165.1 168.1 169.7 171.3 171.6 170.6 169.5 172.5 178 181.3 184.1 185.9 187.1 189.2 190 190.5 190.4 191.9 195.6 199.2 204.1 210.1 213.6 216.7 218.1 217 212.9 215.1 221 231.5 244.5 256.7 269.3 279.8 290.1 300 310.6 322.4 329 329.3 328.7 326.3 324 318.7 310 304.1 298.5 293.4 286.4 280.1 273.9 269.2 263.4 258.3 252.8 245.6 240.4 233.1 223.4 210.2 193.5 178.9 189.1 197.8 200.7 201.7 200.3 198.7 195.9 192.1 187.3 181 173.4 164.1 145.6 131.7 149.6 152.5 153.7 154.6 155 154.8 154.3 152.8 135.4 125.1 150.5 160.4 165.7 168.7 171.9 174.8 176.8 179.3 180.6 181.7 182.3 182.1 181.9 181 179 174.2 170.4 173.9 177.1 178.8 179.3 179.6 179.1 177.4 175.5 173.3 168.7 163.5 148.4 124.5 102 110.6 137.4 149.9 152.5 155.7 159.8 163.6 167.7 170.6 172.5 174.9 176.4 178.3 181.1 183.1 184.5 186.5 188.6 191.2 193 194.9 196.4 198 199.9 200.9 202.1 202.5 201.8 201.4 198.7 195.6 192.1 188.5 184.8 181.1 175.3 168.3 157.9 142.5 149.2 160.5 162.2 161.9 159.3 156.2 147.4 124 153.1 158.9 163 165.7 167.3 170 173 176.1 178.2 179.6 181.1 180.8 179.3 175.9 169.3 160.9 145.9 121.5 134.7 144.3 157.7 165.7 172.1
187.5 189.4 190 189.1 184.8 179 172 165.8 160.6 164.1 166.4 168.6 168.7 172 172.7 174.9 175.8 176.4 176.9 174.6 172.6 176.2 181.5 184.8 187.3 189.4 191.1 192 192.6 193.2 194.5 198.6 203.6 209.4 214 218.4 221.7 224.5 225.3 222.1 217.2 224.6 230.1 245 260.1 273.1 283.6 294.6 304.7 315.4 329.3 331.1 331.6 331.3 330.1 327.1 321.9 313.6 304.5 300.2 295.5 289.6 282.9 278.3 273.6 268.3 262.8 256.3 250 241.6 232.6 216.2 200.6 184.8 186 200.4 206 208.9 209.2 207.1 204.3 200.6 196.1 191.6 183.2 175.8 165.4 145.9 138 154.5 155.5 156.7 157.9 158.5 158.7 157.7 156.2 148.6 123.3 146.8 162.3 166.9 170.9 173.9 176.8 178.8 180.9 182.6 183.7 184.2 183.9 183.4 182.5 180.3 176.9 172.9 173.8 176.8 178.9 180.1 179.8 178.9 177.1 175.1 172.5 168.2 163.3 150.9 125.1 103.5 109.5 135.5 150.3 153.5 157.1 161.2 166.4 170 172.2 173.1 175.2 177.4 179.9 182.2 183.7 186.2 187.8 190.4 192.8 194.3 196.6 198.1 200.2 202.8 203.7 204.5 205 204.4 202.7 199.3 195.9 192.1 187.9 183.7 179.4 172.3 163.3 149.1 157.6 162.6 165.3 166 165.4 164.2 160.5 154.5 126.7 152.9 160.4 164.6 167.9 169.9 172.2 174.9 177.6 179.5 180.7 181.9 181 178.3 175.4 170.8 163.9 146.3 123.7 146.4 153.7 156.1 164.4 170.4
195.5 197.2 198.7 197.2 193 187.5 180.6 173.8 166.2 170.1 172.2 174.2 175.7 176.9 179.3 181.9 183.4 183.2 181.3 179.5 177.2 175 180.2 185 188.3 190.1 192.6 194.9 196.3 197 197 201.8 208.8 213.3 219.1 223.3 226.4 230.2 231.7 230.2 222.9 229.9 241.5 249.8 263.8 276.2 287 297.7 308.5 319 328.4 332.4 333.7 333.4 331.4 327.3 321.9 315.9 306.7 300.4 295.6 291.2 286 281.4 277 271.9 265.7 258.6 249.8 238.6 223.9 209.2 191.2 185.4 198 207.6 212.7 216.2 217.8 216.1 212.8 207.2 200.4 194.3 186.7 175.4 164.3 145.7 143 157.3 158.8 160 161.9 162.2 162.6 161.8 159.9 156 138 142.7 162.9 168.3 172.4 175.8 178.8 180.9 182.9 184.5 185.4 185.6 185.6 185.1 183.8 181.8 179.1 176.5 174.9 178.1 179.9 180.7 180.4 179.2 177.3 175.1 172 168.5 163.1 153.1 127 106.6 111.7 133.6 150.6 153.9 157.1 162.4 167.6 171.2 172.3 173.2 175.4 177.8 180.2 182.7 185.1 187.2 189.5 191.6 193.4 195.8 198.5 200.7 202.8 204.5 205.7 206.9 207.2 206.3 204.5 200.3 195.6 191.4 187.2 182.8 178.4 172.2 157.3 162.1 165.6 168.2 169.6 170.2 169.6 168.9 166.2 159.4 137.6 149 162.1 167.1 170.6 173.2 175.7 177.1 178.3 180.4 181.6 181.4 180 178.1 175.6 172.5 165.1 143.8 123.6 145.2 155.3 160.6 165.7 171.5
201.6 203 203.1 201.7 197.9 192.7 187 180.8 173.5 173.4 176.8 179.3 181.6 184.1 185.2 186.6 187.8 187.8 186.9 184.4 183.2 178.5 179.2 185.3 189.7 193 195.9 198.6 200.4 202.7 202.8 204.7 212.4 217.3 222.6 226.7 229.8 234.9 238.1 239.3 241.4 236 249.6 262.3 271.8 279.9 289.5 300.8 311 321.5 330.3 332.6 333.2 330.3 328.2 325.6 322.5 316.2 309.3 300.4 296.4 292.2 288.7 284 278.9 273.2 265.9 256.6 245.8 231.8 215.7 198.9 184.4 195.4 208.1 216.2 221.4 226 227.5 225.3 220.5 213.6 206.5 196.6 187.6 176.4 161.7 141.3 152.9 160.2 162 164 165.8 166.1 165.1 164.8 163 158.9 145.2 143.5 161.5 167.7 174.4 177.3 180.1 182.4 184.4 186.2 186.9 186.5 186.6 186.1 184.3 183.3 181.8 179.8 178.7 179.2 180.7 181.2 180.9 179.6 177.8 174.9 171.2 168 163.2 158 132.5 110.4 116.9 139 150.1 153.7 156.9 160.7 164.9 168.6 170.4 172.5 175.2 177.7 180.6 183.1 185.4 187.3 189.3 192.2 194.3 197.3 200 202.6 204.8 206.9 208 209.2 209.2 208.3 206.9 202 196.3 191.1 187.5 183.4 178 168.7 159.6 168.8 171.2 172.9 173.8 173.9 173.4 172.8 170.5 165.1 145.7 149.6 164.1 169.3 173.2 176.2 177.6 178.4 179.2 179.7 181.2 180.7 179.5 178.3 175.9 172.4 166 149.1 126.1 141.3 154.7 160.2 166.7 172
204.6 205.8 205.7 204.6 201.4 196.3 193 186.9 180.8 176.6 181.7 184.5 186.5 187.6 189.2 190.2 191 191.5 191.4 191 189.3 186.3 181.3 184.4 190.6 194.8 198.3 201.2 203.8 206.9 209.9 212 216 221.6 226 231 235.4 238.4 242.6 245.6 248.8 253.8 258.8 272.1 280.6 287.2 295.2 303.9 311.4 320.8 326.9 328.8 328.7 327.6 326.2 324.2 321.7 316.6 309.5 301 296.4 292.9 289.3 284.1 278.9 270.8 262.7 252.9 240.9 221.8 204.5 187 193.1 206.2 218.9 225 231 234.7 235.2 231.9 226.9 218.8 210 200 189.5 175.7 156.8 136.3 158.4 163.8 166.3 168.3 169.8 169.5 168.2 167.2 165.1 160.8 141.2 147.3 161.3 169 175.6 178.5 181.2 183.7 185.8 187.5 188.2 188.5 188.4 187.7 186.5 185.2 183.9 182.3 181 181.6 181.6 181.3 181 179.6 177.7 174.9 171.5 167 163.9 159.9 133.9 104.9 124.5 139.7 148.2 152.3 155.3 158.2 161.5 164.5 167.5 171.3 174.3 176.8 179.6 182.4 184.2 186.5 188.9 192.9 195.5 198.9 201.6 204.2 206.5 208.8 210.2 210.9 211 209.7 208.6 205.2 195.4 191.5 187.5 182.6 177.5 170.4 165.2 174.1 175.5 176.4 177.4 177.4 177 175.4 174.2 170.4 146.7 159.4 166.4 171.4 175.2 177.8 179.2 180.2 180.5 181.1 181.4 181.2 180.1 178.7 177.4 174.4 164.6 149.7 128.8 134.6 147.9 158.6 165.9 171
206.6 207.5 207.2 206.1 204.1 200.2 196 192.4 186.8 185 185.4 188.2 189.8 191.3 191.8 193.3 193.9 194.6 194 194.1 193.2 192.1 188.5 183.9 189.2 195.7 200.3 204.2 207.5 210.9 213.9 216.4 219.7 224.4 229.4 233.9 238.8 244 248.4 252.6 256.7 262.8 271.7 279.5 286.2 293.7 301.9 308.4 314.6 320 323.7 326.2 326.4 325.7 324.2 322.3 320.3 315.4 308 301.5 295.9 292.3 289.3 283.3 276.4 267.4 258.8 248.8 233 212 194.6 191.8 199 215.5 226.5 233.5 238.9 241.7 239.2 235.2 230.2 222.5 213 201.7 189.3 173.7 153.9 135.4 165 168.5 171.3 172.8 172.9 172.5 171.4 169.6 166.9 160.6 136.9 149.5 162.4 169.1 174.3 179.1 182.2 184.4 186.6 188.6 189.4 189.8 190.3 189.7 188.5 186.8 186.1 184.6 183.1 182.4 182.1 181.5 180.8 179.5 177.8 174.9 171.7 166.3 163.9 158.2 132.9 105.4 110.1 125.2 140.5 147.4 149.9 153 157.2 161.7 165.2 169.1 172.6 176 178.3 181 183.5 186.4 189.3 193.2 196.9 200.2 203.5 206.6 207.8 210.2 211.7 212.2 212.1 211.2 209 207 200 192.8 188.2 183.8 180.1 172.4 172.7 177.8 178.9 180.2 180.8 180.7 180.2 179.1 177 172.4 146.5 168.3 171.9 173.3 177.2 179.7 181.3 182.1 182.4 182.4 182.1 181.8 180.8 179.3 176.9 173.2 161.6 142.2 139.5 149.9 134.4 146 160.8 168.3
207.3 208 207.7 206.8 204.8 201.8 198.4 195.1 192.7 189.3 189.6 191.2 192.4 193.5 194.7 195.6 196.2 196.8 196.7 197 196.6 195.5 193.9 190.1 187.7 195.2 202.4 206.5 210.5 213.9 217.2 220.1 223.4 227.6 232.4 237.4 241.8 247.9 252.7 259.6 265.6 272.3 279.7 286.2 292.2 299.6 307.1 312.6 318.8 322.4 324.6 325.2 324.6 323.8 322.5 321.3 318.2 312 305.2 299.9 295.4 291.6 289 281.6 272.9 263.8 255 243.7 224.8 203.3 192 197.2 208.7 220.9 233.3 240.2 245.8 246.8 242.9 237.5 232.6 225 215.3 204.5 188.3 167.4 156.3 142 169.2 173.1 175.5 177.3 176.3 175.1 173.8 171.5 168.1 159.2 145.6 151.5 159.8 168.1 173.6 178.9 182.3 184.9 187.6 189.6 191 191.6 192 191.3 190.2 188.7 187.6 186.3 185 184 183.3 182.2 181 178.9 177.2 174.9 171.5 164 161.7 145.7 115.9 116.1 121.7 113.8 123.6 129.5 131.4 137.1 149.5 156.3 161.3 165.7 169.5 172.6 176.2 178.7 181.8 186.1 189.9 193.7 197.3 200.8 204 207 209.3 210.8 212.3 212.6 212.8 211.6 208.7 207.3 202.9 194.2 190.3 186.7 182.9 179.6 177.2 181.7 182.5 183.6 184.1 184 183.1 181.7 179.6 173 150.7 172.8 175.8 177.8 181.2 182.4 183.2 184.1 184.3 183.6 183.1 182.2 181.4 179.6 176.8 169.1 157.3 132.9 153.3 154.4 155.2 141.5 144.9 161.6
206.7 207 206.4 205.5 204.1 201.7 199.4 195.9 194.2 192.5 192.3 192.9 194.2 195.2 196.3 197.2 198.1 198.8 199.2 199.6 199.6 199.3 198.6 196.8 190.4 191 202 208.5 212.7 216.3 219.9 222.9 227 230.8 235 239.8 245.2 251.4 257.3 264.4 271.6 279 285.4 291.9 298.3 304.7 312.1 316.5 321.3 323.3 324 323.7 322.9 321.9 320.5 318.7 313.8 308.6 303.5 299.1 294.5 289.7 283.6 272.3 266.8 259.9 251 236.2 215.4 197.7 196.1 207.4 224.8 234.4 238.4 245 249.3 249.5 246.5 241.8 235.3 227.7 218.8 208.8 194.8 177.8 160.8 143.3 174.5 178.1 180 180.3 179.1 177.9 176.4 173.4 170.1 157.4 156.8 161.1 160.2 163.5 172.9 178.6 181.8 185.7 188.8 191 192.8 194.2 194.3 194 192.2 190.6 189.1 187.9 186.8 185.6 184.1 182.4 181 179.2 177.3 174.1 169.3 162.3 148.6 123.9 110.2 134.1 145.6 125.8 112.8 115.8 116.7 118.1 125.4 138.7 153.9 160.3 163.7 168.8 172.9 176.6 180.4 185.1 189.6 193.1 197.3 201.4 204.4 207.5 210.1 211.3 212.6 212.7 212.4 210.6 209 207.1 203.5 197.2 192.9 190.1 186.7 184.1 183.6 184.7 186.2 187 187.4 187.4 185.8 183.1 181.3 172.9 156.4 176.9 179.8 182.9 184.4 185.4 186.2 186.6 186.7 185.6 184.6 182.9 181.5 178.7 174.9 168.9 141.9 143.6 158.3 159.7 161.9 160.6 145 153.5
205.4 205.4 205 204.1 203 201 198.8 196.5 194.9 194 193.7 194.2 194.9 195.8 197 198 198.9 199.6 201 201.6 202.1 202.4 202.1 201.3 198.7 193.6 201.9 210.4 214 218.4 222.5 225.5 229 232.9 236.9 241.6 247.2 254.2 260.8 267.8 274.9 281.4 288.5 296.6 304.5 310.7 315.8 320.6 322.3 323.1 323.1 322.4 321.3 319.4 317.4 314.5 311 305.8 301.2 297.7 293.1 288.2 278 252.3 258.2 253.8 244.1 228 206.6 196.8 202.8 222.6 237.2 242.2 245.2 247.3 250.6 250.5 247.7 243 237 230.6 222.6 212.8 200 181.4 168.1 146.1 175.7 182.7 183.7 183.5 182.3 181.1 179.5 176.3 170.7 154 160.9 165.3 166.9 165.5 169.6 177.2 182 185.9 189.9 192.6 194.9 196.5 196.7 195.8 194 192.6 191.3 189.4 188.3 187.2 185.1 183.2 180.8 178 175.2 171.3 165 152.6 131.5 112.4 132 150.6 153.9 152.8 142.7 142 153.5 153.1 143.4 127.7 142.2 153.6 156.7 165.6 170.3 174.5 178.9 183.9 188.6 192.3 197.3 201.8 204.9 207.7 209.6 211.1 211.2 211.9 211.7 211 209.4 207 204 199.9 196.8 192.9 189.9 187.9 188 188.2 189.5 190.2 190.8 190.3 188.2 185.4 182.8 171.8 165.8 179.4 183.5 185.6 186.9 187.8 189 189.4 189.4 187.8 186.2 184 181.5 178.1 172.9 156 135.3 152.5 162.3 165.3 166.9 167.2 164.4 145.1
202.3 203 202.8 202.4 201.5 200 198.2 196.2 194.8 194.4 194 194.6 195.4 196.3 197.3 198.2 199.5 200.5 201.9 203.1 203.9 204.5 204.3 203.8 202.9 197.1 198.5 212 216.4 219.8 224.1 227.1 230.8 234.8 238.5 242.9 248.4 255.6 262.9 269.9 277 284.1 292.7 301.3 309.4 315.7 319.2 321.3 322.2 322.3 321.7 320.5 318.7 317 315.1 311.5 306.8 302.6 299.2 295.8 292.6 283.9 271.3 252.5 238.8 246.5 238.1 219.4 203.5 201.3 214.6 235.6 246.3 250.9 250.5 251.3 251.7 250.6 248.1 244.1 239.5 234 226.3 217.2 205.6 190.9 172.1 151.8 177.6 188.7 189.2 188.3 186 184.2 181.8 178.8 173.3 154.6 164.9 169 171 171.6 170.8 176.5 182.1 187 191 194.1 196.4 197.5 197.8 197.4 196.4 194.9 193.4 191.9 190.6 188.6 187 183.7 180.9 177.2 172 167.4 159.6 138.3 128 121.2 146.4 155.5 156.8 158.5 159.9 160.7 161 160.9 160.3 153.4 133 135.8 144.5 161.3 168.1 172.6 177.9 182.5 187.1 190.8 196.7 201.2 204.4 207.2 209 209.7 210.6 211.1 211.5 210.6 209.7 207.7 205.2 202.9 199.9 196.4 194.1 192.1 191.9 192.4 192.8 193.1 192.9 192.1 189.7 186.5 182.9 165.1 171.5 182.8 186.1 188.4 189.4 190.2 191.7 192.2 191.7 189.7 187.9 185.4 181.4 177.2 171 143.2 140.5 154.9 165.5 170.1 171.3 171.9 171.7 165.5
199.1 200.3 200.5 200.1 199.6 198.6 197 195.9 195 193.7 193 193.5 194.3 195.7 196.7 198 199.7 201.3 202.6 204 205.2 205.9 206 205.9 204.7 201.6 200 213 217.7 221.3 225.4 228.7 232.4 235.9 239.6 243.1 248.2 254.2 261.8 269.9 277.1 285.3 293.7 303.6 314.3 317.6 319.6 320.7 321.4 320.6 319.8 318.1 316.5 314.5 311.3 307.7 304.5 301.3 298.2 294.6 288.7 268.9 254.9 236.8 222 237.5 229.8 208.3 202.1 212.1 229.8 246.8 252.8 254.8 255 255 254.2 252.6 250.2 247 242.9 236.8 230.6 222 212.3 197.2 176 156.7 173.8 195.2 194.6 192.9 190.9 188 185.1 181 175.9 160.4 167.2 172.7 174.9 175.6 175.9 177.6 182.6 188.7 192.2 195.7 198.3 199.9 200.4 200.4 199.4 197.6 195.6 194 192.2 190.1 187.9 184.6 180.9 176.5 171.5 163.4 146.3 152.4 142.2 122.1 147.6 157.6 159.8 160.8 162.4 163 163.8 164.3 164.5 163.8 161.3 147.7 131.7 152.3 165.7 171.6 177.2 182 186.6 189.6 194.7 199.6 203.4 206 208.4 209.6 210.2 210.4 211.2 210.3 210.2 209 207.5 205.4 203.1 200.4 198.3 196.1 195.6 195.7 194.7 195.4 194.8 192.1 190.4 186.9 181.6 162.7 177.4 185.8 188.5 191 192.2 193 194.2 194.1 193.4 191.8 189.5 186.5 182.6 176.5 163.5 143.1 160.9 150.2 168.9 173.1 174.6 175.9 176.6 175.8
195.3 197.2 198.1 197.9 197.6 197 196.1 195.5 194.6 193.3 191.8 192.3 193.1 194.4 195.8 197.4 199.8 201.6 203.4 204.4 205.8 207.3 208.1 208.5 208.1 207.2 206.4 211.6 218.3 222.9 226.1 229.5 232.7 236.1 239.9 243.8 247.8 252.6 259.5 267 275.6 284.9 293.5 303.7 312.6 316.8 318.8 319.2 319.2 318.7 317.1 314.6 312.7 309.6 307.2 305.2 303 299.9 296.9 293.5 286.3 279.8 272.6 259.3 231.2 215 217.9 204.6 212.8 228.2 246 255.6 258.5 259.4 259.4 258.7 257.4 255.7 253 250.3 246.5 240.5 233.7 227.2 217.6 197.8 177.3 160.7 176.9 200.6 203 200.2 196.4 192.8 189 184.6 179 162.9 169.6 176 178.7 180.4 180.3 179.3 184.9 190 194 197.2 199.7 201.6 202.6 202.7 201.9 200.5 197.4 195.3 193.1 190.8 188.7 185.4 181.4 178 171.5 158.2 154.4 160.3 148.6 122.5 145.6 158.7 160.9 162.3 164.2 165.2 166.2 167.8 168.3 168.1 167 165.5 143.5 144.5 163.4 170.8 176.8 181.8 186.1 188.5 191.9 197.2 200.9 204 207.3 209.3 210.2 210.7 210.9 211.6 211.6 210.4 209.4 208.3 206.3 203.8 202.4 200.5 199.1 198.5 197.4 196.9 195.8 193.6 190.8 187.1 175.3 172 184.3 188.8 190.7 193.1 194.8 196.2 196.3 196 194.1 192.2 190 187.1 183 174.2 143.6 158.7 169.7 154.2 167 175.2 177.6 178.9 179.8 179.5
190.7 192.7 194.6 195 195.2 195.1 195.2 194.9 193.5 191.7 190.3 190.6 191.8 193.1 194.4 197.1 199.4 201.9 203.7 204.9 206.8 208.5 209.9 211.1 211.5 212.3 213.1 217.7 219.9 223 226.4 229.9 233.2 236.4 239.5 243.1 246.7 251.1 257.7 265.2 273.6 283.4 293.6 300.6 308.6 314.2 315.8 316.5 317 316 314.2 311.5 308.2 306.5 304.5 303 301.4 299 295.9 293.3 289 283.1 276 266.2 244.7 219.7 209.3 213 228.2 246.4 260.2 262.5 263.3 263.6 261.8 261.7 260.8 259.1 256.7 253.2 249.1 243.9 239.4 232.8 221.6 203 178.7 160.1 188.4 209.5 212 209 203.7 198.3 193.7 188.9 183.3 161 172.6 178.9 182.8 184.5 185.3 184.4 187.7 192.7 196.6 200.1 202.8 204.3 205.5 205.4 204.3 203.4 200.1 197.7 194.8 192.1 189.2 186 181.8 177.8 171.8 168.2 165.9 165.6 150 124.1 145.2 158.1 161.7 164.3 166.1 167.8 168.9 171 171.8 172.2 172.3 171.3 160.9 136.2 157.6 168.1 175.8 179.9 181.7 185 188.6 193.6 198.2 203.5 206.9 208.6 210.1 211.2 211.9 212.5 212.8 212.5 212.1 211.5 209.8 207.3 205.6 204.7 203.6 200.5 198.9 197.9 195.8 194.1 191.1 183.9 171.3 184.4 188.5 191.6 193.9 195.3 196.9 197.9 197.8 196.9 194.8 192.8 190.8 187.9 184.4 169.4 148.9 171.2 174.6 168.9 155.3 176.2 179.7 181.2 181.9 182.2
186.6 188.4 190.3 191.2 191.6 192.6 193.5 193.4 192.8 191.5 190.1 189.7 189.9 191.2 193.6 196.3 198.9 201.2 203.1 205.6 208 209.7 211.2 213 214.7 215.3 217.4 220.4 222.2 224.5 226.3 230.3 233.3 236.1 239.2 242.6 245.7 249.4 255.7 262.4 269 279.4 287 295.7 301.9 307.2 310.1 310.8 310 309.4 307.1 304.9 304.4 303.7 302 300.8 299.9 298 295.9 293.4 289.6 283.4 275 254 236.5 227.1 218.9 229.2 245.4 261.7 266.9 267.6 267.6 267.3 266.4 265.5 263.9 262.2 259.2 255.6 251.8 247 245.2 237.5 221.5 194.7 169.5 172.8 198.8 218.2 218.2 214.8 211.9 205.6 198.7 193.2 186.4 168.2 175.8 181.4 185.7 189 190.7 190.5 191.8 195.8 199.8 203.1 205.9 207.8 208.6 208.4 207 205 201.9 199.8 195.7 192.9 189.2 186.2 182.1 177.5 173.3 171.2 169.4 163.8 140.9 126.1 146.1 158.3 162 165.1 167.9 169.4 171.8 174.1 175 175.7 176.3 176.5 175.2 151.4 147.5 162.3 169.4 174.2 177.4 180.1 185.2 190.8 195.7 201.2 207.1 209.2 210.4 211.4 212.3 213.7 214.1 215.2 214.7 214.7 212.6 211 208.9 207.3 206.8 204.8 203.5 198.9 196.4 192.7 190.7 179.1 182.1 190.5 192.6 194.9 196.5 198 198.8 199 198.7 197.6 195.6 193.3 191.6 188.8 182.6 163.7 154.5 177.1 178.5 175.8 160.4 176.3 181.2 183.5 185.1 185.6
182 183.6 185.1 186.5 187.6 189.6 190.5 191.2 190.7 190.4 189.4 188.1 188.7 190 192.8 195.4 198 200.6 203 206 208.4 210.7 213.2 215.1 216.8 218.7 220.5 221.5 223.9 226.1 228.5 230.9 233.3 235.8 238.9 241.2 243.9 248 252.6 259.8 267.8 273.5 280.2 288.4 295.9 301.6 305.7 306.5 306.4 305.3 302.8 301 300.3 300.5 300.6 299.6 298.8 297.6 295.7 293.7 289.7 281.8 275.7 268.2 247.6 233.4 235.5 251.6 263.3 272.8 272.7 272.6 271.4 270.9 269.5 267.9 266.3 263.8 260.4 257.6 253.9 251.3 247.2 226.1 201.8 176.5 170.6 190.8 211.3 224.3 225.7 224.5 217.4 210.9 202.5 194.8 186.4 172.2 176.1 185.5 190.7 193.1 195.4 196.2 198 201.1 204.6 207 209 210.9 211.1 211.7 210.3 207.7 204.7 200.9 198.3 193.3 189.9 186.8 183 178.4 175.1 173.3 171.3 155.8 129.5 130.5 144.8 157 162.1 166.1 169.3 171.6 173.8 176.7 178.4 179.7 180.7 181.2 180.7 166.7 140.5 156.5 165.8 169 170.9 175.6 182.2 187.2 193.3 198.4 203.9 208.4 210.1 211.7 213.1 214.4 215.7 216.6 216.7 216.7 215.1 213.7 212.1 210.9 209.1 207.1 205.3 200.1 196.5 192.9 186.4 182.7 190.5 194.5 196.4 197.4 198.6 199.8 200.2 200.1 199.5 198.5 196 193.7 191 187.7 178 154.4 164.9 181.4 181.4 179.9 166.5 174.1 182.5 185.9 187.8 188.3
177.5 179.1 180.5 181.3 182.2 184.8 186.4 187.5 188.4 188.2 188.5 186.6 185.9 189.5 192.2 194.8 197.5 200.2 203 205.8 208.6 211 214.2 216.3 218.5 220.6 222.5 224.2 225.7 227.9 230.1 232.4 234.4 236.2 237.8 239.7 242.4 245.2 249.5 255.4 262.6 268.6 275.4 283.9 291.8 298.4 303.1 305.3 304.2 300.4 298.3 296.8 296.7 298.2 298.3 298.4 297.7 297.1 296.1 294.1 291.4 288 280.8 270.4 268.3 254.2 253.7 270.9 277.8 278.8 278.4 277.5 275.4 273.3 271.9 270.3 267.6 265.1 261.4 257.3 254.6 251.2 230.9 204.9 180.6 175 194 212.3 225.6 232.1 231.1 228.5 221.4 212.6 203.5 194.1 184.2 174.2 179.5 189.4 194.4 197.2 200.8 203.2 204.1 206.4 208.2 210.6 212.8 215.1 215.4 215.3 213.4 211.2 207 204.5 200.8 196.4 191.7 187.7 185 182.4 178 175.3 171.5 156.5 136.4 141.1 136.9 154.9 161 166 170.1 173.6 176.1 178.9 181 183 183.9 183.8 183.9 181.8 163 145.3 155.3 157.7 161.8 168.6 176.8 183.7 189.9 196.7 201.3 206.3 209.3 211.7 213.6 216.2 218.3 218.8 220.1 218.8 217.5 216.3 215.5 214.3 212 210.8 207.8 202.7 198 194 190.9 187.1 193.7 198.2 199.7 199.7 201.3 201.4 201.8 201.6 200.4 199.3 196.7 193.8 190.9 183.7 162.2 154.6 181.2 185.3 185.6 182.8 173 177 185 189.2 191.4 193.1
173.8 174.9 176 176.9 178 179.6 181.5 183.7 185.8 185.6 185.7 185.6 184.3 188.6 191.3 193.9 195.5 199.1 202.4 205.1 208.4 211.4 214.9 218 220.3 222.4 224.5 226.1 227.5 228.8 230.2 232 233.6 234 235.9 237.1 239.7 242.3 246.7 251.8 256.9 262.4 267.9 275.4 284.7 290.9 296.8 299.5 297.6 295 293.3 292 292.8 294.7 295.9 296.7 296.9 297.1 297.4 295.7 294.3 291.4 287.6 287 285.7 281.3 276.8 285.1 286 284.8 284.2 282.1 279.9 277.3 274.7 271.5 268.4 265.1 261.1 255.1 253.2 235 210.3 190.5 174 196.3 214.3 232.9 239.7 238.4 236.4 231.8 222.7 214.2 205.6 198.2 181.3 184.3 182.4 193 199.2 202.7 204.9 206.7 208.3 210 211.7 214.1 216.9 219 220 219.1 217.4 215 212 208.7 204.8 200.8 194.8 190.1 187.3 184.9 180.7 177 172.5 165 144.2 144.1 144 151.9 159.4 163.5 168.9 173.8 177.6 181.3 183.6 185.3 186.2 186.8 187 186.1 181.9 164.1 160.5 149 155.3 162.3 167.9 179.2 185.9 193.3 198.2 204.1 208.4 211.3 214.6 217.8 220 221.9 222.5 221.7 221.2 220.3 219.5 217.8 215.4 213.1 209.3 205.8 201.2 198.9 197 193.5 199.8 201.8 203.2 203.3 203.8 203.9 203.4 202.8 201.6 199.6 196.9 193.5 188.2 169.8 164.9 172.1 186.7 188.9 189.4 185.7 175.4 182.2 190.5 194.5 197 198.9
169.9 171.1 172 172.8 173 175.4 176.8 179.3 181.5 183.3 183.6 176.9 184.7 187.6 190.8 192.9 195.6 198.1 201.2 204.6 208.1 212.5 215.2 218.4 221.8 224.2 226.2 227.4 228.2 229.1 230 230.7 231.6 231.2 231.8 233.5 236.6 240.7 244.7 248.8 252.7 256.9 261.7 268.4 275.6 281.9 286.9 289.5 287.7 286.3 285 286.5 287.5 291 295 296.2 297.9 298.2 298.7 298.4 297.7 297.4 297 294.9 293.9 292.8 292.7 293.4 293.5 292.1 289.4 286.3 283.2 279.4 275.6 271.7 267.3 262.5 255.7 250.3 240 219.6 200.1 184.1 191.1 215.7 233.9 243.7 243.2 241 238.2 233 226.1 219.4 210.5 202.2 195.1 193 183.9 196.6 202.3 205.7 208.8 210.7 212.5 214.2 215.2 218 220.4 222.1 223 221.5 220.6 217.6 216.7 213.2 209.2 205.3 199.7 195 189.6 185.6 183.9 180.3 175.5 166.1 144.5 148.3 164 159 147.4 160.1 166.5 172.3 178.2 183.2 185.9 187.9 189.4 190.4 189.9 188.8 187.1 180.6 183.3 172.2 165.3 159.2 155.6 160.5 176 189.9 196.6 202 207.9 212.1 215.6 219.5 221.6 223.3 224.4 224.8 224.3 223.9 222.5 221.1 218.9 215.6 212.3 208.5 206.1 204.2 201.1 199 203.9 205.5 205.7 206.5 206.2 206.3 205.7 203.5 201.1 199.1 195.4 189.8 181.3 170.3 161.7 183.6 190.3 191.8 191.6 187.7 177.8 187.1 195 199.5 202.5 204.8
166.2 167.3 167.7 169.3 169.9 170.8 172.7 169.1 168.3 170.1 172 182.2 185 187.2 189.5 191.8 194 196.5 199.9 203.9 207.6 212.8 215.4 218 222.2 225.8 226.8 227.1 227.1 226.9 227.4 227.2 226 226.3 227.7 229.9 232.9 237.1 240.9 245.1 249.8 253.3 257.7 262.7 266.8 271 276.6 275.4 272 272.7 278.3 286.4 290.7 294.1 295.6 297.2 299 299.8 301.6 302.3 303 303.1 302.8 302 300.4 298.9 299 298 296.9 295.1 291.7 288.2 284.4 280.5 275.3 269.6 263.2 252.7 251 245.2 236.5 221.8 199.3 179.4 208.3 235.6 247.8 248.8 248.6 246.1 242.3 237.3 231 225 213 202.5 205.1 202.1 189.2 198.5 206.2 210.4 213.8 215.9 217 218.9 219.5 221.9 222.8 224.5 224.1 223.7 222.9 222 220.1 217.1 213.7 209.2 205.5 200.2 195.3 190.6 187.4 183.7 178.2 164.3 146.8 150.4 166.8 169.6 168.1 162.8 162.3 170.3 176.8 182.1 186.9 190.3 191.7 192.9 193.3 193.1 192.6 191.1 190.6 189.4 187.8 185.2 179.3 171.5 164.3 181.2 192.9 201.1 206.6 212.7 217.1 220.5 224 225.5 227.1 227.7 227.3 226.5 224.8 223.3 221.2 218.4 216.4 212.5 210.3 209.1 204.2 204.1 207.7 209 209.2 209.5 209.2 208.7 207.1 204.7 202 197.6 190.2 182.7 172.7 173.1 185.9 193.5 195.4 196.1 195.5 192.3 182.7 189.2 200.3 204.5 208.1 211.4
162.2 163.6 164.1 165.1 164.9 155.2 150.8 158 166.6 176.2 180 182.6 184.6 186.9 188.4 190.3 191.1 194.1 197.8 203 208 212.8 215.3 217.5 220.4 224.2 225.3 224.6 224.5 223.2 222.4 221 222.1 221.9 222.7 225.3 228.8 233.7 236.4 241.3 245.9 249.5 252.3 257.4 261.3 264.1 262.5 258.6 269.8 280.7 288.1 292.4 294.6 296.1 298 300.2 302.5 304.5 307.2 308.7 308.8 309.3 308.5 306.1 304.3 302.7 301.7 300.5 299.3 297.5 294.6 289.9 286.1 280.9 274.1 266.8 258.6 247 244.3 240.5 230.7 209.7 187.2 198.9 219.9 244.7 254.5 255.3 254.3 251.5 248.7 243 237.4 230.4 218.7 209.6 213.1 209.3 200.3 200.9 210.6 216 219.2 221.5 223.2 224.6 225 225.4 226.6 226.6 227.1 226.3 225.4 224.6 222.9 220.4 217.7 214.1 209.9 206 201.4 196.5 190.5 186.7 178.5 156.6 144.7 161.9 170 172.8 173.1 170.9 166.4 169.7 175.8 183.6 188.3 191.9 194.5 195.8 196.6 197.9 197.6 197 196.9 197.1 196 195.8 195 191.4 170.5 167.7 184.7 197.4 205.6 213.7 218.4 222.7 225.8 228 230.1 231.3 231 230.1 228.6 226.5 223.6 221.2 219.1 218.2 215.6 213.7 208.8 210.2 212.6 212.1 212.3 212.6 212.6 211.2 208.7 205.5 202 197.3 190.2 180.5 176.1 193 199.1 200.2 200.5 201.1 200.6 198.1 185.4 191.9 205.6 211.1 216.5 219.3
158.6 159.9 160.8 162.3 156.3 142.3 162.5 170.1 174.1 177.3 179.2 181.4 183.9 186.2 187.7 187.5 184.6 188.5 195.4 201.4 207.8 212.8 214.9 216.5 218.7 221.2 222.1 222.1 219.6 217.2 216.1 216.1 216.7 216.3 216.6 220.5 223.4 225 229.9 234 240.1 243.9 247.8 251.1 251.8 249.6 248.7 264 275.3 284.4 291.8 295.5 297.1 300.7 303.4 306.7 308.3 310.1 312.2 313.7 314.5 314.1 311.7 309.5 307.7 306.1 303.8 301.6 300.5 299 296.6 292.9 287 280 272.7 263.9 248 236.3 229.5 222.8 210.9 194.1 195.9 213.4 228.1 251.4 261.2 261 259.8 258.2 255.4 250.5 244.3 234.4 217.5 222.6 222.6 218.1 206.7 204.4 215.1 220.3 224.4 228.4 230.9 231.3 231 231.1 232.2 232.6 232.1 230.8 229.7 229.6 227.5 225.4 222.6 220 216 211.9 207.2 200.8 195.1 189.1 171.3 151.5 166 172.9 176.3 177 178.3 177.3 173.7 173.2 179.1 184.7 190.9 194.9 198 200 202.3 203.8 204.4 204.5 204.6 203.8 203.8 204 203.5 201.8 190.1 170.5 171.1 186 201 214.1 219.8 224.1 227.9 229.6 232.5 233.8 233.7 232.8 231.2 229 227 225.3 223.3 222.4 219.9 216.2 212.7 213.6 214.4 214.9 214.8 215 214.3 213.6 210.5 206.5 200.1 195.4 186.9 186.7 201.3 204.2 204.8 205.5 206 206 205.9 201.2 190 195.5 211.9 218.2 224.9 227
154.5 154.6 147.8 142.9 135.1 153.1 166.1 170.8 174.9 176.5 178.5 181.1 183.3 184.9 185.8 183.5 174.1 182.7 189.9 197.1 205.8 212.5 214.3 215.8 217 217.9 217.9 217 214.2 212.8 212.1 211.6 207.7 200.4 205.9 209.9 212.3 213.8 218.9 224.5 229.4 233.1 236 236.5 239.2 238.1 254.2 267.2 278 287 294.3 297.8 301.9 306.5 310.5 313 313.6 315.1 315 315.7 318.1 316.2 314.2 312.2 310.2 307.9 305.6 303.2 301.4 300 297.4 294.6 289.8 280.3 270.8 252.3 233.7 219.2 211.4 204.6 196 206.5 221.1 232.4 246.2 262.3 266.3 266.4 265.9 263.7 260.7 256 249.8 236.7 219.4 232 229.9 225.7 219.4 206.6 217.8 225.5 229.9 233.4 235.3 236.7 237.8 238.6 238.5 238 237.7 237.2 236.5 236.6 234.4 231.2 228.5 225 221.7 216.6 212.9 206.6 198.5 191.8 165.7 165.1 177.3 179 181.6 181.2 182.3 182.5 181.7 177.4 182.6 189 194.7 199.8 203.6 206.8 209.9 210.5 211.8 212.4 212.5 213.2 213.7 212.4 211.2 210.3 204.7 191.7 166.4 173.7 190.7 211.7 221.4 225.5 229.2 232.4 234.6 236 235.8 234.8 233.3 231.9 230.5 228.8 226.6 225.7 223.5 220.6 219.2 218.2 218.7 216.5 219 217.8 216.8 215.9 211.3 207.5 196.5 187.6 200 206.7 208.1 208.1 209.1 210.5 211.4 211.9 211.2 209.3 197.4 203.4 219.9 228.3 230.7 231.4
150 142.1 126.4 133.6 150.1 160.5 165.4 169.6 171.8 174.2 177.8 179.9 181.6 183.2 181.9 175.8 164.3 176.1 182.3 189.6 198.4 207.7 212.4 214.4 215.1 215.2 214.3 211.8 210.1 208.6 207.3 204.5 198.5 183 194.4 196.9 198.6 198.1 202.3 209.8 214.8 219.7 224.5 229.1 230.8 241.4 256.7 269.6 279.4 288.7 296.4 301.6 306.6 311 315.3 315.9 316.3 316.1 316.3 317.4 319.6 318.7 316.8 314.2 311.9 309.6 307.3 304.9 303.2 300.2 297.6 294.8 291.1 283.8 260.8 237.2 217.1 206.4 213.2 218.1 225.8 238.8 248.8 258 267.4 271.7 271.5 271.5 270.5 268.4 264.8 260.1 254.3 232.5 236 239.9 237.3 231.5 225 209 222.5 229.3 233.2 237.1 239.7 241.9 243.1 243.1 242.5 243.4 243.5 243.9 243.4 242.4 241.8 237.3 233.9 228.8 225.9 220.8 216.9 208.2 201.5 187.9 162.9 173 183.8 185.9 186.6 187.3 189.3 189.5 188.3 185.6 187 193.1 199.6 205.9 211.6 215 216.9 218.1 219.7 219 220.7 220.9 220.9 220.6 219.9 218.5 215.1 205.4 192 169.5 173.4 199.4 221 227.2 230.6 233.5 236.3 237.6 237.5 236.6 235.8 234.8 233.5 232 230.2 228.2 226.2 224.2 224 223.7 223.3 223 222.5 221.3 219.7 217.6 212.8 204.8 193.1 200.3 205.9 209.5 211.2 212 213.5 215.2 216.8 217.3 216.7 215 205.6 212.8 226.7 232.9 234.2 236
141.3 126.6 125 145.3 154 159.8 161.8 162.5 164.8 169.6 169.6 171 166.2 167 170.9 162.5 156.3 169.6 175.6 180.2 187.2 195.7 205.1 208.5 209.7 209.2 206.2 203.4 203.4 201.3 197.3 191.3 184.4 171.2 177.9 180.1 180.6 183.1 186.7 193.2 205.8 213.3 218.6 218.9 231.4 250.1 259.5 271.1 281.6 291.4 299.1 304 308.4 313.3 316.1 316.9 317.6 317.4 317.6 318.6 320 319.2 318.4 316 313.7 311.3 309 305.3 302.6 299.8 296.9 294 290.3 279.6 258.5 223.7 212.5 231 238.8 242.9 254.7 265 270.9 274.1 274.7 274.9 274.8 274.4 273.5 272.1 268.8 264 252.5 234.5 246.5 247.7 243.6 238.5 230 216.5 226.4 231.8 237.2 241 244.2 245.7 246.8 246.8 246.6 248.3 249.3 249.1 248.7 247.9 246.6 242.6 237.5 233.2 228.3 223.5 218.7 209.8 201.2 186 168.3 176.3 189.6 192.5 194.6 195.7 197.5 197.5 195.6 195.1 195 198.7 205.3 212.3 217.7 221.8 224.2 226 227.7 228.7 228.9 229.6 230.4 229.4 229.1 228 226 219.7 210.4 194.5 172.9 191.3 215 226.8 231.7 235 237.2 237.7 237.7 238.1 237.8 237.5 236.3 234.9 233.4 231.1 229.3 227.7 227.5 227.1 226.3 225.5 225.2 223.9 222.2 219.6 213.6 204.5 195.8 200.8 205.7 210.7 214.5 216.6 218.1 219.8 221.4 222.8 222.8 222.6 216.1 211.3 229.1 234.2 237 239.1
121 112.6 132 144.4 150.9 149.9 148.7 148.4 145.3 146.2 148 145.5 140.9 137.9 139.6 141.7 142.4 146.2 156.2 162.8 172.1 178.6 185.8 190.3 186.6 183.8 180.7 181.1 178.2 172.6 168.2 161.6 158 168.9 185.3 191.6 195.1 196.1 192 191.2 191.5 204.9 205.7 224.8 242.4 251.1 263.4 274.1 284.4 292.7 300.2 305.3 309.9 314.9 316.2 317.1 318.4 318.8 318.9 319.8 319.9 319 317.8 315.9 314 311.3 308.5 304.8 301.6 298.5 294.6 289.1 280.9 265.8 244.8 226 220.4 249.1 264.3 267.9 270.5 274.2 275.9 276.8 277 277 276.2 276.3 275.2 273.9 272.1 265.5 250.8 249.2 253.9 252.5 249.1 244.5 236.2 227.1 228.1 236.2 241.4 245 248 249.3 250.4 252 252 252 252.8 252.8 252.6 251.6 249.2 246 241.3 236.3 231.6 226.2 219.1 210.8 199.3 181.7 165.2 185.4 195.9 200.8 203.3 204.6 207 207.5 206.7 207.3 207.1 203 208.9 215.5 223.6 228.1 231.3 233.2 234.1 235.3 236.3 237.8 238.7 238.5 238.5 237.8 236.2 232 222.4 203.1 179.8 182.5 210.1 224.5 231 233.3 236.5 237.4 238.4 239.7 239.8 239.8 239.2 237.6 235.1 234.1 232.6 231.5 231 230.6 230.3 229.1 227.6 226.1 223.8 221 214.8 205.1 198.8 200.8 205.3 212.5 217.3 219.9 222.5 224.2 225.9 227.2 228.6 228.3 223.6 218.1 231.4 236.6 239.8 243.2
105.5 119.2 124.7 129.3 136.5 134.6 127.8 123.3 120.6 120.5 119.7 118.7 119.2 118.5 119.4 122.1 125 125.8 131.7 140.3 151 158.6 164.2 163.5 158.8 155.9 155.1 151.9 149.6 148.1 152.3 162.2 173.4 192.7 203.8 209 212.6 213.9 214.1 210.7 205.3 197.2 214.4 230.6 243.7 252.8 266.4 275.7 285.6 294 301.2 305.9 310.6 315 316.7 317.5 319 320.1 320.6 320.6 319.7 317.6 316.7 314.7 313.4 310.2 307.5 302.2 299.1 293.5 286.3 271.7 262.3 254.1 253.7 227.5 249.9 268.6 272.6 272.5 274.4 276.2 277.7 278.7 278.7 278.6 278.4 277.9 276.4 274.9 272.3 267.3 255.9 259.1 260.2 258.5 254.8 250 241.2 232.8 229.1 239.7 245.7 249.7 251.9 253.3 254.5 255.9 256.6 256.8 256.6 256.5 255.7 253.5 250.9 248.1 243.8 239.1 233.4 226.2 219.6 207.8 191 174.3 182.4 195.5 202.8 208.8 212.1 214.9 216.5 218.7 219.4 219.9 220.7 217.9 214.3 225 230.4 234.5 237.5 241 242.2 243 245.7 246.5 247.2 247.6 247 245.6 244.3 241.8 234.5 211.6 190.1 175.1 203.2 221.9 228 233.8 236.3 238.5 239.7 240.9 242 242.8 242.1 241.2 239.6 237.4 235.7 235 234.6 234.2 233.9 233.1 230.3 228.7 225.4 221.9 214.7 207.9 208.9 209.1 206.6 212.9 219.7 223.1 226.2 228.2 230.4 232.8 234.7 233.7 229.1 221 235.5 240 244.1 247.2
102.3 107.3 109.8 113.7 117.9 113.9 108.2 111.4 114.9 114.1 117.6 128.3 132.6 133.4 133.5 132.4 132 134.5 129.9 126.1 129.8 137.3 140.1 136.5 138.4 140.9 144.3 147.8 155.6 163.2 173.8 186.1 199.8 208.4 212.2 216.3 219.8 223.9 225.5 225.6 221.6 206.1 209.5 229.2 245.6 256.8 267.4 278.5 287.3 294.6 300.7 305.7 309.9 313 315.1 316.7 317.9 318.8 319.1 318.8 318.2 316.1 315.4 313.6 311.8 308.7 303.8 298.6 287.1 285.4 282.1 282.6 277.3 269.5 247.9 235.4 264 272.4 274 274.7 276.5 278.1 279.3 279.7 279.7 279.6 279.3 278.8 277.6 275.9 273.8 270.5 266.8 267.6 265.9 264.1 259.9 254.7 248.7 241.9 231 244.4 250.4 253.8 256.4 258.5 259.1 260.5 262 262 260.8 259.7 257.6 254.2 251.7 248.9 244.3 239.5 233.9 227.3 217.9 201 181.8 196.6 200.9 194.5 209.6 215.6 219.9 223.2 225.2 227.6 229 229.9 231.1 232.6 229.5 232.3 237 240.6 243.3 247.3 249.7 251.1 251.9 252.7 253.4 253.8 254 253.4 250.5 247.5 242.3 223.8 198.4 178.7 193.1 217.5 225.9 233.2 236.1 238.2 240 241.8 244.1 245.6 246.2 245 242.5 241.3 239.5 238.8 238.4 238.4 238 236 233.6 230.7 227.4 222.7 215.1 215.5 215.3 214.4 208.8 212.6 221.2 226.4 229.9 233.2 235.5 238.7 240.3 239.5 234.7 225.3 239.2 244.8 248.8 252.1
104.9 108.7 103.1 105.3 106.9 107.6 116.4 125.7 129.9 122 127 140.9 146.8 150.2 150 148.7 149.5 149.8 148.6 146.1 138.2 134.1 141.7 150 159 163.9 158.8 170.1 177 185.9 195.7 205.7 211.6 215.7 219.7 223 227.1 229.7 231.2 232 231.4 223.7 206.7 221.5 242.2 257.5 269.1 280 288.1 294.3 299.6 304.1 308.7 311.7 313.5 315.1 316.6 317.4 317.2 317.1 316.8 314.5 314.3 312 309.9 306.2 300.1 299 296.8 294.5 291.1 286.3 280.8 264.4 240.6 257.6 273.9 275.8 276.6 276.7 277.8 279.1 279.8 280 280 280 279.8 279.3 278.7 276.9 275.1 275.1 274.4 272.1 270 267.8 264.7 259.9 255.4 248.6 236.8 244.7 253.7 256.6 259.7 262.1 264 264.1 264.7 264.7 263.9 262 258.8 254.8 251.3 248.3 243.4 238.9 233.5 225.2 209.7 193.6 195.3 210.9 212.1 203 214.8 223.5 227.9 231.1 232.6 235.7 236.8 238.6 239.5 240.2 240.4 241.4 243.8 246.6 250.9 253.4 255.1 256.5 257 257.8 258.7 259 258.5 257.8 254.4 251.2 247.2 235.2 206.9 179.7 186.9 213.8 225.1 231.5 236.2 238.9 241.3 243.2 246.7 249 250.3 249.7 248.4 246.9 244.4 243.1 242.4 242.3 241.1 238.6 235.6 231.9 227.6 223.7 222.4 221.9 220.9 220.4 218.3 214.9 222.7 229.6 234 237.5 241.2 244.4 246 245.3 243.4 230.8 243.5 250.4 254.6 259.3
122.9 123.9 119.5 119.5 123.6 119.1 117.2 140.1 144.5 140.1 123.2 136.9 148.9 154.1 156.5 158.5 158.6 159 158.1 155.9 151.5 135.7 147 159.4 168 171.5 172.7 181.7 189.1 198.8 206.2 213 217.3 221.6 225.1 228.7 231.6 235.6 238.5 242 244 242.2 225.1 215.6 229.6 253.1 268.8 278.8 286.5 292.9 297.5 302.8 307.1 310 311.7 313.4 314.6 315.4 315.5 315.5 315.4 313.6 312.6 310.8 309.3 307.1 304.6 301.8 299.2 296.6 291.8 285.8 283.4 262.8 245.3 265.8 276 277.7 278.7 278.9 279 280 280.3 280.4 280.4 280.4 280.1 279.7 279.2 278.3 278.2 277.9 277 275.5 274.1 271.5 268.5 265 260.8 248.1 245 253.7 255 259.3 262.1 264.9 266.2 266.8 267.1 267.3 266.1 263.2 259.3 254.9 250.3 246.4 242.2 237.3 230.6 218.9 206.2 195.3 213.7 222.9 223.1 220 218.4 229.9 234.3 237.5 239.4 242.6 244.9 247 247.4 247.5 247 249.3 249.9 252 255.5 257.3 259.4 261.2 261.9 262.3 262.4 262.4 261.6 260.2 257.5 254.4 250.5 241.9 213.4 181 186.4 209.1 222.6 230.9 236.6 240.3 243.6 247.1 249.6 252.3 253.7 254.6 253.9 252.7 250.4 248.3 246.8 246 244 241.2 236.8 233.1 228.9 227.3 228.2 227.6 228.7 229.4 228.9 220.3 222 232.8 237.3 241.9 246 249 251.8 251.7 252.7 249.4 245.3 256 260.6 264.6
134.7 134.9 129.9 138.7 137.2 130.5 123.8 144.6 150.8 152.3 137.7 131.5 143.3 156.3 161.1 163.6 164.8 164.8 164.2 163.6 161.5 147.1 139.9 152.4 167.4 174.4 181.4 187.4 194.8 202.4 211.5 217.9 222.4 226.1 230.5 234.6 238.5 243.1 249 251.7 253.6 253.8 244.1 231 224.2 244 262.3 275.2 283.7 290 296.2 300.5 304.6 307.4 309.5 311.6 313 313.8 313.9 313.9 313.7 312.1 311.5 310.1 309 307.5 305 302.8 299.4 297.1 292 286.6 281.8 263.7 250.4 270.8 277.6 279.6 280.3 280.3 280.3 280.6 280.8 280.8 280.8 280.8 280.4 280 279.6 279.5 279.6 279.4 279.1 278.3 277 274.3 271.4 267.1 258.1 253.4 257.8 260 259.2 262.3 264.9 266.2 268 268.9 268.7 268 266 262.8 258.9 254.4 249.6 244.8 239 232.6 224.9 208.9 198.4 205.5 227.3 229.1 228.7 231 225.7 235.5 239.6 243.5 246.1 248.8 250.5 252.4 253.5 252.7 253.2 253.3 255.8 258.3 260.8 262.1 264.1 265 265.3 265.6 265.1 264.7 263.4 261.2 258 254.8 250.4 244.7 216.8 186.7 190.1 209.8 224.5 231.8 238 242.5 246.9 250.7 254.1 255.7 257.3 258.3 258.1 258.1 256.3 253.2 251.3 249.5 245.5 241.8 237.3 233.2 230.9 232.8 233.7 234.9 235 237 236.7 234.4 229.2 231.9 241.2 246.7 252 255.3 257.7 259 259.4 258 249.1 258.8 265.5 270.3
147.3 146.2 140.9 148.2 149.8 145.7 140 144.1 152.5 157 155.7 145.2 137.7 154.3 163.8 168.4 171.3 172.3 172.2 170.5 169.2 163.2 146.7 143.8 158.2 172.8 184 191.1 198 205.4 213.3 221.1 225.9 231.3 236.5 241.6 246.2 251.6 256.9 260.8 264.3 266.6 268.4 262.8 254 240.5 250.6 269.7 279.7 286.7 293.3 297.5 301.3 304.9 307.5 310.1 311.3 312.2 312.2 312.2 312.1 311.7 310.8 309.1 308.5 306.4 304.3 302.4 300.3 296.3 290.9 285.5 280 258.4 250.5 273.6 279.6 281.2 281.7 281.7 281.6 281.2 281.2 281.1 281.2 281.2 280.9 280.6 280.3 280.3 280.6 280.9 280.6 279.8 278.4 276.2 273.5 271.1 268.6 266.2 263.7 263.8 264.1 264 266.8 267.9 269.3 269.8 269.1 268 265 261.9 258.3 253 247.4 240 234.3 222.6 210.3 211.4 225.3 225.3 234.2 235.8 236.7 239 240.5 241.7 245.7 249.2 251.5 253.3 256.8 257 257.6 257.3 257.8 260.7 262 264.1 265.8 266.6 267.6 268.3 268.3 267.9 266.9 265.2 263.5 260.8 257.5 253.7 248.7 240.1 215.1 186.9 193 211.7 225 232.1 239.4 243.9 248.4 252.3 255.4 257.5 259.8 261.3 261.8 261.6 259.3 257.3 255.3 251.5 246.9 243.4 238.2 236.8 236.4 236.8 238.7 241.8 243.1 243.9 244.7 243.7 238.1 231.4 243.8 251.2 257.2 260.1 262.6 264.2 264.2 263.7 259.2 262.8 269.1 273.6
157.3 157.2 154 155.9 159.6 158.7 154.1 148 155.9 163.6 166.4 166 161.2 149.8 165.5 172 174.8 176.6 177.5 177.1 175.6 168.8 164.7 147.3 149.1 165.6 182.8 193 201.3 209 217.1 225.3 230.5 236.8 243.4 249.1 254.2 261.2 265.7 270.4 274.5 277.5 280 280.1 279.4 269.6 251.3 257.9 266.5 278.4 286.8 290.4 296.1 301.3 305.6 309 310.4 311.4 311.7 311.3 311.1 309.5 308.6 308.6 306.7 305.7 304.2 302.6 298.5 294.6 289.4 282.8 276.9 257 263.9 276.9 281.8 283.1 283.3 283.2 282.7 282.2 281.7 280.8 280.9 280.9 281.1 281.3 281.1 281.2 281.5 281.6 281.4 280.4 279 277.2 275.5 273.7 272.9 270.9 268.9 268.1 266.7 267.3 267.7 269.4 270 270.1 269 266.8 264 261.1 256.9 252.1 249.1 242.7 236.7 227.4 228.7 236.2 238 237.9 240.7 242.9 243.2 245.2 247.4 249.4 251.3 252.6 256.1 258 260.1 260.6 263 263.1 264 264.9 266.1 267.4 268.8 268.8 269.6 269.8 269 267.9 266.8 265.1 262.8 259.3 255.9 252 246.8 230 210.2 188.4 196.7 214.3 225.2 232.3 239.7 244.4 249.1 253.3 256.3 258.6 261.2 263.6 264.3 264 262.2 260.2 257.2 253.5 249.1 244 242.5 239.7 239.7 242.4 245.5 247.6 249.7 250.9 250.9 250.4 247.1 235.2 245.7 256.9 261.6 264.5 267.2 268.5 269.3 269.6 269.3 268.1 272.8 276.4
163.8 165 164.9 165.6 166.6 166.5 164 161.3 161.4 167.4 171.9 175 175.7 173.1 160.8 174.1 178.7 181.3 181.6 182.4 180.2 177 164.2 154.8 158.1 153 181.3 193.9 202.9 213.2 221.1 228.9 235.5 242.9 250.1 256.1 262.6 269.9 275.5 280.3 282.8 285.7 289.2 290.3 293.4 292.5 282.2 275.4 271.1 267 273.6 289.5 300.4 304 306.3 307.7 308.9 311.1 311.1 310.8 309.4 307.6 307.5 307.4 305 303.7 299.7 298.5 296.1 290.1 283.2 272.3 259 257.5 276 281.7 283.4 284.5 284.8 284.6 284.1 283.1 282.1 281.2 280.5 280.5 280.3 280.5 281 281.4 281.5 281.6 281.5 280.6 279.7 278.5 277.5 276.4 275 273.6 272.5 271.4 270.1 269.8 270.3 270.4 270.1 270.1 268.2 265.7 262.8 260.7 259 256.1 253.6 250.6 248.9 246.3 245 245.5 245.7 244.5 246.8 248.5 249.9 251.9 254 255.5 256.4 257 259.7 261.1 263.3 265.2 266.4 266.9 267.6 268.7 269.5 269.8 270 270 270.5 270.3 269.6 268.5 267.2 265.4 262.3 258.4 255.1 251.2 240.4 227.1 210.1 190 199.5 215.8 225.4 231.7 238 244.6 249.2 252.9 255.8 259.4 262.7 265 266 266.1 264.6 262.2 259.3 256.3 251 247.6 246.4 244 243.8 248 251 254.1 256.8 258.5 257.9 255.5 253 240.5 248.8 260 265.3 268.7 271.1 272.8 273.7 274.1 274 273.2 274.7 278.8
170 171.1 171.2 171 172.7 173.7 173.9 171.3 172.5 176.2 178.7 180.8 180.9 182.1 174.8 176.7 181.5 184.7 185.7 186.8 186 175.4 171.8 175.6 172.6 158 179.4 194 203.3 214.2 223.4 231.9 239.6 248 256.2 262.2 269.7 277.5 283.6 287.2 290.5 295.1 297.2 299.6 300.1 300.7 301.3 300 299.1 296.8 299.5 293.6 300.3 305.3 307.2 308.5 309.5 309.8 309.7 309.3 306.8 304.9 304.7 303.2 300.6 299 297 293.7 288.6 277.1 259.3 262.3 258.2 273.5 281.7 283.3 284.6 285.6 285.7 285.7 284.9 283.8 281.8 280.3 279.4 279 279.1 279.5 280.4 281.3 281.5 281.5 281.5 281 280.6 279.8 279.1 278.6 277.8 276.7 275.2 273.6 272.5 272 272.2 272 271.3 270.2 268.6 265.7 265.2 263.4 261.4 259.3 257.4 256.3 254.9 254.4 253.5 253 252 252.4 254.6 256.1 257.8 258.6 259.6 260.5 261.9 262.1 263.4 264.8 266.7 268.4 269.1 269.6 270.1 270.2 270.2 270.3 270.7 270.9 270.8 271.1 270.8 270.3 267.8 266 262.4 258.6 253.7 249.2 238.9 223.4 210.5 192.4 202.9 216.5 224.4 230.1 236.3 245 248.5 252.1 256.5 260.7 263.8 266.2 267.3 267.6 266.7 264 260.8 257.3 252.8 252.1 250.4 248.7 246.9 253.1 256.7 258.6 261.7 262.7 262.3 259.7 255.4 248.6 256.1 264.1 269.3 272.6 274.7 276.6 277.9 277.7 277.5 277.6 279.4 281.8
174.3 175.3 175.8 176.6 177.2 178.7 180 181.1 182.2 182.9 183.4 186.3 187.2 187.6 186.4 177.7 184.1 187.4 189.6 191.1 187.7 189.4 186.8 185.1 182.4 173.8 178.5 191.9 204.1 214.1 224.3 234 243.2 252.1 260.3 267 274.8 284 291.4 295.6 299.7 301.6 303.4 304.6 306.2 307.4 307.2 307.5 307.7 306.8 307.1 305.6 304.3 307 307.9 308.5 309.4 308.5 308.1 306.7 301.3 300.3 298.7 299.3 297.5 294.2 292.6 280.8 265.2 273.4 279.6 280.3 266.9 280.9 283.3 284.1 285.3 286.8 286.5 286 285 283.1 281.2 279.1 278.2 277.4 277.6 278.4 279.2 280.5 281.1 281.4 281.4 281.5 281.3 281.2 280.6 280.6 280.2 279.1 277.7 276 274.7 274.4 274.2 273.8 272.7 271.4 269.6 268.7 267.9 266.5 264.6 262.8 262 262.2 261.1 260.2 259.3 258.7 259.1 257.5 259.4 261.4 262.9 264 264.5 265.5 266 266.3 267.3 268.6 269.4 270.3 270.8 271.2 271.3 271.4 271.4 271.4 271.8 271.9 272.8 272.6 271.7 270.5 267.6 266.5 263.2 259 254.6 248.9 241.8 229.1 214.2 192.3 201.4 216.2 223.2 228.9 236.3 243.3 247.6 251.7 256.8 261.3 264.3 266.6 268.3 268.6 267.5 266 262.9 259.2 257.7 256.4 255 253.6 252.9 255.6 260.7 264.5 266.2 266.7 266.2 264.3 256.1 259.9 263.9 268.1 273.3 276.9 278.7 280.8 281.4 281.5 281.7 282.3 283.5 285
177.4 178.5 179.6 180.3 181.3 182.2 184.3 186.2 187.1 188.3 189.5 190.7 192.5 193.3 191.8 187.9 186.2 189.6 193.3 194.8 195.8 195.6 195.6 193.4 190.8 184.8 187.9 182 197.8 212.4 222.3 234.4 245.9 256.1 264.9 271.7 280.6 289.3 296.8 302.4 304.8 306.7 308.2 309.7 311.2 312.2 312.8 312.8 312.4 312.2 310.2 309.8 308.6 308 308.2 308.4 308.2 306.6 304.7 299.7 293.5 291.1 283.3 283.6 287.8 282.5 268.1 278.7 285.4 287 288.2 284.8 280 283.7 284.2 285.4 285.8 285.9 286.1 285.9 284.2 282.1 279.4 277.3 275.6 274.9 275.4 276.5 278 279.3 280 280.9 281.1 281.3 281.8 282 281.9 281.9 281.5 280.7 279.3 277.8 276.6 276.4 276 275.2 274.2 272.9 271.6 270.8 270.4 269.6 268.9 268.1 267.7 267 266.3 265.8 264.6 263.6 263.8 263.7 264.1 265.5 266.6 268 269.4 270 270.8 270.8 269.9 270.8 271.6 270.9 272.5 272.9 272.5 272.7 272.8 273 273.1 273.7 273.9 273.2 272.2 271.1 268.8 266.7 263.4 259.7 255.4 249.3 242 231.3 205.2 197.7 209.7 218.6 224 230.1 237.9 242 246.3 251.2 257.4 261.5 264.5 266.9 268.7 269.8 268.8 267.5 264.6 263 261.8 261.2 260 259.3 257.9 258.3 264.2 268.3 270.5 270.6 269.6 267.4 261.7 264.3 268.1 273 277.4 280 282.2 284.1 285 285.3 285.3 286.2 287.5 289.6
178.9 181 182.5 184.1 185.1 186.1 188.2 189.9 190.9 191.8 192.4 193.8 195.6 196.7 196.5 195 193 191.7 196.1 199 199.1 200.5 201 199.8 197.1 197.2 199.6 199.2 196.8 208.4 220.9 232.8 247.3 258.7 269.2 276.6 284.3 293.6 300.7 305.8 308.4 310.5 312.3 313.6 315.1 316.2 316.7 316.7 316 315.3 313.7 312.7 311.3 310.2 309.7 308.3 306.5 303.4 296.5 292.2 294.3 295.3 296.2 292.6 280.5 290.1 293.2 293.9 294.3 292.5 289.8 288.2 286.9 285.7 284.7 284.9 285 285 284.9 284.3 282.4 279.7 277.2 275.2 273.7 272.6 273.5 275 276.7 278.2 279.2 280.2 280.6 281.2 281.7 282 282.3 282 281.8 281 280.3 279.3 278.2 277.8 277.4 276.4 275.5 273.9 273.5 273.4 272.9 272.7 273.3 272.4 271.7 271.5 271 271.1 270.3 269.6 268.4 267.7 267.7 268.7 270 271.3 272.5 273.1 273.5 273.3 272.9 272 272 272.3 273.1 273.6 273.6 273.5 273.6 273.9 274.1 274.4 274 273.2 272.4 271.6 269.2 266.8 263.9 260.4 255.3 248.6 240.9 226.1 200.7 207 214.5 220.6 225.5 231.8 237.4 241.5 246.5 251.3 256.9 260.6 264.6 267.2 269.1 270.4 270 268.8 267.6 266.1 266.1 266.1 265.8 265.6 264.3 262.7 268.8 272.2 274 273.8 272.3 267.8 267.5 267.4 272.6 277.1 280.4 282.9 284.4 285.9 287 287.6 288.1 289.7 291.7 292.5
180.1 182.4 184.3 185.9 188 189.9 192 193 194.1 194.9 195.5 196.7 198.4 198.9 199.8 199.3 198 197.6 199.7 202.8 204.4 204.9 205.9 206 206 204.3 208.7 211.1 212 206.3 218.9 231.9 247 260 271.2 278.6 287.3 297.1 305.7 308.6 311.6 314.1 315.8 316.8 318.1 319 319.5 319.5 318.5 317.2 315.8 315 313.7 312.1 311.4 308.8 303.8 303.8 304.9 302.8 304.8 302.5 299.2 297.2 288 297.3 297.4 296 294.9 292.5 291.3 289.6 287.6 285.3 282.7 281.9 282.8 278.6 278.4 282.9 279.8 277.3 275.5 272.9 271.3 270.8 271.8 273.2 274.6 276.2 277.7 279.2 280.3 281.1 281.5 281.8 282.1 281.9 281.8 281.3 281.1 280.4 278.9 279.1 278.3 277.3 276.3 276.3 275.8 275.4 275.8 276.2 276.2 276.1 276.2 276.1 276 275.5 275 273.9 272.6 271.7 271.5 271.6 272.8 273.5 274.7 274.7 274.3 273.7 273.2 273 273.1 273.3 273.3 274.2 274.3 274.3 274.3 274.4 274.6 274.1 273.2 272.3 271.5 270.6 268.8 266.5 263.4 259.1 254.3 247.4 239.3 221.3 200.7 212 218.3 221.6 227.3 232.3 238 242 246.2 251.3 256.7 261.4 264.7 267.7 269.8 271 271.2 271.1 270.1 269.7 270.6 270.6 270.6 270.3 269.5 268.4 271.4 274.3 275.8 276 273.4 273.2 271.4 271.1 275.6 279.8 282.9 285.7 287.1 288.2 289.1 290.1 291.3 292.9 294.5 296
180.8 183.2 185.5 187.6 190.2 192.5 193.5 194.9 196.3 198.1 198.7 199.8 200.5 201.4 202.6 202.9 203.3 203.3 204 206.4 207.9 208.4 209.9 211.2 211.8 211.3 214.9 217.3 218.6 216.2 212.6 231.2 245.2 260.4 272.9 280.6 290.2 301.2 307.9 311 314.4 316.9 318.4 319.7 320.4 321 321 320.3 319.5 318.3 317.3 316.2 315.3 313.2 311.1 306.7 308.9 309.8 310.3 310.1 308.2 305.8 302.7 293.4 300.7 299.8 299.6 297.7 295.7 293.6 291.2 289.9 287.2 284.5 282.6 280.9 279.8 278.1 276.4 280 276.2 274.7 272.4 270.4 269.1 269.5 269.9 271.9 273.4 274.9 276.5 278.1 279.1 280 280.5 280.8 281.1 281.5 281.8 281.4 281.2 280.7 280.5 279.9 279.3 278.4 277.7 277.4 277 277.1 277.6 278.2 278 278.2 278.4 278.5 278.3 278.4 278.3 277 275.6 275.3 274.4 273.9 274.5 274.7 274.9 274.7 274.6 273.9 273.6 273.7 273.8 273.6 273.9 274.7 274.8 274.3 273.9 274 273.2 272.9 272.2 270.9 270 269 267.5 264.5 261.9 258.2 253.6 246.2 236.4 223.4 203.6 213.1 219.7 224.4 228.7 233.3 237.8 242.2 247.2 252.1 257 261.7 265.3 268.6 271.1 272.4 273 273.2 273 272.9 274 274.7 274.6 274.4 274 273.9 273.6 275.7 277.1 277.5 277.4 277 275.6 275.2 277.8 281.2 285.4 288.1 289.2 290.2 291.2 292.2 293.8 296 297.4 299.9
181.3 183.8 186 188.6 191.3 193.9 195.4 196.6 198.4 200.4 201.7 202.4 203.1 203.8 204.8 205.8 206.6 207.4 208.1 209.6 211.3 213.1 214 215.6 216.6 217 220.8 223.7 225.5 227.3 223.9 224.9 243.4 258.8 272.8 282.5 292.5 302.3 309.4 314.8 317.2 319.1 320.5 322 322.1 321.8 321.6 321 320.3 319.3 318.5 317.2 315.6 314.3 309.8 311.8 312.6 313.6 313.8 312.5 310.8 309.7 305.6 303.4 302.7 301.4 300.1 298.4 296.3 294 291.6 290.1 287.7 285.5 283.5 282.1 281.5 279.9 278 276.5 274.3 271.7 269.6 268.4 267 267.1 268.3 270.3 272.2 273.8 275.3 276.4 277.6 278.6 278.5 279.1 279.8 280.1 280.2 280.7 280.9 280.6 280.5 280.7 280.6 279.9 279.5 279.3 279.6 279.7 280.1 280 279.8 279.8 279.8 279.8 279.6 278.9 278.6 278.4 278.4 277.6 276.7 275.7 274.9 274.9 274.5 274.3 274.2 274.3 274 274 274.3 274.9 274.6 274.6 274.5 273.7 273.4 273.1 272.7 272 270.9 269.5 268.2 266.7 265.4 263 260.8 257.7 252.3 244.9 235.3 224.5 205.4 209.5 218.1 226.4 230.7 235.1 238.7 244.1 248.8 254.2 258.3 262.8 266.5 270.1 272.4 273.9 274.7 275.5 275.4 276.2 277.1 278.1 279.2 279.3 279.4 278.5 276.7 277.7 279.1 279.6 279.8 280.1 280.2 280.6 281.7 284.3 287.8 290.3 292.8 293 293.8 296.1 297.7 298.5 300.4 302.1
181.7 183.9 186.1 188.8 191.7 194.4 196.1 198.1 200.5 202.1 203.6 204.8 205.9 206.5 206.9 207.6 208.8 210.3 211.1 212.5 214.2 216.3 217.7 219.9 222.1 223.6 226.3 228.2 231.1 232.7 234.5 233.6 239.1 256.3 269.6 283.6 291.2 303 310.8 316.1 318.5 319.8 321.1 322.4 322.6 322.7 322.3 321.8 321.3 320.1 318.9 316.6 315.1 312.3 311.3 314.2 315.6 315.5 315.7 314.1 312.5 310.2 308.4 305.4 304.4 303.1 301.6 299.2 297.3 295 292.7 291.1 288.8 286.5 285 284.5 283.7 281.9 281.1 279.3 276.4 272.9 269.9 267.3 265.9 266.3 267.2 269.5 270.3 272.4 273.6 273.8 274.8 276.5 277.3 278 278.1 278.4 279.3 280.1 280.5 281.1 280.9 281.1 281.5 281.9 281.8 281.6 281.6 281.6 281.5 281.3 281.4 281.4 281.3 281 280.2 279.1 278.8 278.8 279.2 278.4 277.3 276.3 275.1 274.6 274.2 273.9 274.1 274.2 274.2 274.3 274.6 274.8 274.9 274.8 274 273 272.3 271.9 270.8 269.9 268.6 267.1 266 264.5 263.2 261.8 259.9 257.8 251.3 245.6 238.3 224.8 207.3 218.8 218.1 225.8 231.2 236.4 240.5 245.9 250 255.2 260.4 264.4 267.9 272 273.6 274.7 275.9 277.1 278.3 279.3 280.2 281.2 282.2 282.6 281.8 281.2 279.3 280.1 280.9 281.6 282 282.6 283.3 284 286 288.3 291.2 293.1 294.9 296 297.1 298.9 300.8 302.5 304.1 304.7
181.1 183.9 186.4 189.1 192 194.8 196.7 199 201.3 202.9 204.5 206 207.1 208.1 208.5 209.3 210.3 211.9 213.6 215.3 217.4 219.6 220.3 223.6 226.2 228 230.1 232.5 235.6 238.4 240.7 243.3 246.7 254.4 268.6 280.1 290.7 300.1 310.3 315.8 318.2 320.1 321.6 322.8 323.7 323.4 323 322.1 321.1 320.1 318.6 316.6 314.9 313.7 315.3 316.4 317.4 317.2 316.6 315.4 313.6 311.9 310 307.7 305.3 304.4 303.1 300.6 298.3 296 293.8 291.7 289.4 287.4 286.6 286 285.3 283.9 282.1 280 276.6 273.3 270.4 267.4 264.3 265 267.2 269.6 270.4 271.9 273.1 272.9 274.1 275.2 275.8 275.8 276.6 277.4 278.4 279.4 280.2 280.9 281.3 281.5 282.2 282.5 282.7 282.9 282.7 282.4 282.8 283.3 282.7 282.6 282 281.5 280.2 278.6 278.3 278.5 279 278.1 277 276 275 274 273.8 273.7 273.8 273.9 273.9 274.1 274 274.2 274.6 274.4 273.6 272.7 271.3 270 268.9 266.8 265.2 263.7 262.9 262.4 261.5 260.5 258.8 257.9 252.6 246.1 237.7 225.5 212.7 223.5 226.2 226 231.9 236.5 241.9 245.9 251.7 257.3 261.5 265.5 269.8 273.1 274.9 276 277 278.1 279.3 280.5 281.6 282.7 283.8 284.5 283.6 282.5 281.8 281.8 283.5 284.3 285.1 285.9 286.7 289 290.1 292.5 294.5 296.5 298 299.3 300.5 302.3 303.3 305.4 306.4 306.9
180.6 183.7 186.8 189.4 192.8 195.8 197.4 199.5 201 202.6 204.4 206.5 208.3 209.3 210.1 211 211.9 213.6 215.8 217.5 220 222.3 224.2 226.4 229 231.7 233.8 236.4 239.7 242.5 245.5 249.8 254.8 259.1 261.1 279.2 289 297.9 306.8 313 317.1 319.9 322.3 323.5 325.5 325.6 323 321.5 320.7 319.5 318 316.5 315.9 316.1 316.7 317.3 317.6 317.9 317.2 316.1 314.8 313.1 311.3 309.4 307.6 305.7 303.6 301.3 299 296.2 293.7 291.2 289.3 288.7 288.3 287.4 285.9 284.1 282.6 279.9 276.6 273.6 270.6 267.4 263.7 264.7 267.3 269.5 270.4 270.9 271.4 271.6 273 273.4 274 274.8 275.7 276.5 277.4 278.4 279.9 280.7 281.5 282 282.4 282.8 283.1 283.1 283 283.2 283.9 284.4 283.6 283.2 282.8 281.5 280.2 278.7 278.3 278.5 278 276.7 275.6 274.8 274 273.1 272.5 272.2 272.3 272.3 272.7 273.6 273.5 273.5 273.7 273.8 273 271.7 269.9 267.9 266.2 263.9 262.1 260.6 259.6 258.5 258.7 258.9 258.9 256.6 249.5 246 236.8 225.8 219 226.4 229.8 231.7 234.1 237.5 242.8 248.2 253.2 257.4 261.7 266.5 271.2 273.6 274.9 275.9 277.8 279.1 280.3 281.6 282.7 283.8 285 285.3 285.4 285.4 284.4 284.9 286.2 287.1 288.4 289.2 291.1 293.3 294 296.2 298 300.1 300.9 302.3 304 304.5 306.1 307.9 308.4 308.7
179.9 183.2 186.2 190.1 194.4 195.2 197.4 198.7 200.4 202.1 204.4 206.5 208.4 210 210.6 211.7 212.9 215.1 217.2 219.7 223 225 227.4 229.7 232.1 234.4 237 239.7 242.4 245.9 250 254.3 260.8 267.4 271 280.3 290 298.8 306.1 311.8 316.8 320.2 322.7 324.1 324.4 323.8 322.1 321 320.2 318.7 318.2 317.5 316.9 317.2 317.4 317.7 318.2 318.4 318.3 317.2 315.9 314.2 312.4 310.4 308.5 307 304 301.3 299.1 296.2 294 291 290.6 289.1 288.8 287.8 286.2 284.4 282 279.3 276.7 273.7 270.7 266.4 262.7 262.8 266.2 268 269.1 270.2 270.5 271 271.9 272.2 272.9 273.9 274.7 275.6 276.5 277.5 278.6 279.9 281.7 281.8 282.2 282.6 282.5 282.5 282.5 283.1 283.2 283.3 283 282.5 281.7 280.5 279.1 277.8 277.2 276.2 275.9 274.8 274 273.2 272.4 271.5 270.9 270.3 270.3 270.4 270.9 271.3 271.9 272.9 272.9 273.4 272.6 270.9 268.8 266.5 263.7 261.2 259.6 257.4 256.8 256.3 256.8 257 256.8 254.1 247.9 244.2 235.1 223 223.5 229 232.7 236.1 238.4 240.9 243.4 247.7 253.1 257.7 262.2 267.7 270.9 272.9 274.2 276 278.1 279.7 281.3 282.7 283.8 284.9 286.1 286.9 287.1 287.7 288 288.7 289.5 290.9 292.2 293.6 295 296.3 297.5 298.8 301 303.3 303.9 305.3 306.4 307.2 308.1 308.9 309.4 309.6
179 181.9 185 189.2 193.4 194.8 196.4 197.8 199.6 201.6 203.9 205.9 207.8 209.7 210.9 212.4 213.7 216.2 218.7 221.2 224.1 226.3 230.2 232.6 234.8 237.4 239.9 242.8 245.4 248.6 253.6 258.9 265.4 271.9 277.3 280.5 292.6 299.5 306.6 311.7 316.3 319.7 321.9 322.8 322.3 322.1 321.4 320.4 319.6 319.2 318.7 318.3 317.7 317.8 318.1 318.4 318.8 318.9 319 318.1 316.9 314.9 313 310.8 308.6 307.3 303.6 301 298.7 295.1 292.7 291.7 291.6 290.8 289.2 288.1 286.3 284.2 281.9 278.6 275.5 272.8 269.8 266.2 262.6 259.9 263.8 266.1 267.8 269.1 269.9 270.5 271.1 271.1 271.2 272.8 273.7 274.1 275.4 277.1 278.4 279.7 280.8 281.2 281.8 281.9 281.8 281.5 281.3 281.8 282.1 282.1 282 281.1 280 278.9 277.5 276.2 275.3 273.9 273.9 273 272.2 271 269.6 269.6 268.6 268 268 268.2 268.6 269.6 270.3 271.4 272.6 273.7 272.7 271 268.4 264.7 262.3 260 257.8 255.8 254 253.9 253.3 254.1 253.3 249.6 244.4 238.6 232.5 222.4 226.6 231.7 235.3 239.1 240.9 243.6 245.9 248.7 252.4 258.2 262.4 265.9 268.8 271 272.9 275.4 277.4 280.2 282.1 283.2 284.8 286.1 287.3 288 289.5 290.4 291.1 291.9 293.8 295.1 295.8 297.2 298.3 299.9 301.3 302.4 303.5 305.8 306 307.1 308.1 308.5 309.1 309.7 309.9 310.1
177.7 180.7 183.5 187.1 191.9 194.1 195.5 196.8 199 201.1 202.8 205.1 207 208.8 210.1 212.5 214.3 216.5 219.7 221.6 225.7 228.4 232.2 235.4 237.9 240.5 242.9 245.6 248.9 252.8 256.9 263.8 268.7 274.6 281.6 288.3 293.3 300.2 305.8 310.9 315.6 318.5 320.3 321.2 321.2 321 320.7 319.8 319.4 319 318.6 318.4 318.2 318.4 319 319.3 319.7 319.6 319.3 318.4 317.3 314.5 312.6 310.9 307.9 305.3 303.1 300.4 298.2 295.2 293.2 294.1 293.7 293.3 292.3 289.9 287.1 284.3 281.7 278.4 274.7 271.5 268.4 265.1 262.1 258.5 259.9 265.2 267.2 268.3 269.3 270 270.5 270.3 270 270.8 271.4 273.3 275.1 276.4 277.9 279.3 280 280.2 280.5 280.3 280.2 279.9 279.5 279.9 280.3 280.5 280.1 279.3 278.3 277.2 275.1 273.8 274.2 272.9 271.6 270.3 269.1 268.1 267 266 265.8 265.8 265.4 265.8 266.4 267.8 269 270.2 271.6 272.6 272.6 271.3 268.6 265.5 262.2 259.1 257.4 254.9 252.9 252.7 250.6 249.9 248.3 244.5 239.7 239.5 232.2 222.5 228.9 234.2 237.4 240.6 243.6 246.3 248.7 251.6 254.1 256.9 260.5 263.9 267 270 273.6 275.7 277.5 279.5 281.6 283.8 285.8 287.3 288.9 290.5 291.6 293.5 295 295.5 297.5 298.3 299.6 301.1 301.4 302.4 303.9 305.2 305.9 307.7 308.3 308.9 309 309.5 309.7 310.3 310.5 310.2
175.9 178.5 181.6 185.2 191.7 191.6 192.9 194.8 197.2 199.4 201.6 203.7 206 207.8 209.5 211.9 214.2 216.9 219.8 222.7 225.9 229.4 233.1 237.2 240.4 242.9 245.9 248.6 252.2 255.8 261.2 266.2 271.1 277 284.8 290 295.8 299.5 305 309.1 314 316.6 318.4 319.1 319.7 319.9 319.6 319.5 319.2 318.9 318.6 318.5 318.4 318.5 318.5 319 319.3 319.2 318.8 318.2 316.8 314.4 312.6 310.9 307.8 305.1 302.9 300.3 297.6 295.9 295.2 295.7 295.5 294.6 293.1 290.9 287.5 285 282.2 278.7 275.4 271.1 268.4 266 263.4 259.3 257.9 264.2 266.3 267.4 268.4 269.4 269.5 269.2 268.4 268.7 270.4 272.5 274.3 275.6 276.9 278.1 278.6 278.5 278.5 278.3 278.1 278.1 277.9 278.5 278.4 278.8 278.1 277.2 276.3 275.2 273.2 271.9 271 270.3 268.3 267.3 266.2 264.5 264.2 262.2 262.4 261.9 263.7 264.3 265.1 266.4 268.4 269.6 270.9 272.1 272.5 271.8 270.6 267.5 263.2 260.1 259.1 257.1 254.4 252.3 250.1 244 241.4 245.5 239.9 231 229.5 233.6 237.2 237.3 239.8 241.4 245.1 247.9 250.4 253 255.5 258 261.6 264.5 267.9 270.2 273.8 275.9 277.8 279.9 282.1 284.3 286.3 288.4 290.1 291.7 293.7 296 297.8 298.7 300.9 301.4 302.6 303.5 304.3 305.3 306.6 307.7 308.6 309.2 309.2 309.7 309.8 310 310.3 310.4 310.1 309.9
173.9 175.8 179.6 182.8 185.8 187.8 190.2 192.5 195.1 197.3 199.7 201.9 204.1 206.8 208.8 211.1 213.7 216.8 219.8 223 226.5 230.8 234.5 237.9 241.8 244.9 248.3 251.6 254.6 258.8 263.8 268.3 273.3 278.8 285.4 291.4 293.9 299.3 302.5 306 309.3 313.9 315.8 317 317.6 318.2 319 319.1 318.9 318.7 318.4 317.9 317.9 318 318.1 318.3 318.7 318.6 318.2 317.5 316.1 315 312.5 310.1 308.8 305.4 303.4 300.8 297.8 296.5 296.8 296.9 297 296 295.2 293.4 290.9 287.6 283.8 280.2 275.4 272.1 269.7 267.4 264.9 262 256.3 261.6 265.3 266 266.9 267.6 268.1 268 266.9 266.4 269.2 271 272.6 274 275.4 276.4 277 276.8 276 276.1 276.2 276 275.9 276.3 276.2 276.4 275.7 274.7 273.8 272.4 270.5 269.7 267.8 265.8 264.5 263.8 261.2 261.1 259.4 258.7 258.7 260.1 260.2 263.8 265.9 266.9 267.8 269.8 271.1 272.7 273.2 272.9 271.8 269.1 264.8 262.2 260.5 258.6 256 255.8 255.9 256.8 256.9 254.9 251.5 244.8 241.7 242.1 242.6 242 242.4 244.7 247 249.1 251.9 254 257 260.3 262.2 265.7 267.5 270.7 274 275.7 278.1 280.6 283 285.2 287.7 289.7 291.7 294.2 296.2 298.4 300.3 301.7 302.8 303.5 304.7 305.9 306.4 307.3 308.7 309.4 309.5 309.6 310.2 310.4 310.1 309.7 309.7 308.8 309.2 307.8
169.9 174.2 174.1 174.1 182 185 187.7 190.3 192.4 194.9 197.8 200 202.6 205.3 208.3 210.2 213.5 216.6 220.1 223.2 226.8 230.8 235.2 239 242.8 246.8 249.8 254.1 257.3 260.8 265.5 269.8 274.1 278.7 283.7 288.4 292.7 295.7 299.5 303.2 306.5 309.5 312.6 314.3 315.2 316.1 316.8 317.5 317.7 318.2 317.5 317.2 317.2 317.2 317.2 317.3 317.6 316.8 317.5 316.9 315.7 313.5 312.6 310.8 308.6 306.3 303.7 300.6 298.2 297.6 298 298.7 298.7 298.6 297.9 295.9 293.5 289.7 285.3 281 277.4 274.2 271.8 268.6 266 263.3 259.1 253.9 261.4 264.3 264.9 265.2 266.1 266.1 265.5 264 266.8 269.4 271.1 272.4 273.7 274.4 274.5 274.2 273.5 272.9 273.1 273.4 273.9 273.9 273.9 273.9 273.2 272.1 271.1 269.5 268.4 266.6 264.8 262.2 260.4 257.2 256.6 251.3 254.2 257.2 260.5 261.9 263.7 265.4 266.2 267.4 268.5 270.5 272.4 273.7 273.9 274.3 273.4 271 267.1 263.4 261.5 259.7 258.5 258.9 260.4 261.2 259.8 257.5 254.6 250.4 248.9 247.7 246.3 244.7 244 246 248.3 250.7 252.8 255 257.7 260.2 263.4 266.5 268.2 271.4 274.3 276.8 278.6 281.6 284.3 287.1 289.4 291.6 294.1 295.7 298.2 300.2 302.1 303.9 304.6 305.7 306.9 307.7 308.5 308.8 309.7 310.3 310.5 310.5 310.7 310.4 310.1 309.3 308.1 307.3 307.4 305.8
