ncols 200
nrows 100
xllcorner 510000
yllcorner 114150
cellsize 50
58.3 55.9 51.9 47.9 44 41.3 38.6 36.1 34.2 32.8 31.5 30.4 29.3 28.2 27.9 27.9 28.3 30.4 32.3 34.5 34.8 33.8 32.1 30.4 28.7 27 26.7 26.3 25.7 25.1 24.2 23.1 22.7 22.3 22.5 22.1 21 20.3 19.4 16.2 17.1 19.8 20.7 20.1 19.2 18.2 19.4 20.2 19.7 19.2 18.8 18.6 18.4 18.2 17.8 17.8 17.8 18.1 18.7 19.1 19.6 20.3 20.8 20.7 19.6 18.6 17.6 17.3 17.4 17.4 17.1 17.2 17 15.5 13.8 13.7 15.3 17.2 18 18.6 18.8 19.7 21.1 22 22.1 22.1 23.8 26 27.6 24.7 24.6 24.6 24.9 25.3 25.7 26.1 26 25.6 25.1 24.8 24.7 24.8 25.7 28.4 30.5 31.7 30.7 29.5 28.4 27.3 30.2 31.6 28.6 28.6 27.8 24.4 22.5 25.9 28.6 29.9 30.6 30.5 29.4 29.5 28.6 26.6 25.6 24 21.9 20.7 19.8 18.7 18.3 19 22.5 25.2 26.8 27.6 27.4 26.1 23.9 21.1 17.9 16.4 15.1 13.9 12.3 9.7 6.3 8.8 10.8 12.4 12.3 11.1 9.9 7.4 4.5 4.1 5.4 8 12.8 14.1 10 6 4.9 7.5 10.8 12.4 12.2 12.2 12.1 11.8 11.4 11 11.4 11.6 11.7 11.8 11.6 11.5 11.1 11.1 11.1 11 10.7 11.1 11.7 11 10.2 11.2 11.7 12 12 11.9 11.1 9.4 7.8 8.9 10.2 11.7
56.2 56.8 53.6 49.4 45.2 42.4 39.6 36.8 34.6 33.1 31.7 30.6 29.5 28.6 29.4 30.3 30.4 32.6 34.6 35.7 35.2 33.5 31.7 30 28.3 26.6 25.9 25.3 25.1 24.2 23.6 23.4 23.1 21.7 20.2 18.7 19.3 17.6 10.7 6.2 8.5 13.8 19.8 19.8 18.9 17.9 19.6 20.8 20.8 20.4 20 19.5 19.1 18.7 18.1 18.1 18.1 18.8 19.3 19.7 20.2 20.8 21.3 21.2 20.2 19.2 17.8 17.7 18.1 18.5 18.5 18.3 16.3 14.5 13.4 15.1 15.7 17.4 18.2 18.6 20.2 21 21.4 21.9 22 21.7 23.8 24.9 25.4 25 26.3 26.7 27.1 27.4 27.7 27.9 27.8 27.4 26.9 26.5 26 26.4 27.9 30.4 31.5 31.2 30 28.9 27.7 27.6 31.8 29 30.2 29.7 28.3 24.8 22.8 27.1 29.6 30.4 29.7 30.8 31 30.6 29.2 26.6 24 22.7 21.1 19.7 18.8 17.9 18.2 18.9 20.7 23.4 24.9 25.7 26.1 25.7 24.1 22.6 19.3 16.6 14.1 12.2 10.4 7.9 8.1 11 11.4 13.1 11.8 10.6 9.2 7.3 5.1 4.9 4 4.9 8.2 10.7 8.1 4.9 5.2 8.1 10.9 12.8 12.5 12.2 12 11.8 11.5 11.2 10.7 10.6 10.7 10.8 10.9 10.9 10.8 10.9 10.9 10.8 10.6 10.4 11.1 9.6 9.4 10.1 10.5 10.9 11.2 11 10.8 9.5 8.5 9.8 11.1 12.3
54.7 56.8 55.2 50.5 46.3 43.5 40.4 37.1 34.8 33.4 32 30.8 29.7 29.2 29.4 30.8 32.3 34.1 35.6 35.8 34.1 32.4 30.7 29 27.3 26.6 25.9 25.2 24.6 24.3 24.1 24 23.4 15.4 10.8 9.6 8.3 9.7 6.8 10.7 12.1 7.8 12.6 17.4 17.9 18 20.7 20.8 21.2 21.6 21.3 20.9 20.4 19.8 19.2 18.7 18.9 19.2 20.6 22.4 22.8 22.6 22.4 21.7 20.9 19.5 18 16.9 18.6 19 20.2 19 16.5 13.9 15.2 14.8 14.3 16.6 18 17.4 20.4 21.7 21.8 21.8 21.2 21.7 22.8 23 23.3 25.2 27 28.4 28.7 29.1 28.9 29.2 29.6 29.2 28.8 28.3 27.9 28.2 30 30.9 31.2 30.6 29.5 28.2 27.3 28.7 32.5 30.6 30.6 29.8 28.2 25.1 24.6 26.5 27.6 28.4 29 31.2 31 30.6 30 25.7 22.9 21.3 20.4 19.2 18.6 17.2 17.8 18.6 19.4 21.1 23.1 23.3 23.4 24.6 24 22.5 20.6 17.1 14.2 12.6 10.5 7.5 10.2 12.8 13 13.7 11.4 9.6 7.9 6.3 5.6 4.8 4.1 5 4.5 7.1 6.1 4.6 6.3 9.1 11 12.9 13 13 12.6 12.4 12.1 11.8 11.2 10.4 10.1 10.2 10 10.7 10.6 10.6 10.6 10.6 10.4 10.3 10.5 9.7 8.7 8.6 8.9 9.2 9.5 9.7 9.5 9.5 8.3 9.4 10.7 10.7
49.9 54.4 55.2 51.7 47.3 44 40.6 37.3 35.1 33.7 32.2 31 29.9 29.8 29.9 30.8 32.3 33.7 34.8 34.5 32.9 31.3 29.6 27.9 27.3 26.7 25.9 25.2 24.4 24.7 24.7 24.2 23.1 14.1 10.7 9.4 8.8 6.2 6.2 9 13.6 16.1 16.1 16.1 16.2 18.7 20.5 20.9 21.3 21.7 22.1 22.2 21.8 21.7 21.5 21.4 21.3 21.3 23.7 25.8 25.9 25 23.7 22.4 20.7 19.6 18.1 16.6 18 19.5 19.1 17.2 15.1 15.2 16.2 15.7 15.2 14.3 15.2 16.2 18.4 20.5 20.7 20.7 20.4 20.7 21.4 22 22.7 23.5 25.1 27 29.5 30.2 30 30.2 30.5 30.5 30.5 30.2 29.8 29.6 30.2 30.5 30.8 29.9 28.9 27.8 28.8 30.9 31.7 30.7 30.4 29.4 26.9 24.4 23.6 24.9 26.1 26.9 28.6 31 31.6 31.3 29 25.8 22.3 21.5 20.7 19.9 18.9 17.4 16.1 17.3 18.2 19.2 20.1 20.5 20.8 22.7 24 22.9 20.1 16.5 14.3 12.2 9.4 11 12.6 14.7 14.8 13.4 11.1 10.1 8.9 8.2 7.5 6.4 4.9 4.4 4.2 4.4 4.3 4.8 6.7 9.3 11.2 13 13.8 13.7 13.4 13 12.7 12.4 11.6 10.8 10.1 9.5 11.2 12.9 10 10.2 11.1 10.8 11 10.1 9.6 9 7.6 7.8 7.9 8 8 8.1 8.1 7.1 7.5 9 9 8.9
46 49.5 50.9 49.9 46.2 43.5 40.9 37.6 35.3 33.9 32.5 31.1 30.2 30.3 30.5 30.8 32.2 32.9 33.4 32.5 30.9 29.4 28.3 27.4 27.1 26.6 25.9 25.2 24.6 24.8 24.6 25.3 24.3 17.1 12.2 9.3 8.7 6.2 6.2 6.2 6.3 16.1 16.1 16.1 16.5 20 20.7 21.2 21.6 22 22.4 22.3 21.9 21.8 21.7 21.5 21.9 24.2 26.2 27.6 27 25.3 23.8 22.2 20.4 18.5 17.5 16.8 17.2 16.5 15.8 14.2 14.6 16.8 16.8 16.7 16.4 15.6 15.5 15 16.6 18.1 19.7 19.6 19.7 20.1 21.3 22.5 22.9 22.5 23.1 24.9 26.5 28.1 29.4 31.1 31.4 31.4 31.4 31.4 30.7 29.6 29.6 29.9 30.1 29.5 28.6 28.1 30 32.5 31.2 29.8 29.4 28.2 25.4 25 23.9 24.5 25.5 26.6 28.8 31.3 32 31.2 28.2 24.8 22.8 21.6 20.2 18.6 17.6 16.4 15.4 16.4 16.8 17.7 17.2 17.6 18.4 21.1 23.2 22.7 19.8 16.3 13.6 11.4 12.3 14.3 16.1 18.1 17.1 13.4 11.8 10.6 9.3 8.5 8 6.9 5.1 3.6 3.9 4.2 4.3 5.6 7.5 9.5 10.9 11.6 12.2 11.3 11.7 12.5 12.4 12 11.3 10.7 9.9 9.1 10.2 11.5 10.1 10 10.5 10.9 10.9 9.1 8.6 7.6 6.8 7.1 7.1 7.2 7.9 8.6 7.5 5.9 6.6 8.4 8.2 8
43.9 44.4 45.7 44.6 44.3 41.9 39.2 36.6 35.2 34.2 32.8 31.3 30.8 30.9 30.8 30.2 30.7 31.4 31.9 30.7 29.6 28.5 27.4 26.5 26.3 25.6 26 25.4 24.7 24.7 24.6 25 24.2 17.9 12.9 8.8 7.4 7.3 9 10.8 15.4 16.4 16.1 16.1 20 20.3 20.9 21.5 21.9 22.3 22.7 22.1 21.4 21.2 21 20.9 22.2 24.8 27.1 26.9 26.1 24.5 22.7 21.1 19.7 18.2 16.1 15.3 14.6 14.7 14.6 15.7 15.6 17.1 17.8 17.7 17.6 17 16.4 15.8 15.7 16.9 18.2 19 19.2 19.5 20.1 21.4 22 21.8 22.3 22.5 23.6 26.3 29.1 31.2 32.1 31.7 31.3 30.9 30.2 29.8 29.2 29.1 29.3 28.6 28.3 28.6 29.6 30.9 30.9 29.3 28 26.2 25 24.9 24.1 24.3 25.3 26.5 28.2 30.7 31.4 29.3 27.2 25.3 22.7 21.1 19.5 17.9 16.3 15.1 15.3 15.6 15.9 16.1 16.6 15.6 16.2 18.7 20.5 20.3 17.7 14.9 12.5 11 14.8 17.1 19.4 20.4 17.2 13.5 12.2 10.7 9.2 8.4 7.9 6.8 4.6 3.7 4.1 4 4.2 6.8 8.6 9.6 9.7 10.4 9.9 9.1 8.6 10.6 10.8 10.8 10.1 9.4 8.8 8.7 9.3 10.7 10.1 9.9 10.6 11.4 10 8.7 7.7 6.7 6.3 6.9 7.9 8.6 9.3 9.6 7.7 6.1 6 7.7 7.7 7.5
43.7 40.7 40.4 41.4 41.9 39.8 37.6 36.4 34.3 33.3 32.3 31.2 30.5 30.1 29.5 28.5 28.8 29.9 30.6 29.8 28.7 27.6 26.5 25.7 25.5 24.4 24.5 24.5 25 24.7 24.7 25.8 25.2 23.7 22.3 20.4 18.5 19.2 19.1 19.7 20.9 21.3 21.4 21.1 20.9 20.5 21 21.6 22.2 22.6 22.6 21.9 21.2 20.6 20.4 20.3 22.5 24.8 25.7 25.7 24.6 23.2 21.5 20.4 19 17.6 16.2 15.2 15.1 16 17.2 17.9 15.9 17.1 18.1 18.2 18.4 18.2 17.5 16.8 16.7 16.6 17 17.4 18.3 19 19.5 20.1 20.6 21.2 22.1 22.4 23.3 24.1 27.4 30.3 31.4 31 30.7 30.2 29.6 29.5 29.4 29.1 29.2 28.4 28.6 29 29.7 30.5 30.6 29 27.3 25.7 24.7 24 24.2 24.6 25.2 26.5 27.9 29.3 30.6 28.9 26.8 24.6 21.6 20.3 18.7 17 15.7 15.2 14.3 14.5 14.7 15.6 15.5 14.9 14.1 15.2 15.8 16.1 14.4 12.1 13.1 15.7 18.2 21.6 22.6 20.7 17.1 14.1 12.4 10.8 9.2 8.3 7.6 6.9 5.5 4.5 4.7 4.3 5.7 8.4 8.7 9.1 9 9.4 8.9 8.6 7.3 7.8 8.6 8.8 8.5 7.8 8.5 9.8 10.1 10.3 10.3 10.3 10.1 10.1 10.1 9.3 8.6 7.2 6.4 7.6 8.5 9.6 10.6 9.8 7.7 6.7 5.3 6.9 7.2 6.8
43.5 40.5 37 38.9 39.5 37.6 35.8 34.9 33.3 32.3 31.3 30.3 29.5 28.7 28.2 28.7 27.8 28.3 29.3 28.8 27.8 26.7 25.6 24.8 23.8 23.9 23.7 23.6 24.5 24.2 23.4 24 23.7 22.4 21.7 21.9 21.9 21.6 21.1 21.4 21.9 22.2 21.1 21.3 21.4 21.8 22.1 22.4 22.6 22.9 22.3 21.7 21 20.3 19.8 20.2 22.4 23.6 24.8 24 23.1 21.9 20.1 19.1 18.9 18.6 17.7 17 16.3 17 18.2 18.6 17.1 17.4 18.4 18.6 18.8 18.7 18 17 17.3 18 18.1 18.5 19 19.3 19.5 19.9 20.9 21.9 23.3 24.7 26.6 25.8 24.7 28 29.5 29.6 28.5 28.4 28.2 28.7 28.9 29.1 29.2 28.5 29 29.6 30.3 30.7 30 28.4 26.7 25.3 24.6 24.9 25.8 26.1 25.7 27.1 28.3 28.4 28.7 26.9 25.1 23.2 20.2 19.4 17.8 16.3 15.8 15.3 14.2 13.3 13.3 13.9 13.8 13.3 12.8 11.1 10.4 10.8 10.2 12.3 16.9 19.4 21.9 23.4 22.3 20.3 16.7 14 13.2 11.5 9.8 8.3 7.7 6.8 5.1 4.8 4.7 5.2 7.8 8.1 8.3 8.7 8.6 8.4 8.1 7.8 6.9 6.3 6.3 6.7 7 8.3 9.6 10.2 10.8 10.9 11 10.6 10.7 10.4 9.8 9.6 9.1 7.3 6.1 8 8.8 9.2 9.6 9.2 7 4.9 5.8 7.3 7.1 6.5
45.7 41.7 36.8 36.2 37.8 35.9 33.9 33.3 32.4 31.3 30.3 29.4 29.2 29.1 30.3 29.4 28.4 27.5 28 27.6 26.9 25.8 24.8 24.1 23.9 23.8 23.7 23.3 22.2 21.9 21.9 22.3 22.1 22.1 21.9 21.8 21.8 21.4 21.4 22.1 22.9 23.1 23.7 23.9 23.9 23.4 23.4 23.5 23.1 22.7 22.2 21.7 21.1 20.3 19.5 20.2 21.7 22.9 23.1 22.2 21.4 20.5 19 18.2 18.1 18.5 19.1 18.5 17.8 18.1 17.9 17.7 17.5 18.2 18.6 19 19.3 19.1 18.2 17.2 18.4 19.2 19.2 19.6 19.9 20.7 20.8 20.8 21.6 22.5 23.8 26.2 28.9 27.1 26.7 24.8 26.5 27.3 26.7 27 28.1 28.9 29.6 29.5 29.4 29.1 29.2 30.1 30.4 30.2 29.3 27.7 26.6 25.8 25.9 26.3 26.8 26.2 26 27.8 28.1 28.6 28 25.7 23.9 22 19.2 18.1 16.9 16.4 15.7 15.4 14.3 13.2 12.9 12.1 12.7 13.4 13.6 13.6 12.5 11.9 13.7 15.7 18 20.8 22.6 23.1 21.7 19.3 16.7 14 13.2 12.4 10.7 9.1 7.8 6.3 4.9 4.7 4.4 6.7 7.6 7.8 8.1 7.9 7.5 6.9 6.6 6.6 7.6 7.4 7.4 7.7 8.2 9.1 9.7 10.3 10.9 11.2 11 10.3 9.5 8.9 9.1 9.7 9.1 6.9 5.6 6.5 7.1 7.7 8 7.1 5.6 4.6 6 7.4 7.2 6.7
48.9 44 38.3 35 35.5 34.7 32.6 31.8 31 30.3 30.5 30.5 30.2 30 30.9 30 29.1 28.1 27.2 26.9 26.7 25.6 25.5 25.2 24.7 24.2 24.1 24.1 23.7 23.1 22.5 22.1 22.1 22.3 22.2 22.1 21.6 21.5 22.2 22.9 23.7 25.2 26.3 26.6 26.4 25.4 24 23.1 22.7 22.3 21.8 21.3 20.9 20.4 19.9 19.9 21.2 22.2 21.3 20.5 20 19.5 18.3 17.5 17.6 18.5 19.5 19.6 18.9 18.3 18.1 18 17.9 18.9 19.3 19.6 19.9 19.6 18.7 17.8 19.6 20.8 20.4 20.5 21.4 21.9 22.1 22.2 22.3 23.3 25 27.2 29.6 30.4 29.3 26.9 25.6 25.1 26.1 27.3 29.2 30.3 30.8 30.7 29.5 29.6 29 30 30.8 29.7 28.9 28 27 26.2 26 27.1 27.1 26.1 26.3 28.1 27.8 28.5 27.4 25.2 22.9 20.8 18.1 17.1 16.2 15.4 14.9 15 15.1 14.9 14.5 14.1 14.1 14.5 14.6 14.7 14.7 14.6 14.5 16.6 19.3 21.5 21.7 21.8 21 17.6 17.8 16.7 15.3 14 12 10.4 8.4 5.7 4.8 4.3 4.2 7 7.3 7.6 7.8 6.9 6.1 5.5 5.2 6.4 7.2 7.8 8 8.3 8.4 9 9.7 10.3 10.6 10.4 10.5 9.5 9.1 8.7 8.5 8.4 7.3 5.4 4.9 4.9 5.7 6.5 6.2 5.5 3.8 5.3 6.7 7.2 6.9 6.2
50 44.8 38.7 35.4 33.6 33.5 33.1 32.3 31.7 31.3 31.4 31.4 31.3 31.2 31.1 31 29.7 28.4 28.1 28.7 28.4 27.1 26.7 26.3 25.8 25.3 24.8 24.3 23.8 23.4 23 22.8 22.2 22.2 22.4 22.8 21.8 22.3 22.9 23.7 25.2 26.8 28.4 28.5 27.6 25.7 24.3 23.8 22.5 21.9 21.5 21 20.6 20.2 20.3 21.5 21.6 21.4 20.4 19.8 19.4 19.1 18 16.7 17.5 18.4 19.4 20.5 19.6 18.9 18.8 18.7 18.6 19.5 20 20.3 20.4 19.9 19.3 18.5 20.5 20.8 20.6 21.2 22.5 23.7 23.4 23.5 24.2 25.3 27.1 29.9 31.5 31 30.2 29.1 28.1 25.9 26.9 28.1 30.2 37.3 31.6 31 30 29.7 29.6 30.1 30.9 31.5 30.5 28.4 27.4 26.7 26.6 27.5 26.6 26.3 27.2 28.2 27.3 27.8 25.8 23.5 21.2 18.6 17.9 17.1 16.4 16.2 16 15.7 15.7 15.6 15.5 15.5 14.9 15 14.9 14.7 14.6 15 15.4 15.9 17.6 19.4 20.2 20.1 20.8 20.9 20.2 19.1 17.4 15.8 13.3 10.4 7.4 5.2 4.2 3.7 4.3 6.5 7.1 7.4 6.7 5.8 5.3 6.7 6.8 6.6 7.7 8 8.2 8.5 8.5 8.9 9.5 10.2 10.1 9.8 9.7 9.6 9.3 8.9 8.4 8.1 7.2 5.3 5.3 4.2 5 4.8 4.4 4.5 4.2 5.9 7.3 7.1 6.4 5.4
49.5 43.8 38.8 35.5 34.3 35.1 34.2 33.4 32.6 32.3 32.3 32.3 32.3 32.3 31.8 31.1 30.2 28.5 29.6 30.5 29.5 28.7 27.8 27.4 27.4 26.9 26.3 25.2 24.3 24 24.1 24 23 22.7 22.9 22.9 22.2 22.9 23.7 25.2 26.7 28.3 29.5 29.3 27.8 25.8 24.7 24.2 23.5 22.3 21.7 21.2 20.8 20.3 20.9 22.2 22 21.6 20.5 19.1 18.9 18.6 17.9 16 17.5 18.6 19.6 20.7 20.3 19.6 19.5 19.4 19.4 20.1 20.8 21.1 20.6 20.1 19.6 19.1 19.7 20.9 20.7 21.6 23.2 24.8 26.4 26.6 27.7 29.1 30.9 31.7 32.3 30.7 29.2 27.8 27.3 26.7 28.4 30.1 32.4 36 31.7 31.7 30.7 30 30.3 30.9 31.4 31.7 31.9 30.3 28 27.5 27.9 27.6 27.1 26.5 26.2 26.7 26.7 25.3 23.8 21.8 19.9 18.6 18.7 18.3 17.9 17.5 17.2 16.9 16.6 16.2 15.6 15 14.4 14.5 14.9 14.8 14.6 14.9 15.3 16 16.6 18.5 20.9 22.5 21.5 20.6 20.9 20.4 18.3 15.7 11.8 9.1 6.4 4.5 3.6 3.1 4.2 5.6 6.5 7 5.5 4.4 6.2 7.4 7.7 7.5 7.8 8.1 8.4 8.6 8.7 8.8 9.4 10 9.7 9.8 9.7 9.6 9.4 9.2 9 8.6 7 5.4 4.9 3.9 3.8 3.8 3.9 4 4.2 5.9 7.1 7.4 6.7 5.2
47.8 43.8 39.2 36.2 35.2 36.4 36.4 35.3 34.1 33.5 33.5 33.6 33.6 32.8 31.3 30.4 29 29.7 32.2 32.5 31.6 30.1 28.6 27.9 27.4 26.7 26 24.9 24.5 25.9 25 24.4 22.8 23.2 23 22.8 22.8 23.4 23.9 26 27.6 29.2 29.5 29 27.5 25.8 25.1 24.5 23.5 23.3 22.7 21.9 20.7 19.6 21.2 22.4 21.8 21.1 20.4 18.4 16.8 17.8 18 16.9 17.4 18.3 19.9 21 20.9 20.3 20.2 20.1 20.2 20.9 21.5 21.4 20.9 20.4 20 19.6 19.6 21 20.8 22.2 23.8 25.4 27.1 28.7 31.2 32.6 33.2 32.6 33 30.3 28.5 27.3 27.7 28.3 30 32 38.7 33.8 31.9 32.1 30.7 30.7 31.6 32.2 32.4 34.4 32.9 30.9 30.2 28.6 28.1 27.8 27.5 27.3 27.1 26.4 25.7 24.3 22.6 20.8 19.2 18.7 19.2 18.8 18.4 18.1 17.7 17.1 16.8 16.4 15.3 14.5 13.9 13.8 14.2 14.7 14.6 14.8 15.4 15.7 16.7 19.4 22.6 22.8 20.2 19.2 18.7 18.6 17.1 14 11.7 8.3 5 4.1 3.2 3.9 3.7 4.8 5.2 4.6 4.5 5.4 6.9 7.4 7.5 7.7 8 8.3 8.5 8.8 8.8 8.7 9.8 9.7 9.7 9.8 9.7 9.6 9.4 9.3 9.3 8.8 6.9 5.5 5 4.6 3.6 3.3 3.3 3.5 4.1 4.5 5.8 6.2 4.4 4.1
47.2 42.8 38.9 36.3 37.1 39.5 39.3 37.6 36 35 34.8 34.8 33.9 32.2 30.8 30.2 30.6 33.2 34.2 34.4 32.4 30.3 28.9 27.9 27.2 26.5 25.8 25 25.5 26.1 25.9 24.1 21.9 22.9 23.7 23.4 23.6 24 26.1 27.5 27.9 28.8 28.6 28.2 26.9 25.4 23.9 23.2 23.3 23.4 22.5 20.6 19.6 19.9 21.3 21.8 20.8 20.3 19.8 18.8 18.9 18.6 18 17.5 17.4 18.3 19.2 20.4 21.3 20.9 20.8 20.7 21 21.7 22.2 21.7 21.3 21 20.5 20.1 19.6 20.4 21.2 22.8 24.5 26.1 27.7 30.7 33.8 34.8 34.3 33.6 33.5 31.4 28.2 29.2 29.6 30 31.4 36.9 34.2 34 32.5 32 31.4 32 33.2 34.6 34.5 34.9 33.1 31 30.7 30.3 29.5 29.1 30.4 30.5 28.4 26.9 25.8 23.8 22.2 20.7 20.1 19.7 19.7 19.4 18.9 18.7 18.6 17.8 17.1 16.6 15.5 14.4 13.3 13.1 13.6 14.1 14.6 14.8 14.5 15 17.6 20.1 22.7 21.8 19.3 17.7 17.1 16.1 14.9 13.5 10.8 8.1 5.4 3.8 3 3.8 4.4 4.7 4.2 4.1 5.6 6.6 7.2 7.4 7.5 7.5 8.3 8.8 8.8 9 9 8.5 9.6 9.7 9.7 9.8 9.8 9.6 9.4 9.7 9.4 9 7.5 6.2 6.2 5.2 4.1 3 2.8 3.8 4.3 5.1 5.8 5 3.1 2.8
45.3 40.5 37 38.6 42 44.5 44.2 41.8 39 36.4 35.9 35.4 33.5 31.7 30.3 31.2 33.6 35.4 36.6 34.9 32.9 32 29.9 28.5 27.6 26.5 25.6 26.3 26.4 25.6 24.7 23.2 22.2 23.9 24.4 24.2 24.6 25.8 27.9 29 28.2 27.7 27.5 27.1 26.1 24.7 23.2 22.2 22.5 22.4 21.4 19.8 19 19.6 21 21.6 19.6 19.1 19 19.4 19.4 19.1 18.1 17.5 17.8 18.8 19.8 20.5 21.1 21.4 21.3 21.2 21.6 22.3 22.6 22.3 21.9 21.5 21 20.7 20.5 20.4 21.7 23.5 25.1 26.7 28.9 32.7 34.5 35.5 34.8 34 31.9 31.4 29.9 30.6 31 31.5 33.1 35 35 34.4 33.5 33.4 33.6 33.8 33.5 34.1 34.5 34 33 31.5 31.1 30.8 30.6 31.9 33.2 33.4 31.4 29.5 28.4 26.3 24.1 22 21.2 20.8 20.3 19.9 19.4 19.3 19.3 18.7 18 16.7 15.5 14.4 13.3 12.3 12.4 12.9 13.4 13.3 13.3 15.8 18.1 19.4 20.2 18.7 17.9 16.4 14.6 13.6 12.4 11.9 10.7 9.2 6.9 5.5 3.9 3.3 4.4 4.2 4 4.5 6.1 6.6 7.2 7.3 7.4 7.4 8.1 8.9 9.6 9.6 9.7 9.6 9.5 9.6 9.7 9.8 9.8 10.6 10.2 9.8 9.5 9.1 8.6 7.2 6.7 5.3 4.2 3.1 2.5 3.6 4 4.4 5.1 3.9 2.7 2.8
42.1 40.3 38.6 43 47.6 49.8 48.3 44.8 40.4 37.7 35.1 35.4 33.1 32.3 33.6 33.4 36 38.5 38.9 36.3 33.2 31.6 30 29.1 28.4 27.7 27.7 26.7 25.9 25.2 24.5 24.1 23.4 23.9 24.4 25.3 26.6 27.7 29.2 27.7 26.7 26.2 26.3 26 25 24 22.6 21.1 21.2 21.6 20.7 19.5 18.9 18.9 20.4 20.9 18.6 18.8 19 19.6 19.8 19.4 18.9 18.1 18.6 19.6 20.5 20.9 21.2 21.5 21.7 21.6 21.3 22.7 22.9 22.6 22.5 22.5 22.5 22.4 21.3 20.6 21.8 23.7 25.7 27.4 30.8 34.3 35.2 35.4 34.6 33.6 32.2 31.6 31.1 31.5 32.1 32.6 34.6 35.7 35.3 34.8 35 35.7 36.4 36.5 36 35.5 34.6 33.6 32.6 31.9 31.5 31.5 31.7 33.3 34.9 34.7 33.6 32.5 31.1 28.8 26 23.9 23 20.8 19.4 19.2 19.1 19.5 19.9 18.4 17.6 16.8 15.5 14.3 13.2 12 11.7 11.5 11.7 11.7 12.3 13.5 14.8 16.1 17 16.5 15.3 13.9 12.6 12.2 11.8 11.5 10.1 9.2 8.5 7.3 6.1 4.3 4.3 4.2 4.1 4.1 6.1 6.6 7.2 7.3 7.3 7.3 8 8.7 9.5 10.3 10.1 9.7 9.3 9.4 9.5 9.7 10.4 10.4 10.3 9.9 9.6 9.2 8.8 8.1 6.8 5.1 3.8 2.9 2.8 2.4 2.5 3.9 4.4 3.2 2.3 3.3
43.6 42.8 45.4 49.3 50.4 49.3 48.2 44.4 40.5 37.2 34.8 34 32.7 33.8 35.4 35.7 39 41.7 40.6 36.3 33.6 32.1 30.5 29.4 28.5 27.6 27.3 26.6 25.8 24.9 24.1 23.7 24 24.7 25.8 26.9 28.3 29.5 28.9 27.5 25.2 24.7 24.9 24.8 23.9 22.9 21.9 20.6 20.8 20.4 19.7 19.1 18.2 18.2 19.1 19.6 17.8 18.7 19.2 19.9 19.7 19.5 19.4 19.7 20.1 20.5 20.8 21.1 21.4 21.7 22 22 21.7 21.2 21.7 22 23.1 24.2 24.2 23.2 22.1 21.2 22 24.4 26.8 29.7 32.7 35.3 35.9 35.7 34.8 33.6 32.7 32.4 32.3 32.7 33.2 33.7 35.5 37.3 36.3 35.6 36.2 36.8 37.5 38.3 37.4 36.5 35.5 34.4 33.4 32.3 32.4 32.6 33 34.6 35.3 35.2 34.8 34.1 33.5 30.7 27.8 25 22.1 20 18.5 17.7 16.9 16.5 17.3 18.1 17.3 16.9 15.6 14.3 13 11.8 11.2 11 10.9 10.6 11.1 11.8 12.4 13.5 13.9 14.2 13.2 12.2 11.3 11.5 11.7 11 10.2 9.3 8.4 7.5 6.7 6.1 3.2 4.3 4.2 4.1 4 6.8 7.2 7.2 7.2 7.2 7.8 8.5 9.3 9.7 9.8 9.8 9.3 9.2 9.3 9.8 9.5 9.2 9.1 8.9 8.8 8.7 8.5 7.7 6.7 5.6 3.3 3.5 3.7 2.3 2.3 3.3 3.8 2.8 2.1 3
50.3 48.3 48.3 50.2 51.1 50.2 48.7 44.8 41.3 37.2 35.1 35 34 35 37.1 39.1 43.1 44 40.4 36.8 33.8 32.3 30.8 29.7 29.1 28.2 27.2 26.7 25.9 25.7 25.2 24.9 25.2 26.3 27.4 28.5 28.8 29.5 28.7 27.4 24.7 23.2 23.4 23.6 22.9 22.1 21.1 20.1 19.6 19.2 18.8 18.7 19 19.3 18.8 19.7 18.4 19.2 19.6 20 19.8 19.7 19.5 19.5 19.9 20.3 20.7 21.2 21.6 21.9 22.2 22.3 22 21.4 21.6 22.3 23.8 25.7 25.1 24 22.9 21.8 22.7 23.9 26.5 30.4 32.6 35 35.7 36.4 35.2 34.6 34.1 34 33.7 34.1 34.7 35.3 36.9 38 37.2 36.6 37.1 37.7 39.5 39.7 39 38.4 36.5 35.5 34.4 33.8 33.1 33.7 34.3 35.1 35.6 36 34.6 34.1 33.1 31.3 28.9 25.8 22.5 22.5 20.8 17.7 16.1 13.7 14.3 15.3 16 15.1 13.8 12.6 11.8 10.6 9.6 9.5 10.1 9.5 10.1 10.7 11.1 11.5 12.2 12.7 11.8 10.9 10.2 10 10.9 9.3 8.8 8.3 7.8 7.3 6.8 6.1 5 2.1 4.1 4 3.8 4.4 6.1 6.7 7.1 7.1 7.6 8.3 8.7 9 9.2 9.2 9.1 9 9.5 10 9.5 9.1 8.7 8.5 8.4 8.2 8.1 6.6 5.6 4.5 4.2 4.3 4.1 3.4 2.6 2.6 2.9 2.5 1.8 2.5
52.8 51.1 52 51.6 50.9 51 49.5 45.5 40.9 37.1 36.7 37 36.2 36.5 39.3 43.8 50 46.1 41.7 37.8 34.1 32.6 30.7 29.5 28.9 28 27.5 28.1 27.6 27 26.4 26.2 27 27.8 28.7 28.5 28.6 28.1 27.4 26.7 24 22.3 21.8 22 21.9 21.2 20.3 19.7 20 20.2 20.2 19.8 20.6 20.8 20.5 19.9 18.7 18.5 19 20.2 20 19.8 19.6 19.5 19.7 20 20.5 21 21.4 21.9 22.3 22.6 22.3 22.3 22.4 23.1 25 26.6 25.6 24.6 23.7 22.6 24.1 24.9 26.6 29.2 32.4 34.8 35.5 36.2 35.9 35.8 35.5 36.1 35.6 37 37.7 38 38.6 38.7 38.2 37.7 37.8 38.5 41.6 41.9 41.2 40.3 37.9 36.6 35.9 35.2 34.5 34.4 35.2 35.8 36.3 35.9 34.7 34.1 32.2 29.6 27.1 24.5 24.9 26.4 23.4 19.9 16.3 13 12 12.6 13.3 13.2 12 11.2 10.7 9.4 8.4 7.8 8.5 8.5 9.1 9.1 9 9.7 10.6 11.3 10.5 9.7 9.3 9.4 9.2 9 8.1 7.6 7.1 6.7 6.5 5.7 5 2.5 4.3 4 3.7 3.6 4.1 3.5 4.4 6.6 7.3 7.6 8 8.3 8.6 8.6 8.5 9.1 9.7 10.3 9.5 9.1 8.7 8.2 8 7.8 7 5.5 4.5 4.5 4.9 4.7 4.4 3.7 2.9 2.3 2 2.2 1.8 1.9
55.5 54.4 55.2 54.3 53.3 51.8 48.3 43.8 39.5 38 40.9 39.2 38.5 39.1 42.1 50.1 51.6 47.8 43.2 38.8 35.1 33.1 31.3 31 30.5 28.2 28.2 28.9 29 28.6 27.9 28 28.7 28.8 28.2 27.9 27.5 26.9 26.2 25.8 23.7 22.1 21.4 21.2 20.5 20.2 20.6 20.9 21.2 21.4 21.5 21 21.8 21.8 21 19.9 18.6 18.6 19.4 20.5 20.3 20.1 19.9 19.8 19.8 20 20.7 21.1 21.6 22.1 22.5 23 23.2 23.8 24 24.6 25.8 27 26.3 24.8 23.9 24.3 25.8 28.2 28.8 28.9 29.7 34.3 35.8 36.6 36.8 36.7 36.6 37.9 37.8 38.6 40 38.9 40.4 41.5 39.8 38.8 39.2 40.2 41.9 43.7 41.7 41.1 39.2 38.7 37.8 36.8 35.9 35.3 36.2 37.1 37.6 37.4 36.3 35.3 33.3 31.2 29.7 28.2 28.8 27.9 24.9 21.9 17.9 15.2 13.5 12.2 11.5 11.3 10.5 10 9.5 8.3 7.4 7.4 6 5.9 6 6.5 7.1 7.9 8.8 10.1 9.3 9.1 8.8 8.5 8.7 8.5 7.7 7 6.9 6.7 6.4 5.4 4.4 1.9 4.1 3.8 3.5 3.4 5.2 6.5 6.6 5.4 5.7 6.5 7.3 7.7 8 8.1 8.8 9.3 9.6 10.5 9.4 9 8.6 8.2 7.8 7.4 5.4 5.4 5.5 5.5 5.3 5 4.7 4 3.3 2.7 2.3 2 2.6 2.4
59 58 58.1 56.6 54.7 52.7 47.7 42.9 40.9 45.1 45.7 42.9 40.5 43.5 47.3 51.4 53.6 49.3 44.7 40.1 36.9 34.9 32.9 31.1 30.3 29.2 29.4 28.9 28.9 29 29 29.5 29.7 28.6 27.6 27 26.6 26 25.4 24.8 23.4 21.9 22 22 21.5 20.7 21.2 21.6 21.4 21.3 22.4 22.5 22.9 22 21.2 19.9 18.6 19.1 19.6 20.9 20.9 20.8 20.7 20.6 20.5 21 21.4 21.8 22.4 22.8 23.3 24.3 24.6 24.8 25 25.8 27.4 27.3 27 25.5 24.5 25.3 27.8 33 33.3 29.2 29.5 33.4 36.7 37.5 37.9 37.6 37.4 39.1 39.9 40.2 41.4 42.6 42.9 42.2 41.4 40.5 40.1 41.1 43 43.4 44.8 42.6 40.7 40.6 40.3 39.6 38.6 37.9 38.7 39.8 40.7 40.7 41.1 39.8 37.3 36.1 35.1 33.4 31.2 28.5 24.9 21.2 18.9 18 16.1 15.3 13.9 11.1 9.4 8.7 8.4 8.6 9.3 9.4 9.1 7.6 5.8 5.5 5.7 6.4 7.7 9.3 8.8 8.5 8.2 7.3 7.7 7.7 6.9 6.9 6.9 6.7 6.2 5.2 4.3 3.9 3.9 3.6 3.4 3.3 7.2 8.1 8.1 6.9 6 6.5 6.9 7.4 7.8 8.3 9 9.5 9.5 10.6 9.4 9.1 8.7 8.3 7.9 6.4 6.1 6.1 5.9 5.8 5.6 5.4 5 4.3 3.7 3.2 3.2 3.7 3.5 2.5
60.9 60.3 59.6 58.1 55.5 53.5 47.7 42.5 45.2 50.8 49.3 45.7 43.1 48.4 53.4 55.3 55.6 50 44.1 39.3 37.6 36 34.5 32.5 30.6 31.4 29.4 28.9 28.9 28.9 29.3 30.2 29.5 28.5 27.5 26.5 25.7 25.1 24.6 24.1 23 22.2 22.3 22.4 22.3 21.8 21.5 21.9 21.5 22 23 24 23.2 22.3 20.7 19.7 18.6 19.4 20.6 20.9 21 21.1 21.2 21.3 21.5 23.1 23.9 23.6 23.4 23.6 24.6 25.6 26 26.1 24.6 26.9 27.1 26.5 26 25.5 25.9 26.9 30.8 35.6 35.2 31.6 29.3 32.7 36 37.5 38 38.5 38.3 39.4 40.9 42 45.5 45.1 44.7 43.8 42.4 43 42.8 43.2 43.2 45.1 47.1 46.4 44.8 43.5 42.9 42.1 41.3 41.1 41.8 43.8 44.2 44.6 45.6 45.6 43 41.4 39.6 36.5 32.9 29.2 25.4 21.2 20.6 20.6 19 18.3 16.7 13.8 10.9 10.4 11 11 10.5 9.9 9.3 8.8 8.2 7 5.1 5.7 6.8 8.5 8.2 8 7.7 7.1 7 6.8 5.2 6.7 6.7 6.7 5.9 5 3.6 2.8 4 3.6 3.3 5.2 8.7 8.7 8.4 7.8 7.3 7.2 7.8 8.4 8.8 8.9 9.3 9.6 9.6 10.4 10 9.4 8.8 8.5 8.1 7.5 7.1 6.7 6.4 6.2 5.9 5.7 5.3 4.9 4.6 4.5 5.1 5.3 5.4 4.6
61.6 61.8 60.8 59.4 56.8 53.8 47.8 45.1 51.9 54.7 52.3 46.7 46 52.6 57.9 58.4 55.4 47.3 42.7 39 37.8 36.7 35.1 32.5 32.3 31.8 30.6 29.5 28.9 29 29.3 29.3 28.7 27.6 26.7 25.8 25.1 24.7 24.3 23.9 23.1 22.4 22.5 22.4 22.3 22.3 22 21.9 22.2 22.8 23.9 24.4 23.5 22.6 19.9 18.7 20.5 21.5 22.2 22 21.8 21.8 21.9 22 22.7 24.4 27.1 26.7 26.1 26 27.3 28.9 27.6 26.7 26 27.2 27.4 26.8 26.3 25.8 27.4 29.9 32.9 36.7 36.2 33.2 30.1 31.7 34.9 36.8 37.2 37.7 38.6 39.2 42 43.2 46.8 45.1 47.8 46.8 46.3 47.3 46.8 46.1 46.1 47.3 49.9 49.2 45.6 45.4 45 44 43.1 43.3 43.4 43.7 43.6 44.1 45.5 46.2 44.7 42.8 39.7 36.6 33 29.5 26.4 23.7 23 22.3 22.1 21.4 19.4 16.1 12.9 11.8 11 10.6 10.5 10.1 9.5 8.8 8 6 5.6 5.7 6.6 8.1 7.8 7.7 7.5 7.4 7.3 7.1 6.2 4.7 5 5.9 4.6 4.9 4.6 4.3 2.2 3.6 3.5 9 10.2 9.8 9.3 8.3 8.4 8.1 8.6 7.2 7.1 8.3 9.5 9.9 10 10.3 10.6 10.8 10.6 10.4 10.5 10.3 9.8 8.9 8.1 8.1 7.9 7.4 6.9 6.9 6.3 6.2 6.8 6.9 7 6.8
61.7 62.1 61.7 60 58 53 46.6 49.5 57.2 58.9 54.5 48.7 50.4 55.6 62.6 60.4 55.1 49.8 44.2 40.6 37.9 36.7 35.2 33.9 33.8 32.6 31.2 30.8 29.7 29 28.5 28.4 28.1 26.6 25.7 25.7 25.2 24.5 23.9 23.5 23.1 22.5 22.4 22.2 22.1 22.1 22.9 22.8 23 23.7 24.2 24.6 23.8 22.9 19.4 18.9 22.6 24.2 23.9 23.3 22.9 22.7 22.7 23.2 24.6 27.1 29.9 31.6 29.9 29.7 31.6 31.6 30.4 28.9 28 27.6 27.7 27.2 26.8 26.3 28.5 31.6 35.8 37.2 36.7 33.9 31.7 31.6 32.8 34.1 34.1 34.8 36.7 38.8 42.6 45 48.4 46.4 49.3 49.1 48.7 49.2 49.5 48.8 49.7 50.7 51.5 48.1 42.4 41.9 43.1 43 42.1 42.5 43.4 43 42.4 43.1 43.4 43.7 43 42.3 38.2 36.7 33.1 29.2 28.4 27.1 26.3 25.5 24.1 24.2 21.6 18.1 14.7 12.1 10.3 10.2 10 9.6 8.2 7.6 6.7 5.2 5.2 5.3 6.5 6.5 7.8 7.8 7.6 7.5 7.3 7.2 7 6.4 5.3 4.2 3.1 4.1 4.3 4 -2 3.4 6.9 11.1 11.2 10.3 8.6 7.2 6.7 6.7 5.7 3.6 3.6 5.4 7.8 9.3 10.1 10.6 11.5 12.4 13 12.8 13.3 13.1 12.8 12 10.8 10.2 9.6 8.9 8.5 8.6 8.6 8.3 8 8.3 8.5 8.6
61.6 61.9 62 59.9 58 59.8 56.9 59.4 63.2 63.5 58.8 54.9 57.1 63 66.3 63.1 57.7 50.4 45.5 43.9 40.1 37.3 35.7 35.5 34.5 32.5 30.8 30 30.4 28.8 27.8 26.9 26.3 25.9 26.2 26.4 25.7 25.1 24.5 23.8 23 22.8 22.5 22.3 23.2 24.1 24.8 24.7 24.6 24.3 24.8 25.1 24.2 22.8 18.8 20.4 24.5 26.3 25.9 25.3 24.7 24.1 23.7 25 26.6 29.5 31.8 33.7 34.2 33.7 34.2 34 31.9 31.5 30.4 28.8 28.6 28.1 27.7 26.9 28.5 31.7 35.7 38 37.1 35.3 33.2 33.5 32.4 31.5 31.8 32.8 34.7 38 48 47.1 47.8 49.7 50.3 49.4 49 48.3 49.1 48.9 50.5 51.6 51.1 44.3 38.8 38.8 39.9 40.8 40.3 41.5 42.3 42.7 41.2 41 39.9 40.9 40.6 41.7 38.3 34.8 32.4 31.6 31.4 30.7 29.3 27.6 25.5 24.4 22.6 19.5 16.2 12.8 10 9.9 9.5 8.3 7.3 5.7 5.2 5 4.9 4.8 6 4.6 5.7 6.9 7.7 7.6 7.5 7.3 7.2 7.1 6.7 5.6 4.2 3.5 3.7 -2 -2 6.1 8 8.8 8.6 7.9 6.2 4.8 4.7 3.2 3.3 3.1 3 2.9 3.1 7.7 10.4 10.8 12.1 13.2 14 14.9 15.9 16 15.5 14.6 13.6 12.5 11.5 10.6 9.8 9 8.2 7.7 8.1 7.7 7.3 6.9
60.7 62 62.4 61 60.7 61.5 61.6 64.7 66.8 66.8 64.7 62.7 63.3 67.5 70.2 65.2 59.1 53.9 50.7 47.2 43 39.1 36.8 35.9 35.3 32.7 31.4 30.4 30.8 29.5 27.8 26.8 26.3 26.2 26.4 26.6 25.8 25 24.3 23.8 23.4 23.4 23.3 23.4 24.4 25.7 27.1 27.8 27.1 26.8 26.5 24.9 23.6 21.8 19.2 22.1 27 28.1 27.4 26.3 25.7 25.1 25.2 26.1 27.6 29.4 32.1 34.7 36.2 36.1 36 35.9 34.6 33.3 32.1 31.3 30.5 29.6 28.7 27.7 28.5 31.5 35.3 38.8 37.3 35.8 34.4 35.3 37.2 36.6 36.9 35.3 34.4 36.6 42.9 49.8 47.5 47.9 48.4 47.9 46.6 45.3 46 47.6 49.7 51.3 49.2 46.4 39.2 36.6 36.6 37.3 38.7 40 41.4 41.9 40.5 37.9 36.4 35.9 37 42 38.6 35.3 33.8 33.6 33.1 31.7 29.5 26.8 24.3 23.6 21.9 18.7 15.5 12.7 9.9 9.3 8.2 7.1 6 5.3 5 5.7 6 5.6 5 4.8 4.7 6.2 7.1 7.4 7.5 7.5 7.4 7.3 5.8 3.7 3.6 3.9 -2 -2 6.5 6.9 6.9 6 5.1 5.2 3.7 3.3 4.2 -2 3.3 3.1 2.9 3.4 3.3 4.3 8.8 10.3 12.3 11.7 13.9 14.7 15.5 16.4 16.2 15.3 13.9 13.1 12.3 11.6 11 10.2 9.4 8 6.4 5.6 5.2 4.9
59.8 61.6 62.4 63.8 62.7 62.3 62.4 65.7 68 68.6 69.2 69.7 70.2 72.6 71.9 69.7 64.2 60 54.6 49.4 43.3 39.5 37.1 35.6 34.9 33.9 32.9 31.9 30.8 29.4 27.8 26.7 26.6 26.5 26.4 26.1 25.6 25.1 24.6 24.1 24 24 24.1 24.8 26.4 28 29.4 29.7 28.6 26.9 25.6 25.5 23.9 20.8 19.8 24.2 28.8 29.9 29.3 27.8 26.6 26.6 26.7 28.2 30.3 31.8 33 35.6 37.3 37.5 37.2 36.7 35.7 34.6 33.2 31.9 30.7 29.9 29.3 28.5 28.7 31.1 36.1 39.3 38.6 37.1 35.7 36 38.4 40.3 40.8 38.4 36.7 36 36.9 45 45.3 45.5 45.8 45.5 43.3 42.4 42.1 43.8 46.7 48.6 48.2 46.1 42.3 36.3 35.1 34.8 35.8 36.9 38.4 39 38.2 35.8 33.3 33.4 41.4 43.6 40.5 35.2 34 33.6 32.9 31.1 28.2 25.2 23.4 21.9 20.2 17.5 14.3 11.3 9 8.1 6.9 5.8 5.3 6.1 5.9 5.5 5.9 5.8 5.1 5.2 5.2 4.8 6 7.1 7.2 7.3 7.1 5.6 3.5 2.8 3.9 4 -2 -2 6.5 6.7 6.6 5 3.8 3.8 4.3 -2 2.5 4.3 -2 -2 4.2 3.9 2.7 3 7.1 8.1 12.1 11.9 13.2 13.7 14.4 15.2 15.1 14.4 13.9 12.7 12.5 12.8 12.2 11.3 9.7 8.1 6.5 5 3.5 -2
58.8 60.6 62.9 65.4 65.9 63.6 61.4 64.3 67.6 68.9 69.4 69.9 70.8 71.8 72.3 71 66.7 60.9 53.8 48.7 43.4 39.7 36.9 35.3 35.1 33.5 32.4 31.3 30.2 28.6 27.5 27.1 26.9 26.8 26.7 26.3 25.8 25.3 24.9 24.5 24.6 24.6 24.2 25.6 27.3 28.9 30.5 30.6 28.8 27 24.7 24.7 23.1 20.5 23.6 27 30.6 31.6 30.6 29.1 27.8 28.2 28.3 29.9 32.2 34.5 35.4 36.5 37.5 38.3 37.9 37.4 36.1 34.7 33.4 32.1 30.9 29.9 29.3 29.7 29.7 31.5 37.2 39.7 39 38.4 37.2 37.9 38.5 39.8 42 40.6 37.9 36.4 41 46.2 44.9 43.3 43.1 41.9 39.8 38.7 38.4 42.3 45.9 46.2 45.9 44.4 41.6 37.4 35 33.8 33.3 34.3 35 35.7 33.9 32.5 31.8 32.7 38.3 40.9 39.2 34.9 33.6 32.7 31.7 30 27.8 23.7 21.7 19.6 18 15.6 12.9 10 7.9 6.2 6.6 5.7 6 6.9 6.3 5.8 6 6.3 6.6 6.6 5.9 5.1 4.6 6 6.6 6.1 4.9 4.2 4.1 3.9 3.8 3.8 -2 -2 -2 5.9 5.6 3.8 4.4 -2 -2 3.4 3.3 3.7 3.8 3.9 -2 -2 -2 2.7 3.7 6.6 8.7 10.2 12.4 13 13.4 14 13.9 13.5 13.2 12.3 12.1 12.4 13 11.4 9.8 8.2 6.6 5.1 3.6 -2
57.7 60.1 63.6 66.3 68.1 65.6 62.3 62.4 65.5 67.9 69 69.4 69.9 70.7 71.3 70.8 68.1 60.8 54 48.3 42.5 39.6 37.4 35.9 35.3 33.4 31.9 30.8 29.5 28.6 28.1 27.6 27.2 27 26.9 26.6 26.1 25.6 25.1 25.1 25.1 24.5 24 25.5 27.4 29.3 30.9 30.7 28.8 26.9 24.1 22 20.9 19.9 23.1 29.6 31.4 32.2 31.7 30 29 29.6 29.8 31.7 34 36.3 38.4 37.9 38.2 39 38.6 37.6 36.4 34.9 33.6 32.3 31.2 30.1 29.9 31.3 31.2 32.4 36.1 39.5 38.8 38.6 39.3 39.6 39.8 40.1 40.9 40.9 38.4 37.7 46.2 45.2 44.8 43.9 42.1 39.2 36.7 35.4 38.9 41.4 43 43.3 43.2 42.1 39.4 35.7 33.3 32.5 31.8 33 33.7 33.8 31.8 30.2 28.8 31.1 35.1 36.7 35 32.6 30.9 30.4 30 29.1 27.4 22.4 19 17.3 15.7 13.6 11 7.6 6.6 6.1 6.3 7.2 8.3 7.9 7.4 6.9 6.6 6.9 7.5 6.8 6.1 5.3 4.7 4.7 4.4 4.7 4.7 4.5 4.3 4.4 5 5.6 4.6 3.3 -2 2.8 4.4 -2 -2 4 3.9 3.4 4.1 3.7 3.5 3.5 3.1 3.8 3.8 -2 5.2 5.9 7.5 9.2 11.3 12.2 12.6 12.9 12.4 12 11.6 13.2 12.2 11.5 11.6 10.2 8.9 7.4 7.1 5.5 3.9 -2
56.4 59.9 64.1 69.5 70.3 67.7 63.3 64.7 66.5 67.7 68.6 69.1 69.2 68.9 69.4 69.8 68.3 63.6 57.5 50 43.6 40.7 38.5 36.9 35.4 33.5 31.9 30.4 29.7 29.2 28.6 28.1 27.6 27.4 27.1 26.9 26.4 25.9 25.7 25.4 24.8 24.2 23.7 25.4 27.3 29.3 30.9 30.7 28.9 26.5 23.5 20.3 19.6 22 26.7 31.2 33.1 32.5 31.3 31 30.3 30.2 31.3 33.4 35.6 37.6 39 39.3 39.1 39.7 39 37.8 36.6 35.2 33.8 32.5 31.4 30.7 32 33.5 33 33.5 35.6 38.6 39.3 39.9 41.2 41.5 41.7 41.8 41.7 42.4 43.4 46.2 45.1 44.2 44.1 43.4 41.4 38.3 34.8 35.1 38.4 39.6 39.6 39.4 39.3 39.2 36.4 33.5 32.3 30.9 31.5 32.8 34.1 33.9 31.4 29.3 27.4 29.4 32 31.9 30.4 27.8 25.5 25 23.5 22.7 21.8 19.9 17.3 15.5 13.7 11.9 8.9 6.6 6.2 6 8.1 9.2 9.2 9 8.5 8 7.6 7.5 8 6.7 6 6.1 5.1 5.1 5 4.3 4.7 5.5 5.7 5.8 6.4 6.1 4.8 3.7 3.7 3.8 -2 4.6 3.7 3.4 3.9 5.5 5.5 5.2 4.9 4.2 3.4 3.2 3 -2 -2 4.8 7.4 9.6 11.6 12.3 11.4 10.8 10.3 9.7 10.5 11.5 11.5 11.1 10.1 8.5 7 7.1 7.1 6.6 5 -2
55.4 60 66.3 72.2 72.2 69 66.6 68.2 68.1 68.9 68.6 69 68.6 67.8 67.8 68.5 68 64.8 58.7 51.9 45.9 44.2 41.1 37.9 35.5 33.7 31.8 31 30.1 29.7 29.2 28.6 28.1 27.8 27.5 26.8 26.5 26.2 25.6 25.1 24.5 23.9 23.4 24.9 26.2 27.5 28.9 30.6 28.2 25.4 22.2 20.1 21.9 24.9 28.8 32.6 33.2 32.1 30.6 30.7 30.6 30.7 32.3 34.7 36.8 38.8 39.6 39.9 40.2 40.3 39.2 38 36.8 35.6 34 32.7 32.2 32.3 33.6 35.6 35.6 34.6 34.5 36.7 40.1 41.5 42.8 43.4 43.5 43.9 45.9 44.4 46.2 46.3 43.7 42.4 41.6 40.3 38.7 36.5 34 33.9 37.3 37.5 36.1 35.6 36.2 36.7 34.5 33.9 31.3 29.5 30.8 32.1 33.5 33.3 29.1 27.9 25.9 27 28.1 27.9 26.3 23.4 20.2 20.5 19.4 18.5 17.5 16.5 15.4 13.4 11.5 11.7 8.3 6.5 6.2 8.4 9.9 10 9.8 9.6 9.3 9 8.7 8.2 8.2 6.6 7.1 7.5 6.7 5.1 5.1 5.4 6.7 7.5 7.2 7.3 7.6 7.7 7 4.9 3.9 3.7 3.4 4.4 3.4 5.5 6.7 7 6.8 6.6 6.3 6 5.2 3.8 2.9 3 -2 3.2 5 8.9 11.8 12.5 10.2 9.3 8.3 9 10.5 11.1 11.3 10.3 8.5 6.6 6.7 7 7 6.5 6.1 -2
54.5 59.9 65.3 70.6 71.4 69.2 68 68.9 68.9 68.9 68.7 68.4 68 67.3 66.5 67.3 67.4 65.3 61.1 55.7 51.3 49.4 45.5 40.3 37.6 35 32.6 31.7 30.5 30.1 29.6 29.1 28.7 28.2 27.5 26.4 26 25.5 24.8 24.1 23.6 23 22.9 23.1 24.4 25.6 27 27.5 25.6 23.5 20.5 20.1 22.6 25.1 29.3 33.1 32.5 31 29.9 30.1 30 31.7 33.2 35.7 38 39.9 40.2 40.6 40.9 40.9 39.6 38.3 37 35.8 34.6 34.6 33.4 33.6 35.1 37.3 38.3 36.9 35 36 38.4 41.4 44.3 45.3 46.6 48.5 50.3 45.6 46.3 46.5 43.6 39.9 38.4 36.9 36.1 35 33.5 33.8 35.9 34.8 34.1 34.1 34 34.2 32.8 31.1 29.4 28.3 29.5 31 32 32.8 29.6 26 24.7 23.8 24.5 23.4 21.9 19.4 17.6 16.8 15.6 14.5 14.1 12.9 13.2 11.2 11.6 11.2 8.4 6.9 6.5 9.7 10.8 10.6 10.4 10.1 9.9 9.6 9.4 9.1 8.7 9.5 9.3 9.3 10.1 8.2 7.1 7.7 8.5 8.6 8.6 9.4 9.6 9.6 8.8 7.4 7.3 6.9 6.2 3.2 3.7 7 8.1 8.5 8.2 7.8 7.3 6.8 6.2 5.5 4.1 3.6 -2 -2 -2 5.8 10.6 12.7 10.4 9.4 8.5 7.2 8.6 9.2 9.1 8.7 7.2 5.1 5.4 6.2 6.8 6.3 5.7 -2
54.1 59 63.1 65.1 67.2 68 67.4 67.5 67.8 66.8 67.4 67.4 67.4 66.8 65.3 65.2 65.5 65.6 63.3 60.4 57.4 53.9 48.6 43.4 39.9 37.2 33.5 32.3 30.9 30.5 30 29.5 29.1 28.2 27.1 26 25.4 24.7 24 23.4 22.6 22.4 22.4 22.4 22.7 23.9 24.5 24.1 22.3 21.3 20.5 20.2 23 25.3 29.2 32.5 32.1 30.3 28.7 29.3 29.9 32.1 34.7 37.6 38.9 40.4 40.9 41.2 41.6 41.5 40.2 38.9 37.7 37 36.6 36.6 35.4 34.6 36.7 38.9 39.3 38.9 36.4 36.7 38.7 40.6 42.8 46.3 49.3 49.6 45.3 49.4 50.4 47 42.4 38.1 36.5 35.1 33.9 34.2 32.6 32.6 33.8 33.3 32.8 32.3 32.6 33.2 32.1 30.6 29 27.2 28.4 29.3 30.2 31 30.5 26.8 23.9 20.9 19.7 19.3 17.8 17.4 15.8 14 11.8 11.2 11.5 10.8 10.7 10.2 11.4 10.7 9.3 7.8 7.5 9.3 10.9 11 10.9 10.7 10.5 10.2 10 9.7 10 10.8 11.6 15.1 16.5 17.3 12.9 10.6 11.7 11.8 11.3 11.3 11 10.5 9.6 8.6 8 7.4 6.2 3.1 4.7 8.1 8.9 8.9 8.8 8.4 7.9 7.3 6.7 6 5.3 4.1 3 -2 2.9 4.4 9.1 11.8 11.1 9.8 8.4 6.2 6.5 6.9 5.6 5.7 5.4 3.6 3.5 4.5 5.3 4.7 3.8 -2
53.5 58 59.9 61 62.8 64.7 65.2 65.1 65.2 65.5 66 66.3 66.6 66.5 65.2 63.5 63.9 63.9 63.2 61.6 60.3 56.4 51.7 46.6 42.1 39.1 35 32.9 31.3 30.9 30.4 29.8 28.6 27.7 27.3 26 25.4 25 24.6 24.3 24.2 23.2 22.1 22.3 22.5 21.9 21.9 21.4 21.8 21.9 21.8 20.3 22.6 24.6 27.8 30.2 29.9 28.3 28.1 28.8 30.5 31 37.5 38.6 39.8 40.9 41.6 41.9 42.3 42.1 41.2 40.5 39.9 39.1 38.5 37.9 36.9 36 37.9 41.4 40.5 40.3 38.9 38.6 39.7 41.5 44.7 47.1 47.1 44.7 51.4 51.1 48.9 43.4 39.3 36 35.3 34.1 32.9 32.3 31.2 31.1 31.3 31.3 30.7 30.1 29.7 31.4 31.6 30.2 28.6 26.4 26.6 27.5 28.4 28.8 28.7 26.9 23.7 21.3 18.9 17 15.6 14.8 15.6 14 12.1 12 11.9 10.6 9.3 9.5 10.7 9.8 8.1 7 7.3 10.6 10.8 11 11 10.9 10.9 10.8 10.6 10.3 10.6 12.2 15.2 19.5 21 20.3 17.3 15.7 15.2 14.3 13.2 12.6 11.9 10.6 10 9 8.2 5.8 3.4 5 7.2 8.8 8.7 8.6 8.4 8.4 8.2 7.6 6.9 6.2 5.5 4.3 3.2 -2 3.6 3.9 7.9 10.7 11 9.8 8.2 6 4.1 4.4 2.7 2.5 2.5 2.5 2.4 3 2.9 3.1 -2 -2
52.1 54.6 56.6 57.7 59.2 60.8 61.2 63 63.1 63.9 66.1 66.4 66.6 66.2 65.2 62.2 60.5 61.5 62.1 61.5 60.3 58.2 53.4 48.9 44.4 40.2 36.5 33.5 31.7 31.3 30.3 28.7 29.1 28.6 27.4 27.1 26.8 26.3 25.9 25.7 24.6 23.4 22.4 23 23.5 23.1 22.3 21.9 20.7 20.4 20.9 20.2 22.1 24 25.3 27 27.3 27.7 28 26.4 30.8 31.5 31.9 37.4 38.7 40.9 42 42.5 42.8 43.2 42.8 42.5 41.8 41 40.1 38.4 36.7 35.6 36.6 38.4 39.4 40.5 41.3 41.1 42 42.7 45.6 43.4 44.3 50 51.8 49.8 47.8 41.6 36.1 34.1 32.8 33 32.4 31.2 29.9 29.8 29.8 29.1 28.5 28 27.5 29.2 30 29.9 28.2 25.8 25.7 26.1 26.4 26.6 26.9 27.1 24.1 21.3 19.3 17.3 15.5 14.8 15.4 14.5 13.2 13.2 13 12.3 11.5 8.7 7.7 7.5 6.8 6.5 9.8 10.5 10.6 10.8 11 11 10.9 10.8 10.8 10.7 11.4 13.8 18.7 21.9 22 21.1 19.6 18.8 17.8 14.9 14.2 12.5 10.7 8.7 8.1 7.5 6.8 3.9 3.8 5.9 8.4 8.6 8.4 8.3 8.1 8 7.8 7.3 7 6.4 5.7 4.6 3.6 -2 3.4 3.2 5.7 8.4 9.7 9.4 7.9 5.7 3.8 2.2 2.1 2.2 2.3 2.4 2.3 2.4 2.8 -2 -2 -2
49.2 50.4 52.1 53.6 55.5 57 58.6 60.5 62.1 63.7 65 66 65.9 64.5 62.7 59.4 58 58.1 58.6 58.7 58.4 56.9 53.4 48.6 43.9 39.4 35.7 33.1 31.9 30.1 29.5 30.1 30.8 29.5 28.5 28.4 28.3 27.7 27.2 26.2 25 23.7 22.9 23.9 24.4 23.9 23.9 23.7 22.8 21.5 20.2 20.4 21.5 23.2 24.9 25.2 26 27.1 27.5 27 28.1 29.5 31 31.1 35.6 39.8 40.7 41.9 42.7 43.4 43.6 43.1 42.5 41.6 40.2 38.8 37.1 36.8 37.3 37.4 39 41.3 42.6 43.6 43.9 43.5 43.2 47.4 48.6 48.1 47.7 47.3 45.1 40.7 35.9 32.5 30.6 30.6 30.4 30.6 29.2 29.1 28.7 27.9 26.9 26.4 26.3 27.1 28.6 28 26.7 24.6 23.8 23.3 23.9 24.5 25 25.3 24.7 21.3 19.1 17.5 15.6 14.9 14.9 14.9 14.2 13.3 13 12.3 11.7 10.7 7.4 6.8 7.2 7.9 11 11 10.8 10.6 10.8 11 10.9 10.9 10.8 10.8 11.6 14 18.3 20.5 21.1 20.5 19.7 19.1 18.1 16.6 14 11.3 9.6 7.7 6.3 5.6 4.5 5.4 6.3 7 9.5 9.8 9.3 8.8 8.4 7.9 7.4 6.9 6.5 6.2 5.9 5 4 -2 -2 2.7 4.2 6 7.7 7.3 6.6 4 2.3 2.1 2 3.1 2.8 2.8 3.1 -2 -2 -2 -2 3.9
46.9 49.5 49.2 51.5 52.9 53.9 55 57.2 59.1 60.8 63 64.5 64.6 63.5 62.9 60.9 57.4 54.4 53.7 55.9 55.8 54.8 52.6 48.1 43.4 38.7 34.8 32.6 30.1 31.7 31.4 31.8 32.4 31.3 30.1 30 29.6 28.8 27.7 26.6 25.3 24.1 23.7 24.9 25.2 24.6 24.3 23.7 23 22.3 21.2 20.7 22.1 22.8 24.5 24.8 25.5 26.3 25.7 24.5 25.5 26.3 27.1 27.9 30.9 35.1 36.3 38.2 40.8 41.3 41.3 40.6 40.1 41.4 40.6 39.1 37.8 38 36.9 37.4 39.6 42 43.3 42.8 42.8 42.3 42.9 44.6 44.5 44 43.6 43.6 42.4 37 32.7 30.4 29.3 29.1 28.5 28.9 28.5 28 27.6 27 27 26.7 26.3 26.2 26.6 26.1 25.3 23.6 22.9 22.4 22.4 22.5 22.7 23.1 23.6 21.9 19.5 17.3 15.7 14.6 14.6 14.5 13.7 12.9 12.6 10.8 9.2 8 6.9 7.5 7.4 9.6 11.4 11.6 11.3 11.1 10.8 10.8 11 10.9 10.9 10.9 11.3 12.8 15.6 17.2 19.4 18.7 17.7 17.1 15.8 14.4 12.2 10.2 8.2 6.6 4.8 4.5 5.2 7.4 8.6 9.5 10.6 11 10.8 10.3 9.6 8.2 7.4 6.6 6 5.7 4.9 3.9 3.1 2.6 -2 3.4 3.8 6.2 7 5.3 4 2.3 2.2 2.2 2 2.1 3 -2 -2 -2 4 4.2 5.2 4.9
44.6 46.1 48.1 49.1 50.1 51.5 52.9 54.5 56.2 58.4 60.5 63 63.9 63.1 62.2 59.9 57.6 55.2 52 49.3 52.1 52.3 50.5 46.8 42 36.9 33.7 32.6 34.1 36.3 35.5 34.3 33.8 33.3 32.5 31.6 31.1 29.3 27.9 27 25.6 24.7 24.3 25.8 25.9 25.3 24.5 23.4 22.2 21.1 21.1 21.7 23.1 23.7 24 24.4 24.8 24.4 24.7 26.5 27.8 28 27.6 27.1 28 29.8 32.6 35.9 36.6 37.1 37 36.3 37.1 39.9 40.7 39.9 39.2 38.8 37.3 37.5 39.7 42.4 42.2 42.1 41 40.3 39.5 40.2 40.1 39.8 39.6 39.6 40.2 37.8 33.9 29.8 27.8 26.7 27 27.3 27.9 28 27.6 27.4 27.3 26.9 26.4 25.9 25 24.2 23.6 23 22.8 22 21.7 21.8 22 22.2 22.5 22.6 20.3 17.8 15.6 13.9 14.2 13.9 12.5 10 9.5 8.7 7.9 7.7 8 8.8 9.6 10.5 11.9 12 11.9 11.7 11.4 11.1 10.9 10.9 11 11.7 10.6 11.3 12.7 14.4 16.4 16.2 15 14.3 13 11.5 10.4 9.1 7.3 6.7 8.1 5.7 6.5 8.4 9.7 10.7 11.6 11.9 12.2 11.1 9.7 8.4 7.6 6.8 6.1 5.6 4.8 4.4 3.4 2.4 -2 3.8 4.8 6.5 6.7 5 3.4 2.2 2.1 2.1 2 2 2.1 -2 4.4 4.6 4.5 5.3 5.8 6.2
43.5 46.1 46.5 47.4 48.4 49.8 49.8 52.2 55.2 55.7 58 60.6 63.2 62.3 61 58.3 55.8 53.9 52 48.5 46.1 48.7 48.2 43.2 37 34.1 34.4 36.6 40.2 41.5 40.9 39.9 40.3 41.4 38.5 34.7 33.1 31.5 29.7 28 26.5 25.6 24.9 26.6 26.6 25.7 24.8 23.9 22.7 22 21.5 21.4 22.5 23.7 23.3 23.7 24.5 24.1 26 27.8 29.7 29.4 29.4 28.8 28.1 28.7 31.5 33.1 33 33.2 33.2 34 35.5 38.2 40 40 39.3 38.2 38.1 39.9 40.5 41.7 41.9 40.1 39 37.8 37 36.3 36.1 35.9 36.3 37 37.5 36.8 33.8 30.3 28.7 26.2 25.5 26.5 26.8 27.4 28 27.6 26.9 26.5 25.9 25 24.1 23.3 22.8 22.8 22.7 21.6 21 21.1 21.4 21.9 22.5 22.6 20.9 18.5 16.3 14 11.1 12.5 10.3 8.1 8.3 8.2 7.9 8.6 9.6 10.4 11.3 12.1 12.2 12.5 12.5 12.2 12 11.7 11.4 11.3 12.6 11.6 10.5 9.8 10.7 11.5 12.4 12.9 12.4 11.4 10.1 9.3 8.4 7.1 6.8 8.5 8.1 6 6.7 9 10.5 11.4 11.9 12.1 12.3 11.2 9.8 8.6 7.9 7.1 6.4 6.4 5.4 4.3 3.2 2.7 -2 -2 4.9 6.5 6.5 5.5 4.1 2.3 2.2 2.1 2 1.9 -2 3 3.5 4.2 4.9 5.6 6.1 6.5
43 44.8 45.7 46.9 47.8 48 48.1 49.9 52.1 53.8 57.1 59.9 61.7 62.1 59.3 56.4 53.9 52.2 51.6 50 45.5 42.5 40.9 39.8 38.9 39.5 41.3 44.9 47.1 48.6 47.9 47.2 48.5 48.6 45.6 41.2 39.2 37.7 35.6 33.8 31 29.2 26 26.8 27.2 25.7 25 24.4 23.6 23.1 22.3 20.9 22.4 21.3 22.1 23.4 24.3 24.2 25.8 27.4 29.6 30.6 31.3 30.6 28.8 28.7 29.2 30.3 31 30.8 32.4 33.8 35 37.1 39.2 39 38.7 38.7 39.4 40.7 41 41.5 40.6 38.2 37 35.9 34.7 33.7 33.5 33.3 33.7 34.4 34.6 33.9 32.2 29.9 27.2 24.5 24.3 25.4 25.8 26.4 26.4 26.4 26.3 26 25.1 24.2 23.3 22.4 22.3 22.3 21.9 19.9 20.3 20.9 21.4 21.9 22.5 22.6 21.4 19.1 16.6 14 10.8 8.5 7.7 8.7 9.2 9 9.3 10.1 11.1 12.1 12.9 13.7 13.5 13.3 13.1 13 12.9 12.8 12.8 12.6 12.5 11.7 10.7 10.2 9.6 9.8 10 10 9.7 8.5 7.3 7.5 7.4 7.4 8 7.9 8.7 7 5.6 9.4 11.1 11.8 12.1 12.4 12.1 11.2 9.7 9.4 8.6 7.7 6.7 6.1 5.3 4.1 3 2.6 -2 -2 5.7 6.4 5.7 5.1 4.4 2.4 2.3 2.1 2 2 -2 2.6 2.7 3.4 4.6 5.5 5.9 6.1
44.5 45.8 44.9 46 46.8 46.9 47.3 47.8 49.5 53.3 56.9 59.1 60.7 61.8 59.6 56.1 52.9 51.1 48.3 45.8 45.7 44.3 44.8 41.8 41.3 43.6 48.1 50.8 52.4 53 53.4 53.7 54.2 53.8 51.2 48.3 46.9 45.7 42.9 40.3 36.5 32.7 29 27.8 27.2 25.8 25 25 24 23 21.6 21.2 20.9 20.9 21.5 23 24 25 25.9 27.2 29.1 31.7 33.1 31.9 30.4 29.3 29.8 30.4 30.7 31.5 32.1 33.2 34.7 36.7 39.3 40.1 40.1 39.2 39.8 38.3 40 39.9 38.2 36.3 35.1 33.7 32.4 31.7 31.5 31.4 32.2 32.4 32.5 32.5 30.9 29.1 26.5 24.7 24.4 24.2 24.7 24.9 24.9 24.8 25.2 25.8 25.4 24.5 23.6 22.5 22.2 22.3 21.8 19.7 18.2 19.4 19.9 20.4 21 22.4 21.2 18.8 16.1 13.2 10.1 7.9 7.6 9.1 10.1 10.4 10.7 11.5 12.6 13.6 14.5 15 14.9 14.7 13.6 13 12.7 13.2 13.7 13.5 11.9 11.1 11 10.9 10.3 9.7 9.1 8.6 8.3 8.4 7.4 7.7 8.4 9.1 9.8 9 8.8 8.4 6 7 10.2 12.2 12.4 12.5 11.7 10.9 10.5 10.3 9.4 8.5 7.1 6 5.1 4.1 3.1 2.6 2.6 -2 5 5.4 5.6 5.2 4.5 4.1 2.3 2.1 2.3 3.2 -2 2.5 2.6 2.7 4.1 5.1 5.5 5.9
45.7 44.6 44.2 45.1 45.5 45.3 45.3 46.5 48.7 51.5 55.3 57.5 57.8 60.3 59.9 57.5 55.5 51.6 49.1 47.7 46.9 46.3 47.9 47 44.7 42.1 44.8 50.9 53 54.8 55.5 55.2 56.6 57 56.1 54.2 53.6 51.5 47.8 43.9 39.5 35.1 31.2 28.2 27.2 26.1 25 24.5 23.5 22.5 22.2 21.9 21.6 21.3 21.9 23.6 25.4 25.8 26.8 28.4 30.7 32.1 33.3 32.9 31.9 30.5 30.2 32.5 33.8 34.5 33.6 33.9 34.6 36.6 39.3 40.4 39.8 39.2 36.3 36 36.4 36.5 34.9 34.2 32.7 31.2 30.1 29.8 29.5 29.8 29.9 30.2 30.6 31 29.6 28 25.8 25.3 24.8 24 23.3 23.3 23.6 24 24.3 24.9 25.7 24.8 23.9 22.6 22.2 22.3 21.6 20.5 16.8 16.5 18.3 18.8 19.9 20.7 20.4 17.7 15 12.3 8.8 7.9 9.8 8.1 11.2 11.8 12.1 13 14.1 15.1 16.1 16.4 16.3 15.3 14.2 13.5 12.8 12.1 13.5 12.5 11.6 11.2 11.8 12 11.6 10.6 9.7 9.2 8.9 9 8.9 9.4 10.1 10.8 11.3 10.4 9.7 9.7 7 7 10.3 12.1 12.4 12.3 11.5 11.3 11.4 11.1 10.2 9.3 7.4 6.5 5.7 4.4 3.3 2.6 2.7 -2 4.3 4.3 4.5 4.7 4.7 4.3 3.5 3.3 2.3 3.4 -2 2.5 2.6 2.7 2.8 4 5.2 6.2
45.7 45.3 43.6 43.5 44 43.8 43.8 45.3 47.3 49.9 52.7 53.8 55.6 57.8 59.5 59.1 56.6 52.7 51 50.4 49 50.6 50 49.2 47.5 45.1 42.9 48.2 51.9 54.1 55.1 56.5 57.4 57.9 58.1 57.5 55.2 52.7 49.9 45.7 41 36.4 32.3 29.4 27.6 26.5 25.4 24.3 23.6 23.2 22.9 22.7 22.4 21.9 21.3 24.2 24.9 25.6 27.3 28.8 29.9 31.4 32.5 32.9 32.4 31.4 31.7 35 38 38.7 37.9 36.9 36.8 38.5 39.2 39.7 39.5 38.2 36.1 35.7 33.8 32.8 32.4 32 30.7 29.1 28 27.7 27.6 28.2 28.6 29 29.5 29.2 27.8 26.4 25.9 25.1 24.3 23.5 22.8 22.5 22.8 23.1 23.5 24.1 25.2 25.2 24 22.8 22.2 22.3 21.4 20.4 17.8 13.8 14.7 17 18 18.2 18 15.9 12.2 9.3 8.3 9.8 11.5 10 11.6 12.7 13.4 14.7 15.7 16.8 17.9 17.9 17.3 15.7 14.7 14 13.3 12.6 13 12.2 11.6 11.9 12.5 13.3 13.2 12.4 11.2 10.4 10.5 10.7 10.8 11.5 11.9 12.6 12.6 11.7 10.8 9.8 8.3 8.6 10.3 11.5 12.5 12.1 12 11.6 11 10.9 10.3 9.7 8 7.3 6.5 5.3 4.1 2.6 2.8 -2 -2 2.9 3.1 3.3 3.7 3.8 3.9 3.1 2 -2 -2 2.5 2.6 2.7 4.1 5.8 6.2 6.7
43.9 43.7 41.8 41.7 42.7 43 43.5 44.9 46.2 48.1 49.8 51.6 53.5 55.4 56.8 58.3 57.3 55 53.2 52.3 51 51 51.8 50.7 49.6 48.6 46.1 45.9 50.1 51.9 54.8 55.7 56.8 57.1 58.1 57.9 56.2 53.5 49.7 46.3 41.7 36.8 32.5 29.8 28.1 26.9 25.8 24.7 24 23.9 23.7 23.4 23.1 22.4 21.8 23.2 24.4 25.4 26.6 27.7 28.9 30.2 31.5 32.5 33.9 32.8 33.5 37.5 41.8 42.4 41.5 39.2 38.2 38.5 38.8 39.4 39 37.3 35.2 32.8 30.6 30.4 30.3 29.9 28.9 27.6 26.7 25.7 26.1 26.7 27.4 27.9 28.3 27.4 26.2 25.1 25.4 25.4 24.6 24.1 23.7 22.5 22.4 22.6 22.9 22.8 23.7 24.9 23.9 22.7 22.3 22.4 21.3 19.8 16.7 13 13.4 17.6 18.2 16 15 13.5 9.9 8.7 9.1 11.3 12.8 11.6 10.9 12.9 14.9 16.5 17.9 19 20.5 19.7 18.4 16.7 15.6 14.8 14.1 13.4 12.6 12.4 12.6 12.9 14 14.6 15 14.2 12.8 12 12.7 13.1 12.8 13.6 13.9 14.3 14 13 10.8 8 7 9.8 11.2 11.9 12.5 12 11.4 10.7 10.6 10.7 10.1 9.5 8.2 7.6 7.1 6.5 5.6 3.2 2.8 2.5 -2 -2 -2 2.5 2.4 2.4 2.8 2.6 1.7 -2 -2 2.4 2.5 2.6 2.7 6.8 7.5 8.3
42.5 41.7 40.5 40.9 41.6 42.2 43.7 45 46 47.3 48.8 49.9 51.6 53.6 54.9 56.4 57.9 58 56.5 54.1 52 52.4 53 52 50.9 49.8 48 47.7 48.6 50.9 53.3 54.7 55.1 55.8 57.4 57.2 55.2 52.4 49.5 45.8 41.6 37.3 32.7 30.2 28.7 27.5 26.3 25.1 24.8 24.6 24.4 24.2 23.5 22.6 21.7 23.6 24.6 25.5 26.7 27.9 28.4 29.6 30.8 32 33.8 32 33.6 38.5 42.2 43.4 41.9 39.8 38.6 38.2 38.6 38.1 37.1 35.7 33.5 30.6 28.7 28.3 28.2 27.3 26.3 26.1 26.3 25 25.5 25.6 26.1 26.6 27.1 26 24.9 23.9 24.7 25.8 25.3 25 24.4 23.3 22.2 21.6 20.1 19 20.2 22.8 22.5 22.2 22.1 22.3 20.9 19.5 17.9 14.1 12.4 17.3 17.1 15.6 12.1 9.3 8.7 9.7 12.4 13.3 13.8 13 12.7 14.1 15.5 17.5 19.6 21.2 21.1 20 18.9 17.7 16.6 15.8 15.1 14.4 13.8 13.3 14.5 15.3 15.8 15.7 15.6 14.6 13.2 13 14.3 14.6 15.4 15.8 16.3 16 14.5 12.3 9.4 6.4 8.8 10.8 12.1 11.8 11.6 11.1 10.5 10 10.2 10.3 9.8 9.4 8.3 7.8 7.5 7.5 7.6 5.9 2.7 2.6 2.7 -2 -2 3.2 3.1 2.1 2.7 2 -2 -2 3.7 3.3 2.4 2.3 2.4 7.1 8.9 10.2
40.4 39.7 41.1 41.6 42.1 42.4 42.9 44.4 45 47 47.8 48.5 51.1 53.1 54.1 54.9 56.1 56.8 58.5 57.8 55.7 54.1 51.9 50.6 49.9 49.2 48.7 48.1 49.6 51.3 53.6 55.3 56.2 55.8 56.7 56 53.5 50.3 47.3 44.3 40.1 35.4 31.4 29.3 27.9 26.7 25.5 24.9 24.9 24.7 24.6 24.2 23.4 22.1 21.9 24.5 25 25.7 26.9 27.5 28 29.1 30.3 31.9 33.7 33 34.7 39 41.8 42.3 40.7 38.9 37.3 37.8 36.8 36 35.3 33.9 31.8 29.6 28.1 27.3 26.9 26.6 26.7 27.6 27.6 26.5 25 24.7 25.2 25.7 25.8 24.8 23.7 22.9 24 25 24.7 24.4 24 22.9 21.8 20 17.6 15 17.2 20.9 22 21.5 21.6 21.7 20.3 19 17.6 15.3 10.2 13.5 14.6 13.3 10.6 9 9.6 12.6 14.3 14.9 14.8 14.1 12.5 14.1 16.4 17.4 19.4 20.8 21 19.9 18.8 19 18.8 18.1 17.1 16 15 14.6 16.1 17.1 16.2 16.3 16.5 15.6 14.1 13.8 15.4 16.7 17.3 17.6 17 16.3 13.8 11.4 9.5 8.4 10.1 11.6 11.4 10.9 10.7 10.3 9.7 9.6 9.8 9.9 9.5 9.2 8.4 7.9 8 8.1 8.1 7.7 6.5 4.7 4.3 3.4 -2 -2 2.7 2 2.5 -2 -2 1.8 3 3.1 2.8 2.3 2.6 8.3 10.7 12.1
40.7 40.6 41.6 42.2 42.7 43.1 43.2 43.2 44.2 45.1 46.6 48.1 49.1 52.5 53.4 54.1 54.9 57 59 58.9 56.6 54.2 51.9 50.7 50.1 49.9 48.4 49.3 51.1 52.9 54.8 55.8 56.3 56.1 54.8 53.4 51.3 48.2 43.9 41.9 37.6 34.3 30.9 28.2 26.8 25.8 25 24.7 24.9 24.7 24.5 23.9 23.3 22.6 22.4 24.7 25.4 25.9 27.1 27.2 27.5 28.7 30.4 32.3 34 33.3 34.4 38.1 40.1 39.5 38.3 36.6 37.7 34.9 34.2 33.8 33.2 31.9 30.6 28.9 27.8 27.8 27.7 27.4 28.2 28.9 28.6 27.1 24.7 24 24.4 24.6 24.7 23.6 22.7 22.5 23 24 23.7 23.4 23 22.2 21.4 20.8 20.1 17.8 15.6 20.2 21.7 21 20.4 19.9 19.4 18.2 16.9 14.9 13.2 11.5 10.4 9.8 9.2 11 13 14.5 15.9 15.8 15.5 14.2 12.6 14 15.6 17.2 18.8 20.4 20.5 19.5 18.6 19.6 20.2 19.7 18.6 17.4 16.7 17.1 17.5 18.2 18.8 17.3 17.8 16.9 16.7 16.2 16.8 17.8 18.4 18.9 17.4 15.3 12.1 9.8 8.3 10.2 11.4 12.1 11.3 10.5 9.8 9.5 9.1 9.2 9.4 9.5 9.3 9 8.6 8.5 8.5 8.1 7.9 7.6 7.4 6.9 5.6 4.1 2.7 -2 -2 -2 2.2 -2 2.2 2.1 2.3 2.5 2.6 2.3 5.2 10.3 11.8 14.1
39.9 41.5 42.9 44.5 44.6 44.7 44.9 44.9 43.7 45.1 46.4 47.7 48.4 50.4 52.4 53 53.7 56.2 57.6 58.5 56.3 53.9 52.2 51.5 51.6 51.6 51.4 50.9 52.6 54.2 55.1 55.5 55.2 53.9 51.6 48.7 46.2 43.5 39.3 37.1 34.2 32.3 30.1 27.2 26.1 25.2 24.4 24.5 24.9 24.8 24.2 23.7 23 22.5 23.2 24.3 25.4 26.3 26.8 26.8 27 28.5 30 31.4 34 34.5 34.9 37 37.1 37.1 36.1 35.3 37.9 32.9 31.7 31.5 31.2 31.2 29.9 28.9 29 28.8 28.5 28.7 29.5 30.3 29.7 27.8 25.1 24 24 24.2 24.4 23.8 23.2 22.8 23.2 23.4 23 22.6 22.2 21.8 21.3 20.7 20.1 18.3 14.1 19.3 21.2 20.5 19.2 18.8 17.8 16.9 16.1 14.8 14.9 12.9 10.8 9.4 9.6 13.1 14.8 15.9 16.6 16.5 15.5 14.2 13.4 14.2 16.1 16.8 18.4 19.7 19.7 19.1 18.5 19.5 20.4 20.3 20.1 19.2 18.8 18.8 19.4 20.1 20.2 19.7 19.3 18.1 18.3 18.5 18.6 19.2 19 18.8 17.3 13.9 10.7 8.1 10.2 12.7 13 13 11.2 10.8 9.4 8.6 8.7 8.8 9 9.1 9 8.8 8.4 8 7.6 7.2 7 6.8 6.9 6.7 6.1 4.8 3.3 3.1 2.9 -2 -2 -2 2.1 2.3 1.8 2 2.8 6.5 8.4 9.8 12.3 15.1
40.2 41.4 42.7 44.5 45.5 46.2 46.5 46.1 45.3 44.1 46.1 46.9 47.9 49.6 49.9 51.3 53 55.3 56.1 57.5 56 53.7 52.5 52.4 52.1 52.6 51.6 52.8 54 56.5 55 53.2 52.7 52.1 46.6 43.3 41 39 35.9 33.2 31.1 29.2 27.3 25.3 24.4 24.1 24 24.4 24.7 24.5 23.8 23.2 22.5 22.1 22.4 23.5 24.5 25.6 25.4 25.6 26.7 27.8 29.1 30.9 34.1 34.8 34.3 34.3 34.4 34.6 34.7 38.6 32.9 32.3 32.5 33.7 32.3 33.3 32.2 31.1 30.4 30.2 31.4 31 31.3 31.5 30.8 28.8 26.6 25.8 26.2 27.1 26.7 26.1 24.5 23.9 24.1 23.5 22.8 22.4 22 21.7 21.2 20.6 19.9 18.5 13.7 17.1 19.8 19.4 18.2 17.8 17.3 16.4 15.5 15.1 14.8 13.4 10.7 9.3 10.7 14.1 15.2 16.4 17.2 16.2 15.2 14.7 14.5 14.3 15.3 16.4 17.9 18.8 18.9 18.8 18.5 19.3 19.8 19.3 18.9 19.4 20.6 20.5 21 21.2 20.9 20.4 20.5 19.9 20.1 20.3 20.3 19.9 19.1 17.6 15.6 12.5 8.9 11.1 14.4 15.2 14.6 13.9 10.9 9.6 8.6 8.4 8 7.9 8.2 8.4 8.7 7.9 7.1 7.1 6.7 6.3 6.2 6.5 6.4 6.1 5.9 5.4 3.9 3.7 3.4 3.8 -2 -2 2.8 3.1 2.4 3.3 5.5 7.9 10 11.4 12.9 15.1
40 41.2 42.6 44.2 44.8 45.1 47.3 47.2 46.6 46.4 45 45.8 46.7 47.6 48.7 50.2 52.2 54.2 55.6 56.5 55.6 54 52.9 53.3 53 54.3 53.3 53.9 54.9 56.9 52.6 48.4 47.6 47.8 42.2 37.4 35.7 33.5 31.8 29.9 29.1 27.2 25.4 25.8 25.3 25 24 24.1 24.4 23.4 23.1 22.7 22.4 22.4 22.7 23 23.6 24.2 25.3 26 26.7 27.6 28.9 31.5 34.7 35.5 35.2 35 34.9 35 39.1 38.3 34 33.3 34.2 35.7 34.2 34.9 35.1 34.1 34 33.5 34.6 34.4 33.7 32.5 31.5 30.8 28.9 27.9 29.2 29.8 28.9 27.4 25.6 24.8 24.2 23.5 21.8 22.3 21.9 21.5 21.1 20.4 19 15.8 12.4 15.8 18 17.7 17.2 16.7 16.3 15.8 15.5 15.1 14.7 12.5 9.7 9.8 14.1 15.3 15.9 16.9 18 17.1 16.3 16.7 15.9 15.1 15.3 16.1 17.5 18 18 18 18.2 17.9 17.5 17.5 17.4 17.8 19 19.9 21.2 21.1 21.1 20.9 20.9 20.9 20.9 20.8 20.2 19.1 18 15.5 12.5 10.3 10.7 13.7 16.6 17.8 17 15.9 13.3 10.2 8.8 8.4 8.1 7.7 7.3 7.6 8 7.1 5.9 5.7 5.7 5.6 5.9 6.1 5.9 5.6 5.3 5.1 4.5 4 3.1 2.7 -2 -2 3.3 4.6 4 4.1 4.2 6.2 8.2 9.6 10.9 12.3
39.6 40.9 42.4 44 45.1 46.5 47.4 47.6 47 47.4 47.1 46.9 48.4 48 48.5 50 52.1 54.2 55.9 56.5 55.9 55 55.5 55.7 55.1 56.4 55 54.9 54 53.1 49.1 44.5 42.7 42.4 37.4 32.4 30.9 29.8 28.3 27.5 26.6 26.2 26.8 26.7 26.2 25.6 24.4 23.7 23.9 22.6 22.4 23.3 22.9 22.8 23.1 23.7 24.1 25.2 25.9 26.6 27.3 28.2 31.2 33.9 35.3 35.3 35.6 35.9 35.8 35.3 39.7 36.1 35.4 35 36.5 37.5 36.8 37.9 38.1 38.1 39.1 39.1 38.4 36.7 34 31.3 29.1 28.5 28 28.1 29.3 29.4 28.8 27.2 25.5 24.7 24.3 23.3 22 20.8 20.2 19.6 18.6 18.4 16.9 14.2 11.8 12.8 14.2 14.8 13.9 13.4 12.7 12.9 13.7 15.3 14 11 9.8 12.1 15.9 16.5 17.1 17.8 18.5 18.2 18.4 17.7 16.7 15.8 15.9 16.4 17.8 18 18 17.6 16.8 16.3 15.9 15.4 15.3 15.4 16 16.9 18.4 19.2 19.6 20 20.4 20 21.2 21.2 20.1 18.1 15.9 12.7 10.8 10.2 12.9 16 18.7 19 18.6 17.2 14.4 11.6 9 8.1 7.7 7.5 7.4 7.3 7.3 6.5 5.4 5 4.9 5.3 5.6 5.6 5.3 5.1 4.8 4.6 4.4 3.8 3 -2 -2 2.2 4.6 6.9 6.9 7 6.8 6.6 6.2 7.7 8.7 9.7
40.4 41.1 41.8 43.2 44.3 45.7 48.1 47.8 48.8 48.4 48.5 48 48.3 48.8 49.4 50.4 52.4 54.7 56.5 56.7 56.7 55.9 55.7 55.7 56.8 56.1 55.3 52.7 50.1 46.3 43.3 38 36.4 36.2 32.7 29.5 28.6 28.3 27.7 27.3 27.8 27.1 28.1 27.6 27.1 25.9 24.7 23.5 23.2 23 23.6 24.4 24 24.1 24.5 25.2 25.7 26.7 27 27.2 28.1 29.5 31.6 36 36.8 36.3 36.3 36.2 35 35.9 38 37.7 36.8 37.4 39 39.9 40.1 39.7 40.4 41.1 42.2 42.2 39.9 36.2 32 28.7 27.2 26.3 26 26.2 27.4 27.3 27.6 26.2 24 21.7 19.3 19.2 20.2 20.7 19.8 19.1 18.6 18.1 17 14.9 14.2 13.3 11.8 11.4 11.7 11.9 11.6 10.5 11.2 12.2 11.4 9.4 10.5 15.5 17.1 17.7 18.3 18.9 19.1 19.2 19.3 18.9 17.9 17 17 17.4 17.7 18.2 17.5 16.7 16.1 15.3 14.6 14.5 14.1 14.2 14.8 14.7 15.6 17 17.6 17.8 18.5 20.2 20.9 20.3 17.9 15.7 13.2 11.9 10.8 12 14.8 18 19.8 19.7 19.4 16.9 14 11.7 9 8 7.3 6.9 7 7.2 6.7 5.9 5.3 4.8 4.1 4.8 5.3 5.1 4.8 4.7 4.5 4.3 3.9 3.4 2.8 -2 2.5 2.4 6.2 8 8.4 8.1 8.3 8 7.4 7.1 8 8.4
42 42.7 43.7 44 44.8 46.5 49 50.4 50.7 50.5 50 48.9 49.2 49.8 50.4 51 53.2 55.5 56.9 57.1 57.4 58 57.2 56.8 57.5 55.3 50.6 46.9 43.8 40.3 37.4 33.3 32.5 31.5 28.4 28.1 28.2 28.6 28.8 28.8 28.1 28.1 28.2 28.3 27.4 26.2 25 23.8 23.8 24.3 24.8 25.7 26.6 27 26.9 27.7 26.9 28.9 30 30.5 31.3 32.2 33.7 37.5 38.2 37.7 37.2 37 35 34.6 33.9 36.9 38.5 39.8 40.8 41.8 41.7 41.8 42.4 43 42.2 41.3 39.2 34.8 30.5 27.1 26.7 25.7 25.7 25 24.7 23.6 23 23.8 22.9 22.6 21.9 21.6 22.3 23 21.4 20.3 20 19.2 18.3 17.8 17.4 16.9 16.4 16 14.7 13.9 13.9 13.5 12.6 9.9 10 10.1 12.9 17.5 18.1 18.1 18.2 18.3 18.3 18.5 18.8 19 19.3 18.9 18.5 18.3 18.4 17.8 16.7 15.9 15.2 14.7 14.5 14.6 14.5 14.6 14.2 13.8 13.7 13.9 15.3 16.3 16.6 18.1 18.9 18.9 16.3 13.7 12.1 11 12.1 14.6 17.1 19.3 20.5 20.4 18.7 16.1 12.9 11.6 8.9 8 7.3 6.6 6.1 6.2 6 5.2 5.1 4.8 3.8 4.4 4.8 4.7 4.5 4.3 4.2 4 3.5 3 2.9 -2 3.3 3.6 5.4 8.7 9.6 9.8 10 9.4 8.8 8.3 7.9 7.5
47.5 47.5 47.8 47.8 46.5 49.7 52.1 53.2 52.5 51.9 51.1 50.3 50.8 51.5 52.1 52.6 55.5 57.6 58.1 58.5 58.5 58.1 56.6 53.2 51.8 48.9 44.4 41 38 35 32.5 30.6 29.4 28.4 28.7 28.8 28.7 29.1 29.4 29.3 29 29.2 28.8 28.4 27.5 26.3 25.1 24.7 25.6 25.7 26.9 28.5 29.3 30.4 30.3 30.2 30.2 31.9 33 33.9 34.3 34.1 34.4 38.4 39 38.7 38.4 38.7 37.3 40.3 34.1 40.2 39 40.6 42 41.6 41.8 41.9 43.6 43.5 41.9 40 38 34.1 30.2 28.6 28.2 27.6 28.3 27.2 24.6 23.6 24.5 24.3 24.7 25.3 25.1 24.5 24.8 25.2 24.2 23.5 22.7 22.2 21 20 20.3 19.9 19.4 18 17.1 16.1 16.1 15.5 14.8 13.3 10.1 11.5 16.2 18 18.1 17.5 17.5 17.6 17.7 17.9 18.2 18.5 19.1 19.5 19.1 19 18.4 16.9 15.8 15.1 14.6 14.5 14.5 16 16.4 16.7 16.3 15.5 15.2 14.6 13.6 14.1 14.8 15.7 16 16.3 15.1 12.6 11.6 12.7 14.9 16.8 19.3 21.3 20.9 19.6 17.4 15 12 10.9 8.9 7.9 7.3 6.8 6 5.1 5.4 4.6 4.9 4.6 4.2 4.2 4 3.8 3.8 3.8 3.8 3.6 3.7 3.6 -2 -2 2.5 2.5 4.7 9.9 10.9 11.6 11.3 10.9 10.5 9.9 9.5 9.1
52.9 53.3 53.9 53.9 54.1 54.9 55.3 56.3 55.7 55.2 54.8 53.7 54.1 54.9 55.5 56.3 58.2 59.1 59.5 60.1 58.4 55.2 51.1 48.5 46.3 42.8 38.9 35.8 33.5 32.6 30.7 29 28.8 29.6 29.7 29.3 29.2 29.6 30 30 29.6 29.2 28.9 28.5 27.5 26.4 25.2 26.1 28.2 27.8 30.7 31.1 32 32.4 31.6 32.3 33.4 34 34.3 35.2 36.3 36.4 37.2 38.5 40.4 40 40 41.4 38.4 37.8 42.2 41.5 40.9 41.3 42.3 43.1 43.1 42.4 43.1 41.6 40.3 38.3 36.3 33.2 30.5 31 31.6 31.2 30.9 29.1 27.3 26.1 26 26 26.3 26.9 27.5 27.5 27.6 27 26.5 26.3 25.4 24.5 23.3 22.1 22.4 22.2 20.6 19 18.1 17.3 16.3 14.1 13.2 11.8 11.3 14.9 16.6 17.9 18.1 17.5 16.9 16.8 17.1 17.4 17.8 18.2 18.8 19.4 19.7 18.4 16.9 15.6 14.9 14.7 14.5 14.7 15.5 17.7 18.3 18.6 18.5 17.1 16.2 14.8 13.8 13.6 13.7 14.1 14.1 14 13.9 12.2 12.3 15.1 17.7 19.6 20.8 21.3 20.2 17.7 15.2 13.3 11.2 10.1 8.8 7.9 7.4 6.9 6.4 5.4 4.4 4.3 4.6 3.7 3.1 3.3 3 3 2.8 2.8 3.1 3.3 2.8 -2 -2 -2 2.1 2 4.4 9.5 11.5 12.9 13.1 12.7 12.2 11.6 11.1 10.7
56.3 57.1 57.8 58.5 58.8 58.5 58.2 58.8 59.1 58.5 59 58.4 58.7 58.4 59.2 59.9 60.6 60.7 60.3 58.3 53.7 49.6 45.7 42.4 41.3 38.1 34.4 32.7 31.7 31 29.4 29 29.8 30.8 30.2 29.7 29.6 30.1 30.4 30.1 29.7 29.3 28.9 28.5 27.6 26.5 25.7 27.9 29.5 28.8 30.3 31.7 32.3 31 31.6 32.8 33.3 33.8 34.4 35.3 36.3 38.8 39.1 41 41.5 41.4 41.5 43.6 39.5 42.4 43.2 43.2 43.2 43.8 45.2 45.7 43.9 41.7 40.4 39 37.8 36.8 34.9 33.7 32 33.1 33.8 34.7 34.1 31.9 29.9 28.8 27.9 27.6 28 28.6 28.9 28.6 29.2 28.7 27.8 27.3 27 26.3 25.1 24.1 23.2 21.7 19.1 16.6 15.1 13.6 11.9 10.8 10.6 10.7 13.5 17.3 18.7 18.9 18.6 17.5 16.9 16.5 16.7 17 17.3 17.9 18.5 18.7 18.1 17.3 16 14.8 14.9 14.7 15.5 16.5 17.4 18.4 19.9 20.2 19.5 18.1 16.9 15.5 14.1 13 12.8 12.8 12.9 12.9 12.1 11.6 13.9 17.2 20 21.1 21 20.7 18.3 15.5 13.1 11.9 10.7 9.5 8.7 7.9 7.4 6.8 6.3 5 4 3.5 2.9 3.3 4 5 4.3 3 2.2 2.5 2.7 -2 -2 -2 3.3 2.8 1.9 2.6 6.2 10.2 12.7 13.8 14.6 15.8 15.6 15 14.3 13.1
53.2 54.2 56.2 56.3 57.4 58.1 59 60.5 60.7 61.4 61.8 62.2 62.8 62.9 62.5 62.2 60.9 58.4 56.7 52.2 47.5 44 40.6 38.1 34.4 32.9 31.7 30.6 30.8 29.6 30.1 30.2 31 31.4 30.8 30.1 29.9 30.3 30.7 30.3 29.9 29.4 29 28.6 27.7 26.5 25.8 26.1 27.9 27.8 29.5 30 30.1 31 32 32.4 32.5 33.1 33.8 34.7 36.1 39.4 40.8 40.9 41 40.5 40.9 43 39.3 44.3 43.8 43.1 43.8 41.9 41.7 40.6 39.3 37.2 37 36.6 36.3 35.3 34.5 34.5 33.7 34.9 36.1 37.2 36.5 34.7 33 31.6 30.7 29.9 29.4 28 28.1 27.8 26.8 25.4 23.8 23.8 25 23.6 22.1 21 20 17.6 14.6 11.3 12.3 11.3 11.2 11.8 12.5 14.4 17.1 18.6 20.3 20.2 19.1 17.5 16.9 16.6 16.3 16.5 16.9 17.4 17.1 17.1 16.8 16.2 15.3 14.8 15.2 15.4 16.1 17.3 18.5 19.6 21.1 20.9 19.9 18.7 18 16.6 15.2 13.9 12.4 11.8 11.7 11.6 11.6 11.9 14.2 17.3 19.7 20 19.7 19.7 17.3 14.6 12.8 11.5 10.3 9.5 9.1 8.1 7.2 6.7 6.2 5.5 4.1 4.3 4.3 4.4 4.5 4.7 4.6 5 4.1 2.5 -2 -2 2.3 2.2 2.1 2.1 1.8 3.2 9.3 11.7 14.2 16.5 16.7 19.3 20.1 19.4 18.5 16.5
45.7 47.4 48.7 50.3 51.2 51.3 53.6 55.4 57.2 58.8 60.5 61.5 62.1 62.2 61.4 59.2 55.9 52.7 49.6 44.9 42.7 39.4 35.9 33.6 32.3 31.1 30.8 30.6 29.9 30.3 30.8 31 31 31.1 30.8 30.1 29.5 30.1 30.9 30.6 30.1 29.6 29.2 28.7 27.7 26.6 25.7 25.9 26.1 26.7 27.4 28 28.6 29.6 31.5 31.6 31.7 32.3 33.1 34 35.3 38.2 39.4 39.4 38.6 38.1 38.7 40.3 38.2 44.3 44.3 43.7 41.8 39.6 37.6 35.6 34.3 33.7 34.1 36 37.3 36.3 36.1 35.4 34.9 35.9 37.1 37.8 36.7 35.2 34.9 34.3 33.3 30.8 27.8 26.6 26.2 26 24.6 23.3 22.3 21.4 21.9 20.1 17.4 15.8 15.3 12.7 11.9 11.8 13.3 13.6 14 14.8 15.9 17.6 19.2 20.8 21.6 21.5 19.6 17.5 17 16.7 16.4 16.2 16.3 16.6 16.9 17.2 16.7 16.8 15.1 15 15.5 15.9 17 18.6 20.1 21.7 22.4 21.8 20.6 19.2 18.7 17.5 16 14.4 12.9 12.3 12.1 11.9 11.9 12.2 13.7 16 18 18.6 18.3 18.5 16.4 13.7 12.5 11.2 10.3 9.9 9.4 8.4 7.4 6.5 6 5.6 5.8 6.1 6.3 6.2 6 6.6 4.8 4 5.2 -2 -2 2.2 2.4 2.2 2 1.8 1.9 4.7 9.4 13.9 18.1 21.4 22.5 25.8 27.3 26.2 24.2 22.5
41.1 41.9 42.4 42.5 43.5 45 46 47.6 49 51 52.7 53.9 54.4 54.4 53.2 51.7 49.1 48.2 43.4 40.4 37.6 35.1 33 32.1 32.4 31.3 32 31.7 30.5 30.6 31.1 31.2 30.7 30.8 30.5 30.1 29.4 29.5 30.3 30.2 29.6 29 28.3 27.6 26.6 25.9 26.8 27 26.8 26.3 27 27.6 28.4 29.4 29.7 30.8 30.9 31.6 32.4 33.3 34.1 35.9 35.9 36.2 36.6 36.5 37.2 38.6 37.1 44.1 44 42.3 39.5 36 33.1 31.4 31.5 32.2 33.8 35.5 37.5 37.6 37.5 37.5 37.5 36.9 37.3 37.7 36.8 35.8 34.6 32.3 30.4 28.4 26.6 25.7 25.1 24.5 24.3 23.2 22.2 21.3 19.8 19.5 16.5 14.3 12.7 11.9 13.5 15.7 15.8 15.9 16.6 17.2 19 21.2 21.8 22.5 23.1 22.2 20.2 18 17.1 16.8 16.5 16.4 16.1 15.8 15.7 16.9 18.2 17.2 15.2 15.3 15.7 16.9 19.2 20.7 22.3 23.2 23.3 22.5 21.5 20.6 20.4 19.1 17.1 15.4 14 13.3 12.9 12.6 12.3 12.5 13 14.6 16.3 17.1 17.6 17.3 15.4 15.6 13.7 12.2 11.4 11.1 10.8 9.7 8.4 7.2 7.4 8 9.4 10.1 9.8 8.8 8.7 6.5 4.2 4 -2 -2 2.3 1.9 2.4 2.2 2 2.1 2.4 5.4 12.2 16.7 21 24.5 26.7 27.7 27.1 26.9 25.7 25.3
37.1 37.6 38.1 38.7 39.8 40.7 41.1 41.5 42.7 43.9 44.9 45.7 47.1 47.6 45.6 45.7 43.3 41.4 39.4 37.4 35.3 33.1 32.8 32.4 32.6 32.3 33.1 32.5 31.2 30.9 31.6 31.9 30.9 30.5 30.2 30 29.4 28.8 29.2 29.6 28.8 27.9 27.2 26.5 25.9 26.8 27.7 27.8 27.2 26.6 26.7 27.3 28.2 29.1 29.4 29.6 30.1 30.8 31.6 32.2 32.6 33.4 33.9 34.2 34.5 34.8 35.4 39.1 36.7 41.3 40.6 37.9 33.8 31 29.8 30.1 31.3 32.1 33.7 36.6 39.1 39.7 39.7 39.1 38.1 37.2 37.4 37.6 36.9 34.5 32.1 29.8 28.2 27.4 26.6 25.9 25.2 24.4 23.7 22.8 21.8 20.7 18.8 18.1 16.7 14.1 12.4 13.8 15.3 16.1 17 17.6 18.5 20 22 23.5 24 24.1 22.2 20.5 19 17.6 17.1 16.7 16.7 16.7 16.4 16.1 15.9 16.3 17.6 16.5 15.2 15.5 16.5 18.7 21.1 22.9 24 24.1 24.2 23.3 22.5 22.5 22.3 21 19.4 17.7 15.9 15.2 14.3 14 14 14.1 14.5 15 16 18.4 18.5 17.5 17.5 17.5 15.7 14.1 13.8 14.3 14.6 13.5 12.4 11.7 12.8 13.3 14.3 14.1 12.8 9.8 7.4 5.8 3.6 3.2 -2 -2 1.9 1.6 2.1 2.3 2.4 4.5 4.7 9.6 12.3 16 19.1 21 21.3 22 21.5 21.3 21.9 20.6
34.7 35.3 36 36.6 36.4 37.8 38 38.1 38.9 39.8 40.4 40.4 40.7 40.8 40.9 40.6 39.6 38 36.6 35.1 34.3 33.2 33.2 33 32.5 33.4 34.1 33.2 31.9 31.6 32.3 32.4 31.5 30.6 30.3 30 29.7 29.4 28.5 28.7 28.5 27.6 26.7 26.1 27 27.9 28.9 28.2 27.6 27 26.9 27.2 27.4 27.6 28.8 29.1 29.6 30 30.8 31.5 31.8 32 32.4 32.8 33.2 33.5 33.7 37.7 34.7 37.5 36.6 34.1 31 29.3 28.3 29.6 31 32.4 33.8 37.6 40 40.5 40.1 39.5 38.5 37.5 37.7 36.2 34.2 31.9 29.7 27.9 27 26.3 25.5 24.7 24.3 24 23.2 22.3 21.4 19.9 18 16.2 15.1 12.9 12.5 14.6 16.1 17 17.9 19 20.7 22.6 24.2 24.9 25.4 23.3 21.4 19.7 18.4 18 17.4 17 16.9 16.9 16.7 16.4 16.5 16.3 16.4 15.6 15.6 16.2 18 20.4 22.9 24.8 24.9 25 25 24.2 24.4 24.3 24 23.4 22.7 20.9 19.1 17.9 17 17.6 19.1 18.9 18.5 18.7 19.6 19.9 19.1 18.3 19.2 19 19.1 17.8 17.3 18.1 18.8 18 17.1 16.6 16.5 16 15.9 14.7 11.5 9.7 7.6 5.5 2.9 -2 -2 2 2.8 3.9 8 10.3 11.3 11.1 9.9 9.8 11.3 13 14.2 15.8 16.7 17.2 17.4 16.6 18.1 17
32.1 33.2 33.6 34 34.9 36 36 35.8 36.2 36.6 37.2 37.7 38.1 38.7 39.2 39 38.6 37.4 36.1 35.5 35 34.3 34 34 33.1 34.1 35.1 34 32.6 32.6 33 32.8 32 31.1 30.8 30.5 30.2 29.9 29.4 28.2 28.2 27.3 26.7 27.3 28 29.1 29.3 28.6 28 27.4 27.2 27.5 27.2 26.2 27.6 28.6 29.6 29.9 30.1 30.7 30.9 30.8 31.2 31.8 32.2 32.1 31.8 35.7 32.8 34 32.5 30.6 29.3 27.8 27.5 28.2 29.6 31.4 34.2 37.7 40 39.7 39.6 39.4 38.1 37.5 36.3 34.4 31.3 29.8 27.9 26.6 25.6 25.1 24.4 23.6 22.7 22.5 22.4 21.9 21 19.1 17.2 15.3 13.5 12.5 12.8 15.7 17.2 18.1 19.2 20.9 23.4 24.7 25.3 25.8 25.6 22.6 21 19.8 18.5 18.4 18.1 17.6 17.2 17.2 17 17 17.1 16.3 16.6 16.9 16.1 17.4 19.9 22.3 24.8 25.3 25.6 25.9 25.8 25.8 25.4 25.8 25.3 24.5 24 23.1 22.4 21 21.5 22.4 22.7 22.1 21.9 21.8 21.3 20.8 20 19.2 19.7 19.7 19.9 20.1 19.9 19.6 19.3 19 18.5 18.1 17.7 17.2 17.6 15.6 13.9 10.1 7.7 5.5 -2 -2 1.6 2.6 5 7.5 10 11 11.6 11.5 10.8 10.3 10.9 11.5 12.5 13.4 14.4 15.2 15.7 15.5 16.3 15.6
32.8 33.6 33.1 33.4 33.8 34.2 34.9 35.7 36.3 36.7 37 37.3 37.4 38.3 39.3 38.6 38.2 37.7 37.1 36.4 35.8 35.4 35.3 35.1 34.9 34.7 34.8 34.3 33.4 33.6 33.7 33.2 32.4 31.6 31.3 31 30.5 29.6 28.7 28.2 27.7 27.3 27.9 28.4 29 30.2 29.6 29.1 28.6 28.2 28.1 28.3 28 28 28.9 29.4 29.7 30.3 29.9 29.8 29.7 29.7 29.8 30.5 31 30.6 30.2 32.9 29.7 30.3 29.7 29.1 28.3 27.6 26.6 26.8 28.9 31.1 33.6 36.7 39.5 38.4 37.4 36.7 36.4 36.8 36 33.8 30 27.9 26.5 25.3 24.2 23.7 23.2 22.5 21.6 20.8 21.7 21.2 20.2 18.3 16.3 14.4 12.8 12.8 14.3 16.9 18.4 19.5 20.7 22.8 24.7 26.4 25.9 26.4 26.3 24.2 22.5 20.6 18.7 18.5 18.4 18.2 17.9 17.5 17.5 17.6 17.6 17.9 18.1 17.8 17.1 18.7 21.4 24.3 25.6 25.7 25.8 26.1 25.6 25.3 25.2 27 26.5 25.7 24.9 24.1 23.2 22.9 23 23.3 23.2 23 22.6 22.1 21.5 21 20.4 19.9 19.8 20.5 20.2 19.8 19.5 19.2 18.9 18.6 18.3 18.1 18.2 18.3 17.6 15.9 13 10 6.9 -2 -2 1.7 1.8 3.5 6.2 8.8 10.5 12.1 13.7 13.9 12.6 11.8 12 12.1 11.8 12.3 13.3 14.1 14.3 15.6 15.5 14.3
32.8 34 33.8 33.6 34 34.6 35 35.8 36.3 36.8 37.2 37.8 38.4 39 40 39.5 39.2 39.3 38.8 38.2 37.9 37.6 37.2 36.9 37 37.1 36.3 35.5 35 34.7 34.8 34.2 33.4 32.6 31.8 31.2 30.7 29.9 29.2 28.6 28.5 28.5 28.6 29.2 30.9 31.8 30.9 30 29.4 28.5 28.8 29 28.6 28.4 28.6 29.8 29.9 30.4 30.1 29.8 29.8 29.7 29.6 29.4 29.8 29.6 29.4 29.8 28.2 28.7 28.9 28.8 28.7 28.2 26.9 25.4 28.2 29.9 32.3 36.1 37.8 37.4 36.4 35.2 35 35.4 35.7 33.4 30 27.9 25.9 24.5 23.4 22.7 22.4 21.7 20.9 20.3 21.2 20 18.3 16.5 14.6 13 13 13.2 15.7 16.6 19.4 21 22.2 24 24.9 25.7 25.9 25.4 25.5 25.4 22.7 20.9 19.8 20.1 20 19.8 19.5 19.2 18.8 19.1 20 19.3 19.5 18.3 18.3 18.7 21.3 24.5 25.1 25 26 26 25 24.2 24.1 27.3 27.8 26.9 25.5 24.2 22.6 22.7 23.5 23.6 23.3 23.2 22.8 22.3 21.8 21.2 20.1 17.3 18.5 19.4 19 18.2 17.4 17.2 17 16.7 16.4 16 15.7 15.8 15 13.5 10.7 7.7 5 -2 2 1.9 2 4.1 6.6 9.8 11.6 12.8 15 15.9 15.6 15.1 15 13.3 12.6 12.3 12.8 13.3 13.9 14 14.3 14.5
32.7 33.4 34.1 33.9 34.5 35.1 35.4 35.8 36.5 37.2 38.5 38.9 39.5 40.6 40.9 41.3 41.4 41.3 40.8 40.4 40.3 40 39.7 39.4 39.5 39.4 38.7 37.7 37.2 36.9 36.4 36.3 34.7 33.7 33 32.1 31.8 31.7 31 29.7 29.9 30.5 32 32.1 34.1 34.8 33.9 32.9 30.8 30.1 29.5 29.7 29.4 29 28.3 29.4 30.1 30.3 30.3 30 30.1 30.1 29.8 29.2 29.2 29 28.9 28.7 26.9 27.3 27.8 29 28.9 28.5 27 25 27.7 29.8 32.6 35.3 36.5 36.2 34.9 33.3 33.5 33.9 34.4 33.1 30.5 28.6 27 25.5 24.2 23.5 23 22.1 20.7 19.5 20.5 21 16.9 14.7 13.3 14.2 17 14.1 14.2 16.2 19.2 20.8 21.9 22.8 23.7 24.4 24.4 24 24 22.7 22.4 22.2 21.1 21.4 21.7 21.5 21.2 21 20.6 21.8 22.7 21.5 20.9 19.4 18.3 18.4 20.8 22.7 24.5 24.6 24.5 23.6 23.1 22.5 22.4 24.7 26.4 26.1 24.8 23.3 21.7 21.4 22.4 23.5 23.5 23.3 23 22.1 21.2 20.9 20 18.4 16.9 17.1 16.9 16 15 15 14.8 14.5 14.3 13.8 13.3 13.1 12.1 10.6 8.4 5.7 3.3 -2 2.9 1.9 2.1 4.4 6.8 8.8 11.2 13 15.3 17 17.4 17.8 17.8 15.4 14.3 13.1 12.9 13.2 13.2 13.4 13.5 14.2
34 35.2 35 35.2 35.5 36.4 36.9 37.9 38.4 40.2 42.4 42.8 43.2 44.5 44.6 44.9 45 44.9 43.9 43.6 43.8 43.4 43.1 43 42.9 41.9 41.6 40.2 39.6 39.3 39 38.1 36.9 35.9 35.6 35.5 35.6 36 34.7 34.5 35 35.7 37.3 37.6 38.1 38.2 37.8 36.8 35.8 33.9 31.8 31.3 32 29.8 28.6 29.6 30.4 30.3 30.2 30.3 30.4 30.5 30.1 29.5 28.7 28.5 28.3 27.2 25.8 26.1 27.1 28.3 28.8 28.1 26.7 24.8 27.5 30.1 33.1 34.7 35.1 34.2 33.1 31.5 31.9 32.5 32.9 33.6 32.4 30.6 28.5 26.9 25.1 24.7 24.3 23.4 22.1 20.4 18.1 17.2 14.9 13.7 14.4 18 18.1 16.8 13.6 16.2 19.2 19.7 20.8 21.8 22.1 21.9 21.9 22.9 22.3 22.4 22.4 22.4 22.4 22.7 23.1 23.3 23.1 22.9 23.2 24.8 25.1 23.9 22.4 20.3 18.2 17.1 18.4 20.3 22.2 23.4 23.9 22.8 20.9 19.6 18.4 20.4 21.6 22.3 22.9 22.2 20.1 19.4 19.7 22 22.8 22.9 22.3 21 19.4 17.8 16.7 15 13.4 14.3 14.9 13.8 12.8 12.6 12.5 12.4 12.1 11.6 11.1 11 9.5 8 6.3 3.8 2.4 -2 3.5 2 2.1 3.8 5.6 7.9 9.8 11 12.4 14.5 17.2 18.5 18.1 17.5 16.3 14.9 12.9 13.3 13.5 13.5 14.1 15.4
35.6 37.4 37.9 37.3 37.4 38.9 38.9 40 41.7 43.9 46.3 46.8 49.1 51.3 50.7 50.4 50.3 50.5 50.6 49.8 49.6 49.3 49.1 48.5 48.9 48.1 46.9 46.1 45.7 44.7 44.9 44.8 43.9 43.2 43.3 43.2 42.9 42.3 40.7 41.3 41.1 41.9 43.2 43.5 42.9 42.3 41.5 40 38.9 37.3 35.2 33.4 32.3 31 29.9 30.8 30.7 30.4 30.3 30.3 30.6 30.8 30.5 30.1 29.4 28.2 28.4 25.1 25.6 25.9 25.8 26.8 27.5 27.5 25.9 23 25.7 28.4 30.6 32.1 32.8 32.9 31.5 29.7 30.3 31 32.3 33.4 33.1 32.2 30.8 29 26.8 25 25.2 24.5 22.6 19.8 17 15.2 13.8 15.2 17.9 20 19.6 18.5 16 17.1 19.7 19.3 19.7 20.2 19.8 19.9 20.4 22.4 22 21.9 22.1 22.4 23.5 23.9 24.2 23.7 24 24.5 26 26.8 26.2 24.1 22.2 20.2 18.2 16.9 15.9 18.4 19 19.6 20.1 20.1 19.7 18.7 17.4 16.3 17.8 18.4 19 18.6 16.4 16.6 17.6 18.7 19.8 20.7 20 18 15.4 14.3 13.8 12.9 11.3 11.9 12.7 12 11 10.9 10.7 10.7 10.6 10.5 10.4 9.7 8.2 6.1 4.4 2.5 2.3 -2 -2 2.2 2.8 2.2 4.2 6.4 7.8 7.4 8.1 9.7 12.1 14.7 16 16.1 14.6 12.7 12.3 12.9 13.5 14.2 14.8 16.8
39.7 40.6 40.8 41.8 42.1 43.3 44.9 46.7 48.9 51.9 53.4 55.3 58.2 59.6 58.2 58.6 60.2 60.9 61.1 60.6 60 59.4 59.8 58.9 57.9 57.3 56.5 55.6 54.4 53 52.8 53.1 52.5 52 51.3 50.3 49.3 47.1 46.6 46 46 46.7 46.3 45.6 44.7 43.6 42.6 41.4 40.6 39.3 37.8 35.9 32.7 31.1 30.8 31.1 30.7 30.6 30.4 30.4 30.2 30 30.3 30.6 30.2 29.4 28.3 24.3 26.9 26.5 25.2 25.1 25.8 25.9 25.6 24.5 24.3 25.7 27.3 28.6 29.6 30.6 30.8 28.5 28 27.8 28.7 30.9 32 31.8 31 29.7 27.4 25.4 23.8 22.4 17.9 14.6 14.6 16.1 16.6 18.6 20.6 22.3 20.9 19.4 17.2 17.6 19.2 18.9 18.7 19.3 20.2 20.5 21.2 21.9 21.7 21.5 21.8 23.3 24.1 24.1 23.6 23.4 23.4 24.9 26.6 27.1 25.9 24 22 20.1 18.2 16.9 15.3 14.6 15.1 15 14.9 16.1 15.6 15.6 15.5 14.9 14.8 14.4 14.1 12.6 11.2 9.8 11.8 11.6 13 14.7 14.8 13.1 11.5 10.9 10.7 9.7 8.9 9.4 10.1 10.2 9.9 9.5 10.2 10.7 10.4 9.8 9.1 8.5 7.3 4.8 2.6 2.4 2.2 -2 -2 3 3.6 2.8 2.6 3.9 5.2 5 5.6 7.5 8 9.6 11.4 12.5 12.4 11.3 11.9 12.7 13.8 15 16.2 18
45.7 45.4 45.5 47.4 48.2 49.4 52 54.4 55.6 56.5 57.4 59 60.3 61.4 63.1 63 64.7 64.1 64.7 64.9 65 64.9 64.1 63.8 63.7 62.9 61.8 60 59.3 58.9 58.7 56.5 53.7 53.6 53.8 51.8 50.2 50.2 47.8 45.2 45.1 46.6 46.6 45.4 43.7 42.2 42.1 40.7 40.1 38.8 37.6 34.6 33 31.2 30.6 30.8 30.4 29.6 29.4 29.3 29.2 28.8 29.2 29.5 29.4 28.3 26 24.8 27 26.4 25 23.8 24.6 25 24.9 23.7 21.5 24.2 24.6 25.1 26.1 27.7 28.1 26.1 25.9 26.1 27.4 29.2 30.9 30.2 29.3 27.3 25.2 22.7 20.9 18.9 14.9 16.1 17.3 17.9 19.7 21.5 23.2 22.9 22 19.8 18.4 18.6 18.8 19.2 19 19.4 20.3 21.5 23.2 22.5 22.3 22 22.2 23.1 23.9 23.5 22.9 22.6 23.6 25.3 26.3 26.5 25.3 23.6 21.8 19.9 18.2 16.4 14.6 13.7 12.8 12.5 11.1 11.2 11.5 12 12 11.1 11.3 9.6 9.1 8.4 7.7 6 7.1 5.8 6.9 8 9 8.7 8 7.5 7.3 6.7 6.8 7.4 7.9 8.5 7.9 7.9 10 10.6 10.9 10.6 9.3 8.1 6.5 3.9 2.3 2.1 2.1 -2 2 2.7 4 3.8 3.8 4.1 4.8 7.7 8.8 9.3 9.5 9.5 9.7 9.8 10.8 11.7 12.9 14 15.2 16.4 17.6 18.8
49 49.1 48.7 48 47.8 49.3 51.3 53.3 53.9 54.5 55.2 55.9 57 58.4 59.7 61.4 62 62.6 62.2 62.8 62.7 61.9 61.2 60.7 60.4 59.7 58.4 56.7 56.1 55.4 55.6 52.7 52.7 52.5 52 50.2 48.6 47.2 45.7 44.2 43.6 43.8 43.2 41.4 41.2 41.4 39.2 38.9 38.1 36.1 35.4 32.6 31.8 31.4 31 30.6 30.5 29.7 28.4 27.5 27 26.2 27.1 27.1 27 27.3 25.3 25.9 26.2 26.3 25.2 24 23.1 24.3 24.1 24 22.1 20.7 21.1 20.6 20.6 21.2 23.1 23.7 23 22.6 24.4 27.1 28 27.3 26.2 24.5 22.6 19.9 15.8 15.6 17.8 19 19.7 21 22.4 24.1 23.8 23.4 21.9 21.4 19.4 19.8 20.3 20.1 20.1 20.4 20.8 21.1 22 23.6 23.2 22.9 23.3 23.5 24.1 23.3 22.6 22 23 23.8 24.8 24.7 23.7 22.1 20.4 19 17.6 15.8 13.9 13.1 12.3 10.5 10.1 10.8 10.4 10.6 10.7 10.8 10.3 9.8 9.9 10.3 9.7 9.1 8.2 7.5 6.9 7.1 5.4 5.2 5.5 5.2 5.3 4.4 4.9 5.7 6.4 7.1 6.9 6.3 9.2 10.8 11.8 11.8 10.6 8.9 7 3.8 2.2 2.1 2.2 -2 2.4 3.2 4.1 4.9 5 5.2 6.7 9.7 9.9 10.1 11.1 12 12.2 12.3 12.8 13.2 14.2 15.4 16.6 17.8 19 19.5
47.6 48 48.3 48 47.5 48.7 50.4 51.9 52.3 52.6 53.1 54.1 55.4 56.7 57.9 59.4 59.9 60.4 60.4 59.9 59.5 58.5 57.5 56.9 56.2 56.1 54.8 53.6 52.9 52.2 51.5 51.1 50.5 50 49.3 47.5 46.1 44.7 43.7 43.9 40 36.4 36.7 36.5 36.7 36.7 36.4 36.4 35.4 34.3 34.5 34.1 34.2 34.1 33.1 32.2 30.6 28.9 27.4 26.4 26.5 26.2 25.5 23.8 24.8 26.1 26 25 25.6 25.7 25.3 23.7 22.2 23 22 22 21.6 19.1 20.1 19.4 19.6 18.6 17.7 19.4 18.5 18.7 19.7 22.1 22.9 22.4 21.4 20.3 19.3 16.4 16.4 18.5 20.5 21.2 21.9 22.7 24.9 24.6 24.3 23.2 21.2 20.7 20.1 21.1 22.1 22.4 22.7 23 23.3 24.1 25 25.6 25.2 24.8 26.5 24.9 24.7 22.9 21.4 20.9 21.5 22 21.8 21.8 21.2 19.8 18.7 17.6 16 14.5 13.4 13.2 13.1 13 13.2 13.7 13 12.6 12.2 12.3 12.5 11.9 11.6 11.4 10.7 10.3 9.9 9.1 8.7 8.4 7.3 5.9 4.8 5 5.1 4.5 3.8 4.3 5 5.7 4.9 3.6 4.9 8.4 11.2 11.9 10.9 9.1 7.1 4.2 2.3 3 -2 -2 2.4 3.2 4 4.7 5.4 6.3 8 10 12.3 12.9 12.8 13.8 14.3 14.6 15 15.1 15.7 16.8 17.9 19.2 18.4 18
45.4 46.2 47.1 48 47.3 48.4 49.6 50.2 50.7 51.3 52.4 53.9 54.7 56.1 57.6 59 60.3 59.9 59.4 58.4 57.5 56.5 55.3 54.3 53.5 52.7 51.8 50.9 50 49.8 48.9 48.3 47.8 47.3 46.6 45.5 44.7 45.3 45.9 46.7 45.5 44.6 41.9 40.9 43.6 46.3 44 42.5 40.1 36.1 37.3 37.9 37.6 37.3 35.4 33.3 30.1 28.6 27.7 27.7 28.2 28.4 27.6 26.5 25.6 27.4 24.3 23.9 23.5 23.3 23.1 21.9 21.2 20.5 20.7 21 22.6 24.4 23.1 21.9 21.9 21.4 19.8 19 18.3 17.5 16.7 16.9 17.8 17.2 16.5 16.8 15.7 17.6 18.5 20.4 22.4 23.6 24.2 24.8 25.3 25 23.7 22.2 20.5 20.4 21 21.9 23.2 24.6 25.7 26 26.3 27.3 28.2 26.8 26 26 27.1 25.6 23.2 21.1 20 19.4 19.7 19.9 19.1 19 19.4 18.4 17.3 16 14.9 14.8 14.7 15.1 15.8 16 16.3 16.3 15.7 15.3 15 14.3 14.1 13.7 12.8 12.4 11.4 11.2 11.1 10.7 9.9 9 7.6 5.8 6.1 6.7 7.2 6.5 6 4.7 3.5 3.7 4.3 3.5 2.2 5.1 9.5 10.5 9.6 7.2 5.1 3.7 2.1 3.4 -2 -2 2.3 3.3 4.3 5.1 5.7 6.2 7.4 9.8 12.7 13.9 14.6 15 15.7 16.3 16.7 17.1 17.4 18.2 18.6 17.4 16.2 13.5
45.3 46 46.7 46.8 47.3 48.2 49 50.3 50.9 52.2 53.6 54.5 54.8 55.7 56.9 58.6 60.6 61 60.2 58.9 57.7 56.6 55.3 54 52.9 52 51.7 51.6 49.5 48.9 47.7 47.1 46.5 45.9 45.4 45.2 46.6 48.5 49.4 50 48.1 46 43.6 42.3 45.4 48.3 48.5 46.1 43.6 41.5 41.4 41.2 40.5 38.3 35.9 32.7 29.6 28.7 29.2 30.1 30.8 29.8 28.7 28.2 29.4 25.9 25.3 24.9 24.5 24 23.8 23.8 23.3 21.8 22.1 26.2 26.6 26.3 25.8 24.6 24.3 23.4 22.6 21.9 20.6 19 18.4 19.3 19 19.5 16.9 16.9 21.2 20.5 20.6 22.5 24.4 26.1 26.4 25.7 25.2 23.5 22 21.6 20.7 20.8 21.8 22.7 24 25.4 26.8 28.2 29.2 29.9 29.6 28.8 28 26.9 26.2 23.8 21.6 20.2 19 18.4 18 17.9 17.3 18.2 17.1 17.1 16.5 16.6 16.3 16.2 16.1 16.1 17 17.2 17.8 17.1 16.6 16.1 15 13.3 12 11.6 11.1 10.6 10.3 10.5 10.6 10.2 9 7.5 6 5 6.7 7.2 7.5 7.3 6.6 6.2 4.5 5.2 6.1 5.8 3.3 2 5.3 7 5.6 4.2 2.3 2 2.1 3.2 2.2 -2 3.3 4 4.6 5.2 5.8 6.4 7.2 10.2 13.1 15 15.4 15.7 16.3 16.8 17 17.1 17 17.2 17.3 16.8 12.8 7.7
45.4 45.9 46.6 47.3 47.4 47.6 48.4 49.6 50.8 52.4 53.4 53.9 53.9 54.9 56.3 58.3 60.8 62.7 61.4 60.1 58.7 57.3 55.9 54.7 54 54.2 54.5 53.7 51.8 49.8 48.1 47.4 46.7 46.1 45.3 45.4 47.4 49.6 51.5 51.1 48.9 45.9 43.9 42.6 45.3 47.7 49.2 47.8 45.4 44.5 43.7 43.5 41.5 38.5 35.4 32.2 29.1 28.3 31.5 33.8 33 31.4 30.6 29.6 27.4 27 26.4 25.9 25.4 24.3 24 24.5 24.5 23.4 25.8 27.9 28.4 28.2 27.7 27.2 26.3 25.4 23.8 21.7 19.1 20.3 21.4 21.4 22.2 21.7 18.2 17.9 22.6 22.2 22.7 24.6 26.4 28.2 27 25.7 24 23 23 22.4 20.8 21.6 22.6 23.5 24.8 26.2 27.6 29 30.2 31.4 31.3 30.6 29.5 27.1 25.3 23.2 21.2 20.7 19.9 19.1 18.5 18.2 19 21.4 19.6 18.1 18.7 19 18.8 18.5 17.9 16.8 15.7 15.3 14.5 13.6 13.9 13.8 13.6 12 10.5 9.4 8.9 9.1 8.8 9.1 9.3 9.3 8.4 6.9 5.4 5.3 7.2 7.5 7.9 7.4 6.6 5.9 4.5 6 7.2 6.6 4.3 2.8 2.5 2.8 2.3 2.3 3.5 3.5 2.2 2.3 2.5 -2 3 3.7 4.4 5.1 5.8 6.5 7.1 10.1 13.1 15.3 16 16.5 16.6 16.2 15.9 15.8 15.5 15 14.1 13.5 8.4 3.1
45.7 46.3 47.2 47.2 47.2 47.3 47.1 47.1 48.2 49.7 51 51.8 52.3 53.3 55.4 59.1 61.9 64.2 62.7 61.4 60 58.6 57.1 56.3 55.8 56.8 57.3 56.1 52.9 49.9 48.9 48.2 47.5 47 46.1 45.7 47.1 49.3 51.6 50.6 48.3 45.3 43.3 42.9 44.6 47 48.7 49 48.5 47.6 46.2 44.7 41.5 38 34.8 31.7 29.3 30.3 34.5 36.5 34.4 32.3 31.2 29.7 28.8 28 27.2 26.6 25.4 24.5 24.2 24.6 25.3 25 28.3 29.6 30.5 30.2 29.7 29.2 27.7 25.8 23.1 19.2 20.4 22.3 22.6 22.8 23.2 21.7 17.7 20.2 24.2 23.8 24.4 26.8 28.6 29 27.9 26.1 24.2 23.7 23.6 21.9 21.4 22.2 23.3 24.3 25.6 27 28.2 29.4 30.5 31.8 32.3 31.2 29.3 26.5 24.6 22.6 21.6 21.2 20.7 19.9 19.3 19.9 22.4 24.5 22 20 20.9 21.5 19.9 18.8 17.7 16.5 15.3 15 14.9 13.6 12 11.6 11.4 10.7 9.2 8.1 7.9 7.2 7.3 7.8 7.8 7.8 7.8 7 5.5 5.9 7.5 8 8.3 7.8 6.7 5.9 5.6 7.3 7.5 6.4 5.1 3.4 2.6 3.3 3.8 5.4 5.9 3.5 2.4 2.2 2.2 -2 -2 3.4 4.1 4.8 5.1 5.9 7.5 9.9 12.9 14.8 15.7 15.1 14.7 14.1 13.6 13 12.1 11.2 10.4 7.8 4 1.7
45.6 45.4 45.4 46 45.9 46 46.2 47.6 48.1 48.5 48.8 49.5 50.3 52.1 54.5 58.5 62.7 65.6 64.2 62.8 61.5 60.8 60.1 59.8 59 58.9 59 56.2 53.7 51.1 50 49.1 48.5 47.9 47.5 47 47 48.7 50.4 49.6 47.5 44.8 43.3 44.3 45.8 47.3 48.6 49.7 49.1 47.8 47.6 44.8 41.3 37.9 34.4 31.6 30.9 32 34.4 33.5 34.6 34.4 33 30.2 29.2 28.4 27.3 26.4 25.2 24.7 24.5 24.4 25.1 27 29.6 30.9 31.3 31.3 30 28.8 27.1 24.3 20.6 21.3 23 23.7 24.1 24 23.7 21.4 17.7 21.9 25.6 25.3 25.2 28.2 29.9 29 27.5 26 25 24.6 24.2 22.9 21.7 22.9 24 25.1 26.2 27.4 28.5 29.7 30.9 32.3 32.9 31.7 28.9 26.1 24 22.7 22.2 21.8 21.3 20.7 20.5 22 25.6 26.3 24.4 21 21.9 21.4 19.9 18.5 17.4 16.3 16.2 16.5 16.8 15 13.5 11.7 10.5 9.5 9.7 9.6 9.2 8.5 6.4 7.2 6.4 6.4 6.4 6.4 5.5 6.5 7.8 8.4 8.7 8.4 7.2 6.1 7.3 8.3 7.8 7.2 5.9 5.2 5.5 6.8 7.8 7.3 6.7 4.6 2.3 2.2 2.1 2.1 -2 3.4 3.4 3.7 4.1 5.7 7.2 8.9 12.1 14 14.4 13.5 12.1 11.1 10.4 9.5 8.5 7.6 6 3.3 1.9 1.6
42.9 42.8 43.4 44.6 45 46 47.3 48.6 49 49.2 49.4 49.7 51.4 53.7 55.7 59.2 63.4 66.7 66.7 66 64.8 64.3 62.8 61.8 62.4 61.3 58.5 55.6 53.8 52.8 51.2 50.3 49.7 49.5 49 48.4 47.9 48.7 48.1 47.4 46.2 44.5 44.7 44.9 46.6 48.5 49.7 49.8 49.2 47 45.8 43.7 40.3 36.7 33.2 30.8 31.9 33.2 33.5 38.4 38.6 36.5 33.7 30.8 29.5 28.6 27.2 26 25.4 25 24.7 24.5 25.1 27.9 30.4 30.8 31 29.6 28 26.7 23.6 20.2 22 24.1 24.7 25.2 25.3 24.5 23.6 20 19.6 23.5 26.5 26 26.1 27.3 28.5 28.3 26.9 25.6 25.6 25.2 24.4 22.4 21.8 23.8 24.9 25.4 26.4 27.6 28.9 30.1 31.3 31.6 31.9 31.8 29 26.3 24.9 24.2 24.1 23.3 22.2 21.3 21.5 23.9 27.1 25.7 23.5 22 21.4 20.5 19.2 18.3 17.4 17.3 17.6 17.8 18 16.5 15.1 13.4 11.4 10.8 10.5 9.9 8.8 7.6 5.9 7.9 6.8 6 5.9 5.9 6.1 7.4 8.7 9.2 9.3 9.3 8.8 7.4 8.7 8.6 8.1 7.6 7 7.7 8.7 9.4 9.2 8.3 7.5 4.3 2.4 2.3 2.2 2.2 -2 -2 3.1 3.4 3.7 5.4 6.9 8.3 10.5 12.6 14.1 12.3 10.5 9.6 9.3 7.9 6.9 6 3.9 1.9 1.7 1.6
42.4 42.5 43.2 44.9 46.1 46.7 48 49.2 50.4 50.5 50.7 50.7 52.9 55 56.8 59.6 63.8 67.3 68.3 68.4 67.3 65.6 63.8 62.1 63.4 60.9 57.7 56 54.2 53 52.3 51.4 51 51.1 50.6 50 49.4 46.9 45.9 45.8 45.6 45.3 45.4 46.1 47.4 48.6 50.1 50 47.5 46.4 45 42.4 39 35.4 32.5 31.4 33.2 34.5 37.8 39.9 39.8 37.4 34 31.4 29.8 28.8 27.7 26.3 26 26.1 25.8 25 25.8 26.5 29.4 29.6 29.3 28 26.1 21.8 21.6 23 23.6 25.6 25.9 26 25.4 24.7 22.2 19.4 20 24.8 26.4 26.4 27.3 28.1 28.2 28.1 26.7 25.8 25.7 25.6 24.6 22.4 21.8 24.1 25.1 25.6 26.6 27.8 28.4 29.1 29.8 30 30.4 30.7 29.2 26.7 25.8 25.8 25 23.9 22.8 22.1 22.6 25.4 26.9 24.5 22.3 21.2 20.3 19.5 18.7 18.2 18.1 18.7 19 18.9 18.4 17.7 16.6 15 11.8 10.6 10.4 9 7.9 6.8 8.1 8.7 8 7.2 6.8 6.6 7.2 8.4 9.6 9.8 9.8 9.8 9.8 8.8 9.4 8.9 8.4 7.9 7.2 7.3 7.7 8.6 9.2 9.1 7.3 4.6 2.5 2.5 2.4 2.3 2.2 -2 -2 2.5 3.4 4.4 5.8 7.6 10.5 12.8 13.3 11.5 9.6 8.5 8.3 6.6 5.4 3.8 2.8 1.6 1.7 1.5
41.4 42 43.8 45.1 46.4 47.4 48.5 49.6 51.3 52.1 52.3 52.3 54.1 55.7 58 60.1 63.9 66.6 68.6 70.2 68.1 66 64.5 63.1 62.2 60.2 58.9 57.3 56 55.9 54.7 52.7 53.3 52.7 52.1 51.5 49.3 47.9 47.4 47.2 47.1 46.7 46.7 47.6 48.8 49.9 50.4 50.1 47.4 44.9 42.2 40.8 36.1 34 32.9 32.7 32.2 35.2 38.3 40.1 40.4 37.7 34.5 33 30 28.7 27.5 26.8 26.7 26.9 26 26.6 27 27.3 27.8 26.5 25.2 23.9 23 23.3 24.9 25.8 26.4 26.3 25.6 25.6 25 23.4 20.7 18.2 22.5 24.8 26.5 27.8 28.8 29.3 29.3 29.2 28.6 27.8 26.3 25.4 24 22.8 22.2 22.1 24.1 25 25.7 26.2 26.8 27.4 28.1 28.5 28.9 29.4 28.6 27.7 27.6 27.1 25.7 24.5 23.5 23.2 23.4 23 24.2 22.4 21.5 21.2 20.9 20.2 19.7 19.4 19.3 19.2 19.5 19.2 18.6 17.8 17.1 14.4 11.4 10.4 10.1 8.6 8 9.3 9.7 9.7 9.1 8.4 7.8 7.6 8.1 9.3 10.2 10.1 9.8 9.5 9.8 9.9 9.3 8.5 7.8 7 6.2 5.5 6.1 7 6.7 6.7 5.5 3.4 2.7 2.6 2.6 2.5 2.4 2.3 -2 2.9 2.6 3.1 4.5 7.4 10.3 11.6 11.7 10.6 8.8 7.2 7.3 5.6 3.8 3.5 2.9 2.1 1.6 1.6
42.5 43.4 45.1 46.2 47.3 47.6 48.7 50.1 51.7 53.4 53.9 53.8 54.5 55.9 57.7 60.3 63.1 65.5 67.2 69.3 69.4 66.5 64.7 63.3 62 60.9 60.1 59 57.8 57.2 57.7 57.8 55.8 53.5 53.1 52 49.7 49.6 49.2 48.8 48.5 48.2 48.7 49.5 49.9 50.7 51.3 49.7 46.7 45.2 41.2 37.2 33.4 32.4 32.3 31.2 32.4 35.5 38.4 40.2 40 38.5 35.7 31.7 30.4 29.1 27.7 26.7 26.4 27.2 26.5 26.9 26.7 27 26.9 25.4 24 22.6 23.1 24.6 26 27.2 27.1 26.4 25.8 25.2 23.6 21.6 19.4 21 24.6 27.4 27.7 29 30.2 29.8 29.3 29.9 29.5 28.1 26.7 25.2 24.5 23.8 23.1 22.8 22.5 23.8 24.9 25.3 25.8 26.3 26.8 27.4 27.9 28.6 29.4 29.2 29.1 27.8 26.3 25.2 24.4 24.3 24.5 23.9 23.4 23.4 22.5 21.9 21.7 21.4 20.7 19.7 18.7 18.9 19.5 19.5 18.8 18 16.6 13.2 10.9 10.3 9.7 9.5 9.1 10.4 10.9 10.7 10.1 9.4 8.9 9.3 9.7 9.8 10.5 10.8 10.6 10.3 10 9.5 8.5 7.5 6.7 5.9 5.1 4.4 4.1 3.2 2.5 2.7 2.7 3 3.2 2.8 2.8 2.8 2.9 2.7 -2 -2 1.7 2.1 3.9 6.9 9.2 10.1 9.4 8.3 7.3 6.1 6.3 4.1 3.1 2.2 1.8 1.7 1.6 2.1
41.9 44.4 46.1 46.3 46.2 46.5 48.8 50.9 52.4 54 55.5 55.5 55.5 56.1 57.2 59 61.3 64 66.5 70 71.5 68.4 65.7 63.5 62.3 61.3 61.2 61 59.6 58.3 60.8 61.4 58 54.1 52.8 51.6 51.9 51.4 51 50.5 50.1 50.1 51.3 52.4 52.3 52.3 51.9 49.4 46.8 45 41.7 37.5 33.3 32.5 33.7 32.9 32.6 35.6 38.5 40.4 40.5 37.7 34.6 32.1 30.7 29.3 28 27.1 26.5 26 26.4 27.2 26.9 26.6 26.3 25.1 23.9 22.7 23.7 25.1 26.5 27.5 27.2 26.6 26 25.1 23 20.6 19.6 22.6 26.1 29.5 30.5 31 30.8 30.1 30.1 30.6 30.2 28.2 26.9 26.2 25.5 24.8 24.1 23.7 23.3 23 23.8 24.5 25.2 26.1 27 27.8 28.8 28.7 30.2 30.5 29.8 29.1 26.9 25.8 25.7 25.6 25.6 25 25.2 25.7 24.1 22.3 22.1 21.9 20.8 19.5 18.2 18.6 19.2 19.3 18.8 18.4 15 12.6 11.6 10.8 10.2 10.3 10.8 11.4 12 11.7 11.2 10.7 10.5 11.1 11.5 11.1 10.8 11.4 11.3 11.1 10.7 10 8.1 6.7 5.7 4.9 4.1 3.8 4.1 4.3 4.3 4.4 4.8 4.8 6.2 4.1 3.4 3.6 3.4 3.3 3.1 -2 1.9 1.6 2.1 4.3 7.8 8.1 7.3 6.6 5.8 4.9 4.1 3.9 3.1 1.7 1.6 1.6 1.6 2.5
41.8 43.7 44.5 44.2 45.4 46.8 49.4 52.1 53.7 55.4 57.3 58.3 58.1 57.8 59 60.3 61.2 63.6 66.6 71.9 77.3 70.7 67.8 64.8 63.3 62.5 62 62.4 62.6 63.1 63.1 59.7 57.8 55 53.5 52.9 53.7 53.3 52.9 52.6 52.3 53 54.3 55.1 55 54.9 52 49 46.2 43.5 39.5 35.5 34 34.9 36.4 35.5 34.2 37 39.3 40.2 40.2 37 33.9 32.3 31 29.6 28.3 27.6 26.9 26.3 26.8 27.3 27.2 26.3 25.7 25.1 24.3 23.1 24 25.3 26.2 27.1 27.4 26.8 26 24.8 22.6 20.7 22.4 25.3 27.9 33.5 32.8 31.7 31.3 30.8 30.3 31.1 30.3 27.8 27.2 27.1 26.5 25.8 25 24.6 24.2 24.1 24.1 24.7 25.6 26.5 28 29.6 29.7 29.6 30.2 31 30.2 30.3 29.8 27.5 27.1 26.8 26.7 26.1 27.3 27.2 25.6 23.5 22.5 22.1 20.9 19.6 18.6 17.4 16.9 17.5 17.3 15.5 14.3 13.1 12.3 11.5 10.7 10.9 12 12.6 13 13 12.5 12 12.2 12.9 13.2 12.6 12.1 11.7 12.1 11.8 11.2 10.4 8.1 7.3 6.5 5.5 5.5 4.6 4.5 5.4 6.1 6.3 6.5 6.5 5.8 5.1 4.5 3.7 3.4 3.2 3.1 -2 2.1 1.9 2.1 2.8 4 6.9 6.5 5.7 5 4.1 3.8 3.7 3.3 1.7 1.8 1.7 1.7 3.7
41.2 42.5 43 44.4 45.6 47 49.9 52.6 55 57.4 59.2 61.8 60.9 60.9 62 63.6 63.5 64.5 69 74.6 78.6 78 69.6 66.7 65 64.8 64.9 66 66.5 65.5 62.9 61.6 61.5 57.3 56.5 57.1 55.4 55.1 55.1 55 54.7 55.9 57.2 57.8 57.7 55.1 52.2 54.8 43.8 42.2 37.3 35.3 34.9 38.2 40.5 38.6 36.1 38 38.8 39.7 40 36.9 33.9 32.6 31.2 29.8 28.7 28 27.4 26.7 26.7 26.7 26.2 25.6 25 24.5 23.9 23.3 24 24.9 25.8 26.8 27.3 26.9 25.9 24.5 22.2 22.2 25.5 27.6 29.5 33.3 32.8 32.9 31.9 31.4 31.1 30.7 29.9 27.9 27.1 26.8 26.7 26.5 26 25.5 25.4 25.1 24.8 25.2 26 27.6 29.5 31.5 30.1 29.1 30.6 31.4 31.2 31.8 31.8 30.4 29.3 28.7 28.6 28.6 29.5 28.7 27.1 25 23 22.2 21.1 19.9 19 18 16.3 16.4 17.4 16.3 15.3 14 13.4 12.6 11.8 11.8 13.1 13.9 14 14 13.8 13.3 13.8 14.6 14.7 14.1 13.6 13.1 12.7 12.5 11.5 10.5 8.3 6.7 5.9 5.7 5.3 4.1 5.2 6.2 6.7 7 7.2 7.4 6.8 6.1 5.2 4.3 3.3 3.7 3.2 -2 2.5 2.1 2.1 2.6 2.3 4.4 5.3 4.8 4.1 3.8 3.4 3.3 3.2 1.7 1.8 1.9 2.5 5.1
41.3 42.3 43.6 44.5 45.9 47.5 51.5 53.4 54.2 57.1 63.9 66.2 65.1 64.9 66.6 67.4 66.8 66.3 70.7 77.4 86.6 85.3 71.9 68.7 66.8 67.5 68.5 69.4 71 69.3 65 66.9 66.3 64.6 63.2 59.5 57.3 55.9 55.8 56.6 58 58.8 59.4 59.8 58.9 56.2 52.9 51.8 42.9 42.2 36 34.5 37.9 42.6 45 42.3 38.2 38.1 39 39.8 40.2 37 34.2 32.8 31.4 30 29.2 28.5 27.9 27.6 27.4 27.1 26.5 26 25.5 25 24.5 24 24.3 25.1 25.9 26.6 27.2 26.9 25.5 24.2 21.5 23.7 26.6 29.2 31.1 34.1 34 34.4 33 32.1 32.2 31.5 29.2 27.9 27.2 26.5 26.4 26.2 26.2 26.2 26 25.7 25.4 25.8 26.7 28.7 30.7 32.6 30.9 30.7 31.8 32 32.6 33.2 33.4 33 32 30.4 30 30.2 30.4 30 28.3 26.7 23.5 22.5 21.3 20.2 19.3 18.6 18.7 18.6 18.7 17.6 16.2 15 14.6 13.9 12.7 12.6 13.8 14.7 14.9 15 15 14.7 15.5 16 16 15.5 14.9 14.2 13.2 12.7 11.7 10.6 8.8 6.4 5.3 4.8 4.7 5.1 5.1 6.4 6.8 7 7.4 7.6 8.1 7.1 6.3 6.6 4.6 4.1 4.1 3.2 3.7 2.5 -2 2.6 2.1 2.9 3.2 4 3.8 3.5 3.1 3 2.7 1.9 2 2.1 3.3 6
41.8 43.7 45.1 46.7 49.3 52 55.7 55.9 55.7 57 63.4 70 70.5 71.3 73.3 73.7 69.5 68.4 71.8 79.6 89.4 87 77.9 70.6 70.1 70.3 72.1 76.3 84.3 72.9 72.7 70.5 68.6 66.3 62.8 61.3 58.3 57.1 58.7 60.2 61.5 62 61.8 61.6 60 56.5 52.9 50.5 42.5 40.7 36.7 37 42 46.9 48.3 44.6 39.2 37.5 39.1 40.5 41 38.2 35.7 33.6 32 30.4 29.7 29.2 28.6 28.6 28.4 27.7 27.1 26.6 26.1 25.6 25 24.9 24.8 25.6 26.4 26.9 26.9 26 25 23.4 21.5 24.8 27.4 30 32.6 34.1 35 35.6 34.6 33.7 32.6 31.7 30.2 28.9 27.7 26.5 26.2 26.5 26.6 26.5 26.4 26.3 26 26.5 27.7 29.3 31.1 32.5 31.3 32 34.3 33.8 34 34.6 35 34.6 32.7 33.9 34.5 31.3 30.4 29 27.7 25.3 23.5 22.4 21.4 20.5 20.8 21.5 21.3 21.1 20.5 18.5 17 15.9 15.5 15.1 13.5 13.5 14.2 15 15.5 15.7 15.8 15.8 16.1 16.2 16.3 14.9 13.9 13.2 13.2 12.7 12 11 8.7 7.3 6.5 5.8 6.2 6.1 5.9 5.7 6.5 8.2 8.2 9.1 10 8.8 8.2 7.4 5.5 4.8 4.3 5.3 3.7 2.6 -2 -2 2.8 2.4 3.1 3.4 3.1 2.9 2.7 3 3.1 2.8 2.4 2.5 4.6 5.9
42.1 43.6 45 47.3 50.6 54.1 57 58.8 63 61 63.5 68.1 73.5 76.2 77.9 77.7 74.4 70.9 72.2 81 87 83.7 76.6 72.4 72.4 73.6 77 79.7 76.9 72.8 71.9 69.2 66.5 64 62.4 61.2 59.5 59.2 61.3 63.7 64.7 64.9 63.7 62.3 59.1 55.2 55.5 46.1 43.3 39.4 36.9 39.1 45.6 52.1 51.6 47 42.1 38.6 39.1 40.2 41.1 39.6 37.3 35 32.9 31.4 30.4 29.8 29.2 29.5 29 28.2 27.6 27.1 26.6 26.1 25.6 25.3 25.1 25.8 26.5 26.5 26.1 25.7 25.2 24 21.8 25.2 27.3 29.5 32.5 35.6 36.6 36.7 34.9 34.7 33.3 32.3 30.9 29.6 28.4 27.2 26.7 26.9 26.8 26.8 26.7 26.6 26.7 27.9 30.4 31.1 31.8 33.1 32.5 32.6 35.1 35.9 36.2 36.3 36.6 35.4 34 34 36.7 32.8 28.8 27.4 26 25 22.7 20.7 21.7 23.3 24.1 24.1 23.8 23.2 22.3 20 17.9 16.9 16.1 14.6 14.2 15.3 16.1 16 16 16.1 15.9 15.2 15.2 15.5 15.6 13.6 13.3 13.2 13.1 12.7 12 11.3 10 9.1 8.5 7.3 7.3 7.1 6.8 6.6 6.2 6.4 7.9 10.6 12.5 12.4 11 7.6 6.8 6.2 5.5 6 4.4 4.2 2.8 -2 3.1 2.4 2.9 2.7 2.5 2.3 2.6 3.2 3.6 3.6 3.2 3.1 5.7 6.7
42.3 43.8 45.7 48.1 50.6 55 63.5 64.1 64.2 72.6 69.3 66.2 69.2 71.8 77.7 81 83.5 77 74.5 78.3 81.2 80.1 77.3 75.1 74.2 79.8 76.8 77.9 71.8 69.4 67.6 65.3 63.2 62.2 61.3 60 60.9 61.4 63.3 65.3 66.5 65.4 64.3 60.9 58.8 54.4 51.3 44.2 43.4 38.1 34.1 39.8 46.7 53.7 53.6 49.1 44.3 41.6 40.3 40 41.7 40.5 38.8 36.5 34 32.4 31.5 30.5 30.3 30.3 29.6 28.8 28.2 27.7 27.2 26.7 26.3 25.9 25.4 25.8 26.2 26.4 26.2 25.9 25.5 24.7 22.5 25.1 28.1 29.7 32.7 35.9 37.7 37.6 36.3 35.5 34.1 32.8 31.1 29.7 28.4 27.2 27.7 27.8 27.8 27.7 27.6 27.6 28.2 29.2 30.9 32.6 33.7 34.1 32.9 33.9 36.4 37.2 37.3 37.3 37.2 36.1 35.5 34.3 34.5 30.3 26.7 24.6 24.1 23.3 21.3 21.8 23.7 26 26.8 26.2 24.9 23.4 22 20.9 18.9 17.6 16.5 15.7 16.4 17.9 18.1 18.1 17.2 16 15.6 14.7 14.3 14.6 14.3 12 12.6 12.2 11.7 11.8 11.7 11.2 10.8 10.4 10.1 8.5 7.9 7.3 6.6 6 5.7 5.7 7.1 9.2 10.5 11.4 10.5 9 8.6 7.8 6.9 6.5 6.4 6.2 4.4 2.7 -2 -2 2.3 2.1 1.9 2 2.6 3.1 3.6 4.2 4.1 4.5 6.6 6.3
42.7 44.2 47 49.9 52.1 57.8 62.6 63.5 63.8 65.6 64.3 63.6 64.3 66.2 71.8 75.5 79.2 78.7 76.1 77.8 79.8 79.4 77.9 78.1 79.6 76.4 77.7 74.3 67.9 66.5 64.7 62.9 61.6 60.7 60 59.7 61.3 62.9 64.5 66 67 65.6 63.7 60.8 56.8 52.7 48.5 44.2 43.6 38.5 34.6 39.7 45.7 54.5 55.4 51.8 47.9 45.4 43.6 43 43.9 42.1 40 38.1 35.6 34.4 33.5 32.5 31.6 30.9 30.1 29.3 28.7 28.2 27.7 27.4 27 26.7 26.3 26.1 27.5 26.3 26.1 25.9 25.7 25.3 22.9 24.8 28.3 30 33 36.3 38.6 38.5 36.6 35.6 34.2 33 31.4 29.8 28.5 28.5 28.5 28.7 28.8 28.7 28.7 28.9 29.5 31 33.7 34.9 34.5 34.4 34.2 35.2 37.4 38.4 38.3 38.1 37.6 36.5 35.4 34.8 33.2 30.2 26.7 24.3 22.5 21.5 22.1 22.8 24.6 26.7 26.6 25.8 24.3 22.8 21.3 21.1 19.6 18.4 17.7 17.9 19 19.7 20.3 19.6 17.9 16.1 15.1 14.2 13.5 13.5 12.1 10.7 10.8 10.3 10 10.2 10.5 10.8 10.5 10.1 9.1 7.8 7.2 6.5 5.8 5.2 5.3 5.4 7.3 9.1 10.7 11.8 12.6 11 10.4 9.5 8.9 8.5 8.4 8.2 6.5 4.9 3.1 -2 -2 3.1 2.5 2 2.5 2.9 3.5 4.1 4.6 5 5.1 4.9
43.2 44.9 48.3 51.7 53.9 58.6 66.8 72.9 66.9 62.2 60.4 60.9 61.4 62.7 65.9 68 71.9 74.2 74.3 74.7 77 78.9 79.1 79.6 84.9 78.8 81.4 73.1 68.3 65.1 62.6 61.1 60.1 59.2 59.3 60 61.8 63.3 64.6 66 66.3 65.3 63.4 60 55.9 51.6 48.8 45.7 43.1 39.1 34.5 40 45.7 54 56.8 56.5 52.9 50.4 48 45.2 46.4 47.3 45 43.1 40 37.4 36.2 33.2 32.7 31.9 30.7 29.9 29.3 28.8 28.5 28.1 27.8 27.4 27 26.6 26.7 26.8 26.5 26.1 25.7 25.5 24.1 25.8 28.5 30.3 33.2 36.5 38.9 38.8 37.4 35.5 34 33 31.4 29.8 29.3 29.3 29.4 29.5 29.6 29.8 29.7 30.2 32.2 34.3 36.9 36.6 35.3 34.8 34.6 36.6 38.5 39.5 39.8 39.8 39.7 37.7 35.7 33.7 31.7 29.6 26.8 24.2 22.7 22.8 23.8 24.3 25 25.9 25 25.2 23.7 22.2 21 20.6 20.2 19.4 20 19.7 19.9 20.4 21.4 20.4 18.6 16.8 13.9 13 12.3 10.4 9.8 9.6 8.6 8.6 8.3 8.7 8.4 9.1 9.7 9.5 8.9 7.5 6.4 5.7 5.1 4.8 4.8 5.3 6.1 7.9 9.8 11.6 11.5 11.3 12.5 12 11.5 11.3 11 10.4 8.8 7 5.2 3.5 -2 -2 2.4 2.1 2.6 3 3.5 3.9 4.4 4.2 3.6 3.4
43.8 46.3 49.7 52.9 56.4 61.5 66.4 70.1 62.2 58.2 57.2 57.5 58.3 60.1 61.9 63.8 66.6 69.7 71.3 71.1 72.7 75.8 81.4 83.9 78 79.5 77.6 70.4 67.1 64.9 62.7 60.2 58.4 57.8 58.3 59.8 60 60.8 63.8 65.4 64.9 63.2 62.9 60.3 56.4 51.9 49.1 45.9 42.5 39.7 35.9 39.8 45.5 54.2 58 58 57.6 55.5 53.1 48.9 49.7 53.4 53 50.3 46.8 43.5 38.4 35.2 34.1 33.1 31.9 30.7 29.9 29.6 29.2 28.9 28.5 28.2 27.8 27.4 27.1 27.3 27 26.6 26.3 26.1 23.7 25.1 28.9 31.7 35 38.1 39.5 39.6 38.4 36.7 34.9 32.4 30.7 29.9 29.8 30.1 30.2 30.3 30.5 30.6 30.8 32.7 34.6 36.9 37.1 36.8 36.4 34.9 36.3 38.2 39.8 40.3 40 39.2 38.7 36.3 34.1 31.9 30 28 26.1 24.3 23.4 24.7 24.7 24.7 24.9 24.2 23.4 23.8 23.5 22.4 21.5 20.9 20.2 20.4 20.8 20.1 19.6 20.3 22 21.1 19.2 17.3 13.7 11.2 9.6 8.5 7.5 7.1 6.9 8 8.2 7.9 8.4 7.1 8.4 8.4 7.7 7 5.9 4.9 4.3 4.3 4.7 5.3 6 6.9 8.8 9.5 9.4 9.8 12.6 14.6 14.3 14.1 13.4 12.3 11.1 9.3 7.5 5.9 5 -2 -2 2.2 2.7 3.1 3 2.7 2.3 2.1 2 2.3
44.9 47.6 49.3 52.6 58.2 61.4 62.4 61.3 57.8 56.7 55 55.4 56.4 58.4 60.8 62.1 64.4 66.9 68.7 70.1 75.2 79.7 85.4 91.8 79.3 82.1 75.4 71.4 68.4 66.2 63.6 60.9 58.8 56.9 56.2 58.4 59.1 60.5 62.3 63.1 62.9 61.2 60.8 59.8 55.4 51.5 48.1 43.4 42.3 39.8 37.4 39.3 45.2 53.3 57.7 59.2 60.1 59.4 57.1 53.7 54.4 59.2 60.1 57.4 53.8 48.3 42 37.6 35.2 33.7 32.4 31.7 31.2 30.6 30 29.6 29.3 28.9 28.6 28.2 27.9 27.7 27.5 27.4 27.3 26.9 25.2 24.7 28.9 31.9 36 38.8 39.3 40 38.5 36.5 34.6 31.7 30.9 30.4 30.3 30.7 31 31.2 31.6 31.9 32.5 34.3 36.5 37.9 38.5 37.5 36.3 36.1 37.8 39.9 40.4 40.9 40.6 39.6 38 35.9 33 30.2 28.5 27 25.7 24.5 24.8 24.7 24.6 24.6 25 25 23 20.9 21.1 21.4 20.1 20.4 19.6 19.7 19.7 19.6 19.3 20.7 22.6 21.7 19.8 17.6 13.5 10 8.2 8 8.5 9.3 9.1 9.1 9 8.8 6.9 5.4 7.2 8.1 7.1 6.1 5.1 4.3 3.9 4.1 4.7 5.3 6 6.6 7.7 7.4 7.2 9.6 12.4 14.8 15.4 15.1 13.9 12.8 10.6 8.7 7.1 7.1 5.5 -2 -2 -2 2.6 2.8 2.4 1.8 1.7 1.7 1.8 1.9
46.1 47.3 48.2 50.4 53.2 57.3 57 55.8 54.6 53.8 53.3 54.5 56.3 57.6 60.4 61.3 63.4 65.3 68.2 74.7 78.9 86 90.4 95.8 83.4 83 76 72.2 69.6 67.1 64.5 61.8 59.5 57.6 56 54.6 55 57 59.5 60.4 59.8 58.9 60.1 58.8 55.5 50.5 46.8 41 40.6 40.4 37.5 39.3 44.7 53.3 57.3 58.9 60.2 60.7 60.7 59.8 60 63.3 63.9 62.5 57.8 51.5 46.5 41.2 36.8 34.3 33.9 34.1 33.5 33.2 32.2 31.7 31.2 30.4 29.6 29 28.6 28.4 28.5 28.4 28.3 27.8 26.7 25.1 28.2 31.7 35.3 38.4 39.7 39.5 37.7 35.9 34.2 31.6 30.5 30.3 31.5 31.9 32.2 32.5 32.9 33.9 35.2 36.8 38.6 39.6 38.9 37.8 36.6 38.6 40.2 41.3 41.7 41.4 40.9 40 39.3 35.5 31.7 29.6 28.1 26.5 26.1 25.9 25.3 24.8 24.6 24.7 25.2 24.9 23.5 21.3 19.3 17.7 17.5 17.9 18.3 18.5 18.3 18.1 18.3 18.2 19.3 19.3 18.7 16.5 13 9.1 9.6 10.3 10.5 10.3 9.3 9.5 9.5 8.8 7 5.2 6.1 7.9 7 6 5 4.1 3.6 4 4.6 5.2 4.9 5.2 5.3 5.3 6.7 9.4 11.4 13.3 14.3 14.4 13.9 12.2 9.8 7.9 7.6 5.5 4.4 3.4 -2 -2 2.2 2.1 2 1.9 1.8 1.8 1.9 2
48.2 47.1 46.7 47.9 51.3 53.7 54 53.9 52.8 52.4 52.6 54.6 57.1 57.4 58.2 62.6 65.1 67.9 68.2 73 78 82.3 84.5 86.3 85.8 79.6 75.7 72.7 69.8 67.2 64.6 61.9 59.9 58.7 57.4 53.5 52.2 53.8 54.6 55 55.3 53.7 54.3 54 50.6 44.8 41.9 42.8 42.4 41.5 38.3 39.6 44.8 52.6 56.3 58.4 59.5 60 60.9 61.5 62.2 63.2 64.6 64.5 61.7 56 50.6 46.2 41.5 39.5 38.6 39.9 39.7 38.5 36.2 34.5 33.5 32.7 31.6 30.7 30 29.5 29.5 29.4 29.2 28.7 27.9 25.6 27.4 30.6 34.2 36.9 38.5 37.8 36.4 34.8 33.2 31.9 30.6 31.5 32.7 33.4 33.8 34.5 34.9 35.9 39.2 41.8 42.4 40.1 39.1 38.1 37.2 39.7 42.3 41.1 41.7 41.6 41.1 40.1 36.8 33.6 31 29.2 27.6 26.6 26.7 26.3 26.1 25.8 25.3 25 25.4 24.5 23.8 21.8 19.9 18.1 16.3 15.8 16 16.5 16.4 16.5 17.1 17 16.4 16.1 15.9 14.9 11.1 8.7 11.8 12 12.1 11.6 10.1 9.9 10.2 8.8 7.1 5.3 5.9 6.9 6.8 5.9 5 4.1 3.3 3.8 4.1 3.7 3.4 3.4 3.3 3.4 3.8 5.4 7.5 9.5 10.5 11.6 11 10 8.1 6.9 7 5 4 2.8 2.5 -2 2.3 2.2 2.1 1.9 1.9 2 2 2
49.5 46.9 46.8 47.3 50.2 52.3 52.4 52.1 51.9 51.9 52.2 54.7 57.1 56.9 57.3 62.6 69.5 72.1 67.8 71.1 77.6 72.9 73.5 79.1 81.3 80.9 75.1 72 68.9 66.1 63.5 61 58.9 58.1 55.7 54.2 52.4 52 49.7 48.9 50 47.7 47.9 44.6 43.4 43.5 43.8 45.6 43.2 41 38.8 39.5 47.4 52.7 54.6 56.8 58.2 59.5 60.9 62.1 63 63.9 64.8 64.5 62.4 58.8 55.4 51.5 48.8 47 47.5 48.2 47.8 45.1 42.4 40.6 38.7 36.4 33.8 33 32.4 31.8 30.5 30.3 30.1 29.5 28.7 27.8 27.2 30.1 33.4 34.6 36 35.5 34.7 33.5 32.4 31.2 31.4 32.8 34 34.7 36.7 37.5 37.4 38.1 41.8 45.5 44.1 40.9 39.7 38.5 39.7 40.7 42.8 42.1 41.7 41.7 40.3 38.5 35 31.8 30.4 28.9 27.8 27.9 27.1 26.4 26.2 26 25.8 25.6 25.3 24.6 24 22.4 20.5 18.7 17 15.6 13.7 14.1 14.7 14.9 13.8 14 14.1 13.7 13.1 11.4 10.3 12.5 13.4 13.5 13.6 13.1 11.5 11.2 12.2 9.5 6.9 5.4 5.8 6.5 6.6 5.9 5 4.1 3.2 3.6 3.1 2.7 2.6 2.8 2.6 2.9 2.9 3.2 4.6 5.9 7.1 7.9 8.1 8.1 7.2 6 5.1 5 4.7 2.9 2.4 -2 3.5 2.2 2.1 2 2 2.1 2 2
50.4 48.3 48.1 48 47.8 49.3 51 51.2 51.7 52 53.3 55.5 53.9 54.2 57.9 67 72.1 69 64.5 68.4 69.9 69 68.9 72.3 76.6 76.7 74.3 71.1 68 65 62.4 59.9 58.7 59.2 58.9 56.9 53.9 52.9 51.2 51.4 49.4 47.3 46.1 46 46.9 47.8 48.2 48 43.6 41.6 38.5 39.6 48.2 52.2 54.5 56.4 57.9 59.2 60.9 62.2 63 63.9 64.5 63.9 63.4 60 60.3 58.2 55.9 55.5 55.8 56 54 51.3 48.6 46.8 44.5 42 38.4 38.1 37.1 35.2 33.3 32 31 30.6 30.2 28.9 26.4 29.5 31.6 33.4 33.5 33.5 33 32.5 31.7 31.4 32.2 34 35.2 35.8 36.9 38.8 39.4 39.8 43.1 45.7 44.7 42.3 40.4 39.2 41.6 43 43.5 43 41 39.4 37.9 35.8 33.1 31.1 30.3 30 29.9 28.1 27.1 26.6 26.4 26.1 25.8 24.9 24.7 25.2 24.7 22.9 21.1 19.4 17.7 16.7 15.1 14.2 13.4 12.7 13 12 10.9 10.7 10.1 10.2 13.5 14 14.1 14.4 14.9 14.7 14.4 14.1 13.5 10.5 7.5 5.2 4.5 4.4 4.2 4 3.8 3.6 3.2 3 3.7 3.9 3.9 4.2 3.5 3 3 2.4 2.7 3.3 4 4.9 5.5 5.7 5.2 4.7 5 5 4.8 2.8 2.4 -2 2.3 2.2 2.2 2 2.1 2.1 2 2
51.1 50.9 51.1 49.1 49 49 49.2 51.2 52.5 52.5 54.3 57 53.7 56.7 65.3 65.2 66.5 63.5 61.9 63.9 64.8 64.8 66.6 71 74.7 74.2 72.6 70.5 67 63.9 61.4 61.2 61.8 62.3 62.5 59.4 56.3 53.8 53.2 52.7 51.1 49.1 50 51.6 51.8 51.6 50.1 48 44.1 41.6 39 42.2 47.2 50.6 53.3 56.3 57.6 59.4 61.1 62.4 63.1 63.9 64.1 64.2 63.8 62.4 62.1 60.9 60 59.7 59.6 59.8 58.4 57.5 54.8 52.5 50 47 44.5 42 40.1 38.1 36.3 34.6 33.2 32.4 31.7 28.9 26.7 29.9 31.8 33.1 33.2 33.4 33.7 33.1 32.3 31.7 33.1 34.8 36.4 37.5 37.8 39.8 42.1 42.8 44.4 45.2 44.3 42.9 41.1 39.9 41.7 43 43.2 42 38.9 37.2 36 36.3 33.8 33.8 33.7 32.2 30.9 28.5 27.1 26.7 26.5 25.8 24.9 24 23.8 24.5 23.6 22.7 21.8 20.1 18.6 17.8 16.5 15.1 13.8 12.8 13.9 14.2 13.1 11.5 10.9 12.8 14.1 14.7 14.9 15.1 15.6 15.9 15.4 14.7 14 11 8.2 6.4 5.6 5.1 3.9 3.6 3.4 3.4 3.9 4.6 5.1 5 4.9 4.5 3.9 3.3 3 3.1 2.8 2.1 2.5 3.4 3.8 4.3 4 4.4 4.4 4.5 4.9 3.1 2 -2 2 2 2.2 2.1 2.1 2.1 2 2
52.1 53.3 53.5 50.1 50.2 48.8 42.9 44.9 49.3 51.3 52.8 52.8 51.9 56.8 64.2 62.8 62.6 60.9 59.4 59.9 60.9 62.3 65.1 70.8 73.1 72.4 71.2 70.1 67.2 64.1 62.9 63.3 63.9 64.3 64.1 60.7 57.6 56.4 55.2 54.6 53.9 53.2 54.8 54.7 53.6 52.5 51.3 49 44.4 40.9 39.6 43.1 46.5 49.6 53.5 56.1 57.8 59.5 61.2 62.6 63.3 64 64.5 64.4 63.7 62.6 61.5 60.4 59.5 59.2 58.8 58.2 58.5 58.2 57.4 56.2 54.4 52.2 48 45.1 43 41.1 39.3 37.5 34.7 34.2 31.9 29.2 27.6 29.7 31.8 33.8 33.7 34 34.2 33.4 32.7 32.2 33.9 35.6 37.2 38.8 40.8 42.6 44.4 45.1 45.5 45.1 44 42.6 41.2 40.5 40.9 42.3 42.8 41.6 38.6 37.4 37 36.9 36.8 36.4 35.5 33.3 31.3 28.9 27 26.7 25.8 24.9 24 23.1 22.9 22.6 21.9 21.1 20.9 20.8 19.6 18.9 17.2 15.3 13.8 14 14.8 15.1 14.6 13.6 12.5 13.4 14.3 14.3 14.1 14.5 15.3 15.5 15.2 14.9 14.3 11.8 9.3 7.9 6.7 5.5 4.3 3.8 4.3 4.7 5.5 6 6.3 6.2 6 5.2 4.5 4.1 3.7 3.7 2.6 2.9 2.4 2.7 2.6 2.8 2.8 3.8 4.1 4.4 5.1 3.2 1.7 -2 2.2 2 2 2.1 2.1 2.1 2 2
53.8 56.9 54.7 50.3 49.6 45.5 40.6 41.8 44.7 46.2 47.6 51.5 50.1 53.3 58.7 60.7 59.7 58.2 58 58.5 59.7 61.5 64.8 69 72 71.1 69.8 69.2 68 67.6 66.6 65.5 65.6 66 65.5 61.7 58.8 59 57.2 56.6 57.2 57.4 56.3 54.8 54.2 53.2 51.6 49.6 44.9 39.1 43.2 50 52.3 53.4 54.2 56.7 58.1 59.7 61.4 62.7 63.4 64.1 64.3 64.4 63.3 61.9 60.5 59.3 58.1 57.9 57.1 56.3 57 56.3 55.4 55.4 54.1 53.7 51.5 48.6 46.1 43.9 41.6 39.4 37.2 35 32.4 29.9 28 30.1 32.4 34.5 34.5 34.6 34.9 33.8 33.1 32.7 34.4 36.1 38.3 40.7 42.8 44.6 45.7 46.1 45.8 45.2 44.1 42.5 40.5 40.2 40 40.2 40.7 41.2 40.3 39.2 38.8 38.8 38.3 37.3 34.8 32 30.1 28.3 26.7 26 25.3 24.4 23.5 22.6 21.8 21.3 20.6 19.8 19.5 20.1 20.2 19.2 17.4 15.5 14 14.6 15.2 15.8 15.7 14.7 13.8 13.6 14.4 13.6 12.9 13.4 14.3 14.2 13.9 13.6 12.5 11.9 10.3 8.5 6.6 5.4 4.2 4.9 5.7 6.2 6.6 7 7.5 7.4 7.2 6.1 5.4 5 4.6 4.2 2.9 2.4 2.3 3.2 3.1 2.2 2.8 3.5 3.8 4.6 5.2 3.3 1.7 -2 2.3 1.9 1.9 2 2.1 2 2 2
57.8 58 53.3 48.8 46.1 44.7 40.9 40.8 43.1 43.9 44.9 51.4 50.4 51.3 55.1 58.1 57.4 57.5 56.9 57.6 59 61.5 64.3 66.2 69.4 69.3 68.2 68.7 69.2 68.9 67.9 67 67 67 65.2 63.3 62.3 62.1 60.3 59.2 59.2 58 56.4 54.8 53.2 53 50.8 48 45.6 40.9 45 50.9 53.6 54.9 55.7 56.9 58.4 60 61.6 62.7 63.1 63.4 62.5 62.5 63.3 61.4 59.6 57.9 56.7 56.2 55.4 54.6 55.3 54.4 53.4 52.7 52.5 52.3 51.8 50.2 48.7 45 42.4 40.2 37.3 34.9 32.8 30.7 28.3 30.7 32.9 35 36.9 35.3 35.6 34.3 33.8 33.3 34.2 35.7 38 41.2 44.5 46.4 46.9 46.7 46 45.4 43.3 40.8 38.6 37.6 37.3 37.6 38.1 38.9 40.9 40.9 40.6 39.4 37.6 34.8 33.5 30.7 28.8 27 25.4 24.7 23.9 23.1 22.7 22.3 21.8 21.1 20.3 19.2 18.4 19.3 20.2 18.9 17.3 14.8 14.2 14.9 15.6 16.3 16.8 15.9 15 14.8 14.1 13.1 12.4 12.4 13.2 12.9 12.6 11.6 10.7 10 9.6 8.7 6.6 4.6 4.9 5.5 6.2 7.2 7.6 8.1 8.6 8.7 8.3 7.1 6.4 5.9 5.5 4.2 2.9 2.2 2.2 3.7 3.8 3 2.3 2.4 2.8 4.7 5.5 4 1.7 -2 2.4 1.6 1.7 1.9 2 2 2 2
58.7 60.1 48.1 39.7 31.8 28.8 30.9 31.5 35.3 39.9 42 49.8 51 51.6 53 56.8 58 57 56.3 56.2 57.5 60.6 63 64.1 65.5 66.6 67.4 68.8 69.9 70.1 69.2 68.5 68.4 67 66.1 63.5 65.4 65 63.5 59.5 57.9 56.1 54.7 53.6 51.3 49.1 47.6 47.9 45.2 40.2 44.9 49 51.5 53.8 55.8 57.4 58.4 60 61.7 62.4 62.3 61.6 60.7 60.5 62.1 60.1 58.7 56.5 55.2 54.5 53.7 52.9 52.2 52.4 51.6 51.2 51.2 51 50 49.4 48.9 46.5 43.4 41 38 34.4 33.3 30.4 28.5 32.4 34.2 35.5 37.6 37.6 36.3 35.2 34.2 34 33.9 35.4 38.5 41.9 45.3 46.7 47.5 46.6 45.7 43.8 41.5 39 36.8 35.8 34.8 35 36.3 37.6 40.2 40.8 39.2 35.7 34 32.8 31.5 29.3 27.5 25.9 24.3 23.6 22.8 22 21.2 20.3 20 20.1 19.8 18.8 17.7 18.5 19 18.4 17 14.3 14.6 15.3 16 16.7 17.3 17.2 16.2 16 14.5 13 11.9 11.5 12 11.7 10.7 9.8 9 8.2 7.7 7.3 5.5 4.7 5.2 5.8 6.4 7.8 8.7 9.1 9.6 10 9.4 8.1 7.3 6.8 5.5 3.8 2.4 2.7 3.9 4.5 4.6 3.8 2.9 2.2 2.4 3 3.3 3.5 1.7 -2 2.1 1.9 1.6 1.7 1.9 2 2 2.1
