ncols 200
nrows 82
xllcorner 270000
yllcorner 590800
cellsize 50
370.5 366.6 365.5 363.8 358.5 352.6 348.6 340.9 341.8 336.8 332 326.2 319.5 311.9 305.1 297.6 288.5 277.7 267.1 258.5 242.6 234.3 233.3 222.9 210.7 205.3 200.4 199.1 200.2 202 204.1 209.8 217.8 233.1 253.6 273 293.3 313.3 331.4 346 360 377.3 383.6 389.3 393.8 395.1 393.5 406.8 412.3 423 426.4 425.7 425.4 432 424.9 419 412 402.2 391.5 383.4 376.1 368.8 365.9 365.9 368.4 369.7 371.7 371 372.4 373.7 371.7 367.4 360.2 350.3 344.6 336.7 327.8 317.4 310.9 303.7 297.8 292.5 287.7 280.3 275.2 270.9 268.6 266.3 260.7 258.6 256.4 254.6 253.8 252.5 251.9 251.4 250.7 250 249.4 252.4 246.5 248.9 253.7 252.8 253 252.2 251.6 254.3 253.5 253.3 252.7 252.7 259.7 264.5 267.9 274.3 279.5 284.3 298.9 306.7 301.9 304.7 299.9 295.9 295.1 293.1 289.8 283.7 280.5 276.7 271.5 268.3 268.1 268.8 278.9 284.3 291.4 294.1 301.8 307.8 312.5 308.7 304.1 305.5 293.1 280.8 272.5 265.6 254.5 239.7 230.8 223.4 214.9 203.3 190.9 174.7 160.5 150.4 144.5 148.3 150.6 151.9 157.7 170.6 176 181.3 189.5 191 192.6 194.1 199.5 203.9 210.4 217.7 232.4 245.1 253.7 262.9 267.1 272.9 279.4 288.4 297 307.7 317.7 330 340.7 346.6 349.5 354.8 347.3 333.7 315.1 300 291.2 285.5 283.8 279.6 279.4 283.2
373.9 373.6 368.5 366.2 362.4 356.4 354.9 353.5 347.1 337.5 338.2 333.7 328.1 319.9 311.2 304.7 294.4 284.4 271.2 259.4 251.6 238.4 227.2 212.5 215.4 206.6 200.2 203.1 198.6 198.4 201.4 202.9 208.6 217.1 234.8 255.3 277.9 303.7 323.6 339 352.9 364.8 374.9 380.8 386.8 386.3 385.7 394.3 408.9 417.8 419.7 418.8 419 423.6 421.8 422.1 412.9 403.7 393.1 380.3 370.5 360.8 356.5 356 354.7 354.5 354.4 354.9 359.8 361.4 359.5 355.4 349.2 341.2 332.7 326.7 320.5 314 308.4 302.3 296.6 291.3 287.4 281.6 274.3 271.5 266.9 265.4 263.3 258.3 255 255.5 253.2 251.5 250.5 250.6 250.8 249.9 247.5 248.6 244.9 244.5 244.3 247.6 247.8 247 247.2 248.4 248.6 247.9 247.6 248.3 253.9 257.6 261.9 266.9 274.2 279.9 290.8 292.4 290.1 288.9 291.4 287.1 285.3 282.5 280.4 275.1 273.4 267.8 262.7 260.2 260.2 264.4 269.5 276.3 283.3 291.2 301.6 305.3 307.5 304 304.3 307.6 293.7 282.3 273.5 263.6 253 241.1 234 224.8 223.3 209.3 196.7 182.6 167 154.4 147.5 143.8 149 150.5 158.7 163 164.7 175.6 180.2 183.9 189.3 193.8 198.9 203.7 203.7 218 235 249.2 253.9 262.6 272.2 277.5 288.9 294.6 306.6 315.4 323.7 335.9 342.6 342.4 350.3 345.6 334.6 317.6 299.5 289 283.2 280.5 277.5 275.7 277.8 279.9
382.9 381.7 375.2 370.5 366.8 365.6 364.7 361.5 346 349.7 349.4 343.1 337.1 330.4 322.9 314.1 304.1 290.2 277.1 262.2 251.6 246.4 233.8 226.7 221.6 209.1 201.9 196.8 196.9 196.5 197.1 201.2 202.8 206.8 220.6 238.9 264.3 291.2 317.2 338.9 351.1 358.5 364.5 369.3 373 376 376.4 386.9 401.9 409.4 409.7 411.8 408.2 410.6 417.2 416 409.6 400.8 389.8 379.8 369.1 356.8 346.1 343.6 340.8 338.6 337.3 341.6 341.7 344 345.9 341.4 335.7 328.8 325 322 315 310.9 305.7 299.7 294.2 289.3 282.8 278.3 273.5 270 267.1 266.5 262.1 260.6 261.7 260.2 259.1 253.3 250.9 250.3 248.3 247.6 245 246 246.9 245.9 243.9 240.8 241.7 243.4 242.3 238 241.2 243.1 241.9 243.3 248.8 251.9 255.3 261.2 266.9 273.4 276.5 277.2 276.7 278.1 275.9 274.6 272.5 273 270 267.3 265.7 262.7 258.3 256.4 254.6 255.7 262.3 268.8 277.4 291.3 298.7 300.3 298.6 298.3 297.6 296.3 285.7 278.9 269.6 259.6 247.6 240.5 236.9 227.7 225.1 213.9 202.2 189.9 173.5 158.5 149.9 146 147.2 150.3 152.6 156.8 163.2 166.6 165 177.5 182.1 189.6 195.4 197.1 208 219.4 233.7 245.4 252.1 263.8 275.3 283.7 292.9 306.2 315.2 323.7 332.4 339.6 343.5 340.6 344 335 316.1 300 287.5 282.9 278.3 275.4 273.5 271.4 274.8 277.3
390.2 382.7 380.6 376.1 375.4 373.5 370.2 363.4 357.5 360.1 357.3 356.2 350.8 342.5 339.9 328.2 314.7 298.9 288.1 270.2 254.8 245.1 236.7 231.8 224.7 216.3 206.8 198.4 196.2 196.1 196 197.7 201.5 202.8 208.1 224 249.7 275.1 300.2 327.3 341.2 351.5 356.5 361 367.5 368.7 367.1 380.6 394.5 403.3 404.5 402.5 399.4 404.1 406.2 401.9 398.1 396.7 387.5 377.6 367 356.3 344.1 336.1 330.9 328.7 326.1 324 325.4 329.6 326.4 324.1 319 316.1 316.1 315.5 306.7 308.1 301.1 295.7 291.5 284.7 280.8 279.9 274.3 270.2 267.6 265.9 268.8 271 266 266.3 261 258.8 254.6 252.2 248.7 243.5 245.2 241.3 240.4 245.9 245.7 243.3 240.9 240.9 240.9 241.9 236.2 232.4 236.7 237.6 243.4 245.8 248.5 251.8 258 261.7 262.6 260 262.3 264 260.6 261.1 262.2 260.4 259.4 258.5 255 254.4 254.3 249.9 247.8 252 253.5 263.3 274.3 286.8 291.5 293.4 291.5 293.2 294.5 281.1 277.2 272.2 264.3 256.3 244.5 237.7 230.8 223.9 218.1 210.9 203 192.5 179.5 163.9 152.3 146.8 146.2 146.8 149.7 157 157.9 160.8 165.7 173.8 180.1 185.9 190.3 196.3 206.7 218.1 232.8 241.3 249.6 263.2 277.5 290.8 302.9 315.4 325.8 336.6 341.7 341.5 341.1 339.6 334.8 320.5 302 289 280.1 274.5 271.4 270.1 269.2 269.1 271.3 275.4
397.7 392.5 389.8 386.3 383.6 383.1 378.5 371.8 371 371.6 366.9 369.5 368.5 364.7 358.6 341.3 321.2 306.2 292 276.6 261.2 247.6 238 233.7 229 219 209.9 202.7 194 194.8 195.4 195.2 198.1 200.1 201.6 214.6 233.8 255.3 276.1 298.7 317.7 332.2 343.6 349.8 352.3 357 360.2 376.7 388.2 393.3 394.5 395 390.4 398 398 395.9 390.8 390.4 380.2 371 364.2 353.4 339.5 334 325.9 322.7 318.7 317.4 314.8 316.3 315.2 314.4 314.6 314.1 311.1 303.3 299.4 302 295.7 289.4 287.3 284.2 283.9 278.6 276.9 272.2 269.1 270.5 270.8 269.9 270.5 265.3 261.6 260.9 256.1 252 252.2 249.5 248.1 244.8 239.7 237.9 240 242.2 242 240.9 240.9 237.1 238.5 236.7 232 231.5 235.7 238.6 239.9 241.8 246.4 249.9 246.8 248.2 248.9 248.9 249.1 248.8 248.1 246.9 248.6 247 245.7 242.9 244.7 243.3 244.6 242.5 247.3 259.6 267.5 278.4 281.7 281.9 288.4 279.8 274 270.8 266.3 264.2 259 249.5 240.3 230.8 224.2 216.9 209.4 204.7 198.4 191.5 181 169.4 155.7 150 144.9 145.1 147 151.2 154.6 154.1 161.7 169 173.4 183.6 187.7 196 206.6 212.8 222.4 239.5 255 266 278.9 293.6 308.7 322.3 335.5 342.7 337 336.3 334.9 333.3 321.4 303.3 289.6 279.3 272 267.8 264.8 263.2 264 265.6 269.3 274.8
406.3 402.9 398.2 395 392.8 390.7 388.8 383.6 382.8 381.2 380.1 382 383.4 382.2 371.2 353.5 331.8 312.7 296.8 281 265.8 252.2 241 237 232.7 225.1 215.9 208.7 200.7 195.1 194.6 194.7 194.5 194.9 197.9 202.8 215.6 233.6 255.4 274.7 299 314 332.6 343.9 349.6 349.2 354.8 366 376.5 380.5 385.7 385.9 386.1 393.7 395.1 388.9 384.6 379.9 370.4 368.1 359.4 351.4 340.1 332.7 323.1 318.6 312.5 309.8 306.8 304.4 304.9 302.8 304.6 304.4 305 297.4 294.1 296.4 291.1 290.7 286.8 283.9 281.9 280.4 276.6 272.9 270.9 272.1 272.3 273 271 269.1 265.5 257.9 260.8 257.9 254.3 248.8 246.8 246.1 247.2 241.8 236.2 235.2 237.5 239.6 239.6 237.9 232.7 231.6 231.9 226.3 228.8 230.8 230.6 231.4 231.9 234 235.1 235.2 233.6 233.4 238.7 238.9 238.9 237.9 237 236.3 234.2 233.1 236.6 236.1 234.7 239.8 242.7 243.8 255.5 264.3 268 271.3 263.3 262.5 259.9 258.1 253.4 249.3 242.8 237.9 229.2 221.5 216.1 208.6 201 193.7 188 183.4 176.7 168 155.6 147.3 145 143.6 143.8 145.6 149.1 151.8 158 162.2 170.8 178.5 182.2 193.6 203.8 213.3 226.3 240.6 255.4 267.5 281.3 296.5 310.9 327.9 337.4 334 329.8 327.7 323.8 316.1 303.4 288.1 276.6 269.6 265.2 261.8 259 258.5 259.5 263 268.8 275.7
417.3 413.8 408 401.7 401.2 397.7 394 395.5 393.1 390.3 388.9 392.6 397.8 395.6 384.5 366.4 340.8 320.3 306 287.7 271.1 260.7 248.5 238.4 235 229.7 224.4 216.2 211.2 200 193.7 192.2 193.5 193.1 192.7 194.8 203.4 216.2 233.9 255.1 278.7 302.8 321.1 335.2 338.2 343.5 348.1 354.7 361.5 367.4 370.2 371.6 382 385 381.4 382.4 378 371.7 371.8 363.4 357 349.5 339 327.6 321.5 312.6 308.7 301.6 295.9 295.8 298.4 294.7 291.5 295.4 294.2 291.1 289.7 290.9 290.1 286.1 284.9 283.3 282 281 276 273.6 273.5 274 271.9 269.9 266.9 263.7 262.1 261.1 258.7 257 253.4 253.8 250.1 245.4 240.8 237.9 238.7 234.6 232.3 232.2 232.3 230.1 228.1 227 226.8 224.1 225.6 222.6 225.3 225.4 225 227 225.2 226.2 226.6 224.3 231.4 234.1 232.3 231.4 231.3 228.5 229.2 227.1 227.3 224.3 229.7 234.1 233.9 233.3 236.2 242.5 242.6 241.7 242.1 242.8 243.3 240.8 238.9 235.5 230.7 226.8 218.5 211.4 203.2 199.9 192.4 186.9 181 174.9 165.9 159.2 149.1 146.4 146.5 141.2 142.4 143.4 145.6 149.1 155.3 158.9 165.5 170 178.5 188.2 200.1 210.9 224 241.4 257.3 268.4 282 299.2 316.3 325.1 327.8 326.8 322.3 316.8 306.2 296.3 288.7 275.7 266.8 260.2 256.1 254.8 253.7 252.7 257.6 262.8 269.7 278.8
424.7 419.8 414.1 411.5 409.9 404.9 406.1 404.7 401.6 402.2 401.4 405.4 407.1 403 392.4 374.3 349.7 327.7 310.2 295.1 280.3 265.9 254.1 242.5 237.6 234.3 229.2 225.8 217 207.5 200.3 196.3 194.1 192.9 192.3 191.9 194.4 204.6 219.2 238.4 261.1 284.7 303.8 320.6 327.3 337.8 341.5 345.5 352.7 361.1 361.6 366.3 377.1 376.6 375.6 368.7 365.4 364.6 362.4 357.7 349.9 342.4 333.6 328.3 320.2 313.8 306.2 298.7 292.5 287.3 288.4 292.2 288.2 284.7 285.9 287.8 286.6 288.1 286.4 285.9 284.6 283.5 282.8 279.9 278.2 278.6 274.4 273.9 273.4 268.5 268.7 266.8 265.2 265.3 262.5 256.6 252.7 249.3 250 245.1 244.8 244.6 241.8 240.4 241.1 240.3 236.7 233.7 233 228.7 223.7 222.1 219.9 219.3 219.2 218.4 217.5 216.6 216 220.4 219.6 219.9 223.6 227.7 226.6 227.1 225.3 222.8 220.3 221.5 220.8 217.4 221.1 219.7 221.1 221.5 224.7 223.5 224.1 222.7 225.3 226.7 223.9 219.8 219.9 222.3 213.6 205.7 203.3 198.1 192.4 183.8 182 178.5 175.1 165.7 157.9 155.4 146.8 144.3 144.3 144.3 143.6 141.2 143.2 147.9 150.6 154.2 159.2 170.2 176.6 187.3 201.7 211.1 222.4 239.3 254.7 269.3 288.3 304.4 316.4 322.4 323.9 321.9 317.3 306.2 291.8 281.8 270.1 259.7 253.4 249.9 249.5 248.3 246.1 249.9 255.9 263.4 272.2 281.6
431 427.9 422.7 420.3 416 412.4 413.3 413.6 412.7 413.2 412.3 413.8 409.2 404.8 393.4 377.1 356.8 333.4 319.6 303.3 286.1 269.5 256 249.1 240.3 233.5 231 227 219.1 211.9 206.9 203.9 197.6 194.8 191.4 190.9 191.6 197.2 207.8 222.4 244 265.9 279 300.5 318.7 330.3 333.2 339 342.5 348.6 353.6 360.2 367.6 370 366.8 361.6 360.1 355.8 351.9 348.1 343.7 336.2 330.7 325.6 317.4 313.7 305.2 296.2 289.6 286.4 281.7 284.2 284.9 282.8 282.6 283.3 284.2 284.5 285.4 285.6 284.7 283.1 282.5 282 284 279.3 278.2 275.2 271 272.2 271.7 269.3 268.6 264.4 261.3 257 258.6 255.7 254.3 251.2 247.7 246 244.1 242.9 242.4 241.7 242 240.5 236.7 234 228.9 226.6 222.2 218.3 216.4 216.4 215.3 213.3 212.9 212.2 212.6 214.3 218.4 219.2 219.3 218.8 216.9 217.4 216.3 214.4 211.5 210.6 213.4 212.6 216.7 212.5 214.3 210.7 210.4 210.1 209.1 212.1 209 206.7 205.1 202.6 195.3 193.1 186.9 184.5 182.3 177.8 173.8 172.3 168.6 163 159.6 150.4 147.9 144.3 142.8 142.7 143.4 141.8 139.6 143.2 148.3 151.4 156.8 164.5 174.6 185.2 198.1 207.7 222.5 240.7 256.9 275.7 290.5 300.8 309.1 319.4 319.2 316.3 309.5 291.8 277.3 263.3 249.8 244.7 241.9 243.1 242.2 241.8 238.8 248.1 254.3 263.1 273.8 286.8
440.5 434.8 430 428.2 424 422.7 422.4 421.9 421.7 422.1 423.8 422.6 421.5 417.5 402.4 385.9 359.6 342.2 330.6 307.6 291.7 276.5 265.4 254.2 245.6 237.6 234.6 230.4 222.2 213.5 207.8 204 201.2 195.1 190.7 191.3 190.1 192.3 201.2 207.4 223.9 240 255.8 277.4 301.9 319.2 327.6 333.3 336 342.3 349.8 353.1 360.2 361.1 360 360.9 353.2 348.7 345.7 340 332.9 330.4 325.8 320.5 312 308.5 301.4 295.9 287.7 282.6 280.6 280.1 282.5 281.2 279.4 280 281.5 282.3 283.3 284.8 284.2 283 282.7 282.1 281.9 282.3 278.3 272.3 274.2 272.9 270.1 270.1 268.2 269.2 263 260.5 259.7 257.1 254.5 252.2 250.6 248 245.9 245.7 244.9 243.8 244.1 242.8 238.6 235.3 229.1 224.9 222.1 219.4 218 216 215.3 214.8 215.3 217.1 211.9 209 211.5 213.5 214.6 213.2 211.2 209.8 211.6 210.1 208.2 201.8 205.5 203 201.9 201.7 201.6 199.5 198.8 197.3 197.4 196.2 197.4 195.6 191.5 187.4 185.8 185.4 183.5 180.8 178.2 175.3 171.3 166.7 163.4 148.7 163.1 159.9 152.1 146.1 143.5 141.5 141.5 141 140.1 141.2 142.2 148.6 152.1 159.3 168.6 178.5 192.2 205.7 221.4 241.7 259.3 273.9 285 295.7 308.8 312 309.9 302.7 288.1 274.1 258.5 247.6 238.7 232.6 234 235.7 234.8 234.9 239.7 245.9 254.3 265.5 278.8 295.9
450.2 442.4 439.3 433.9 432.7 430.5 429.4 428.8 429.7 433.1 433.2 432.4 431.7 423.4 408.6 383.7 364.1 347.7 331 312.3 297.6 284.6 271.2 258.8 251.4 249.5 242.6 235 227.7 219.1 212 206.5 201.7 198.2 195.1 191 190.5 189.5 192.8 201.3 208.7 221.4 238.9 258.1 282.9 302.7 315.3 323.4 327.8 334.1 342.2 349.8 352.3 355.7 354.2 359.4 354 346.9 339 332 330.2 326.2 320.5 313.8 308.6 301.7 296.3 292.3 285.8 277.8 274.4 274.9 281.2 277.6 278.5 279.4 278.4 280.2 281.6 282.5 281.7 281.4 280.6 280.3 278.1 278.2 277.2 280.6 275 275.8 270.8 270.5 271.3 267.9 262.1 263.4 262.6 260.3 258.9 255.8 253.4 250.9 248.6 250.1 249.1 247.7 247.2 245.9 241.2 236.5 233.1 225.9 224.4 221 219.6 219.5 218.2 222.2 222.6 221.6 219.1 211.1 207.5 208.6 209.3 207.7 207.3 206.9 204.8 203.1 203 201 195.1 196.1 195.3 195.5 196.1 193.2 191.3 189.5 187.7 188 185.5 184.5 180.3 179.3 180.7 180 178.3 176.1 175.2 172.2 166.5 161.6 165.5 166.5 164.7 160.4 152.4 146.3 143.5 141.7 140.5 140 139.5 140.2 140.9 143.5 146.4 154.9 162.5 170.8 189.2 203.1 217.9 236.9 251.9 269.1 284.3 289.1 299 299.8 294.2 282.3 268.8 255.6 242 236.2 227.4 222.3 227.7 228.5 228.4 231.9 238.1 246.3 257.3 270.6 288 306.1
461.5 455 449.2 443.8 440.9 441.1 442.7 445.7 446 444.6 443.3 445 443.1 433.9 413.8 393.8 370.7 355.1 334.4 318.9 304.3 288.3 278.2 270.3 262.4 256.7 250.6 241.6 235.6 225.9 219.9 212.7 204.6 199.8 194.8 193.7 190.1 189.9 189 194 203.4 211.1 221.3 240.4 262.6 283.1 302.2 314.4 320.9 326 336.2 346.9 351.4 348 350.1 350.1 346.3 343 335.9 328 322.2 318.7 312.7 309.6 304.5 296.8 290.9 288.3 284.8 276.9 272.1 270.9 278.1 276.1 277.8 279.9 275.5 277.2 276.2 280.7 281.2 281.9 281.6 279.5 277.6 278.7 280.2 278.4 277.6 278 271.8 271.9 270.4 267.1 268.2 267.2 265.3 263.8 261.4 258.3 255.7 253.6 253.8 254.3 252.6 251.1 250.1 248.5 245.7 240.8 236.3 229.1 224.7 223.4 225.8 226.8 224.7 224.7 224.1 222.4 220.7 218.7 214.3 205.8 204 200.9 201.4 197.8 196.1 192.6 189.7 194.4 191.2 187.5 185 184.5 188.2 187 186 184.7 183.4 184 182.6 176.3 173.9 173.5 176.2 173.4 171.9 172.6 171.5 167.1 162.2 166.2 165.5 163.7 161.5 157.2 151.2 147.4 144.1 142.9 141.4 137.8 137 139.1 139.8 140.3 143.5 148 153.6 166.7 179.6 192.4 208.6 223.4 245.5 260.8 272.2 281.1 285.1 276.6 269.6 259.1 249.4 240 229.9 223 215.7 216.9 221.9 222.4 223.9 228.7 236.7 247.3 260.7 278 295.7 309.5
472 467.9 461.9 458.1 454.9 456.1 455.3 456.1 457.3 457.4 458.1 458.4 455.9 449.7 431 397.7 371.8 353.8 338.4 322.7 308.1 295.7 287.9 280.4 273.6 261.7 252.1 251.1 239.7 232.7 225.3 218.3 209.8 200.7 197 194.8 191 188.2 187.6 188.7 193 203.8 207.5 220.2 239.5 261.3 281.1 303.6 311.1 317.6 325.7 337.9 347.4 345.4 340.4 341.3 338.6 330.5 329.2 325.1 319.6 314.7 307.1 304.4 297.7 289.3 286.9 283 279.6 274.7 271.1 268.5 274.1 274.3 273.2 274.8 275.2 273.8 276.5 277.4 278.9 279.3 279.8 279.7 282 279.1 278.6 278.4 278.5 278.1 275.1 270.5 267.9 271.2 270.7 270.1 268.8 266.4 264 260.9 258.4 257.7 258.6 258.1 259.1 256.9 253.7 250.5 248.5 245.4 240.5 234.2 230.1 229.9 231.6 232.3 229.8 227.8 225.8 224 222.2 220.2 216.4 212.9 208.4 198.1 197.6 203.6 199 197.7 197 195.1 197.7 195 192.7 188.1 184.5 178.5 179.1 178.1 179.9 179 176.8 172.1 171.7 170.9 169.7 169.5 170.2 168.5 165.6 167.6 166.6 165.7 164.1 163.2 159.8 156.3 153.1 153.2 151.1 145.3 141.3 139.4 136.5 138.4 138.6 138.4 138.8 140.6 145.8 151.5 167.8 181.5 202 216.1 233.4 251.3 260.8 260.2 258.2 252.5 249.3 242.7 235.3 227.4 221.5 216.3 210.6 214.6 217.2 215.3 220.7 226.6 236.2 248.8 268.1 284.6 296.5 310.9
486.1 478.8 473.7 470.5 467.9 465.8 466.7 470 470.3 471.7 471.5 473.4 471.3 460.8 441.5 411.6 378.1 362.8 343.6 329.8 314.6 307.5 298.7 290.3 280.5 268.9 264.3 252.9 245.7 240.3 231 223 213.4 206.8 200.6 196.9 192.7 189.1 189.4 188.7 187.7 188.6 199.4 207.7 222.7 241.3 261.5 285 299.6 312.4 315.3 328.9 344.6 344.9 341.5 335.1 327.4 327 323.3 317.8 312.3 307.7 304.1 299.2 294 288 282.4 277.4 273.7 270.6 269.3 267.8 271.8 268.2 270.6 269.5 270.3 271.7 271.8 275.6 278.6 278.7 280.6 284.3 283.4 282.2 280.5 279 277.1 273.1 272.5 273.6 273.3 273.2 273.2 272.3 271.4 269.7 267.1 263.8 262.4 262.1 262.5 262.7 263.1 260.8 258 254.6 251.8 248.3 244.5 240.4 236 235 235.3 236.4 234.5 233.1 230.8 228 225.8 223.3 219.6 213.8 210.7 209 209.4 207.6 206.7 206.9 204.8 204.9 204.4 201.5 198.5 194.7 191.2 188.2 183.6 180.4 179.5 176.5 174.4 172.8 172.8 174.5 174.4 173.1 169.5 168.8 169.7 170.1 172 168.4 163.2 164.6 159.3 160.2 157.8 155 150.5 147.4 143 140.3 135.8 135.4 137.6 138.1 137.4 137.8 138.3 143.5 154 171.3 189.5 207.9 217.2 228.4 229.9 233 235.3 232 230.3 227.1 222.1 218.5 214.1 208.2 207.8 210.1 212 213.9 218.5 225.9 237.3 254.7 270 281.4 293.5 300.2
496.9 488.9 484.3 480.3 476 477.5 479.2 481.1 482.2 482.7 483.6 482.6 480.6 473.9 448.4 417.1 386.5 369.3 349.7 337.6 329.5 319.3 311.1 298.2 287.2 279.6 267.4 258.9 249.4 246.5 237.1 229.2 218.4 210.3 208.1 196.8 194.2 192.8 188 188 187.2 186.9 191.9 201.4 211.4 222.3 244.5 263 283.4 297.2 305.9 317.4 336 345.8 338.2 332.1 328.1 324.8 315 311.2 308.3 303.6 298.3 292.8 290.1 283.7 279.3 276.5 272 266.8 266.5 259.8 262.6 266 265.7 269.9 267.7 268.3 269.9 273.2 275.8 278.4 278.8 279.7 281 283 281.7 275.5 274.7 277.7 278.1 275.9 274.9 275 275.8 275.3 274.5 272 270.8 270.3 268.4 267.7 267.4 267.9 267.3 265.5 262.8 260.3 257.7 254.8 250.9 246.6 244.6 242.3 241.1 241.4 240.6 237.8 235 233.3 231.9 230.8 226.2 224 221.8 220.6 218.4 216.7 216.2 216.3 215.2 215.3 212.1 208.9 203.8 202.5 197.3 196.3 192.8 189.1 184.1 182.9 180.6 181.2 180.2 179.5 177.6 177.6 176.4 178.5 177.6 176.2 178.5 176.9 173.3 172.8 169.3 165.6 162.7 161 157.4 153.2 145.6 144.9 142.1 137.6 135.2 136.1 136.6 136.1 136 137.7 142.5 153.4 171.5 177.5 186.4 195.5 202.1 211.2 214.8 214.7 215.2 215.7 213.8 210.9 208.1 206.1 205.4 206.8 207.5 211.6 216.7 225.4 240 256.3 272 275.7 286.1 288.3
502 492.8 489.1 487.6 485.3 486.6 490.3 491 492.8 492.9 491 488 482.6 473.4 454.5 422.1 398.2 374.7 360.2 348.2 339 328 317 306.8 295.5 285.9 277.5 266.5 254.6 248.9 241.1 232.5 223.8 215.9 209.2 202.7 194.5 192.8 192.1 190.3 186.7 187.3 186.9 193.9 201 211.5 227.4 245.5 262.3 282.5 295.2 305.9 323.6 336 331.4 324.9 325.4 318.1 310.7 308.9 305.8 299.9 292.8 289 287.2 282.6 277.9 272.2 266.9 263.4 258.9 256.8 254.9 259.6 260.4 262.6 264 268.1 265.6 268.6 274.1 277 277.8 278 278.9 279.2 277.2 277.4 278.2 279.7 279.8 277.9 278 278.5 278.4 277.7 276.8 277.6 277.1 277.7 276 274.8 275.4 277.8 276.4 274.4 272.5 272.7 269 264.8 262.5 258.6 255.8 248.5 247.8 246.9 244.7 243.6 240.9 239.4 237.3 238.6 237.6 234.8 234.8 232.4 229.8 228.4 227.8 228.1 224.5 221.1 220.1 216.9 213 209.5 207.1 205.3 201.9 198.7 194.3 192 190.9 189.9 189.9 186.4 182.1 186.3 187.1 187 184.8 183.3 182.9 181.2 179.3 177.9 175 172.6 171.8 169.1 166.5 161.7 155.6 154.4 150 145.3 140.8 139.1 135.3 133.2 134.8 134.6 134.5 137.5 148.3 155.6 163 170.7 182.5 194.3 199.6 204.1 206.3 206.7 205 206.4 207.8 207 205.5 204.3 205.4 208.9 214.6 223.3 234.9 252.9 263.7 265.2 265.4 263.9
499.8 491.7 490.1 489.6 491.2 494.1 496.5 499.8 499.1 496.8 492.4 486.6 485.9 482.5 469.4 440.5 413.4 384.3 369.5 358.2 348.2 337.3 325.7 316.6 307.2 296.3 287 272.8 268.5 258.1 249.8 239.9 231.4 223.3 216 207.9 203.2 193.8 193.5 191.8 187.3 185.7 186 187 192.7 199.1 210.7 231.8 253.3 267.2 282.2 291.6 305.4 312.9 311.3 321.9 322.2 316.4 310.7 306 303.4 296.4 292.8 288.2 281.2 278.9 276 267.8 264.4 258.6 255 251.7 254 254.7 251.6 250.7 258.4 263.2 262.9 266.2 266.9 269.1 275.1 277.5 277.9 277.5 280.7 281 278.8 280.5 282 282.3 283.2 282.9 283.5 284.4 285.5 285.3 285.5 282.7 281.8 282.8 284.2 282.6 282.1 282.7 282.6 283.4 282 278 273.2 268.7 263.7 261 257.6 253 252.1 249.3 247.9 245.9 246.8 246.3 244.4 243.5 242.7 242.3 240.2 238.3 237 235.3 231.5 229.8 227.8 224.2 222.2 220 216.4 213 208.7 204.6 201.6 201.6 201.4 200.3 196 191.6 193 195.2 195.9 193.1 189.3 189.4 188.2 187.2 184.6 182.3 181.4 181.9 181.7 178.9 175.6 172.7 166.7 166.8 160.9 154.2 149.6 145.1 142 138.2 134.4 133.8 132.7 132.1 134.9 141.5 146.2 157 167.7 175.6 184.5 189 193.3 197.8 200.2 202.4 206.2 206.1 204.2 201.9 202.2 206.9 211.7 219.3 230.1 242 247.9 247.2 246.5 246.7
493.5 489.7 488.7 490.6 493.1 497.1 500.8 499.3 498.2 491.1 486.1 483.6 486.2 481.6 470.7 448.5 425.8 395.7 382.4 372.6 358.7 345.6 336.2 325.6 315.5 307.6 295 287.3 276.4 273.2 259.9 255.6 240.6 233.2 222.2 212.8 207.2 199.8 197.6 194.4 190.2 186.1 184.8 185.3 185.1 191.3 203.6 220.9 231.3 247.9 264.8 280.2 285.8 295.3 307.6 322.5 328.6 320.8 313.1 300 292.5 288.5 288.3 283.8 278.1 273.8 272.1 268.3 260.5 254.5 253.8 248.1 244.6 245.8 246.8 243.7 250.5 254.9 257.3 260 261.3 264.4 270.5 274 274.2 277.4 279.6 280 283.1 282.5 285.1 287 288.3 290.9 294.8 294.7 294.6 292.4 290.8 289.5 289.8 291.4 289.2 289.5 293.1 294.9 293 295.2 293 287.7 282.5 277.3 271.4 269.9 266.2 262.5 260.2 257.6 256.5 255.9 253.9 253.8 255.2 253.1 253 252.5 251.4 249.2 246.8 243.7 239.7 238.4 236.2 233.2 231.6 227.7 226.4 220.2 216.3 210.4 210.4 207.5 206.5 206.7 201.3 204.1 204.9 202.7 203 202.4 199.7 195.9 196.3 193.5 191.4 189.2 189.4 190.2 188.6 187.3 180.2 182.3 179.1 175.4 171.4 165.6 161.8 154.3 149.1 143 138 136.1 135.2 133.2 131.5 130.8 130.1 137.4 149.3 165.9 173.9 179.7 187.4 192.9 197.4 201.6 202.7 203.6 203.9 200.8 200.7 205.6 208.3 215.2 223.4 228.1 230.9 229.4 233 233.2
484.9 481.8 482.1 487.2 486.4 491.8 490.1 489 485.2 481.7 479.9 478.1 477.5 474.8 469 453.3 430.9 407.6 399.7 382.6 372.8 358.7 345.4 334.3 327.6 315.2 303.5 298.9 296.4 283 274.9 264.3 254.1 246.2 235.8 222.6 215.5 209.2 201.8 200.1 192.5 188.9 185.3 184.2 184.3 184.2 195.1 210.3 222.4 234.5 249.6 261.7 273.1 285.9 297.7 314.8 324.8 320.6 311.6 301.8 295.5 289.1 285.1 281.5 273.5 269.8 268.8 266.9 259.1 253.2 251.2 246.4 240 239.6 240.4 238.2 243.1 251.1 251.8 256 255.2 258 265.8 271.6 274.5 278.8 282.3 285.3 284.6 287.4 290.7 292.3 295.9 300.6 303.1 300.9 299.7 297.8 296.2 296.4 299.3 297.8 298.8 300.4 305 306.5 303 299.9 295.3 293.9 290.3 283.9 279.5 276.2 272.2 269.7 267.9 265.3 264.4 263.8 263.4 264.2 263.9 263.8 263.5 263.7 262.4 260.1 256.3 253.9 251.8 249.7 247.9 244.7 241.9 239.3 232.4 230.3 224.3 218.9 217.8 213.5 210.4 210.3 205.9 211.4 213.3 210.8 209.6 207.8 206.7 203.6 203.5 203.6 201.4 200.5 197.7 197.3 193.7 190.1 191.4 191.6 188.3 182.3 178.9 175.2 173.3 165 157.6 149.7 143.1 141.7 142.5 146.6 149 143.5 133.2 129.8 134.9 154 163.6 170.8 181.8 189.2 195.5 201 203.7 204.6 203.6 201.2 196.8 203.2 205.6 210.8 215.1 217.2 218.6 218.1 224 227.1
477.4 474.8 473.8 476.6 475.5 475 477.7 475.2 475.7 473.5 472.3 473 470.8 468.1 460.7 455.7 445.2 427.3 415.8 399.5 390.2 369.8 355.9 346 333.7 326 317.7 311.5 303 291.7 284.3 274.8 269.9 259.5 246.9 231.6 225.9 218.2 212 207.8 195.1 190.7 188.7 185.1 184.4 184 185.9 200.4 213.3 225.5 237.7 246 260.9 280.7 287.8 302 314.3 315.4 308.7 300.8 296.5 290.1 285.5 279.6 272 266.5 263.2 261.4 255.9 249.3 246 244.5 239.8 239.1 232.7 231.2 237 243.8 247.1 251 252.8 254.6 261.5 268.4 272.4 276.6 280.4 285.2 287.3 291.4 294.6 298.8 303.7 305.3 307.1 305.5 304.1 303.3 302.3 301.9 302.3 302.5 306.5 309.9 314 313.7 309.9 304.2 300.9 298.6 295.7 289.7 285.4 281.5 277.5 274.2 276.2 276.9 274.9 274 274.2 274.1 273.6 274.2 275.2 276.4 274.6 271.2 269.3 267.6 264.3 263.1 259 255 251.9 248.3 242 238.5 234.2 227.9 222.8 219 215.8 214.3 214.8 219.1 220.4 220.3 216.7 214.7 212.2 210.9 212.5 209.9 209.4 206.8 204.7 201.5 196.5 196.4 197 195.5 195.3 189.9 183.5 181.7 181.4 174.4 168.9 157.8 150.2 149.8 150.2 151.4 149.3 143.1 135 135.7 129.1 137.4 152.1 162.3 173 183.3 190.2 197 200.6 200.4 200.3 200.5 196 196.9 202 204.3 208 208.5 208.8 210.7 217.6 220.2
468.5 467.2 463 459.9 456.7 460.4 463.6 464.6 466.1 465.3 467.4 469.7 469.5 466.8 466.6 465.5 459.6 444.5 427.6 412.2 399.8 380.6 371.8 357.3 344.2 338.5 329 318.8 315.2 303.4 294.6 285.4 280.9 272.2 258.6 247.9 238.1 229.3 217 213.6 200.8 194.3 191.7 187.9 184.9 184.4 183.4 188.6 200.1 213.2 228.4 234.4 253.6 271.2 278.6 284 293.9 299.6 297.4 297.9 291 286.3 283.3 276 272.7 266.7 261.9 256.7 252.5 249.3 244.3 243.5 236.8 237.4 233.3 225 229.4 240 245.1 247.1 249.4 250 256 262.9 269.1 278.8 281.3 286.1 290.1 293.6 298.1 303.4 306.9 309.4 307.6 307.7 308.6 307.3 306.6 306.6 306.3 308.4 313.5 316.1 319 320.1 314.7 309.7 305.9 302.8 301 298.7 293.3 290.3 287.6 289.4 289.3 291.3 286.6 283.9 285.3 285.9 287 287.7 290.6 287.6 286.5 287 283.2 278.4 276.4 272.4 267.3 262 258 253.8 248.7 243.3 238.6 233.6 226.6 223 219.8 217.4 223.1 225.8 226 226.7 229 228.8 222.3 218.8 218.6 216.1 214 212.1 207.4 203.5 200.1 199.5 198.2 198.1 197.1 193.1 188.7 187.7 186.9 182 175.1 164.2 159.2 156.1 154.4 151.5 147.8 145.1 134.3 134.6 131.7 126.1 143.6 152.1 165 170.8 185 189.2 190.5 192.7 194.1 195.3 192.8 192.5 194.5 194.9 199.8 198.8 200.2 204.2 209 214.1
458.2 451 449.4 449 444.5 447.6 450.3 453.6 453.2 457.1 460.6 463.7 468.2 469.9 470.5 469.9 465.8 451.4 434.2 421.4 408.3 391.9 380.2 367 355.7 349.7 337.8 330.4 325 315.9 310.1 298.2 290.7 286.4 273.1 259.2 248.7 235.7 227.2 218.4 204.9 199 197.7 193.4 185.9 184.3 181.9 182.5 192.3 205.3 215 221.2 238 250.3 264.7 272.3 281.9 289.1 293.8 294.8 288.1 280.7 278.4 275.5 273.4 266.2 262.1 255.3 253.5 247.6 242 240.3 234.4 236.1 230 224.1 223.1 230.7 240.4 242.7 244.6 247.3 253.2 260.6 269.8 279.1 282.7 289.4 290 294.8 297.8 303 304.8 305.9 307.9 309.6 312.2 310.6 309.4 314.7 315.5 314.6 319.7 320.4 322.7 323.5 321.1 317.5 315.7 313.5 309 307.8 302.8 299 300.2 296.6 299.3 295.4 291.6 294.5 295.2 297 297.9 296.4 296.2 296.3 296 296.9 291.4 286.6 281.9 278.8 274.8 269.1 263.1 258.9 253.7 246.7 242.4 233.2 228.7 223.7 221.5 228.9 232.4 235.2 236.8 243 247.3 242.7 234.5 229.8 225.6 221 216.4 213.3 211.4 206.9 203.5 204.3 202.4 199.8 198.2 197.8 191.5 191 189.6 186.3 181.2 172.5 167.6 160.4 156.9 157.1 150.4 145.7 142 133 130.3 128.6 136.4 144.9 155 166.3 177 177.5 179.5 182.2 184.6 187.6 187.9 179.5 185.4 182.6 181.9 185.8 191.4 196.9 201.9 207.9
447.4 445.5 438.9 438.3 439.2 442.1 442.4 445.4 447.8 452.2 456.2 461.6 466.7 470.9 471 469.1 460.9 453.3 443 428.6 412.9 399 389.8 379.2 369.7 359.7 352.1 342.7 336.6 327.8 319.3 310.8 300.8 293.3 281.1 271.2 258.6 245.3 236.3 219.7 211.9 203.9 201.5 198.2 192.5 184.3 183.1 182.7 181.2 195.8 209.3 216.6 228.5 240.5 254.1 268.2 272.1 282.6 287.7 298.8 290.4 280.4 276.6 269.5 265.8 264.3 258.6 253.7 250.5 249.1 242.1 237.9 231.9 233.9 228.5 222.3 215.5 222.7 232.4 239.9 242 244.4 250.1 254.7 268.4 279.8 282.1 286.3 287.1 290.9 294.6 298.4 300.2 302.2 304.7 306.5 310.6 312.5 316.3 319.7 322 324.4 324.5 324.4 328.8 328.9 328.7 328.3 327.6 326.1 320.8 318.7 315.3 310.8 308.7 303.6 298.5 296 295 297 299.2 303 303.1 299 297.4 301.3 301.6 298.1 294.2 289.9 286 282.9 278.5 273.2 268.3 262.7 256.5 248.2 242.6 234.4 227.2 228.3 230.8 237.5 243.9 247.8 253.2 259.3 261 257.2 247 241.7 234.3 226.6 221.2 217.1 214.7 210.1 206.9 204.3 203.1 200.4 199.8 197.5 195.7 193.2 191.5 188.7 186.6 181.4 176 167.6 161.7 160.2 155.7 147.3 142.1 135.2 129.6 128.8 128.5 137 142.9 157.6 160.7 166.5 166.3 171.6 174.2 176.4 179 165.7 172.5 175.1 174.3 178.9 183.7 191.4 194.9 194.7
436.1 431.2 430.4 433.3 437.5 440.5 440.1 436.9 438.9 443.5 449.1 455 460.3 463.1 465.5 462.5 457.7 451.3 443.4 431 417.5 403 394.3 385.1 379.3 368.1 360.6 351.7 344.6 338.1 328.8 320 313.9 300.9 292.4 279.2 268.2 256.8 241.2 232.7 221.6 213.7 207.1 201.7 195.3 188 183 182.5 181.6 184.2 195.3 206.7 218.1 226.4 239.6 250.9 267.8 275.5 281.1 282 284.7 273.7 273.1 265.9 265.3 257.7 251 246.5 246.3 244.5 238.1 234.1 227 228.6 224.4 220.5 214.6 216.9 224.3 232.8 239.6 245 248.9 253.4 263.8 270.7 278.2 282.4 284.5 283.9 287.5 290.6 293.4 295.4 299.4 304.1 306.8 313.5 321.8 325.2 326.8 325.5 325.7 327 334.1 337.6 333.8 333.2 336.1 331.2 329.4 326.9 322.9 315.9 310.6 304.2 300.9 298.6 298.4 299 298.7 299.1 299.1 297.6 295.3 296.8 299.2 297 293.4 288.7 287.1 283.2 278.5 275 269.8 264.7 258.6 249.7 244.6 232.9 233.2 235.1 240.7 248.2 257.9 261.9 264.1 267.7 267.9 263.4 257.5 249.8 242.2 235.8 230.7 223.5 217.4 211.7 207.7 206 202.5 201 200.5 197.9 196.3 195 193.6 191.3 188.1 186.1 181.8 174.9 166.8 160.5 156.8 151.5 145.9 134.4 129.9 128.7 126.7 126.9 130.3 139.2 144.6 156.3 156.1 158 162.5 165.1 167.8 167.6 156.5 165.9 165.9 174.5 180 184.9 186.5 186
423.3 424.9 425.4 429.5 431.9 433.3 432.6 432.3 433.1 435.5 442.8 445 450.2 455.1 458.8 459.6 457.4 450.8 441.6 429.4 420.7 406.6 399.4 389.1 382 373.9 366.8 359.8 350.8 343.1 334.3 323.9 316.3 306.4 297.6 285.3 274.8 263.1 254.6 245 228.8 220.5 213.8 205.1 197.3 190.3 184.2 182.4 182 179.8 187.3 198.1 209 219.1 228 244.7 256.1 267.3 274.6 277.5 270.4 270.8 264.2 258.4 253.5 245.3 241 238.9 237 234.1 229.2 225.3 222.1 220.3 218.1 214.4 209.4 204.7 208.9 220 233.8 237.4 244.4 249.9 255.4 259.9 265.9 270.8 273.1 275.4 279.7 283 285.1 288.4 293.6 299.2 304.8 309.9 321.5 327 327.4 325 326.8 333 333.6 338.7 338.4 335.9 334.2 333.8 332.4 328.7 320.8 314.3 312.1 309.5 305.4 304.1 300.1 299.7 298 294.7 293.3 290.7 291.8 290.7 290.2 291 289.6 286.4 285 281.2 275.8 272.4 269 264.6 259.2 249.8 242 238.8 240 243.9 250 257.3 266.8 270.1 271.9 277.6 277.5 273.6 265.3 255.7 249.7 243.2 235.5 231.5 225.6 219.2 214.1 207.3 202.3 202.1 202.7 201.8 197.9 196.9 195 191.4 189.9 186.6 182.6 178.3 171.2 163.9 161.2 155.7 150.6 141.8 130.5 130.3 125.6 126.1 125.5 128.2 131.1 137.3 133 145.2 150.1 153.4 155.7 156.7 147.8 158.1 157.1 165.3 172.7 177.5 178.1 178.7
415.1 417.5 418.9 423.7 425.1 424.7 422.1 427.6 427.6 430.3 437.8 438.4 442.2 448.4 453.2 456.1 455.8 449.7 440.9 430.7 423.1 411.9 405.5 395.4 385.2 380.5 371.8 363.3 354.7 345.3 335.5 326.8 317.9 309.7 299.8 290.9 280.6 268 259.8 248.1 236.7 227.3 219.2 209.7 200.6 190.8 185 182.5 181.7 180.7 182.2 189.3 193.5 204.7 217.7 233.1 249.2 259.3 264.5 262 258.4 259.9 249.4 246 239.6 233.1 230.1 227.3 224.8 220.3 218.2 216.4 214.8 212.4 210.2 207.8 204 202.8 208.8 214.5 223.1 230.9 240.2 244 249.2 253.9 259.4 256.8 264.6 265.9 269.5 273.7 277.8 281.8 290.3 296 301.6 308 312 320.9 322.7 323.3 325.3 327 328.8 333.3 337.2 334.9 329.7 327.9 323.2 318.9 311.9 310.6 311.6 311.8 306.3 303 298.4 294 291.2 288.5 286.4 283.8 282.8 282.5 284.5 286.7 287.3 286.4 283.1 279.4 276.3 271 266.6 261.3 255.4 242.8 243.4 246.4 247.6 253.9 261 267.3 274.4 279.7 282.1 288.3 285 278.4 268.8 261 255.7 248.2 242.5 236.1 230.7 224.4 218.7 212 208.6 203.9 203.3 201.5 198.2 196.4 193.8 191.3 189.2 185.4 182.9 178.3 173.9 170.1 164.3 158.1 153.5 147.5 136.2 131.4 128.5 124.1 125.8 121.4 125.8 126.6 125.8 128.5 133.6 139.5 144.2 146.5 139.7 150.7 150.4 159.3 162.7 166.5 171.9 173.2
406.5 409 413.5 417.1 418.2 413.9 417 422.1 422.4 428 431.1 433.6 438.3 442.6 448.4 451.5 449.8 448 443.6 434.3 422.5 415.6 407.5 395.7 391.2 382.9 375.9 367.6 358 349 340.9 333.4 324.1 314.2 303.6 294.3 284.9 275 264.5 252.2 244.3 234.4 224.6 213.3 202 192.2 185.7 182.8 181.4 184.3 178.5 181.5 186.2 191 198 215.7 230.2 244.8 254.3 246.3 244 238.8 231.6 226.2 222.8 217.5 215.6 214.4 212.4 209.6 207.4 206 204.2 204.4 203.4 201.4 200.9 200.2 204.3 207.8 215.7 224.3 231.3 236.1 242.2 248.6 251.3 253.1 254.5 256.9 257.6 263.2 272 277.7 283.7 292.1 298.5 304.4 305.2 306.2 310.6 319 320.6 320.5 323.1 328.2 327.8 325.1 320.1 315.7 311.5 307.6 307.2 312 310.5 306.5 302.3 297.1 292.1 288.7 284.8 282.7 279.5 277.9 275.9 276.8 279.2 283.2 287.8 284.7 282.1 278.5 274.5 270 265.8 259.4 249.5 251.4 252.7 256.4 258.4 266 271.4 278.3 284.9 287.2 290.9 294.6 288.6 281.3 272.4 267 259.9 253.5 246.4 241 235.1 229.2 224.3 216.9 209 207.4 205.9 204.8 199.6 196.5 195.6 192.1 189.1 185.3 182.6 180.2 175.8 166.7 148 140.7 138.6 138.6 140 133.9 129.6 128 126.2 124.5 122 123.7 124.3 124.1 124.4 125.5 127.6 134.6 134.7 142.8 141.3 147.9 153.7 160.5 164.1 171.3
399.1 400.2 407.3 409.5 410.5 409 412.1 417.4 419.1 420.7 422.3 427.9 432.3 438.2 444.6 449.9 453.5 449.1 446.4 437.6 427.1 415.7 406.5 399.8 394.8 384.4 376.3 373.2 364.8 356.2 347.3 338.5 328.7 317.5 309.1 299.1 287.3 279.6 267.5 259.4 248.4 239.9 230.4 218.5 206.5 194.9 187.4 184.6 180.8 180.4 180.9 178.3 180.1 183.8 188.3 203.7 211.5 226.7 224.8 228.3 229 224.1 221.6 216 212.6 208.8 206.8 204.8 200.5 200.1 198.6 198.1 197 196.4 195.9 195 194.3 195.2 195.9 200.2 205.7 212 218.4 223.5 229.6 234.7 244.7 246.7 247.5 246.7 248.9 260.1 268.4 274.1 281.8 286.8 290.8 293.8 294 293.4 298 304.2 310.8 315.1 315.3 322.1 319.7 316.6 312 307 302.3 301.9 301.2 301.2 298 296.1 292.6 288.5 285.3 281 276.2 274 272.9 271.2 270.4 268.9 272.5 275.5 277 277 276.4 273.5 268.5 266.2 262.7 256.8 256.4 257.7 261 264.1 268.7 276.8 283.2 291.9 294.6 296.8 298.5 296.9 292.2 284.6 276.5 268.8 263.9 257.1 251 245.2 239.2 232.2 225.3 219.9 210.9 207.2 207.8 206.4 201.5 198.1 195.2 189.9 184.3 180.6 180.3 177.3 170.9 162.7 167.3 162.1 157.1 151.6 142.7 140.5 131.8 129.7 127.2 125 124.9 121.1 121.5 121 123.5 123.7 125.5 128 128.9 131.3 135.1 140.9 150.9 159.4 159.1 168.8
400.1 396.9 400.7 403.9 403.4 404.7 408.4 412.5 410.2 410.3 417.4 424 428.3 434.2 442.1 448.1 451.4 448.3 442 435.8 428.7 419.8 412.8 403.3 395 390.9 385.4 380.1 370.7 362.2 354.2 345.2 334.2 325 313.4 305.7 293.7 286.2 277.6 267.2 255.1 244.4 234.4 224.1 212 200.3 191.4 185.8 182.2 179.6 178.9 178 175.6 179.4 180.4 185.1 194.7 201.2 199.3 206.3 209.8 213 211.6 207.7 203.9 200.2 197.2 193.6 189.8 189.9 190.1 190.7 189.1 188.7 190 188.6 188.9 190.4 189.4 192.4 198.5 199.3 203.8 209.4 214.2 221.7 231 237 239.5 241 245.5 258.3 261.9 272.7 276.4 280 288.1 287.3 286.8 284 285.7 290.7 298.1 304.4 309.6 313.5 311 306.2 301.8 297.4 294.8 294.1 291 287.7 284.4 282.6 281.4 277.7 273.6 270.2 265.4 263.9 263.3 263.2 262.4 263.9 266.2 268.4 268.7 272.3 274.4 273.7 269.8 265.5 262.3 259.2 260.8 264.4 267 273.9 281.2 288.4 293.8 301.8 302.9 302.6 305 304.1 299.8 292.4 282.5 273.6 267.7 262 254 247.7 241.9 235.5 228 221.7 217.4 211.4 207.8 204.8 201.1 197.7 196.7 193.4 188.8 186 183.8 181 178.2 173.8 169.7 165.4 160.9 153.1 146.8 140.1 135.5 131.3 128.4 125.3 124 123.9 123.5 121.1 120.7 119.4 123.8 124.6 125.1 125 131.1 135.4 144.6 149.8 152.9 166.4
399 395.9 396.8 398.3 398.2 401.7 404.2 406.3 405.5 407.8 414.7 421.1 424.4 432.4 439.5 446.8 452.9 450.8 444.9 441.6 435.7 425.8 413.3 404.2 400.5 398.3 391.5 385.1 379.6 372.6 361.6 351.5 343 330.9 322.3 309.5 300.3 288.7 285.5 274.7 261.4 253.5 239.3 229.5 218.4 206.3 198.4 189.9 184.7 180.9 180.1 176 174.5 175.7 176.9 177.8 182.7 182 186.5 191.1 193.2 198.1 196.1 195.1 192.5 189.7 189.5 184.1 182.5 183 185.3 183.3 183.6 182.9 183.7 181.8 184.4 184.7 184.4 183.9 184.5 188.4 193 197.1 201.9 206.7 215.7 223.4 230.3 237.4 237 249 257.2 264.7 270.9 276.3 277.4 280.4 281.4 277.9 278.5 281.5 288.6 296.1 298.5 302 299.3 294.7 291.5 290.3 286.8 284.9 281.4 278.2 276.2 274 270.4 267.1 261.8 258.2 255.1 254.2 255 255 255.8 255.8 257.8 262.3 268.3 273.4 275.3 273.5 270.7 269.6 266.7 265.7 269 272 277.9 285.6 290.5 296.6 302.6 307.3 307.4 312.8 317.6 319.5 311.4 298.5 287 278.3 270.9 262.8 253.4 244.5 238.7 233.1 227.9 224.2 218.6 212.9 209.2 204.2 200.6 202.7 202 195.8 196.1 192.7 187 184.4 181.5 178.8 172.9 170.1 164.5 158.6 152.4 145 140 134.7 131.4 125.6 123.8 123.1 122.8 123.2 120.8 120.1 120.2 120.4 120.3 121.2 122.1 127.7 139.7 141.5 150.5 160.1
399.3 396.6 394.1 395.7 395.4 398.6 400 399.8 399.8 407.5 411.1 417 422.4 430.1 439.2 446.6 454.4 458.1 453.9 448.3 441.2 429.6 420.4 411.8 406.5 405.4 400 397.7 391.5 382.7 376.2 366.2 352.2 342.1 330 319.4 308.1 297.4 288.2 279.1 269 262.7 246.8 236.9 219.6 215.4 204.1 198.9 192.4 186.8 181.5 179.8 177.4 173.9 171.8 173.6 173.9 174.6 177.3 183.4 184.1 186.5 189.2 188.1 185.2 183.8 180.4 180.3 177.6 178.5 178.3 177.4 178.5 180.4 178.5 177 179.7 178.9 177.2 177.3 177.6 180.8 182.3 186.4 188 195.6 200.5 209.6 218.4 226.4 232.2 238.5 241.1 249.5 257.3 268.9 274.1 275.4 273.4 273.8 274.3 274.9 278.9 284.9 289.8 290.9 288.2 283.9 283.8 283.2 280.8 277.5 274.4 270.7 267.1 263.6 260.6 257.4 252.8 249.6 247.6 248.6 246.1 247.9 249 251.3 259.3 264.5 270 273.7 277.2 275.9 273.4 272 272.8 276 279 282.8 287 294.5 299.2 304.2 309.4 311.1 316.8 318 318.2 310.2 301.9 291.8 287.2 278.7 269.3 262.6 254.5 246.1 237.9 232.2 227.4 226.2 222.2 216.7 210 207.6 208.4 208.6 207.1 207.1 203.8 198.6 191.6 188.4 183.8 182.7 178.9 174.4 170.4 165.7 159.9 151.3 148.3 141.9 136.6 132.2 127.2 123.3 122.2 122.4 120.8 119.5 119.9 120.2 119.4 119.1 119.9 123.1 126.5 135.5 145.8 151.8
399.7 397.2 394.7 391.7 391.7 393.6 394.7 393.5 398.4 405.8 408.2 413.8 420 430.4 439.3 448.7 454.3 459 460.6 454.4 445.7 434.9 426.5 419.9 415.1 412.7 410.7 406.9 402.9 398 389.9 378.7 365.8 352.8 340.5 326.7 319.1 308.3 296.9 284.9 275.6 261.2 242.4 242.9 235.5 226.6 214.4 210.1 204.1 193.8 186.4 182.6 180 177.2 176.4 175 173.5 171.5 171.9 177.2 185.1 184.6 183.2 181.5 180.6 177.6 178.7 176.2 174.3 173.8 173.1 173.4 174 175.1 174.6 173.8 174.9 172.7 173.2 173.2 173.5 175.3 174.9 176.2 176.1 186.9 187.4 197.3 205.7 215.3 218 226 234.5 235.5 254.5 261.8 268.3 271.6 268.8 268.4 268.1 266.8 269.2 270.6 273 275.1 274.7 273.9 273.6 271.2 270 266.7 264.8 262.4 259.1 256.5 252 247.3 242.8 239.5 240.2 240.3 242.2 241.6 246.5 251.6 259.9 268.5 274.1 278 276.2 276 278.3 279.5 282.4 285.5 286.6 290 293.6 301.3 307.4 312.3 318.5 314.5 311.8 309.8 303.6 295.2 290.6 286 279.3 273.1 267.2 259.6 253.7 245.6 238.1 232.5 229.9 227.6 222.8 214.9 217.6 217.3 216.3 214.6 214.8 213.5 208.7 203.5 194.5 193.9 192.4 189.3 184.9 181.7 176.9 171.6 167.5 165.6 158.5 153 148.9 141.8 135.6 130.3 123.2 121.7 119.9 119.2 117.2 120 119.4 118.8 118.7 120.4 120.5 125.9 135.4 142.4
404.5 399.9 396.1 392.5 387 388.8 388.5 390.7 393.8 397.6 403.1 411.5 418.2 430.1 442.2 450.3 455.1 455.7 457.3 454.6 448.6 441.8 433.4 426.6 423.3 419 418.2 417.2 415.8 412 404.7 388.3 375.9 362.6 349.3 337.5 326.1 316.6 304.2 292.6 281.3 271.2 261.3 257.1 248.4 238 230.3 223.5 216.6 207 198 191 184.8 180.6 177.8 175.8 175 174.2 172.6 170.4 176.3 182 184.7 184.1 182.3 177.8 174.9 174.9 173.7 173.5 173.1 172.7 172.5 172.5 173.1 172 173.1 171.6 170.3 169.3 169.7 170.3 169.7 171.2 175.3 177.2 179.8 186 190.8 198.3 208.2 216.2 225.2 231.8 248 255.4 260 261.5 259.1 259.5 262.5 259.6 259.1 258.6 258.9 262.5 264.1 264 263.2 264 261 257.8 256.3 253.4 252.9 247.5 244.5 240.5 237.2 233.4 234.3 234.8 236.4 241.9 247.2 252.1 261.2 268.9 274.9 278.2 277.8 281.7 287.8 292.5 294 292.9 294.8 295.7 299.3 311 316.5 319.8 321.9 314.1 306.7 300.7 293.6 287.6 283.8 280.2 274 269 263.6 256.5 251.4 246.2 236.1 233.3 229.7 223 224.1 224.7 225 225.3 223 222.9 220.8 217.7 212.6 210.9 209.6 204.4 198.8 196.3 191.9 188.2 184.1 178.1 176.8 175.5 171.8 164.4 160.4 155.6 145.4 140.3 133 125.6 120.1 119.1 118.5 119.1 118.7 118.9 117.9 118.4 117.5 116.5 122.7 127.5
408.3 402.1 395.6 391.2 386.6 380.8 382.7 386.3 388.8 391 397.6 406.7 415.6 427.9 437 444.1 450.3 451.4 451 452.1 453.4 446.3 439.4 433.3 429 426 426.7 427.7 425.4 422.4 415.5 400.6 387.6 370.5 357.9 343.8 333.7 323.4 311.2 295.6 293.3 279.5 275.9 266.8 258.8 250.3 242.5 234.2 227 218.7 208.2 202.5 196.1 190.1 183.1 179.6 175.8 173.6 174 171.9 169.7 170.7 174 174.8 175 174.4 173.9 173.5 173 173.8 173.1 172.5 172.5 172.3 171.7 171.3 172.2 171.1 169.9 169.1 168.2 167.1 167.3 169.3 174.7 171.3 176.8 183.7 186.2 190.4 195.7 202.3 211.8 226.6 239.7 245.5 249.2 249.8 246.4 247.4 249.8 248.3 249.9 249.1 250.4 252.5 254.1 254.3 254.8 254.6 250.4 250.2 248.9 245.5 244.5 241.6 239.8 233.9 232.1 230.3 230.1 233.4 238.9 243.6 251 258.1 263.9 271.2 275.1 280.9 286.3 291.9 297.8 299.6 299.5 299.3 300.4 302.1 308.9 318 323.3 321.1 314.5 307.5 299.8 293.8 288.9 284.7 280 275.6 270.7 266.1 261.2 250.5 247.4 240.9 239 236.3 234.5 235.8 233.1 232.2 232.4 230.1 230.2 227.4 224.1 223.6 222.5 219.2 215.9 213.3 208.9 204.5 202.5 197.5 191.7 189.1 190.5 183.5 180 173.8 170.2 164.2 157.4 154.3 147.2 142.9 138.1 134.7 126.3 120.2 116.7 115.9 115.4 114.2 116.6 115.8 115.3 117.1
411.4 401 395.4 390.6 387.4 382.2 378.1 384.3 384.4 383.3 389.8 399.6 410.1 419.6 428 434.8 441.6 444.7 447.1 448.5 450 451.8 445.5 440.3 435.9 433 432.1 434.9 436.3 431.4 423.2 410.7 395.2 384.1 370.9 355.7 341 326.8 317 306 302 289 283.9 275.4 267 261 254.2 245.8 238.1 228.1 219 216 208.8 204 196.8 190.8 182.8 177.1 174.4 173.2 172 169.2 169 168.1 168 168.9 169.9 169.7 169.8 170 170.1 171.2 172 171.5 171.7 170.4 170.9 170.6 169.6 169.2 168.3 167.8 166.7 165.3 163.6 167.2 173.7 179.1 182.7 187.3 189.6 188.3 199.4 214.5 223 231.9 236.1 235.8 239.5 239.3 242.4 238.6 239.1 238.5 241.6 243.8 245.1 246.3 244.1 242.4 242.7 240.9 237.9 238.9 237.5 236.7 236.6 228.5 224.3 224.6 230.6 234.5 239.2 245.5 251.9 259.6 265.9 272 278.6 285.4 294.4 300.9 303.3 304.5 304.5 305.6 306.9 312.1 317.8 324.6 324.8 315.6 308.4 301.8 296 289.2 282.9 280.5 277 271.8 266.7 260.2 254.5 250.3 247.4 246.8 246.6 244.3 241.3 241 239.7 238.6 238.1 237 235.8 233.2 230.4 229.3 228.7 228.6 227.1 223.8 219.1 213.7 211.5 199.1 204.5 202.5 198.8 193.2 191.8 186.2 180.5 176.2 171 165.8 163.1 159 154.5 153.9 147.7 141.3 134.3 127.3 120.5 117.3 116.4 115.8 114.6 114.6
408.5 403.7 396.3 390.8 386.1 381.2 375.6 380.3 381 379.6 383.1 390.9 400.2 409.2 415.4 425.5 433.8 438.1 441.4 446.7 449.7 454 448.8 444 439.6 437.1 440.2 441.3 438.6 430.9 423.4 410.3 399.6 388.2 374.4 359.6 345.5 334.3 321 315.6 301.1 297.3 290.4 282.5 276.3 270.1 264 256.6 248 235.8 233.3 226.8 219.7 213.9 207.7 202.2 196.5 188.4 183.9 178.2 175.7 174 173.1 171.8 170 168.5 166.5 165.6 167.3 166.1 166.4 167.7 168.6 168.4 168.4 166.1 169.2 170.2 170.4 170.3 170.1 169.2 167.9 167.7 167.3 160.6 166.6 173.2 178.1 183.1 181.3 181.7 186.6 199.4 207.4 212.9 215.4 218.9 216.7 228.7 226.1 229.8 226.7 227.4 231.7 237.1 235.1 234.4 233.8 232.6 232.7 231.5 233 233.4 229.7 228.4 228.5 222.1 222.3 225.8 233.1 233.7 238.6 246.2 252.1 260 267 274.1 282.2 292.8 298.7 303 306.3 310 311.5 313.8 318.3 321.7 323.7 326.2 314.9 306 299.5 293.4 289.8 284.5 279.4 277.7 276.5 272.6 263.6 261.7 255.6 254.5 253.6 254.2 254.6 252.4 248.4 246.9 248.1 247.2 245.1 242.6 240.4 237.5 237.1 235.8 239.4 238.3 233.1 231.6 222.6 217.7 217.7 211.8 212.5 209.3 205.2 203.1 199.4 195.7 191.8 189.7 185 182.5 180.2 174.6 169.5 167.3 166.8 161 150.5 141.7 130.4 120.6 118.5 115.9 114.8 116.2
407.6 399.1 395.4 391.7 387.2 380.5 376.9 369.8 375.6 376.7 377.2 382.1 389.5 397.3 404 414.6 423.7 430.9 439.3 445.3 447.6 448.7 447.9 445.1 442.2 442.7 441.8 437.2 431 422.8 414.4 405.7 396.1 388.1 372.9 361.5 349.2 335.7 325.9 313.2 310.3 303.5 296.5 289.7 282.7 276.6 269.6 263.9 253.6 248 243.3 236.9 230.8 224.5 217.9 212.8 206.4 200.4 196 190.8 186.4 186.1 182.1 179.3 175.9 173.2 171.3 170.2 169.5 167.9 167.1 165.2 163 163.4 163.5 163 162.6 162.6 162.8 162.4 162.3 162.8 164.7 165.9 160.9 158.9 156.9 160.7 174.6 181.8 179 177.9 176.3 182 188.8 194.8 200.5 201.1 204.8 209.3 213.1 215.5 216.4 219.3 222.2 220 219.9 222.3 224.8 225.1 223.9 223.5 222.9 227.2 226.1 223.9 223.5 220 223.6 230 232.6 235.2 236.9 243.4 254.3 262.6 269.9 279.8 288.9 297 301.1 306.3 311.2 315.6 323.9 329.7 327.3 325.7 325.1 311.9 304.2 297.7 294.3 290.5 287.4 282.2 281.7 282.3 279.9 271.1 266.1 264.1 264.2 262.1 260.7 260.2 260.1 257.7 255.2 254.3 254.5 252.5 250.1 248.6 245.6 245.1 243.1 243.3 243.6 243.2 237.9 233.4 230.8 226.7 218.6 221.3 220 217.4 213.3 211.2 208.7 206.4 204.6 203.6 203.3 199.1 198.5 196.8 187 180.2 178.8 170.9 159 145.9 131.5 125 120.3 118.6 114.4 116
400.4 396.1 395.6 389.1 383.5 378.9 374 370.5 372.2 374.2 372.3 373.2 378.9 388.5 394.7 401.2 414 423.3 433.2 441.1 443.5 439.6 443.6 440.5 438.3 435 430.2 425 420.7 412.6 405 399 389 379.6 372.9 360.3 347.3 338 331.6 323.6 315 308.7 301.8 296.2 289.8 282 277.1 270.8 259 257.9 252.8 247.1 240.9 234.3 229 222.6 214.9 206.6 204.4 199.5 197 195.7 192.4 188.9 184.5 180.3 180.1 178.3 174.7 173.6 171.6 168.9 167.7 167.3 165.6 164.9 164.5 164.1 163 162 161.6 161.5 161.2 160.3 158.9 158 165.5 158.5 161.1 173.5 178.1 174.6 171.8 168.2 173 179.6 183 183.9 193.7 195.3 200.6 202.8 206 206.3 208.2 207.3 209.2 213.7 219.2 219.3 215.6 213.3 215.6 221.2 223.3 219.9 216.3 220.9 223.3 226.5 229.3 233.7 238.1 246.6 257.2 265.7 275.4 286 291.8 298.1 304 310.3 317.3 328 333.1 335.1 329.9 319.6 306.6 299.8 295.4 291.3 289.7 287.6 285 285 283.1 280.4 277.5 275.8 274.3 272.9 272 270.3 268.1 266.8 266.6 265.1 263.2 261.1 258.9 256.6 254.7 251.2 250.8 250.5 250.5 250 246.7 243.8 239.4 234.5 233.3 233 229.9 226.9 227 224.7 222 221.5 220.9 221.5 222.6 220.4 219.1 218.7 218.9 212.5 204.1 198.9 192 180 165.1 149.7 140 134.9 129.8 123.5 117 115.8
397 395 387.9 384 379.2 374.6 370.4 366.9 367.8 370.4 366.5 369.3 371.3 378.1 385.9 391.5 401.1 412.1 422.9 433.9 433.7 431.8 428.7 431.1 427.9 424.1 420.5 416.5 408.3 405 397.8 390.3 384.1 377.2 366.5 358.2 349 336.3 333.3 327.5 321.3 315.6 309 303.5 295.7 287.7 282.8 279.2 273.2 266.1 261.8 255.7 250.6 244.6 238.3 231.1 222.4 216.4 212.6 208.8 206 204.1 198.5 194.7 190.6 186.4 185.4 181.5 178.4 177.7 176.7 174.8 173.3 174.7 174.3 174.2 175 173.4 173.2 166.9 165.6 164.4 164.3 163.1 162.6 167.2 172.6 164.9 155.2 163.3 172.3 168.9 165 163.5 162 166.3 169.8 178.8 181.3 181.7 189.9 188 192 194.3 196.6 198.8 203.1 207.6 208.7 206 204.6 207.5 210.9 219.2 216.6 216.6 214.4 220.4 219.6 226.8 231.8 237.4 244 253.5 262.1 272 280.2 287.4 295.8 302 308.9 315.6 327.8 332.1 329.9 320.9 315 301.8 294.7 294.9 292 289.7 289.6 287.5 288.6 289.1 289.1 285.7 282.9 282.1 282.3 281.9 279.8 277.2 275 273.4 274.8 273.8 270.9 269 266.2 263.8 260 256.9 255.6 253.8 251.6 249.1 246.2 242.8 237.3 235.4 238.6 237.2 237 234.2 234 233.2 235 237.6 240.2 242 239 237 236.5 237.4 236 228.6 218.8 214.1 201.4 188.5 173.5 158.2 149.9 143.2 135.7 129.3 120.8 115.9
394.6 386.5 379.9 375.7 372.5 368.5 362.8 358.9 361.6 364.5 363.7 366 364.8 367.3 376.2 381.7 388 396.9 407.2 414.4 416.3 418.6 420.2 418.9 419.6 415.8 417.3 409.6 401.8 395.9 388.7 382.5 377.8 370.8 364.7 360.1 352.5 343.5 337.2 334.2 328.2 322.5 317.2 311.5 302.7 296.5 290 286 280.6 274.3 269.1 263.7 259.3 253.9 247.7 241.8 230.8 224.9 223.9 219.5 216.9 211.2 207.3 202.5 196.6 192.1 186.4 184 183 182.4 181.5 181.8 180.5 181.1 181.2 182.3 183.2 180.9 177.5 174.8 171.4 169.6 168 167.6 166.6 168.6 172.7 172.7 161.4 153.5 159.5 162.7 160.2 155 153.5 156.8 160.7 165.8 168.3 173.4 175.3 175.7 179.8 184.7 188.1 192.7 198.9 197.8 196.9 196.5 199.7 201.3 203.3 206.4 207.6 210 214.5 215 218.7 225.8 232.5 240.6 248.9 256.9 265.6 273.3 280.2 289.1 296.7 305.3 313.8 326.7 336.6 325.8 307.7 301.7 293.1 288.9 285.2 289.7 290 291.4 292.3 291.2 291 294 294.7 291.6 290 290.8 292.1 291.4 288.6 287.4 281.8 282.2 283.7 282 278.4 276.4 272.6 266.3 263.5 260.4 257.1 254 250.2 247.7 243.3 240 237.9 239.8 243.4 242 242.1 241.3 241 246.2 250.1 254.7 258.9 258.7 257.4 254.1 254.3 250.8 246.5 236.9 230.7 221 208.7 195.4 185.9 168.3 156.4 149 141.7 134 125.7 117.2
385.1 378 371.2 367.6 361.8 357.2 353.4 351.6 352.4 354.7 355.3 360.3 357.6 361.6 370.1 373.6 377.7 383.1 392.9 402.3 409.7 411.5 411.8 409.9 406.5 405.8 400.5 395.8 390.4 384.3 380.4 375.5 372.8 372 371.7 367.5 361.6 353 346.4 339.7 336.4 329.9 324.7 318.6 313.8 307.9 297 294.4 288.8 282.7 277.4 272.4 267.3 262.3 255.8 249.8 241.7 234.1 237.4 232.7 226.8 221.1 216 210.8 205.8 197.7 194.4 192 189.7 187.8 187.4 188.2 188.3 189.1 190.2 188.9 189.2 188.4 184 181.1 177.3 174.4 171.3 170.7 166.8 168.4 172.9 175.5 170.7 163.9 155.4 151 153.7 152.6 152 151.2 153.4 155.3 160.4 162 164.3 167.3 172 175.8 180.7 187.1 187.7 186.1 187.2 188.4 192.9 196.1 197 199.6 203.1 203.8 209.7 212.4 222.1 229 236.8 244.6 252.8 259.9 266.2 272.7 282.9 290.8 298.1 309.4 319.9 328.9 322.9 310.1 294.1 288.9 283 282.2 279.8 285.2 289.7 294 295.3 295.2 300.3 303.6 301.6 300.8 301.9 302.7 300.7 298.7 295.5 291 294 295.5 292.1 288.3 284.5 280 273 266.8 261.8 257.7 253.7 251.5 247.5 244.8 243.2 241.8 243.3 244.9 247 248 247.4 250 255.7 261.9 262.6 267.2 272.5 277.7 280.7 272.5 267.9 260.3 255.5 243.8 232.6 225.2 214.6 205.1 192.7 178.5 166.5 155.1 144.3 135.7 127.7 119.7
378.6 372.8 360.7 357.3 352.6 351.7 345.7 340.9 343.6 343.6 344.8 351.8 347.9 353.8 359.7 362.8 368.2 373.8 382.3 389.2 393.8 397.1 396.5 396.3 393.9 390.5 384.1 382.1 378 375.1 373.6 372.3 371.4 374.1 375.7 374.2 369.1 362.9 358.1 353.5 348.2 339.5 332.9 327.1 323.1 317.3 308.3 304.4 299.1 291.6 285.5 281.4 274.3 268.4 263.5 259.2 251.7 249.5 247.7 241.9 236.6 231.4 222.9 216.6 210.3 207.8 202.8 199.8 196.3 193.2 194 195.3 195.8 195.4 195.2 194.6 192.8 193.5 191.8 189.9 187.7 182.6 176.6 175.7 174.9 175.2 176.1 174.4 173.7 174.9 171 159.8 152.1 152 151.5 150.9 150.7 150.5 151.1 152.8 159.2 161.1 164.7 171.2 174.1 174.7 174.9 176.5 180.1 181.9 186.4 187.3 191.7 191.6 197.4 204.9 205.3 212.6 223.7 229.4 238.6 247.9 255.1 265.3 269.5 274.8 281 288 299.4 311 317.5 310.5 303.3 295.1 283.4 277.3 275.5 275.7 278.9 284.4 290.2 296.1 301.7 305 308.8 309.6 311.1 312.3 313.9 314.3 309.4 306.6 300.5 298.6 302.2 301.4 299.2 293.3 287.7 280.8 273.2 266.9 261.9 255.9 251.6 248.6 246.4 245.4 246.4 246.5 247.9 250.4 251.1 252.8 256 261 268.3 275.8 277.3 282.7 288.6 299.6 296.8 281.3 272.5 268 263.1 250 237.5 227.8 215.1 206.2 195.6 184.5 173.4 159.3 148.9 138.9 131 124.3
367.1 362.6 355.8 343.8 337.9 336.6 334 326.6 331.6 333.2 337.9 341 340.2 343.4 346.7 355.1 360.6 363.3 367.9 369.9 374.8 378.4 380.8 381.1 378.8 375.3 371.7 369.6 368.3 368.5 366.9 367.5 369.6 375.4 381 380.3 379.9 375 371.8 363.2 355.3 346.5 339.6 335.1 333.1 328.4 320.7 316.5 309.1 302 294.6 289.6 282.5 276.5 272.4 265.6 260.5 259.4 255.7 250.7 243.8 236.2 228.5 223.3 216 216.8 213 209.6 203.9 201.6 200.7 200.7 199.2 199.9 200 200.2 204 203.4 202.9 201.6 199.4 196.3 190.6 187 183.6 182.4 179.8 177.1 176.5 178.2 168.7 160.5 157.1 153.5 151.1 151.3 148.5 149.5 149.7 149.2 151.7 153.1 160 162.6 162.3 164.4 166 170.7 172.7 175.1 176 179.3 179.6 188.7 193.1 199.3 201.5 211.7 222.9 231 240 248.4 256.7 264.1 269.4 273.3 278.8 287.1 298.1 304.6 302.5 291 291.2 288.2 275.3 268.4 266.7 271.2 275.8 286 292.4 300.2 309.3 312.4 312.9 314.1 317.6 321.2 323.4 320.2 312.8 307.3 305 304.6 304.1 303.4 297 290.2 284.4 276.8 270.5 263.2 258.5 253.1 248.6 247.1 248.2 250.6 253.4 253.8 254.6 255.6 258.7 263.3 269.3 274.7 286.3 292.1 291.9 293.3 297.5 302.4 294.8 281.6 269.7 266.6 262.8 249.5 237.4 226.4 215.4 207 196.4 187 174 158.2 147.2 139.6 133.3 127.9
351.5 350.1 346.8 337.4 332.3 329.1 322.7 322 321.4 321.2 325.9 324.4 326.1 334.2 336.9 345.1 345.8 351.1 355.6 357.2 360.1 360.9 361.7 363.2 363.1 359.9 359.1 358.8 360.6 359.6 362.3 366.1 369.8 375.3 381.9 387.5 388.3 383.4 372.7 363.8 357.6 351 348.1 343.4 340.8 334.2 328.8 323.6 316.6 309.1 303.6 298.9 292 284.7 278.5 273.4 268.4 264.4 259.6 254.4 247.9 241.9 237.8 232.8 228.9 225.5 223.3 219.6 214.3 210.4 208.5 206.5 209.1 211.5 212.9 210.3 213.6 214.2 214.5 214 212.6 213.6 205.4 203.7 201.5 197.5 193.8 185.4 181.1 176.4 165.3 159.8 156.7 156.7 153.3 150.4 150.8 150.6 149.5 146.6 148.6 148.2 151.8 151.7 152.6 156.3 159.8 163.7 168.5 166.8 169 171 179 183.4 188.9 192.4 201.2 213.9 224.8 232.6 241.5 250.2 255.9 263.3 267.2 270.6 277.8 288.4 291.2 292.5 282.5 279.9 279.2 276.2 261.8 259.2 262.1 266.8 274 282.2 293.7 303 311.7 316.4 315.2 313.9 317.1 318.9 325.6 316.4 308.9 307.5 313.5 314 305.9 298.2 290.7 283.8 275 267 261.4 257.1 254.5 250.4 249 248.8 251.5 255.3 257.3 260.4 263.6 266.8 272.7 275 276.8 288.1 305.7 305 295.4 293.9 298.7 297.9 285.9 273.4 264.5 259.3 250.1 239.4 227.2 217.9 210.2 202.1 193.6 184.1 172.6 161.2 150.1 140.6 135.7 128.7
341.2 338.1 332.2 327.1 330.2 330.7 324.6 316.7 311.7 314.1 315.2 313.5 318.1 322.9 328 333 334.9 340 341.3 343.3 345.3 348.3 345.6 347.7 350.6 350.4 348.8 352 353.5 355.9 358 361.6 368 377.5 384.8 389.3 383.7 375.1 365.9 361.5 357.1 354.1 350.3 347.4 343.6 336.2 329.7 323.5 319.4 313.8 308.4 302.3 296.6 287.4 283.8 279.8 273.8 269.3 263.9 256.5 252.1 248.5 243.9 238.8 235.6 234.4 231.6 227.6 226.4 225.2 222 220.1 223 224.5 224.2 224.5 227.1 226.6 226.4 225.6 226.3 228.7 223.6 217.7 214 213.6 205.7 193.1 184.8 177.1 169.1 160.4 159.6 160.3 156.8 152.9 150.7 149.9 149.2 148.9 148.8 147.9 147.7 145.9 146.9 150.1 154.8 157.4 163.8 163.3 160.3 168.3 171.2 175.4 182.5 191.9 202.8 212.2 223.8 232.5 242.1 249.1 251.8 257.2 259.8 264.3 269.9 273.7 274 270.2 267.9 268.8 267.1 258.5 250.3 252.4 258.1 265.1 273.8 282.1 292.7 302.9 309.5 315.4 315.7 312.2 309.6 308.5 304.7 298.9 301.7 307 312.5 302.8 293.9 287 276.5 272.6 264.9 258.3 254 251.5 247.3 251.9 255.1 258.1 260.7 266.4 267.8 269.4 272.9 276.1 281.1 283.3 285.5 297.9 310.8 305.7 297.9 290.5 291.7 285.6 276 264.5 256.1 248 237.8 227.8 216.2 208.4 202.4 195.2 189.3 182 171.8 159.8 150.8 143 136.3 130.2
336.8 328 322.5 319.6 319.2 320.3 320.1 311.9 297.2 302.1 301.6 298.1 299.1 304.6 313.6 319.1 319.9 323.8 326.8 331.1 335 338.8 339.5 336.6 340.9 341.5 342.5 344 348 351.4 354.8 360.5 367.1 375.3 380.4 378.8 370.1 363.5 358.4 355.8 352.5 347.5 342.7 337.6 332.4 327 324.2 321.4 316.5 311.7 307 300.7 297.6 292 287.6 284.7 280.3 273.9 267.1 261.3 258.1 253.4 247.2 244.4 241.2 241.6 239.3 239.5 240.2 237.8 237 237 239 239.5 239.4 239.5 240.2 239.6 239.2 241.8 243.1 246.4 246.5 235.3 230.2 221.8 214.4 203.2 193.3 185.5 173.5 169.8 166.8 163.7 155.6 152.3 151.6 150 150.1 149.3 148.4 148 147.5 146.9 146.2 145.7 147.8 151.4 154.7 159.6 158.8 163.1 165.1 169.7 179.9 189 199.5 209.7 219.1 228.9 234.9 242.7 242.7 246.8 248.1 252.9 257.2 259.1 258.5 256.4 257 255.1 251.2 246.3 241.6 247.6 254.3 263.2 269.4 281.2 291.9 296 302 307 306 303.2 299.9 295.2 289.7 289.1 285.6 300.1 295.9 286.9 276.4 268.2 262.5 258.9 252.7 247.7 244 244.6 248.9 254.2 259.7 262.8 271.1 280.2 280.6 279.2 280.9 281.2 284 287.3 291 303.4 310 299.2 296.8 284.6 288.4 280.5 270.1 258.7 245.8 234.1 227.2 220.2 208.5 201.9 196 189.2 184.3 173.6 166.4 158.7 148.1 143.2 138.7 132.7
330.7 324 320 316.5 315 309.8 304.5 308 295.3 290.4 291.7 288.6 283.9 289.4 297.6 303.4 306.5 310.5 311.4 318.1 322.2 325.6 329 329.7 331.2 333.5 335.1 339.1 342.5 346.5 350 353.6 358.4 362.1 363.2 356.5 352.6 351.5 350.1 345 342 337.2 331 325.6 319.8 318.8 317.8 316.7 315.2 313.3 307.9 301.9 297.9 292.4 288.7 286.6 282.5 275.8 267.5 262.5 258.6 252.6 253.1 252.7 250.3 249.8 250 250.2 250.4 249.7 250.7 250.4 250.9 252.4 253.1 253 251.5 254.3 254.7 258.5 260.3 257.7 256.7 250.4 242.1 232.7 223.8 213.9 205 196.5 188.9 182.1 176.4 165.6 157.7 154 155.8 154.7 151.4 149.6 149.2 148.6 147.2 146.8 145.2 147.6 147 146.6 148.3 151.6 152.7 157.4 160.1 166 177.5 186.2 198.1 205.5 207.1 215.1 220.1 219.5 226.7 233.1 235.5 239.1 241.6 243.9 244.8 241.4 239.8 239.7 233.1 231.9 234.6 243.1 250.6 257.6 265.8 280.1 284.1 284.8 288.9 290 287.9 286.5 284.6 282.5 278.8 277.3 275.9 284.1 279.7 269.6 261 256.3 251.3 247.1 242.7 239.8 239.5 242.8 252.5 259.8 263.7 271.6 280.2 291.1 285.6 283.7 284.9 286.8 288.7 290.4 293.3 302.6 295.6 289.5 281 272.9 276.3 267.2 259.4 245.1 232.9 223.4 217.1 213.9 204 197.7 188.8 184.5 177.4 169.7 162.6 154.3 156.3 147.3 142.7 131.8
311.2 311 309 305 306.8 304.1 299.2 292.9 285 278.2 278.1 268.9 271.3 273 279.3 284.4 291.1 293 297.6 303.6 309.9 313.8 317.1 319.4 320.7 325.4 329.2 331.4 337.7 338.6 341 343.8 346.2 347.8 342.7 342.4 342.8 341.8 336.8 332.7 329.8 324.8 318.3 314.6 309.7 309.9 309.6 310.5 312.2 311.5 307.1 304 300 295.5 289.4 286 282.8 276.6 268.9 262.5 256.7 261.1 261.6 260.9 261.9 262.5 261.9 259.4 260 260.4 260.8 262.9 263.8 265.5 266.1 264.7 266.5 267.5 268.6 270 270.7 270.4 266.5 256.4 249.5 240.5 234.5 222 213.4 208.1 199.8 192 183.9 171.4 162.4 158.7 157.2 154.7 156.1 153.2 150.3 149 148.2 146.9 144.6 146.4 146.6 148.3 147 149 148.4 151.8 156 160.9 169.7 176.4 183.4 188.9 189.4 191.5 199.2 206.8 212.8 217.5 222.2 226.4 227.6 229.5 229.4 226.9 227.2 224.1 222.5 221.5 228.5 237.9 243.6 251.7 265.7 277.2 280.1 280.4 279.6 278.7 278.2 278.8 276.1 273.3 271.2 269.5 267.3 265.3 261.5 252.8 247.1 246 243.2 237 233.7 234.9 241.1 249.7 262.8 266 272.8 279.8 282.1 283.5 285.6 289.1 290.1 288.9 290.9 296.9 303.6 294 283.6 276.2 265.3 258.6 254 249.2 238.9 229 221.8 214.7 209.4 205 197.1 190.4 183 179 171.4 166.7 160.1 156 152.7 146 135.7 125.7
303.8 300.5 299.6 296.9 295.5 295.6 291.4 291.5 289.5 286.2 278.1 278.4 267.9 256.9 261.3 269.3 273.2 278.9 285.8 291.9 296.7 300.6 303.9 307.7 309.6 312.9 317.7 323.6 326.1 327.6 332.2 333.2 337.3 335.2 330.9 332.7 332.8 326.3 321.9 320.5 317.4 314.2 310.5 303.9 302.9 302 299.6 303.6 305.3 304.8 301.3 299.7 297 294 287.1 285 282.3 276.3 268.4 262.9 263.5 266.6 266.9 268.2 272.3 273.5 273.6 270.5 271 269.9 270.8 273.4 275.8 279 280.5 277.5 275.6 278.2 276 272.5 271 273.7 270.1 260.7 252 243.8 236.8 227.3 221.1 213 205.1 197.8 190.5 179.7 173.7 166.4 161.2 157.3 155.1 153 151.4 149.8 147.9 147.7 142.1 145.5 145.5 145.5 146.9 147.3 146.4 148.9 151.2 152.8 155.4 160.7 169.7 168.9 165.8 174.4 182.3 187.6 195.3 201.3 206.7 210.5 213.3 216.6 217 214.5 212.6 211.3 213.4 215.7 227.1 233.2 240 252.1 265.7 274.3 277.4 276.8 275.2 274 273.2 271.6 270.3 267.4 263.9 261.9 253 247.6 242 237.8 235.4 234.7 231 231.3 230.9 236.8 248.3 259.5 267.3 277.8 285.9 285.6 285.2 287.8 291 294.2 289 289.9 294.4 304.5 297.6 284.5 271.4 261.8 254.1 247 240.6 232.2 225 218.8 208.8 206.9 204.3 199.9 192.5 184.4 178.4 172.9 167.5 163.1 158.4 154.4 150.6 132.6 137.2 136.5
297.8 295.7 293.9 290 288.7 288.3 288.6 288 283.2 276.9 273.4 267.7 263.9 257.5 253.5 254.2 259.9 267 272.2 276.6 282.6 288.2 291.9 295.6 299.6 304.5 304 313.6 315.5 316.7 316.9 320.4 324 324.7 324.3 320.2 317.8 315.6 310.7 310.7 308 304.5 299.3 295.6 295.2 292.7 291.9 293.7 294.8 294.7 294 292.2 291.1 287 283.6 279.5 278.8 275.4 267.4 264.5 268.8 270.3 272.4 276.8 280.5 284.6 287.3 283.7 282.7 280.5 279.7 281.5 283.9 288.7 290.9 285 284.8 283.4 277.3 271.8 269.1 270.3 266.4 258.2 251.6 245.9 237.7 230.4 222.9 214.7 206.7 199.6 192.5 184.3 178.2 171.8 164.4 159.2 157.1 156 152.5 150 148.9 147.5 146.9 144.5 145.1 145 144.6 145.3 144.7 144.4 145.1 145.5 146.7 151 151.6 149.8 152.9 157.5 164 169.4 176.8 183.3 184.2 194.5 199 198.8 199.8 199.1 199 202.2 200.9 212.4 222.8 229.1 238.5 249.6 262.7 268.9 269.6 270.2 272 275.8 274.3 269.6 263.9 261.4 257.6 254 243.9 237 232.9 228.6 227.5 224.9 226.4 228.6 230.4 242.7 254.2 265.7 280.4 296.5 294.3 293 289.4 296.1 294.5 289.8 287.7 288.8 294.9 299.4 287.5 272 261.6 252.4 246.4 239.9 232.7 222.3 215.6 209.3 203.6 199.8 198.3 195.4 185.7 181.7 175.8 170.3 166.3 161.9 158.2 151.5 135.1 145.3 147.4 148.5
299.1 295.8 290.6 289.7 287.3 283.9 283.4 287 285.5 281.4 276.3 274.5 273 269.6 263 256.1 246.2 253.6 256.4 263.2 269.9 274.9 280.9 287.3 290.5 293.9 294.3 297.7 301.2 303.1 306.7 312.2 314.6 311.6 307.7 308.2 306.4 303.5 302.2 302 300.2 295.9 291.3 288.1 286.2 283.9 285.8 283.1 280.1 281.7 280.6 282.1 282.8 279.3 276.7 274.1 272.1 272.7 270.2 268.3 271.4 275.7 277.3 283.2 289.3 295.3 296.8 295.5 292.2 287.9 289 290.2 292.5 295.2 294.5 294.3 289.1 281.9 277 272.9 268.7 263.1 257.9 252.9 248.5 243.6 237 230.4 222.3 212.3 205.6 200.2 193.9 186.5 181.9 176 170.3 167.9 166.1 162 158 153.7 149.2 148.4 146.9 142.3 143.7 144.2 144.7 144.7 143.4 143.5 142.9 142.8 143.4 143.2 142.8 142.5 142.2 147.1 148.4 155.5 167.6 169 169.5 176.1 178.4 176.9 179.6 187.8 188.7 192.7 202 210.5 216.5 223.3 232.6 241 253.7 258.7 263.3 266.9 273.3 274.8 272 266.6 260 255.9 251.6 244.6 237.9 232.2 227.6 223.6 220 222.2 223.1 225.8 232.2 248.6 259.3 270.7 285.5 294.4 291.5 294 290.5 293.3 286.6 287.3 285.8 287.2 286.1 283.2 268.5 260.4 251.6 245.7 240.6 233.9 227.5 220 208.9 202.9 200.6 197.5 193.1 188.3 184 181.2 175.2 170.1 166.3 159 147.1 152.4 154.8 157.9 162.3 160.7
313.3 309 308.7 308.3 307.6 305.6 306.8 306.2 299 294.8 287.5 282 280 275.2 267.7 256.2 241.2 241 245.7 249.1 258 263.5 268.9 274.8 277.3 282.1 287.2 284.8 287.6 293.5 295.9 297.8 295.2 292.6 295.3 295.6 293.6 291.7 292.4 293.5 291.4 288.1 285 281.6 278 276.7 275.6 273.3 272.6 272.7 270.5 273.1 273.9 273.2 273.9 270.6 267.5 270.9 271.9 274 277.5 279.5 281.7 286.6 293.6 300.6 302.5 303.3 300.9 297.5 298.7 299.7 305.1 304.2 302.9 297.1 288.8 281.9 275.7 272 268.4 260.6 254.6 248.7 245.6 240.3 232.5 225.3 220 209.7 202.8 197.2 192.4 188.3 182.3 177.6 178.1 175.2 169.3 166.5 161.8 157.8 153.6 150.1 147.5 148.4 144.2 141.4 142.9 142.3 141.5 141.2 140.6 140.2 139.8 140.7 141.3 140.6 140.5 140 139.5 146.8 152.3 155.4 159.8 166 165.2 165.7 165.7 172 176.8 186.9 199.2 208.6 214.7 224.2 229.9 235 241.5 250.5 261.3 267.7 274 272.2 267.5 262.1 255.7 250.8 245.6 241.2 233.9 228.1 221.5 219.9 217.1 218.5 220.9 226.7 241.3 250.8 258.8 278.1 284.4 287.8 295.3 293.2 290.6 293.1 288 280.8 279.4 279.3 274.1 263.5 255.3 250.8 245.4 240.6 235.8 229.6 224.6 214.1 205.3 199.4 196 194.4 191.1 187.6 185 180.4 176 171.6 164.8 155.3 162.3 167.6 168.9 168.3 172.4 169.5
332.3 331.8 332.6 336.2 332.6 325.6 323 315.3 308.8 304.8 300.7 290.7 286.8 282.1 274.2 260.8 248.6 242.1 235.1 237.1 244.8 246.2 253.8 259.6 265 269.1 277.5 276.8 278.5 281 284 284.1 282.9 281.2 282.4 283.1 281 282.5 282.7 283 281.7 279 278.1 270.7 267.3 266.6 266 266.6 266.7 263.6 264.2 265.3 263.5 262.6 264 263.6 265.2 269.1 274.6 275.4 277.1 278.7 284.6 289.8 297.5 300.6 303.7 306.1 307 309.6 308.9 306.1 308.8 307.5 301.3 296.5 290 282.3 276 270.9 265.3 259.2 251.9 248.1 242.4 236.4 227.6 220.4 215.2 207.4 199.2 196.2 193.1 187.7 183.6 185.4 182.9 178.5 175.3 172.3 167.8 164.3 158.7 154.2 150.9 147.8 146.9 146.7 147.1 146.3 146.9 144.1 141.6 140.5 138.7 139 139.1 138.5 138.3 137.8 139 138.1 139.3 142.2 147.2 150 154.6 158.1 157.9 161.4 172.6 180.8 190.2 197.8 209.5 219.8 224.9 231.6 242.3 254.2 261.4 266.1 266.3 264.9 262.9 257.6 252.7 245.4 239.4 233.4 227 221.6 216.3 213.9 214.1 215.3 218.6 230.7 243.8 252.5 260.4 275.8 279.8 288.3 296.3 290.6 286.6 287.2 289.2 280.7 272.2 267.2 260.5 252.3 248.3 246.4 241.4 236.6 232.2 225.1 217.3 210.5 203.2 197.2 193 189.7 188.7 189.8 186 181 176.1 161.3 166.2 173.9 173.7 177.3 177.6 177.1 179.3 177.7
353.3 355.1 354.1 351.7 345.2 337.9 329.6 323.8 321.6 314.9 310.2 301.6 291.8 285.5 277.1 265.2 260 248.1 240.6 230.7 230.1 234.1 241.4 245.5 251.9 257.6 263.1 264.4 265.3 270.6 270.2 269.7 267.5 268.4 270.2 269.2 272.2 273.1 272.5 272.3 271.8 270.2 267.9 262.6 258.7 258.6 258.6 258.1 256.7 254.2 254.8 253.2 249.4 250.7 252.9 256.6 260.5 266.4 271.2 275.1 276.1 279.6 285.2 290.4 295.5 299.9 304.5 307.9 311.8 311.4 309.1 307.3 305.1 302.7 297.4 293 286.6 280.3 275.8 270.9 263.8 256.7 250.1 246 240.2 231 222.5 215 211.2 207.3 201.8 198.6 193.9 190.9 191.7 189.3 187.5 185.1 183.7 181.5 177.2 173.8 171 165.5 161.6 160.1 158.6 158.2 155.8 155.8 158.9 158.7 156.9 149.6 145.5 146.1 144.5 141.9 138.4 137.7 137.8 137.6 137.9 136.7 138.6 140 145.1 150.1 151.4 157.7 163.1 171.6 179.5 187.9 198.9 210.1 222.9 231.2 245.9 254.7 256.7 258.3 255.8 254.2 254.1 250 243.1 235.8 230.5 226.8 217.3 213.1 210.3 206.6 203.9 208.2 221.5 232 242.8 253.2 261.1 269.2 273.4 280.5 283.4 280 277.1 280.2 281.7 271.1 265.8 259.7 254.9 247.8 245.6 245.8 240.4 232.7 227 222.4 216 210.3 202.8 197.3 193.9 189.2 184.9 182.3 177.2 170.5 170.6 176.3 177.8 181.4 179.1 183.9 183.8 184.6 183.9 183.7
371.3 371.8 367.8 360.6 349.4 348.3 342.3 338.4 334 325.2 315.5 305.1 295.1 289.6 281.3 275.9 269.4 255.6 250.9 236.5 230 225.2 228.4 233.4 236.5 243 247.2 248.1 249.6 254.2 253.3 249.6 252 255.3 255.8 258.3 260.9 262.3 262.1 262.4 262.2 261.9 259.6 256.4 254.8 253.7 251.8 249.7 248.7 246 242 240.3 237.7 240.9 247 252.1 256.2 260.7 266.2 271 273.8 279 283.7 290.5 296.2 302.2 307.6 308.1 309.3 307.8 305.5 299.2 297.4 296.6 293.5 287.9 282.8 277 273.6 268.2 259.9 252.5 246.9 243.4 237.1 228.2 220.5 216.8 213.6 211.7 205.8 200.3 199.6 201.3 200.2 196.3 196.2 197.8 195.6 194.1 190.4 186.5 184.8 185.9 183.9 179.8 178 174.4 168.1 166.1 164.1 166.1 164.1 157.1 156.4 157.3 154.6 148 146.9 137.4 136.5 135.3 132.9 134.4 135.2 138 138.7 142 146.6 147.5 150.7 162.5 169.8 181.2 192.9 206.6 218.6 232.9 241.8 245.8 250 248.7 245.6 242.5 243 237.6 231.7 225.9 220.4 214.1 208.4 205.5 200.9 200 198.3 206.4 219.4 232.6 242.7 253.1 257.9 263.5 269.5 268 264.8 264.4 263.3 269.1 264.3 258.7 254.4 251.7 247.5 243.8 241.3 238.7 233.6 228.5 219.7 216.4 213.4 208.4 202.1 203.8 201 192.6 191.6 189.4 183.5 179.3 181.4 183.4 185.7 186.5 185.8 189.6 190 190.9 191.3 185
381.1 380.4 374.5 367.6 361.9 357 351 347.1 340.4 329.6 316.8 307.9 300.3 294.9 290.1 284.1 278.3 268.4 254.4 245.3 234.9 226.3 223.9 225.4 229.5 231.5 233.6 235.6 237.5 239 233 233.8 239 244.6 244.4 247.5 251.2 252.8 252.8 251.2 252.5 254 250.4 249.8 248.7 247.4 244.4 242 238.2 236.5 235.3 231.8 232.8 237.4 242.4 246.3 252.2 255.9 260.7 266.7 269.5 275.6 281.8 287.3 294.6 300.5 304.9 303.9 303.5 300.7 298.9 295.2 291.5 288.7 287.2 283.4 280 274 268.3 260.6 253.4 247.4 243.3 240.3 232.5 224.4 223.2 221 216 216.7 213.1 212.8 215.5 216.9 214.6 208.2 209.6 211.4 206.9 205.6 205.5 202.6 202.4 203 198.7 195.6 193.9 194.3 184.2 177.8 175 174.1 170.9 162.8 162.9 160.3 159.4 156.1 154.5 148.3 145.3 139.5 143.8 137.3 133.8 136.4 134.9 138.1 140.9 142.2 144.4 153.3 157.3 166.5 184.1 197.8 211.4 223.6 229.1 236.5 239.5 238.1 235.8 231.3 229.4 224.2 219.5 213.4 208.6 202.2 196.6 196.6 193.7 194.5 196.1 206.6 220.7 235 244.7 252.5 259.7 263.7 263.1 261 257.9 254.1 255 259 259.9 261.4 258.6 254.4 248.6 242.8 237.7 232.5 225.4 219.6 216 213 210.5 207.7 206.6 205.9 202.9 200.1 198.6 194.9 190.6 187.4 189.2 190.4 191.6 192.9 192.1 191.7 194 194.1 194 192.1
381.7 381.5 374.7 378 369.7 360.1 353.1 345.3 336 326 315.5 307.1 301.7 296.9 293.8 288.7 281.7 273.3 263.6 256.3 247.3 237.6 224.5 218.3 223.2 225.4 225.9 224.8 223.4 223.7 224.3 225.6 230 232.7 234.4 237.8 240.7 242.8 243 243.9 242.9 243.1 240.1 238.4 239.3 239.9 238.5 235.1 233.5 231.8 228 225 229.4 234.4 237.7 242 250.3 253 259.7 265.4 267.7 271.1 276.7 282.4 286.9 293.8 298.3 298.9 297.6 294.8 292.6 289.7 286.4 283.9 279.5 277.1 276.6 269.9 262.4 257 250.4 244.6 240.8 235.5 232.5 229.3 227.4 228.8 229.6 226.3 224.9 227.2 227.7 225.8 222.1 222.4 223.3 222.3 220.6 221.4 220.4 220.3 221.3 220.6 214.8 211.4 209.7 210.6 200.1 192.3 191.3 185.3 183.1 176.7 170.7 165.5 160.9 159.2 158.2 153.3 149.8 149.3 144.9 144.6 130.3 129.4 131.9 133.9 134.9 137.8 139.5 138.6 145.3 153.9 171.5 185.2 198.4 203.7 213.8 221.6 224.2 223.1 226.1 221 218 213.5 203.7 197.1 197.8 194.5 189.4 188.2 189.5 193.3 199 207.7 219.1 233.8 244.7 248.8 252.2 252.8 253.4 254.5 248.7 251.2 251 255.2 266.5 269.1 261.4 255.6 254 247.9 239.7 235.5 228.2 225.4 224.1 224 219.1 216.3 213.1 208.7 203.3 203.7 202.1 200.4 196.1 197.2 195.4 198 198.6 197.7 197.4 195.6 195.9 196.9 195.6 194.6
373.3 370.2 369.5 372.1 369.1 358.5 347.5 338 328.4 319.4 310.5 304.3 301.5 299.4 296 290.5 284.1 278.2 272 265.3 257.5 242.8 236.2 223.7 216.3 216.7 219.7 220.6 218.3 216.4 215.3 215.6 218.6 219.3 223.5 227.9 230.5 231.1 233 232.4 233 229.8 228.4 227.6 229.9 231.9 230.5 231 229.8 227.3 224.4 222.9 224.4 230.2 235 238.2 245 250 255.9 260 264.5 269.6 271.5 279.3 283.6 290.4 291.1 291.9 291.1 287.1 285.2 282.4 280 276.9 274 270.4 268.3 263 257.8 251 245.5 242.4 241.2 238.7 238.9 236 236.6 235.8 237.2 236.6 237.8 237.3 235.7 231.8 235.9 234.4 235 235.9 236.9 237.5 237.3 239 238.8 237.4 234 230.4 231.7 232.2 220.2 216.2 211.7 205 198.7 193.7 183.6 173.8 169.5 166.3 163 158.5 155.1 153.2 149.9 143.8 145.5 135.8 128 131 129.9 130.2 134.5 133.7 136.7 138.6 150.1 164 170.1 181 189.5 197.4 201.2 206.3 212.2 209.3 202 195.5 190.3 186.1 184.9 186.1 181.9 187.3 189.1 194.2 199.1 206.7 219.2 230.3 242.9 247 245.3 244.8 244.8 242.5 242.3 246 246.9 256.8 264.8 267.4 266.4 263 261.2 256.2 248.1 242.6 237 232 230.5 232.2 225.5 222 217.5 211.6 210.6 207.3 203.9 207.8 208.7 206.5 202.5 204.9 203.6 203 201.5 201 197.9 199.5 197.7 199
364.2 363.4 359.7 358.7 345.9 342.5 336.2 325.9 320.1 312.9 305.3 302.2 301.6 299.2 294.7 289.7 285.9 282.5 277.7 270.8 263.5 252.9 239.3 228.4 223.2 222.8 214.2 211.2 210.3 208 203.6 205.7 206.2 204.6 208.8 212.3 216.2 217.5 218.6 222 219.3 218.8 218.5 220 220.8 219.5 220 220.8 220.3 221.4 220.5 218.6 219.6 223.2 230 234.3 239.7 245.6 250.4 256.4 259.6 264.7 269.8 272.9 276.4 278.2 282 282.1 280.2 280 277.6 275.4 272.7 271.1 268.6 264 262.4 257.6 253.1 247.4 245.4 243.3 243.7 244.5 243.4 245.2 246.4 246.3 247.3 247.6 248.7 248.2 244.5 241.7 244.5 243.4 245.5 247.9 249.7 249.9 250.7 251.5 253.7 255.8 257.5 255 253.3 255.1 243.2 239.6 230.5 225.1 217.9 208.6 199 186.6 179.9 170.7 170.2 167.7 162.9 158 156 154.6 151.6 147.1 141.7 126.6 125.2 124 125.1 128.2 129.5 129.9 131.9 139.8 145.7 154.2 163.2 171.7 176.5 183.9 190.2 190.7 188.3 184 181.1 178.9 179.6 179.8 175.2 182.4 189.3 197.8 204.8 207.9 214.3 228 232.9 237.9 237.8 236.1 235.8 235.3 243.7 247.4 250.6 259.2 264.9 272.2 276.3 271.7 264.3 258.4 251.4 246.9 240.5 237.2 235.5 231.1 227.3 221.7 217.7 216.2 215.2 214.3 211.4 214.9 214.7 211.7 210.3 209.5 208.1 207.7 205.2 204.9 200.8 201 200.3 202.4
353 347.2 341.6 336.8 330.6 326.7 326.1 317.7 311.3 304.4 299.5 298.9 297.5 295.3 291.5 288.4 285.8 284.2 281.1 275.2 267.8 260.3 248.1 235.6 224 224.3 223.5 218.1 215 215.2 212 202.6 201.6 199.9 199 200.5 204.7 203.4 205.7 206 206.4 205.6 207.5 206.8 205.7 205.9 209.3 211.3 210.4 212.6 214.2 209.1 213.4 216.7 224.5 229.5 235.3 241.1 245.7 251.1 255.6 260.3 264.2 266.4 266.9 270.1 271.4 270.8 271.2 271.1 269.4 268.5 267.5 266.7 264.1 259.4 257.9 255 249.9 250.9 250.8 250.1 250.3 252.2 251 253.8 254.7 255.5 256.9 257.3 257.6 258.7 256 252.4 252.5 253.8 255.3 258.9 259.7 261.1 263.9 268 272.7 277 279.2 277.7 276 272 268.1 265.1 255.6 242.1 239 225.9 211.3 198.9 190.4 183.8 178.2 176.9 171.1 169.6 163.5 161.1 157.8 152.8 148.7 145.7 136 135.5 132.7 129.1 122.4 124.3 126.7 128.1 130.4 133.6 143 149.7 155.7 160.8 166.6 169.9 171.5 171.4 170.1 170.4 173.6 171.4 175.3 181.2 190 198.9 201.4 208.2 211.7 216.7 222.7 225.3 225.7 223.8 227.1 230.8 243.5 248.3 251.3 252.1 256.9 268.2 269 267.4 262.5 254.5 248.7 243.7 241.4 237.8 233.5 229 224.2 231.4 231.9 230.6 229.9 226.4 224.7 221.5 220.1 216 215.4 214 213.4 212.7 211 210 208.6 206.1 203 207.9
344.2 338.4 330.4 326.4 321.7 316.9 312.4 307.1 300.6 295.6 293 291.7 290.6 288.7 285.8 284.6 284.3 283.1 280.2 275.7 269.4 262 252.6 243.6 237.7 227.3 216.5 220.1 212.9 216.2 205.7 201.9 200.9 199.8 197.3 196.8 196.3 196.8 197.8 198.5 195.6 194.5 192.5 193.4 194.1 193.8 195.2 195.1 195.1 198 200.7 198.2 203.6 208.3 217 224.4 231.1 236.7 240.9 244.3 249.4 250.9 253.7 255.8 259.4 260.5 262.3 262.3 263.1 263.2 262 261 261.2 260.6 258.8 256.6 257.3 255 253.6 256.4 257.3 257.9 259.1 261.2 259.5 260.6 262.7 263.1 263.5 263.7 265.5 266.4 263.7 261.6 261.3 263.2 264.7 269.8 271.8 276.3 280.8 284.7 289.8 294.6 296.5 295.6 293.7 297.3 299.1 288.9 275.9 263.2 253.7 241.4 224.2 211 202.9 197.3 191.4 190 183.8 180 172.5 167.6 161.4 155.4 152 145.4 145.3 140.3 136 135.3 126.5 120.8 122.6 122.2 124.9 126.5 130.5 135.8 139 143.4 148.7 151.6 153.3 155.6 156.6 159.6 159.6 159.2 173.5 177 187.2 195.1 197.5 199.5 204.3 212.8 212.4 216.6 219.2 222.7 226.4 232 244.6 250.9 250.2 249.2 250 251.2 253.7 254.3 251.5 244.7 240.9 236.5 233.9 234.1 230.7 226.8 236.2 241.5 239.2 235.7 233.6 232.2 230.4 227.3 223.6 221.1 218.6 218.4 217 215.6 213.7 212.5 210.9 208.6 205.8 210
332.7 328.5 320.5 318.4 316.1 307.7 301.3 295.6 290.9 286.4 285.6 286 284.7 279.6 278.1 277.9 277.1 275.2 273.1 269.7 263.9 258.9 251.3 243.4 236.5 230.3 223.9 212.1 209.2 206.6 204.3 203.7 202.2 199.5 198 200 197.9 194.5 195.1 197.6 191.9 185.8 185.3 183.9 183.6 182.6 182.1 181.6 182.1 182.8 188.4 190.2 194.1 199.7 210.4 217.3 223.8 230.3 234.4 237.2 238.9 242.1 245.8 248.9 249.9 252.2 253.5 254.5 256.5 257.4 255.8 255.1 256 256 254.4 257 256.9 260.9 262.8 264.2 266.7 266.8 267.8 269 269.2 268.3 268.7 268.3 269.5 271.5 272.7 272.4 271.7 269.2 270.6 271.1 275.6 278.9 284.4 288.9 292.9 296.9 302.1 307.7 312.3 308.2 307.8 311.8 310.6 304.6 293.2 283.8 266.3 254.4 240.5 224.9 220.2 212.5 206.1 201.2 194.3 187.8 181.1 172.7 166.2 158.9 155.4 153.5 150.8 142.3 138 133.4 128.5 118.4 121.7 120.5 120.7 123.7 124.8 126.7 129.1 133.5 136.9 140 142.5 144.8 147.4 146.9 151.4 158 167.4 171.6 179.1 187.1 192.4 197.9 199.2 204.3 205.7 212.4 216.9 218.5 225.4 234.5 237.7 241.5 245.3 244.2 245.9 246.8 244.4 242.9 238.2 235.3 232.9 225.7 222.9 222.8 225.4 229.9 235.7 240.6 240.3 237.3 235.4 232.8 231.7 230.2 226.8 223.3 221.1 220 218.7 216.8 215.2 214 212.8 209.4 208.6 212.5
323.3 318.2 315.3 310.2 303.6 298 288.9 285.7 283.2 282.1 279.9 277.6 277.1 273.6 269.1 267.9 266.5 264.2 261.8 257.6 253.2 249.3 244.8 238.8 233.3 227 221.7 216.6 209.8 206.8 203.5 202.1 201.7 200.8 198 197.1 196.2 192.5 192.3 189.9 190.7 191.8 192.7 188.5 183.4 182.9 181 179.3 178.7 176.9 179.8 183.5 185.2 190.8 202.5 209.4 215.6 220.3 225.3 227.9 230.9 234 236.3 239.7 242.4 244.3 245.5 247.1 249.5 250.9 250.6 247.6 248.8 251.2 252.9 257 260.5 264.3 267.6 270.1 274.4 273.9 274.7 276.1 274.4 275.7 275.3 276.8 277.8 279.6 280.7 280.9 280.2 278.8 278.9 278.9 285 289.8 292.6 296.9 305.2 308.7 312.5 315.4 314.8 312.2 317 320.2 320.5 315.4 310.7 297.7 277.2 269.3 251.7 238.1 232.8 223.7 216.5 210.8 204.5 196.6 188.6 181.6 174.7 165.6 159.7 156.2 152.9 144.2 142.6 134.2 132.3 122.8 119.9 119.4 119.4 119.2 120.4 121.1 124 126.8 129.7 133 134.6 138.8 138.7 142.2 148.1 155.6 162.8 167.7 175 181.9 184.9 191.1 190.9 197.7 204.6 211.8 217.2 218.1 223.7 235.8 238.4 240.1 239.7 237.8 237 237 234.4 231.4 227.7 225.3 223.7 216.6 213.1 211.4 217.7 221.9 224.9 230.5 234 236.8 234.7 235 231.7 230.3 227.7 224.1 222.1 220.9 219.3 217.4 216.3 215.4 215.2 213 213.3 217
317.1 311.9 305.1 297.2 291.9 286.3 278.6 273.2 272.1 271.5 269.6 269 268.4 264.2 260.6 256.1 254.6 253.3 249.3 243.4 240.9 238.6 234.2 231.7 229 223.8 221.2 217 212.1 208.2 204.8 202.5 200.5 198.6 196.8 196 194.8 191.4 197.7 198.7 198.8 197.6 195.8 190 188.2 183.3 186.1 189.8 192.2 188 174.4 174.7 177.4 184.4 196.9 203 205.7 212.6 216.4 221.2 226.1 228.1 228.2 232.9 235.4 236.7 237.9 239.9 241.2 243.4 241.5 243.1 248.1 250 251.6 255 260.6 266.8 273.9 277.5 281.4 283.3 283.2 283.9 283 282.9 283.8 283.1 284.9 287.8 288.8 286.9 286.3 285.6 285.9 288 292.5 297.8 300.2 308.2 315.4 315.2 316.3 316.2 313.6 312.5 317.1 320.8 321.4 323.1 317.6 307.1 291.8 280.7 266.2 256.2 247.2 236.6 229.1 222.3 212.9 205.6 196.7 190.4 182.9 173 166 164.5 159.9 150.2 146.4 139 134.8 130.8 124.5 119.3 117.2 118.4 117.3 116.7 116.9 120.5 124.7 124.8 127.7 130.2 132.6 139.2 143.4 151.3 156.4 161.7 170.7 176.6 177 178.7 183.8 195.3 205.7 212.3 213.7 219.3 221.1 227.2 232.7 235 236 234 234.5 228.4 223 221 219.7 214.8 209.4 206.3 204.6 209.2 213.4 218.2 227.9 237 236.2 235.3 235.2 233.7 231.1 227.9 224.6 223.1 220.8 220.4 218.8 217.2 219.4 218 215 215.8 216.7 220.4
308.5 301.4 294.4 288.2 281.6 274.3 266.6 264.1 259.7 259.9 257.6 257.8 256.9 252 246 243.8 244.2 243.9 241.1 236.2 232.6 230 229.7 227.6 227.4 225.1 219.7 217 211.7 206.3 207.4 205.7 205.5 207.4 203.3 200.7 203.2 199.9 199.3 198.8 199.2 198.3 196.8 196.8 195.2 194.3 192.8 197.9 198.5 191.3 187.4 185.5 171.9 178.4 187 192.8 200.6 204 209.3 213.4 217.8 219.4 220 224.6 227 229.2 231.7 233.8 233 235.3 235.3 238.7 243.2 246.1 250.4 254.5 261.8 268 277.2 284.7 289.2 292.2 290.4 288.9 289.7 288.1 289.5 294.3 292.6 294.8 294.6 293.6 293.5 292.7 292.3 296.9 301.7 304.5 309.9 313.9 316 320.5 318.3 315.7 312.3 309 312.4 314.6 314.1 321 321.5 313.8 303.2 294.2 279.9 269 258.2 248.5 237.9 229.1 226.2 216 205.6 196.6 187.5 178.5 174 169.1 161.7 153.3 150.8 144.6 138.8 132.8 127.7 125.4 118.5 117.8 123.3 120 116.3 115.4 115.4 117.7 120.8 124 131.5 133.4 138.5 142.1 147.9 153.5 162.3 168.2 171.3 173.8 176.6 185.1 197.2 206.4 218.2 210.8 217 222.7 225.3 224.6 226.8 224.6 220.9 218.5 215 214.9 214.6 208.7 202.9 202.2 203.5 212.3 224.8 231.4 237.7 237.6 237.5 236.1 234.4 231 227.8 224.7 222.4 221 219.1 218.2 219.2 218.8 218.7 216.6 215.3 216.1 217.2 221.7
298.4 288.4 281.3 275.1 268.4 262.3 257.5 253.5 251.8 250 248.7 249.5 244.5 240.2 237.3 234.7 235.9 235.7 235 233.6 230.6 227.6 223.4 220.8 221.3 214.1 216.8 213.5 217.3 215.3 213.9 213.6 213.9 216.2 212.3 208.4 206.2 204.8 203.9 206.5 204.8 205 205.3 200.1 201.5 200.7 200.8 192.8 199.1 195.9 189.3 187 178.7 171.2 174.3 185.9 190.7 197 201.1 203.5 208.5 211 215.2 217.2 217.7 222 226.7 227.5 227.9 229.8 229.6 233.7 238.4 242.7 249.7 255.8 262.1 268.7 279.8 284.3 291.3 292.1 293.1 292.2 293.7 295.7 299.4 302.9 300.8 300 300.4 300 296.5 294.4 298.4 301.9 304.1 308.9 311 312.7 317.5 322.7 320.3 317 311.9 306.2 303.7 305.6 306.9 310.1 311.2 310.1 304.5 296.7 288.4 278.5 265.7 255.4 245 241 233 221.6 211.5 202.2 193 185.7 178.1 170.5 164.9 160 153.7 146.7 139 136.5 132.8 128.6 123.8 117 118.3 123.2 122.7 119.3 117.2 115.4 116.2 120.7 126 128.6 131.4 137.7 140 144.4 151.9 159.5 165.5 169 172.9 175.8 190.3 199 209.7 206 212.8 214 215.7 219.2 222 216.7 213.6 211.4 208.4 207.8 202.2 198.9 197.5 198.6 211.2 221.8 229.6 236.5 239.7 239 235.3 232.7 230.2 229.4 227.1 222.4 219.4 219.1 217.9 216.5 216.9 216.6 216 215.5 214.8 214 215.7 219.4
289.4 278.3 270.2 267.3 262 258.8 252 247.1 245.8 245 243.2 242.7 239.9 236.3 234.4 234.2 232.7 233.4 231.9 227.7 227.9 225.4 223.6 226.2 225.3 225.4 227.1 225.1 226.5 224.8 223.1 222.1 219.4 220.7 220.7 219.8 216.4 215.1 213.3 215.6 216.3 214.9 213.1 209 208.6 209.3 208.7 199.3 192.6 186.3 186.7 186.2 185.6 176.1 168.2 168.9 182.8 189.6 192.8 194 200.6 206.6 209.8 208.1 210.8 215.7 218.1 218.2 221.3 223.8 224.5 230.1 235.4 241.7 248.5 255.3 262.1 270.3 279.2 285 290 294.2 296.6 300.2 301.1 304.3 305.5 304.1 302.5 303.4 305 303.5 300.9 302.6 305.3 307.1 307.6 311.4 314.1 318 322.4 323.4 320.6 314.7 307.7 302.1 299.1 297.3 298.6 302 305.2 303.7 296.7 293.5 289.8 279.6 271.6 267 262 250 238.4 227.6 218.5 209.4 199.5 192.8 184 176.7 170.4 164.5 158.8 152.5 145.3 140.6 135.3 128.3 124.3 120 116.5 116.4 119.1 121.1 120 116.7 114.8 114.1 116.3 122.4 126.8 130.2 134.1 136.9 141.8 149.8 155.6 161.2 168.2 171.1 180 188.7 193.2 196.6 206.3 208 209.8 210.5 207.6 209.5 207.6 205.7 201.4 196.7 193 191.7 197.7 207.8 218 225 229.6 234 234.6 233.4 230.4 227.8 226.5 225.3 223.5 219.4 217.6 214.6 213.2 214.2 215 216.4 214.7 213.6 212.7 213.9 215.7 217.8
278 272.2 261.5 257 256 251.9 247 244.6 243.8 242.8 240.9 240.6 240.2 238.1 237.7 239.1 240.3 241.2 242.2 239.2 236 235.8 235.9 237.1 236.1 236.8 234.9 233.3 234.7 230.6 227.8 227.6 226.2 226 225.5 225.6 223.9 221.2 221.4 223.4 226.9 224.9 223.8 220.8 220.1 214.9 212.2 207.1 199.6 192.6 186.2 180.6 178.7 177.2 174.6 168.1 166.9 179.6 185.5 185.9 189.9 196.2 198.3 199 206.1 211.5 211.5 209.1 212.8 214.3 222.2 226.8 231.9 239.9 246.8 254.4 262.3 271 279.3 287.6 293.6 298.1 304.8 309.3 310.5 310.1 311.5 307.8 305.4 306.6 309.9 308.9 308.9 309.3 309.3 307.4 310.4 312.1 314.6 317.2 319 315.6 311.5 305.2 298.8 294.7 293.4 291.6 291.6 289.6 290 285 281.7 283.9 285 280.7 279 278.8 270.8 255 243.1 233.1 224.4 216 207.3 202.3 193.4 187.1 181.3 175.2 168.6 161.7 154.4 147.1 138.6 133.3 126.6 123.6 119.3 117 114.9 115.2 117.1 116.2 113.5 112.9 111.8 117.2 120.6 124.9 126.9 129.6 135.3 138.8 144.9 151.2 159.6 167.1 170.1 174.6 178.9 190.5 200.4 201.8 202.7 202.7 200.2 201 201.4 200.7 193.1 187.5 187.2 195.9 206.1 212.7 222 225.6 225.9 226.7 230.2 230.6 225.8 223 222 219.7 218.4 219.1 215.4 212.2 210.8 210.5 213.9 215.1 214.5 213.3 212.8 213.6 215.6 218.9
268 261.2 257.3 253.5 249.9 247.4 246 245 244.2 243.5 242.9 247.1 247.3 247 246.4 246.8 247.4 248.2 247.9 245.9 245.1 247.2 247 246.4 246.5 245.7 245 243.1 236 234.6 234.3 234.1 233.3 233.7 234.2 235 236 233 234 235.1 237.3 234.9 232.1 230.5 233 226.4 220.8 216.5 207.5 199.7 190 184.8 178.8 175.1 172.6 170.5 164.9 167.4 175 181.1 181.2 184.5 188.1 191.9 197.1 197.5 199.4 200.7 203 210.1 215.9 222 228.4 234.8 243.9 252.3 260 269.6 280.1 291.1 299.1 305.5 311.1 314.5 312 311.7 307.6 307.9 305.4 306.9 311.6 316.7 317.7 307.9 306.3 307.3 309.5 312.5 314.9 315.2 312.8 308.3 304.1 295.9 289.1 286.1 286 282.8 277.6 276.2 275 274.8 274.4 277.5 279.7 282.6 281.3 277.7 270.1 261 249.8 241.6 232.5 225 219.7 214.1 204.2 198.3 192.9 187 181.1 172.6 167.8 159.6 150.7 142.9 136 130.3 124.1 121.4 118.3 115.4 113.9 113.4 113 113.1 110.6 112 116.4 119 121.6 123.6 127.1 128.6 133.7 140.5 147.4 155.6 161.8 168 169.4 175.9 185.6 190.5 192.2 192.5 193.6 194.4 191.6 187.4 185.8 187 196.8 204.9 213.1 220.6 224.4 226.7 224.4 223.5 225.2 222.2 218.2 217.2 216 213.8 213 210.3 207.6 206.9 205.2 208.4 215.6 215.3 214 212.6 210.7 212.8 216.8 221.4
263.6 256.9 253.4 252.3 251.4 250.9 250.2 249.2 249.2 249.2 247 253.4 256.5 256 254.8 254.9 254.8 254.6 255.1 251.5 252.6 254.2 255.6 255.4 255 251.7 249 244 243.5 242.2 242.3 242.4 245.1 244.5 248 248.6 247.8 242.8 243.7 248.5 249.7 245.3 242.1 241.8 240.3 233.7 227.7 222.9 216.2 205.4 197.4 191.6 184.6 176.6 174.3 171.4 165.7 165.5 167.4 171.1 173.4 175.2 180.2 183.9 185.2 189.6 193 195.6 196.3 202.5 208.9 216.2 223.8 230.9 240.5 249.7 258.8 268.8 281.5 291.7 302.1 307.6 314.8 316.9 314.3 308.2 303.6 301.9 300.6 303.4 307.8 308.7 301.8 299.9 298.9 298.8 299.7 301.5 303.7 303.1 300.3 292.8 288.2 283.2 275.6 274.9 270.7 267.1 268 266.8 265.5 267 268.1 272 278.5 281.8 283.4 280.5 273.9 261.3 257.7 252 242.7 237.1 232.9 226.9 216.6 206.7 202.2 197.3 193.6 189 184.8 170.1 163.5 155 142.3 136.1 130.6 129.1 124 117.8 111.4 111.5 113.3 112.7 112 111.2 110.9 115.3 116.9 119.2 120.3 122.9 126.7 130.1 131.8 140.2 149.5 155.9 158.4 164 170 175.5 177.5 179.3 181.7 179.4 180 180.6 187 196.8 203.9 210.9 215.4 223.3 224 223.2 222.4 221 217.1 214.6 212.8 211.6 208.7 205.8 202.4 200 198.8 198.8 197.9 199.1 209.3 210.5 211.3 210.2 210 214.1 219.6 227.8
260.6 257 255.4 253.9 255 256.8 256 258.2 256.6 257.7 259.7 262.9 264.6 263.7 261.5 262.1 261.6 260.7 259.4 259.5 261 260.8 260.9 259.2 257.1 254.8 251 249.6 249 251 255.1 256.5 257 258.4 258.9 257.8 258.3 258.3 260.6 260.9 259 252.6 249.4 247.4 242.8 239.5 235.5 232.7 226.8 213.6 204 200.3 190.5 181.8 175.8 172.5 169.4 163.5 163.6 165.8 167.1 171.5 174.8 178.9 182.1 183.5 185.4 187 188.6 197.2 201 210.4 218.9 226.7 236.9 247 256.8 269.1 281.8 293.9 301.8 307.8 313.5 314 310.3 304.2 299.1 295 292 292.7 295.7 291.9 289.6 289.4 286.8 286.2 287.6 289.5 289.1 287 284.7 281.8 276.6 266.9 259.6 256.5 256 255 256.2 256.8 258 260.5 263.1 267.5 273.2 279.2 282.7 281.5 271.4 268.4 268.6 263.2 255.4 245.3 239.8 233.7 223.9 214.9 212.1 206.7 200.6 195.5 189.7 182.9 173.8 164 153.2 140.3 137.4 135.4 129.1 123.6 119.3 113.9 113.8 113 111.1 110.8 110.3 109.7 111.9 115.2 116.5 118.1 120.2 122.5 123.8 130.1 139.6 145.6 145.1 151 154.6 158.9 161.7 164.8 166.5 168 179.1 185.7 193 198.4 205.1 213.7 214.1 221.3 221 218.2 217.2 214.8 211.8 208.3 206.8 203.9 198 195.2 193.1 189.8 189.7 190.2 189.1 190.5 195.3 198.3 204.9 205.3 209.9 215.8 224.7 231.6
260.1 260.6 259.9 258.3 264 264.6 267.2 270.7 263.8 268.6 268.4 270.6 271.5 269.8 268.4 266.7 267 267.1 264.9 266.4 268.3 267 264.9 263.4 261.4 257.1 257.5 258.6 260.5 262.8 264.6 265 266.4 266.6 267.8 268 268.3 269 269.7 270.2 267.9 262 260.1 255.4 250.2 246.7 243 237 230 219.6 212.1 205.5 193.9 188.2 178.6 174.5 170.8 168.4 162.5 162 163.6 166.5 170.7 175.1 176.3 177.8 175.5 176.3 185.2 190.3 196.7 203.2 209.5 218.2 229.8 242.3 254.2 267.8 279.8 289.8 297.7 304.2 309.5 309.7 307.1 305.3 297.9 292.5 287.4 283.5 280 276.9 276.1 275.3 272.8 272.1 273.2 270.6 275.7 275.2 272.9 268.6 254.7 247 246.1 242.4 241.6 243.5 245 248.5 251.6 254.4 258 260.8 269 272 275.4 273.9 269.5 272.9 271.7 259.4 253.8 248.1 241.3 235.4 228.1 221.7 216.5 210.9 204.4 198.9 192.4 187 177.6 168.8 159.8 156.1 147.8 142.9 137.2 130.8 124.8 121 113.7 112.9 110 110.2 107.8 109.8 109.3 109.2 111.1 114.3 116.4 118.6 119.3 121.7 127.2 133.3 134.9 137.6 141.8 147.9 148.1 159.3 166.6 173.6 181 187.8 192.7 198.9 207.1 213.6 213.2 213.5 215.3 212.3 211.1 208.1 205.7 202.9 199.7 193.3 187.7 187.3 183.5 180.6 181.8 182.2 180.2 181.9 186.4 197.2 204.2 208.7 212.7 217.7 228.2 237.1
262.8 265.6 268 270.5 274.9 271.3 278.1 276.2 275.9 277.3 278 277.6 277.7 278.1 277.2 274.5 276.7 276.1 273.7 273.3 272.6 273.8 272.9 271.8 266.9 266.5 267.8 268.8 269.8 269.1 270.9 271 272.5 274.7 274.2 274.9 276.2 277.7 277.1 277.1 274.2 268.5 266.7 265.7 257.7 252.1 245.3 243.3 234.5 225.5 218.7 210.1 198.2 192.2 184 176.2 171.8 168.1 165.7 162.3 160.5 159.6 167.9 168.2 171.3 173.8 171.5 170.6 176.5 182.6 188.7 192.9 201.1 208.9 218.7 231.9 247.1 261.2 275.3 281.9 292.8 301 305 310 308.3 296.5 287.8 280.2 274.9 269.4 268.4 267.9 265.9 262.9 260 260.3 257.1 254.5 254.6 252.6 250.9 247.2 242.1 230.8 230 229.5 230.4 230.1 234.3 239.4 243 246.7 250.9 256.4 260.3 263.5 266.7 270.1 263.7 265.7 255.6 250.5 247.3 242.9 236.7 230.7 225 220.2 215.3 210.2 205.5 200.3 194.3 188.5 182.2 174.5 169.6 163.8 156.3 148.3 137.1 131.3 128.9 125.9 119.6 113.9 112.6 112 111.3 110 109.3 108.3 108.7 109 110.8 115.5 115.5 115.9 118.1 122.3 124.1 126.3 129.7 144.4 151.7 158.7 168.8 175 179.1 185.6 188.6 193.8 202.4 206.7 206.6 206.7 206.5 206.4 204.1 202 197.4 193.1 190.6 182.9 177.7 176.6 173.6 175.2 175.7 176.2 176.9 180.5 187.5 198.6 202 206.2 214.5 216.8 224.8 232.5
268.9 274 277.1 279.8 281.7 282.1 280.4 283.1 285.6 285.4 287.4 289.1 288.6 288.4 285.1 285.8 286.5 285 284 283.5 285.1 284.9 282.5 281.6 278.6 276.7 276.8 278.8 278.8 277.5 279.6 279.9 280.4 280.8 282 283 284.3 284.9 284.3 282.9 278.5 273.7 271.6 270.5 265 256.7 251.3 245.1 238.5 230.5 222.7 211.9 206.4 198.2 190.3 182.5 176.4 170.2 166.6 164.8 159.4 158 163.4 165 162.5 166.5 169.7 165.2 171 170 176.4 182.9 191.1 199.5 208.7 216.7 235.1 249.4 258.7 267.1 279.4 290.5 298.1 294.6 282.6 276.7 256.9 255.8 253.7 252.8 254.5 254.1 252.7 251.1 248.8 247.4 245.6 242.8 237.3 232.4 229.8 224.9 219.1 217.7 216.8 218.4 219.2 221.3 226.3 229.6 232.3 237.3 242.2 246.5 250.7 254 258.6 258.8 250.9 248.2 243.2 240.8 235.9 231.8 226.8 223.2 221.1 218.3 213.7 209.9 205.5 199.2 192.5 187.4 182.7 177.8 173.9 168.1 158.6 147.6 136.7 135.7 130.2 126.9 122.9 118.4 112.2 111.3 111 110.8 110.2 109.3 108.8 108.2 108.1 107.9 109.5 109.9 112 113.8 115.5 124.3 138.3 145 150.8 157.5 162.2 167.9 175.2 181.9 188.3 194.3 199.5 205.1 203.3 202.6 202 198.9 197.7 195.4 192.5 185.5 183.5 173.6 168.5 168.1 167.7 167 168.2 174.8 176.5 181.9 187.4 193.9 199.7 201.8 209.5 215.6 229.3 237.7
278.2 282 284.1 286.3 287.1 287 290 292.7 293.4 292.9 298.8 299.8 300 301 298.1 297.3 296.9 295.3 295.8 296.7 294 293.3 292 290 288.3 287.4 286.1 286.2 285.6 285.9 286.1 286.3 286.4 287.7 288.1 288.7 289.7 290.6 289.4 285.7 281 277.2 275.2 272.6 267.4 262 258.9 252.9 244.4 231.4 223.3 218.6 211.8 206.5 199.3 190.8 184.7 178.1 170.1 165.1 161.2 157.3 162 161.8 159.2 159.8 160 161.2 162.4 162.4 165.3 170.7 179.2 187.9 195.2 201.6 212.3 227.1 239.2 248.3 259.6 268.8 269.4 266.4 258 243.3 240.1 237 238.3 238.8 240.7 240.1 238.2 236.1 231.6 227 225.8 222 217 212.7 210.1 206.6 203.8 204.2 205.7 207.3 209.8 212.7 214.9 218.5 222.1 225.8 231.2 235.7 238.7 238.6 241.1 235.8 234.9 233 230.5 227.9 223.4 218.9 215.8 213.2 211.9 210.1 206.6 202.2 197.4 190.8 187.5 183.5 180.8 175.9 171.6 165.4 158.8 147.4 140.6 143.2 139.4 132.6 123.8 119.5 115.6 111.2 111 110.8 110.1 108.6 109.1 108.4 107.3 107.1 106.9 106.6 107.9 111.7 122.1 129.5 136.8 142 148 152.8 156.7 162.3 170.3 178 184 189.3 195.2 195.9 194.7 194.4 196.1 196.7 193.5 190.3 185.1 177.8 172.1 163.7 160.6 159.7 160.9 158 168.5 178.9 180.5 187.2 193.8 201 203 205 213.1 216.8 223.8 236.8
285.2 288.2 290.2 292.3 294.8 295.9 300.5 302.7 305.6 302 306.8 311.3 313.1 312 309.9 307.8 308.1 309.7 307.2 306.8 306.9 304.8 302.5 301.9 299.5 298.5 296.6 296.7 293.7 292.5 292.6 293.1 293.1 293.7 294.3 294.4 294.6 294 291.6 288.5 284.3 280.4 276.6 273.8 270.8 267.3 264.5 258.6 250.7 240 231.7 224.5 217.5 212.3 206.5 197.9 190.2 184.2 177.4 174 166.5 156.6 158.1 157.1 160.4 159.6 158.5 154.5 153.8 154.3 155.7 159.2 164.5 170.3 178.4 185.5 196.7 204.5 215.1 227.6 235.4 241.6 231.9 224.9 216.8 215.4 216.9 222.4 223.3 223.3 223.1 218.6 216.6 210.8 208.6 206.6 204.7 202.1 198.8 196.1 193.9 190.8 188.6 190 193.6 195.6 197.2 199.5 200.6 201.8 207.4 210.9 214.1 218.7 221.9 222.5 221.7 220.4 219.7 218.5 216.4 213.8 210.3 207.6 205.8 202.5 200.7 201.1 196.2 190.2 186.2 182.2 179.3 176.7 173.6 168.1 165.1 159.7 154.8 148 147.3 143.4 138.9 133.4 130.2 118.8 116.8 111.8 111 111 110.2 109.4 108.4 109.1 107.6 106.6 106.8 106.5 106.1 114.1 121.3 126.9 132.3 138 143.1 150.2 154.2 155 164.5 169.2 173.3 179.8 181.7 183 183.8 189.2 192.1 191.4 188.3 182.9 177.1 169.7 159.8 155.3 153.9 152.2 153.7 154.8 161.8 169.9 182 189.3 201.7 203.8 205.2 210.4 211.9 213.1 221.3 229.4
292 294.3 296.6 300 303.2 307.7 310 311.5 313 311.5 312.7 315.4 318.8 320.8 321 319 319.3 321 321.8 323.5 322.4 319.3 318.9 316.6 316.5 314.8 310 306.4 304.3 303.8 300.6 300.2 300.1 299.2 299.3 298.7 298.4 297.6 294.9 293.7 288.8 284.6 280.5 278.9 276.9 273.7 267.5 260.9 254 246.1 240.6 232.4 222.4 218.2 211.9 203.6 195.4 189.4 185.4 180.7 169.9 162.3 153.5 153.2 153.3 153.1 156.7 152.7 150.9 149.7 149 149.9 152.9 158.1 162.1 169 178.2 186 190.4 198.1 201.9 200.5 196.5 196.4 195.5 196.1 198.6 202.2 202 199.2 198.4 196 191.7 189.4 189.9 188 184.7 185 181.7 180.2 177 174.6 174 175.7 179.1 180.1 181.6 184.8 186.3 188.2 193.8 196.3 199.6 201.9 203.3 205.7 205.3 205.2 205.5 204.2 204 204.4 199.8 196.6 194.4 191.8 192.9 192.5 181.3 176.1 174.5 171.5 170.7 168.1 165.1 160.1 155.6 152.9 148.5 147.5 144.2 139 132.3 131.9 121.4 120.5 119.9 117.7 111.4 110.3 109.7 110.1 109.5 108.4 108.6 104.3 104.3 106.1 105.8 108.8 116.6 122.6 126.9 133.9 138.8 145.9 145.4 149 151.7 157.5 160.7 170 170.3 173.5 175.4 179 181.7 185.4 183.2 179.4 175.1 166.2 155.9 149.9 147.6 147.6 148.5 151.4 163.9 169.1 177.8 192.3 204.8 205.1 205.5 201.8 203.8 207.2 212.8 220.5
300.4 304.5 307 309.3 312 314 318.3 320.1 321.5 322 320.8 324 327.1 330.3 332.4 334.3 334.6 336.9 339.5 339.1 341.8 341.4 338.1 334.1 329.9 327.7 325.4 321.2 316.7 313.1 309.6 308.4 308.7 307 305.1 304.5 302.1 299.8 300.4 298.6 294.5 290.1 287.4 285 281.1 276.2 270.2 264.2 257.8 253 246.2 234.4 226.8 221.2 214.5 209.6 202.8 195 187.7 181.1 173.2 167.5 165.2 158.1 156.6 152 151.8 151.2 150.3 148.9 148.6 147.6 146.8 149 147.8 153 160.8 167.9 171.2 170.9 172.3 168.9 169.5 172.1 175.4 175.2 176.7 179.9 180.2 181.2 179.8 177.4 175.4 172.2 172.5 170.8 169.6 166.6 164.9 162.7 159.1 154.1 155.2 157.2 160 163.1 166.1 170 172.1 173.9 178.3 181.2 182.9 185.3 185 187.9 189.3 191.5 193 194.3 190.6 189.8 188.2 183 181.4 181 181.5 174.4 170.2 166.7 164.8 162.2 159.9 155.4 152.5 150.9 147.1 146.6 141.3 136.5 134.7 130.7 129 123.6 123.6 122.2 119.8 119.3 117.2 109.8 109.8 108.5 108.6 108.1 107.1 108.4 107.1 106.9 105.9 105.4 111.8 116.6 121.3 127 129.3 132.1 138.1 138.4 142.1 142.1 150.2 157.3 158.2 165.2 169.1 172.2 173.6 174.2 176.4 176.1 171.3 163.7 155 148.1 147.6 147.6 147.7 152.6 162.9 173.5 180.7 191.5 197.7 198.5 197.5 197.3 199.5 198.5 203.6 216.1
309.1 314.4 316.3 318.1 320.7 323.7 325.9 328.3 330 329.4 330.2 333.5 336.8 342 345.8 347.6 348.9 350 351.9 354 355.7 355.8 353 349.3 343.1 342.3 338.6 336.9 332.2 328.4 322.7 318.1 315.4 313.3 312.2 311.4 307 307.8 306.7 304.2 301.9 297.2 293.9 288.7 284.7 279.8 275.1 270.9 266.9 261.9 254.8 243.1 230.8 225.5 219 214.3 207.6 202.8 194.3 190.1 179.2 171.7 171.1 175 162.4 153.3 151.8 150.4 150.4 148.8 148 147.1 147.3 146.2 145.4 145.9 149.5 152.8 153.2 153.4 155.8 156.1 156.6 156.9 155.7 157.9 160.4 159.2 158.9 161.4 163.1 160.8 156.7 157.1 154.8 153.6 150.9 149.9 149.3 148.7 146.9 142.9 141.2 140 140 145.7 151.2 156 157.1 159.9 162.4 163.9 166.7 168.4 170.6 172.1 174.8 176.8 178.8 175.5 172.3 170 169.9 169 168.8 167.8 161.3 160.2 157.1 157 153.6 150.9 151.5 148.8 144.1 137.2 132.4 130.3 129.9 131.9 128.4 122.2 118.8 116.9 115.7 114.8 113 110.4 109.4 109 109 109.5 108.7 108 107.3 107.1 107 106.5 106.1 102.3 105.3 111.5 114.7 116.5 120.1 125.2 130.2 128.6 131.7 134.2 138.8 147.9 152.5 154.1 159 163 164.8 166.4 165.8 167.5 163.9 158.2 153.8 149.1 147.6 147.3 147.6 153.7 163.1 168.9 171.4 182.5 184.5 193.6 193.1 196.8 195.3 192.4 199.3 205.6
320.7 324.7 326.5 327.6 330.8 332.8 334.1 333.9 334.1 334.9 338.1 340.6 345.8 352.1 356.7 360.3 364.1 365.2 364.5 364.9 363.5 361.7 359.7 357.8 354.7 349.1 345.8 345.1 343.3 338.9 334.7 328.4 324.6 322.1 321.2 319.3 313.8 313.8 312.5 312 308.8 301.5 296.8 292.7 289 284.7 281.9 278.8 272.6 267.9 260.4 247.6 240.2 231.5 224.7 221.2 215.2 208.4 203.3 196.3 187.7 182 179.4 175.5 159.4 156.3 154.6 153.1 150.9 149.8 149.1 148.2 146.5 145.5 145.8 144.9 144.8 144.9 144.7 144.9 145.5 146.4 145.2 144.8 146.2 145.5 145.9 147 146.9 148.5 148.2 147.4 147 144.9 142.2 140.8 140.6 140.8 140.9 140.6 139.5 138.2 135.6 135.5 135.2 136.4 136.4 139 140.6 144.2 147.1 150.8 150.1 151.6 155.2 156.6 158.5 157.4 155.6 153.5 150.7 149.9 151.4 152 153.3 150.9 146.1 145.7 147.4 144.6 139.9 139 137.6 138.9 135.6 126 124.1 128.6 119.9 118 116 115.1 114.3 111.3 110.7 110.1 109.5 109.6 109 108.6 108.4 108.1 109 108.1 107.3 107.6 106.1 106.3 105.1 105.3 105.4 104.7 106.1 108.9 112 115.8 119.5 122 124.3 126.6 129.8 137.7 140.1 140.7 146.8 151.7 154.9 156.9 157.1 156.9 154.6 152.1 150.7 147.7 142.3 143.7 147.6 154.4 159.2 163 167.7 168.2 174.5 185 184.1 185.5 183.6 182.9 185.7 191.3
332.1 335.9 337.5 340.5 341.6 340.9 337.7 341.5 342.4 343 346.8 352.8 357.1 361.7 366.8 369.4 370.7 370.6 370.2 367.4 366.6 363.3 360.2 358.7 356.2 350.9 348.9 347.7 346.9 346.2 342.7 337.1 332.4 330.4 328.8 325.4 319 319.6 318.3 316.3 308.4 305 301.4 298.1 295.4 291.9 288.3 284 280.3 274.6 265.6 258.7 247.6 239.8 235.6 230.7 221 216.4 211.7 203.3 196.5 192.2 182.5 174.2 165.2 157.6 156.6 154.4 151.3 150.8 149.6 148.4 147.3 144.7 144.8 144.9 144.6 143.6 143.6 142.4 142.4 142.7 143.5 143.1 140.7 141 141.1 139.8 139.1 139.1 139.6 141 142 141 139.8 137.4 136.9 136.9 136.8 136.9 136.5 136 135.7 135.7 135.6 135.3 134.5 134.5 134.7 135.6 135.7 134.9 136.5 139.1 140.1 142.4 142.6 140.2 138.6 138.1 135.8 137.4 140.9 139.3 138.5 140.6 136.8 132.3 130.3 130.8 129.2 126.7 126 122.2 118.3 117.3 117.5 117.3 116 113.9 112.5 111.8 111.9 110.7 109.1 110.3 109.4 109 108.8 108.5 108.4 107.6 108.3 108.2 107.8 106.5 107.6 106.2 105.2 105 103.4 104.5 104.1 104.7 104.5 107 110.8 114 116.6 117.5 121.8 127.1 132 133.4 136.6 140.1 145.8 148.2 149.9 149 146.5 146.9 147.3 145.7 142.5 142.6 145.8 151.3 155.2 155.7 161 160.8 162.5 167.4 167 170.6 170.7 173.3 174.6 177.5
346.4 347.1 351.2 352.9 351.9 343 345.1 348.5 350.2 351.5 354.6 359.1 367 371.3 372.6 372.6 371.6 370.6 369.8 370.1 367.5 363 359.6 357.4 354.7 350.1 349.1 349 349.4 349.9 347.8 343.5 338.8 335.8 334.8 330.8 331.5 329.3 326.4 320.5 314.1 311.8 308.4 305.9 302.2 298.8 294.3 290 284.5 278.5 270.9 262.4 254.7 247.7 240.6 233.1 227 223.3 217.1 209.6 202.3 196.4 189.7 178.5 169.9 160.5 155.7 154.4 152.5 151.6 149.4 147.9 146.8 145.8 143.6 144.4 144.1 143.7 142.8 142.6 141.6 141.7 141 140.4 139.7 139.3 137.9 138.1 138.6 138.7 137.9 138.6 138.2 138.6 138.1 137.6 136.2 136.3 136.3 136.2 135.1 137 135.9 136.2 135.4 135.7 135.4 134.6 134.3 134.7 135.4 131 130.9 130.8 132.4 131.6 131.2 129.8 129.1 128.8 128.3 130.5 129.6 130.9 129.4 126.4 126 123.5 122.7 121.1 121.7 121.2 118.9 117.1 116.1 113.1 112.6 114.5 113.4 113.5 112.3 111.1 110.3 111.5 111.1 110.4 109.8 111.8 111.1 110.2 107.5 107.3 106.6 106.7 107 106.1 107.3 106.5 106.6 105.5 104.6 104.3 103.3 103.6 104.9 104.2 103.3 103.8 105.1 110.6 111.5 115.2 121.3 124.1 129.2 133.8 137.1 141.2 143.6 142.9 140.7 142.6 141.9 141.8 137.8 143.2 144.1 145 147.2 149.8 153.6 155.4 153.4 157.4 155.6 157.2 157.5 160.4 160.6 158.1
