ncols 200
nrows 82
xllcorner 280000
yllcorner 330250
cellsize 50
411 417.3 428.2 437 443.3 451.7 461.7 473.8 490.7 503.6 507.9 505.6 494.5 489.7 484.3 480.3 482.2 480.6 481.4 481.4 481.2 481.6 481.8 484.3 486.6 489.7 496.1 502.7 492.1 481.5 471.3 462.8 459.9 459.2 456.5 455.7 463.4 470.1 475.7 478.2 480.7 486 492.3 496.2 495.5 500.6 506.5 515.2 513.5 513 512.3 518.9 519.9 528.1 525.3 526.4 528.5 526.2 526.6 525.1 521.1 520.7 524 517.2 514.3 512.2 497.7 492.6 490.7 488.4 484.6 471.2 469.8 469.2 469.4 467.6 464.6 462.7 458 446.4 434.6 426 424.5 421.4 415.4 411.5 407 403.1 402.1 400.7 393.6 388.7 382.7 380.2 375.6 369.5 361.5 353.7 348.4 342.9 336 330.4 326.2 322 319.9 317.4 315.3 312 307.5 307.6 304.8 302.6 300 297.2 294 291 288 284.5 280.3 276.9 273.5 268.8 262.8 255.7 250.1 246 242.5 238.1 234.5 231.5 229.8 227.9 225.6 220.5 218.4 216.3 214.3 212.6 209.1 200.2 196 196.4 195.8 195.1 194 193.2 192.1 191.7 191.8 192.7 194.4 196.6 202.1 200 206.7 208.3 206.4 206.8 207.9 207.4 203.9 194.6 193.9 208.5 212.7 214.3 214.8 216.8 222 227 231 239.8 246 251 252.8 252.4 245.5 249.2 254.1 260.5 269.5 276.1 278.1 278 274.5 272.3 270.5 268.1 264 261.5 259.8 259.8 258.3 255 257.1 261.5 266.8 270.9 278.7 280.9
408.1 413.3 421.8 429.2 439.5 449.1 457.6 467.9 480.4 492.5 497.1 495 492.2 480.1 476 474.5 477.7 478.8 480.1 480.3 479.6 479.7 480 481.3 483.3 484.5 486.9 488.4 485.2 478.9 467.9 462.1 458.7 457 455.9 452.6 459.7 464.5 469.8 473.5 477.9 474.4 478.9 481.7 486.3 490.3 498.4 498.9 494.3 496.5 503.1 507.6 514 521.8 520.8 520.2 522.1 520.2 519.5 515.5 510.4 508 510.7 506.4 505.2 502.4 494 492.8 482.9 483 482.9 478.3 477.1 471.7 473.1 474.2 468.4 458.6 447.1 439.3 436.1 429.4 419.4 413.2 409.9 406 403 401.2 400.7 399.4 392.8 382.2 376.8 372.3 367.1 360.1 351.7 349.2 345.8 339.9 332.4 326.4 320.3 315.7 313.6 311.4 309.9 308.3 303.3 304.3 301.2 298.3 296 294 290.8 287.9 285.2 282.5 278.8 275.3 272.2 265.2 256.6 253.5 249.2 244.3 241.4 236.4 233.1 230.2 228 225 223.4 219 216.1 214.1 211.6 209.6 202.7 199.8 199.9 193.6 194.1 193.8 193.5 192.6 191.5 190.6 190.4 190.9 191.3 193.1 195.3 199.6 204.2 204.1 202.5 202.8 203.9 203.1 194.3 191 196.7 206 208.8 211.4 210.8 214.4 216.5 221.2 224.6 231.8 238.1 242.9 245.5 245.7 239 245.6 250.5 258.5 270.6 276.5 277.3 275.4 272.6 269.6 267.8 263.9 259.8 258.2 258.1 258 256.5 255.2 258.2 264.5 273.4 276.1 279.3 281.4
407 409.4 415.3 424.8 434.6 446 453.1 459.8 472.8 485 490.3 485.8 482.9 472.8 468.5 467.4 470.1 475.6 478.8 479.2 478.1 478.1 479.7 481.3 482.7 484.3 486.1 485.4 482.8 477.3 469.7 463.4 458.5 455.8 454.1 453.8 454.7 459.5 461.3 465.1 465.2 467.3 469.3 472.5 480.4 484.9 486.5 488.1 489.4 489.8 493.2 498.2 502.7 509.7 511.7 512.1 514.5 516.4 515.9 512.5 508.9 503 503.6 498.8 496.9 493.1 491.4 487.1 488.5 490.3 500.2 502.1 486.8 477.6 479.9 475.7 464.5 455 451.9 450 443.5 434.2 422.8 410.5 407.5 404.7 402.9 402.5 397.5 395.5 386.7 379.1 371.5 363.7 358.2 354.2 346.1 340.7 340.9 335.7 327.7 318.9 313.4 308.1 307.8 305.9 304.5 303 300.6 298.8 295.5 295.5 293.9 291.4 287.6 284.7 281.5 279.1 277.2 273.3 267.9 260.8 256.7 251 247.1 242.1 238.3 235.1 231.9 229 227.2 223.9 218.9 216.7 211.6 209.8 208.5 205.2 201 209.2 208 200.7 192.9 191.7 192.2 191 190.4 189.9 189.5 189 189.5 189.8 191.9 199.1 202.4 201 198.9 197.4 200.2 198.4 191.7 188.3 197.1 202.1 205.7 208.1 207 212.7 214.7 216.1 219.2 221.7 227.2 230.8 235.3 226.8 238.6 241.5 248.2 257.1 265.3 272.2 274.1 273.2 272.1 269.8 264 259.4 256.3 256.1 256.3 256.3 255.9 256.2 259.5 268.5 275.4 278.8 279.4 279.9
405.1 406 411.3 418.7 427.1 441.3 448 452 463.2 475.9 481.2 478.7 473.1 465.7 462 461.6 464.4 468.4 472.8 477.2 475.9 478.3 480.2 482.1 484.3 487.1 491.5 493.7 488.2 481.7 471.8 465.4 459.8 456.7 451.8 451.6 447.4 451.7 453.5 455.4 459.8 464.4 467.3 467.9 473.7 476.9 480.6 478.1 484 485.5 486.1 490.8 497.6 499 509.8 506.8 507.8 513.5 512.3 512.1 502.9 500.8 499.5 497.8 497.8 496.7 492.1 488.6 491.4 495.4 505.4 508.2 498 486 484.1 469.8 469.2 467.1 465.4 463.1 445.7 428.3 413 408.5 408.3 408 406.7 403.8 398.3 390.3 384.3 379.9 370.2 358.3 347.5 341.4 338 332.6 330.7 322.4 312.3 308 304.6 299.8 301.1 300.3 299.1 297.4 294.3 293.2 290.8 290.2 288.3 285.8 284.5 281.5 277.1 271.9 269.4 267.5 264.7 260 255.1 248.5 243.8 240.7 238 234.2 229.8 225.6 223.4 219.2 215.6 212.2 209.5 208.1 207 203.4 211.6 213.1 213.2 209.3 203.6 195.7 190.9 189.9 189.1 189 188.6 188.4 187.8 188.3 193 198.5 199.3 197.6 195.6 194.6 193.9 193.4 189.8 187.5 192 197.2 199.1 202.1 204.4 209.6 213 215.3 217.7 219.8 219.7 222.9 223.4 231.8 233.9 240.6 252.2 260.7 264.5 269.9 272 272 270.9 267.2 261.7 256.8 254.7 254.7 254.3 254.2 251.7 255 262.1 273.1 278 279.4 277.8 277
401 402.8 405.6 410.8 421 430.3 440.7 444.2 456.2 465.9 471.3 467 464 461.2 454.8 455.1 457.6 462.4 464.3 474.8 476.5 479 481.4 488.3 492 492.4 495.1 502.4 497.6 494.3 489.3 474.1 464.9 459.8 455.5 446.7 442.8 446.3 448.9 448.7 452.4 456.3 458.6 464.7 464 470.2 470.1 473.8 474.3 475.5 478.1 484.8 488.4 492.7 497.6 499.7 499 505.2 507.6 508.1 504.5 500.2 499.5 498.4 498.2 496.6 496 495.7 499.1 504.8 507.7 509 508.1 499.2 484.1 475.3 477.1 477.1 474.1 454 440.9 424.3 409.7 408 407.9 408.6 406.8 405.9 402.3 392.2 388.2 381.6 370.5 363.5 350.8 340.1 325.4 320.4 319.8 311 300.8 301.5 299.1 296.1 294.4 294.7 293.1 290.3 288.2 286.5 286.2 282.9 280.9 279.1 277.9 275.2 271 268.8 266 264.1 261.4 256.2 251.3 248.3 243.5 240 235.7 230 226.6 225.6 224.4 225.6 221.9 213.6 216.3 217.5 218.6 220.1 219.9 218 216.8 213 207.5 203.3 197 197.2 193.7 188.2 188.1 187.9 187.6 188.8 192.5 195.2 196 194.3 193.5 193 191.7 190.4 188.1 186.1 188.2 193 195.6 200.5 202.7 208.2 211.5 214.8 216.5 216.6 217.4 218 221.4 229.9 235.6 241.8 253.3 264.7 267.9 269.9 271.6 270.8 268.3 263.9 258.8 255.1 252.7 252.1 252.1 252 249.9 253.4 263.1 274.2 277.3 275.3 272.4 269.1
399.6 399.8 402.3 407.7 417 425.4 433.5 439.7 445.9 457.4 461.1 463.1 463.7 458.2 451.1 451.4 454.7 458.6 465 471.8 476 480.3 485.2 491.1 498.1 495.5 497.5 503.8 508.6 507.2 504.4 489 468.9 460 452.6 447 439.6 442.3 444 444.7 445.9 446.1 454.3 460.6 458.3 457.7 465.2 468.3 470.4 470 472.1 476.6 482.1 483.9 488.2 489.6 485.5 490.9 497.9 503.9 502.6 500.8 500.2 499.7 502.5 501.4 501.4 503.7 509.4 513.7 517 518.7 515.7 498.3 488.9 490.4 489 481.6 466.3 446.6 434.7 423.1 411.8 407.3 407.6 408.3 406.9 408 397.5 391.4 387.8 380.6 367.2 354.8 347.9 338.3 326.3 314.6 312.6 307.2 298.4 296 294 292.1 290.2 289.3 287.8 291.8 288.3 279.7 278.2 278.5 277.9 276 274 271.1 268.1 266 263.8 260.6 257.7 253.1 244.8 243.6 238.9 234.7 233.6 235.8 231.1 233.2 229.5 223.7 224.5 222.2 223.3 226 225 226 224.6 222.1 220.2 217.2 213 208.5 203 201.2 198.3 192.6 187.3 186.9 186.8 187.2 190.8 192 192.5 191.3 190.3 190.9 190.5 190.1 187.6 184.9 187.1 193.3 196.9 199.8 204 207.6 209.2 212.5 216.3 216.1 215.7 216 222.4 227 234.4 241.6 253.7 265.7 271.7 272.3 271.4 267.7 264.8 259.7 255.7 253.3 251.4 249.7 249.3 248.2 248.3 253.1 257.6 270.3 269.7 269.4 264.8 262.4
398.7 397.6 400 406.9 414.6 421.5 430.8 438.9 441.9 447.1 452.7 463.5 458.8 450.9 447 448 453.1 458.3 466.1 472.7 477.9 481.5 487.5 493.7 506.5 503 495.7 497.6 511.3 514.4 508.2 488.6 470.1 457.4 449.9 447.6 439.5 434.6 438.5 436.9 438.5 438.8 442.4 447.3 447.8 446.7 450.3 457.1 461.3 465.3 464.8 468.9 470.1 474 476.4 473.2 474.3 480.8 490 497.5 497.7 497.5 503.9 508 507.9 507.5 507.3 509.2 516.2 520 519.1 514.3 503.1 499.2 498.6 496.8 490.3 472.4 463.3 446.9 434.6 430.8 431.4 423.9 412.6 406.9 403.9 398.7 397 393.2 388.8 375 357.8 344.9 334.2 330.9 328.2 319.4 305.5 302.9 298.9 295.3 293.8 291 291.9 291.8 293.3 294.5 290.9 285.3 278.7 273.3 274.8 274 271.6 268.5 265.2 263 259.6 256.2 252.2 251.5 249 245.5 243 237.4 241.9 238.8 237.1 234.5 230.9 229.9 232.3 230.9 232.9 233.2 232.5 230.2 226.9 225.7 222.7 219.1 216.1 212.5 208.4 203.5 198.5 191.9 184.2 185.8 185.5 185.3 186.1 187.9 188.1 188.1 188.1 186.8 187.1 185.1 183.8 184.2 187.3 193.3 195.4 198.3 202.8 206.1 208.5 211.5 216.7 215.7 214 213.8 219.7 227.2 234.4 242.6 258.4 269 273.2 274.2 270.3 265.5 260.7 256.4 252.8 250.6 249.5 245.8 245 246 248 247.5 252.6 254.6 257.4 257.4 255.9 257
398.3 397.2 400.4 406.2 413.1 420.9 425.8 433.4 440.1 444.1 447.5 456.4 448.4 446.2 444.7 448.1 454.1 461.6 469.6 477.3 484 484.3 486.5 492 504.2 506.7 493.7 490.9 498.9 497.4 492.1 479.4 468.6 456.6 451.4 447.5 444.5 436.8 430.4 429.4 429.8 431.1 432.9 435.2 434.5 434.9 440.7 447.3 455.2 453.6 456.5 463.4 467.4 468.8 468 466.5 464.4 471.7 480.4 489.8 493 495.6 501.3 508.9 514.2 516.7 513.5 512.6 518 522 518.3 511 503.8 502.2 501.2 499.1 491.8 476.6 459.1 447.3 447.4 446.1 444.7 434.3 417.2 407.7 400.9 397.4 395.2 390.2 382.4 366.9 352.4 338.5 331.1 331.5 323.6 312.5 303.9 300.3 298.2 295.1 295.8 298.3 298.6 299.2 299.2 296 292.5 289.1 282 275.1 269.4 269.5 265 264.3 266.9 265.1 261.7 260.5 259.5 256.8 253.6 251.1 249.7 247.8 243.9 239.7 237.9 236.3 228.4 235.7 238.1 237.8 239.4 238.5 236.1 231.8 227.4 224.1 221.5 220.1 217.6 213.8 209.2 200.6 194.6 196.4 190.9 183.4 184.5 183.9 184.1 183.6 184.3 184.3 183.3 182.7 182.5 183 181.7 183.5 191.2 192.2 193.9 197.8 202.1 204.7 207 212.6 217.4 214.8 213.2 213.7 219.7 228.3 236.5 250.8 264.4 271.5 273 271 267.9 264.2 259.4 255.7 253.3 249.3 245.7 243.8 244 245.8 244.8 243.2 243.5 245.9 248.1 250.2 251.2 252.1
397.1 396.3 400.8 407.1 411.7 416.1 423.4 430.5 434.8 437.6 437.4 444.6 443.4 446 442.9 448.7 457.9 462.6 467.3 475 480.4 483.9 480.9 484.6 493.6 508.9 496.3 482.8 481.2 480 472.4 466.3 462.1 456.4 452.7 448.1 444.6 438.3 435.9 429.1 420.3 419.7 425.3 428.5 426.9 426.5 433.2 438.8 444.1 443.9 447.2 453.5 459.7 463.2 465.1 458.3 460.2 466.8 474.3 484.5 489.3 491.2 496 507.6 518 520.5 518 516 520.7 526.2 527.6 515.4 503.1 500.9 496.8 491.8 486.3 478.1 461.1 447.9 447.2 444.4 438.3 429.8 418 407.7 397.3 394.9 389 382 371.6 359.7 346.7 333.8 327.7 323.2 318.9 310.7 306.3 299.9 301 301.5 301.7 304.1 304.9 303.4 301.1 297.7 294.2 290.7 284.7 279.1 277.4 273.8 273.4 274.4 273.3 272.3 271.3 268.5 264.3 262.1 259.8 256.1 253.2 249.7 246.1 244.5 243.6 234 239 242.8 243 242.6 240.9 238.6 235.8 231 226.3 221.2 218.2 216.5 214.7 211.4 205 201.9 204.1 201.6 196.7 187.4 183 182.4 182.1 181.5 183.2 181.8 181.5 181.5 180.7 178.2 187.9 188 189.5 191.3 193 197.7 201 203.6 205.6 211.9 213.6 211.1 210.6 213.4 217 228.7 241.2 255.3 268.2 273.4 271 267.9 264.7 261.7 258.5 255.1 251.9 246.7 243.9 243.8 242.6 242.2 241.8 241.9 242.1 243.4 245.2 247.1 248.6 248.7
396.2 395 399.9 404.5 408.5 413.6 419.4 427.7 433.1 432 431.1 439.1 439.8 438.2 443.7 448 458.7 463.3 463.8 465.4 466 469.9 473.4 478.1 485.1 494 486.8 478.6 470.2 465.7 464.1 462.3 459.6 456.2 453.9 449.3 446.8 442.4 439.3 432.1 427.3 422.3 413.3 420.4 419.7 421.1 425.9 430.5 435.7 437.3 442.1 452 456.1 455.8 455.2 452.8 457.5 459.4 467 478.7 481.3 488.5 493 500.6 510.7 516.7 521.8 525.8 531.7 531.5 532.4 523.2 508.7 500.6 496.5 491.4 480.9 473.2 463.6 452.8 448.1 443.4 438.7 436.7 418.3 407.5 397.2 391.4 383.7 371.7 362 355 344.8 338.2 334 324.6 320.6 315.1 309.6 308.8 309 310.7 309.1 310.2 307 305.1 302.5 299.3 296.2 292.7 287.9 286.2 286.1 281.4 280 280.4 278 274.7 274.4 273 268.7 267.8 265.3 259.9 253.5 250.9 246.7 246.9 245.8 232.7 244.6 246.4 244.3 241.9 239.1 235.7 232.9 229.7 225 218.4 215.1 213.1 210.7 207.9 204.8 207.4 207.7 205.3 205 198.8 185.5 186 183.4 181.7 181.1 181.7 181 181.1 181 178.1 187.6 188 188 190.2 192.4 196.6 198.9 199.9 202.8 205.9 207.4 212.4 212 212 214.1 232.1 244.6 257.1 270.1 273.6 268 265.9 263.4 259.9 257.7 253.1 250.4 245.5 243.6 242.1 240.9 241.8 240.8 240.9 241 241.5 243.3 245.4 246.1 245.5
395.9 393.9 397.7 402.9 406 409.9 414.1 422.4 427 429.6 430.7 433.2 434.1 435.5 442.5 449 458.7 461.7 462.9 463.7 464.9 465.8 469.1 473.4 477.9 482.5 480.2 471.7 465.5 464.1 463.2 461.8 460.1 456.7 453.8 450.1 445.6 441.7 439.1 432.9 428 424.1 416.6 408.6 411.6 414.8 418.6 421.5 426.2 430 433.5 441.6 443.7 446.3 448 445.6 448.7 450 455.8 466.3 477.1 487.7 492.3 497.7 505.2 514.8 522.3 529 535.8 532.9 535.4 526.7 517.5 507.1 493.6 484.4 479.4 474.2 464.8 449.2 442.1 437.3 432.6 426 417.1 407 396.4 387 380.5 374 366.3 358.7 353.9 351.6 340.9 328.3 324.3 318.4 315.6 315.2 315.2 314.7 314.2 313.1 309.9 307 304.4 302.3 299.5 296.4 294.5 293.3 292.9 288.4 287 285.1 281 279.4 278 275.8 274.3 272.2 267 260.4 254.4 252.5 252.2 249.7 247.1 235 245.9 247 245.2 241.8 239.1 236.2 231.3 227.7 224.8 221 219.2 213.3 207.7 205.5 208.8 210.4 210.7 210.2 210.7 209.2 201.7 189.6 190 184.7 180.7 180.3 180.3 180 179.3 178 181.7 184.7 187 188.8 191.3 194.8 195.4 196.2 200.4 203.9 211.4 215.1 213 212.5 213 229.2 245.2 256.4 268.3 269.4 263.7 263.5 262.9 259.1 257 251.7 247.1 244.1 241.8 240.1 240.1 240.8 240.1 240.4 240.7 240.9 241.2 242.8 243.6 242.6
395.1 393.2 395 401.1 402.9 408.1 412.4 415.8 421.9 426.8 428.4 435.5 435.9 434.6 439.6 446.4 452.9 461.2 463.4 464.1 464.2 465.4 467.4 470.4 471.1 477.2 478.1 469 464.7 464 462.8 461.6 459.8 457.6 454.8 452 445.2 439.1 434.5 430.8 424.8 418.6 413.1 407.6 405.6 408.8 410.9 414.5 416.6 423.1 425.6 432.4 432.7 434.7 436.6 437.2 436.2 441.1 447.7 461.1 475.9 489.4 496.4 498.7 506.5 512.2 518.7 521.8 533.6 535.1 530.1 523.1 516.1 506.8 493.6 481.2 474.7 469.7 455.1 443 434.2 429.5 427.7 429.3 420.8 404.4 395.9 390.9 385.1 378 373.2 366.2 358.6 349.3 339.6 332.4 329 324.3 321.5 320.3 320.2 319.5 318.1 316.1 313.5 310.6 307.8 306.1 304.5 301.9 299 298 297.3 293.9 289.9 287.5 284.4 283.3 280.8 277.8 275.4 272.8 267.8 262.8 257.7 256.1 254.9 252 245.3 241.9 244.8 248 245.7 243.2 240 235.6 229.6 226.6 223.4 221.1 218.6 214.3 208.5 212.4 210.2 212.4 212.8 214.3 213.7 210.1 203.1 199.6 196 191.4 183.8 180.4 178.5 177.7 177.3 176.8 179.8 182.2 184.3 187 188.8 189.8 193.1 196.8 201.4 206.3 211.1 215.7 216 213.9 214.1 227.9 242.6 253.9 261.4 260.5 261.1 263.1 262.1 258.8 253.8 249.4 245.6 239.6 238 238.5 239.3 240.4 240 240.5 241 241.1 242.1 243.2 240.9 235.3
395 393.3 392.7 398.6 401.5 404.8 409.3 412.8 414.2 417.2 431.6 439.3 436.2 433.6 435.3 443.7 449 459.7 466.6 469.4 468.1 463.9 467.5 469.8 465.2 466.4 475.4 469.1 464 463 465.9 460.9 459.5 458.1 455.7 453.3 447.8 442 436.8 432.2 426.8 422.3 418.3 411.9 402.3 402.9 406.3 410 413.7 417.7 417.6 419.3 421.2 424.4 426 425.7 430.5 435.1 443.6 456.6 477.4 496.9 501.9 501.7 503.6 504.9 505.5 507.5 514.6 517.5 513.4 509 506.2 498.2 486.5 479.9 474.5 465.5 446.9 443 429.8 421.6 423.8 423.1 411.6 400.1 393.3 388.9 386.5 384.9 380.9 371.4 360.2 351 343.2 338.3 333.8 330.3 327.5 325.9 325.2 323.4 321.4 319.5 318.1 315.8 312.8 308.7 306.5 304.8 302.4 302.2 300.5 297.7 293.9 291 288.3 286.3 283.4 280 275.9 272.3 267 263.4 261.4 259.3 254.5 251 250.8 243.9 246.4 249.3 246.6 244 240.7 232 227.6 224.7 222.1 220.3 218.6 214.6 216.5 216.3 214.4 215.4 216.5 217.2 215.6 211 209.7 204.3 199.1 193.3 187.2 181.5 179.1 178.4 176.9 175.9 177.6 178.2 178.7 183.5 184.7 187.2 191.7 194.8 199.2 202.7 207.6 212.3 215.3 214.9 215.9 225.9 238.8 253.8 254.6 257.1 260.2 260.6 258 257.7 250.6 240.7 232.4 241 240.1 238.9 239.2 240.2 240.3 242.1 242.6 244.4 243.6 243.5 240.7 233.7
399 396.3 392.4 395 396.8 400.7 403 404.9 417.1 422.4 429 435.2 434.3 431.7 433.2 443 446.7 458.3 461 461.8 462.5 454 454.6 464.2 456 460.4 468.1 470.8 462.5 460.5 462.7 460.6 459.7 458.6 456.6 454.6 451.8 448.4 442.8 434.8 427.9 424.7 419.1 408.9 406.5 400.3 398.8 404.3 407.8 407.1 408.4 411.5 416.4 418.6 416.2 421.7 426.7 431.4 437.1 447.6 467.2 487.5 497.3 500.8 504.1 503.3 496.6 493.4 497.2 503.8 505.4 499.4 496.6 491.6 483.6 471.4 462 449.3 432.8 424.3 419.6 412.9 412.4 406.8 403.6 396.4 394 392.3 390 392.2 385.1 374.3 363.4 354.3 346.5 341.3 336.9 334.4 332.3 330.8 329 326.5 324.8 323 321 318.4 314.9 311.2 308.5 307.1 306.3 304.5 303.6 301.6 298.2 294.6 291.1 288.3 285.4 280.6 274.6 269.3 266.2 263.4 261.1 258.9 254.1 253.8 252.9 245.2 247.5 250 247.3 244.2 237.8 232.4 228.6 225.6 223.4 220.7 218.2 216 216.7 217.9 217.1 218.7 219.3 219.9 218.6 217 215.1 211.3 203.1 193.7 187.4 183.4 180.9 177.8 177.4 176.9 175.1 176.4 177 177.9 178.6 185.1 189.4 191.4 195.4 198.7 203.4 206.7 210 212 214.7 223.5 236.5 246.5 254.6 258.6 257.1 251.2 246.5 242.7 239.8 230.6 243.6 243.9 244.5 241.3 240.6 242.1 245.1 245.7 247.4 248.6 246.5 244.8 240.2 232.2
401.8 395.4 392.5 391.6 393.3 394.8 397.9 403.6 413.2 419.5 426.8 433.3 433.8 431.7 430.8 439.2 446.1 448.6 456 455.2 453 449.8 442.8 446.8 449.3 452.3 465.7 469.4 463.2 458 459.1 463.1 460 459 455.9 454.5 453.1 450 443.3 435.1 427.1 422.1 417 409 407.4 402.2 399.1 399.5 403.8 402.5 403.4 407.6 409.8 411.6 415 419.7 425 428.5 433.7 443.2 457.2 471.7 488.5 498.7 501.5 504.1 494.2 483.6 483.7 490.4 495.4 490.9 485.8 475 461.8 455.6 440.4 425.4 413.4 404.8 405.6 404.2 402.8 402.8 403.5 402.2 401.5 399.8 398.9 398 387 374.7 362 350.3 345.2 342 338 335.8 333.9 332.8 330.9 329.1 327.3 325 322.7 320.3 316.8 312.6 310.7 309.2 308.5 306.9 304.9 302.3 299.3 296.2 292.3 288.8 286 280.1 273.9 269.9 266.3 263.5 260.8 257.8 256.7 256.2 254.5 245.9 248.8 250.7 248.7 245.3 239.2 233.8 231 227.5 225.1 223.1 219.7 218.4 220 219.3 220.6 221 221.8 222.6 222.8 220.9 218.6 215 206.8 195.7 191 188.1 185.3 185.9 178.6 178 176.1 175.4 175.9 175.2 172.8 180.1 184.4 188.6 192.4 195.1 198.5 200.8 203.4 206 210.3 218.8 236.5 249.3 256.1 258.2 251.2 243.6 238.3 235.4 221.4 240.9 247 249 247.8 245.8 244.6 246.6 250.3 253.5 255.2 250.7 247.9 242.9 237.1 230.3
400.2 393.5 391.5 390.8 392.2 394.4 394.7 400.2 409.3 413 420 426.3 427.8 426.8 427.7 434.9 439.3 441.2 441 441.7 436.7 436.7 438.6 446.3 447.9 450.9 456 463.8 460.1 455.5 457.4 467.9 461.8 459.3 455.3 452.1 450.7 448.4 440.2 431.2 424.5 418.5 413.6 408.2 407 402.7 399.8 395.6 397.2 398.9 401.9 402.2 409.8 413.5 419 422.4 425.6 431.2 433.2 438.2 446.3 459.1 478.6 489 497.7 503.8 497.2 478.4 465.4 473.3 473.5 464.6 461.4 454.7 447 438.3 422.7 407.2 400.4 400 400.1 401 401.9 404.2 407.6 407.5 406.5 409.1 406.8 398.4 384.5 368.2 356.1 349.7 344.5 341.3 339.4 337.1 335.2 334 332 330.3 328.8 326.3 323.7 321.5 317.9 313.8 313 311.6 310.4 308.2 305.1 302.8 299.9 297 294 291.3 284.8 281 276.5 273.1 271.6 264.9 262.8 261.8 259.7 257.2 248.6 248.3 252.7 254.5 252.8 250.4 243.4 238.4 234.7 231.4 227.2 225 221.4 220.8 221.2 222 223.8 223.7 224.6 225.4 226.6 225.2 221.9 218.3 214.2 205.5 199 193.5 192.2 189.4 185.8 181.9 176.9 176.2 176 175.6 174.4 171.9 181 186 189.3 191.5 193.3 195.4 198.2 201 204.1 215.9 235.1 243.8 247.2 246.8 243 237.5 228.6 223.3 237 244.1 249.7 251 250.4 248.6 251.9 251.6 255.6 259 258.9 252.4 246.6 239.8 233.5 228.2
394.3 391.4 389.9 390.9 392.1 392 392 395.9 400.7 404.3 412.4 415.4 417.8 422.5 424.7 428.3 429.6 429.3 426.4 423.7 425 428.1 433 441.9 447 448.9 446.3 451.5 452.2 454.4 457.9 464.5 459.6 454.1 447.6 446.3 443.6 440.4 434.3 427.7 423.6 416.4 411.4 406.9 405.4 403.4 399 395.9 392.5 395.2 397.2 403.4 407.8 415.6 421.3 427.1 428.5 430 429.3 432.7 437.1 446.9 461.2 483.1 494.6 490.5 481.9 470 452 450.6 446.9 439.7 434.5 432.9 433 422.7 409 404.2 400.8 400.2 400.1 401 401.7 404.6 411.8 414.4 417.1 417.7 407.3 392.2 376.2 363.6 354.7 349.7 345 341.8 340 338.1 336.1 333.3 331.4 329.2 327.6 327 324.7 322.3 317.8 315.4 315 313.9 311.6 308.8 305.3 303.1 300.1 296.8 294 290.4 286.6 281.2 277.5 274.6 272.3 268.5 265.4 263.1 260.6 255.3 251.6 253.4 256.4 259.3 258.4 254.7 249.4 243.9 241.5 234.7 230.4 227.2 221.5 223.3 223.9 224.7 226 227.1 227.3 228.3 229.4 228.8 225.8 222.1 218.6 213.2 207.9 204 200 195.8 193.8 186.5 178.4 176.1 175.9 175.3 173.8 172.2 175.3 182.3 186 188 189.4 191.5 192.8 197 198.8 208.8 221.1 227.9 234.9 239.6 236.9 232 216.5 231.2 240.6 244.3 246.7 251.2 252.6 253.7 257.2 258.4 260.1 262.7 260.8 250.4 242.6 237.1 229.5 224.6
395.9 388.6 389 389.4 388.8 388.7 388.7 390.8 396.5 398.6 403.5 411.4 420.9 419.7 415.7 420 421 418 417.3 417.4 416 420.2 427.7 435.2 444 448.3 444.5 441.9 444.6 451.3 452.6 460.4 455.9 452.4 447.5 442.2 443.1 435.9 429.4 423.2 418.5 412.7 408.3 404.7 401.7 401.2 400.2 397.4 392.2 392.6 398.8 402.8 405.4 413 421.5 427.4 430.1 428 428.7 427.5 425.1 430.4 442.9 460.9 474.3 472.7 461.7 453.1 442.1 430.9 432 424.2 419.2 420.2 419.7 412.9 402.5 401 398.5 400.3 400.5 401.8 403.3 409.1 411 411.3 405.1 401.1 394.9 386.8 372.2 362 354.4 349 343 339.4 337.1 335.4 333.8 332.6 330.3 328 326.4 326.7 325.2 323.5 318.3 316.3 315.4 313.5 310.8 308.1 305.2 303 299.9 296.5 292.5 288.5 285.1 280.9 277.7 274.7 272.1 268.9 265.9 263.4 260.3 254.6 251.6 256.2 258.7 261.3 258.8 255.4 252.5 248.5 244.5 238.7 233.8 229.8 221.7 225.9 226.6 227.5 228.5 229.8 230.2 231.4 232.7 232.2 229.1 225 222.5 220.6 217.9 212.5 208.5 203.9 195.8 187.5 180.4 176.5 175.8 174.7 173.3 172.2 171.8 177.4 181.7 184.1 186.6 188.3 189.8 192.9 196.6 201.2 207.9 213.4 220 227.6 231.5 228.3 209.5 224.2 232.6 241.4 245 250.8 256.5 258.4 261.2 262.6 261.1 264.2 260.5 249.8 241.8 234.9 228.7 221.9
393.1 393.8 387.4 387.7 386.9 387.1 387.4 393.7 396.7 402.5 403.1 407.1 411.4 405.3 403.1 403.7 401.9 403.9 407.1 405 406.1 411.1 420.8 431.5 440.8 449.3 451.3 442.6 438.9 441 449.5 457.3 460.9 459.5 448.4 436.6 429.1 428.2 426.4 423.9 415.6 410.8 406.2 402.6 399.5 398.3 401.9 399.2 392.4 391.3 397.3 405.9 407.4 410.5 419 434.9 437.3 427.4 423.8 419.4 415.6 416.7 422.2 436.4 445.9 448.1 440.4 435.5 426.2 418 418.1 415.8 406.4 407 406.5 400.5 398.1 397.9 396.4 399 400.6 403.9 407.2 409 410.5 407.7 400.6 396.8 392.9 384.2 366.8 358.7 351.5 345.8 338.6 336.4 334.8 333.1 331.5 330.7 329.3 326.7 325.1 325.2 323.8 320.8 318.7 317 315.2 312.7 310 306.1 304.5 302.8 299.7 295.8 290.6 287.7 285.2 280.5 277.9 274.9 271.8 268.2 264.9 262.5 260.3 254.4 254.4 258 260.4 261.9 259.2 256.7 254.2 250.5 246.8 242.2 238 234.1 224.8 228.2 229.3 230.2 231.2 232.3 234 235.8 236.2 235.4 234.6 230.3 227.8 225.5 221.8 218.5 214.3 208.2 199.5 191.5 184.8 179.1 176.5 174.8 173.5 172.3 172.1 170.8 170.2 180.8 183.4 185.5 187.5 190.7 194.8 198.9 203.2 208.6 215.1 220.3 223.7 221.9 213.9 212.6 222 233.7 242 249.8 258.7 261.8 261 264 260.9 262.2 256.3 251.9 243.3 235.6 227.5 219.9
403.8 397 396.4 391.7 387.9 386.8 386.8 388.6 393.1 397.4 396 402.1 399.9 391.2 388.7 388.6 391.4 394.4 395.8 397.6 398.9 402.4 409.2 418.9 428.6 440.5 447 445.4 437.5 435.7 438 444.1 454.4 453.4 443.4 430.2 423.9 421.4 418.4 414.1 411.2 408.6 404.2 400.3 395.6 393.6 392 393.5 391.1 390 395.1 399.7 404.6 409.1 413.3 421.3 430.6 420.9 406.7 408.8 409.7 405.1 405.2 414.3 425.6 427.8 425.2 423.3 414.2 406.2 402.6 399.5 397.6 397.6 396.9 396.1 395.9 395.6 393.7 396.5 399.5 404.6 407.3 406.8 408.9 408.8 401 399.4 394 383.3 367.1 354.8 347.9 340.4 334.2 332.5 331.5 330.6 329.3 328.9 327 324.6 322.9 322.1 319.8 318.2 316.8 315.8 313.9 310.8 306.3 304.7 303.4 302.1 299.3 294.6 290.2 287.4 284.8 280.4 277.2 274.3 270.7 267.1 263.4 260.5 258.1 255.5 256.5 260.4 261.7 260.4 258.7 257.2 255.5 252.3 248.5 244.4 241.3 235.4 230.3 232.8 232 233.1 234.3 235.6 237.5 239.3 239.2 238.1 236.9 234.9 232.8 230.5 224.9 221.2 219.2 213.1 206.6 199.4 189.7 182.8 180 177.9 175.2 172.9 172.2 171.6 170.2 170.8 179.5 183.2 185 187.9 191.2 196.7 201.5 207.2 213.3 215 216.6 215 211.7 206.2 209.1 219.3 236.3 243.9 259.1 262.2 259.8 259.8 257.9 255.9 253.6 249.7 239.8 231.2 224.2 215.8
412.4 404.3 399.9 394.5 388.9 385.6 385.8 387.6 391.4 390.9 389.2 389.7 386.2 385.1 382.3 382.3 384.2 385.3 387.5 390.6 393.2 396.9 400.8 408.1 417.6 429.8 437.4 442 442.3 434.6 433.8 434.7 450.3 449.8 442.4 424.1 416.6 414 413.2 411.1 412.3 412.3 403.4 399 395.6 390.2 388.7 388.6 387.8 388.4 391.4 392.4 395.1 400.4 403.4 408.4 407.7 405.6 402.4 396.2 392 393.6 397.2 400.5 408.2 411.5 409.8 409.2 404.8 397.5 397.2 397.5 398.7 399 398.1 396.7 396.3 393.5 389.9 391.5 393.5 394.5 397 400.9 407.1 406.9 401.8 399.8 395.3 382.6 366.5 352.8 343.5 335.9 329.7 327.3 326.3 325.5 324 324.3 324.8 322.9 321.2 319.5 317.9 316.3 314.8 313.7 311.8 307.2 302.3 299.8 299.4 298.9 296.5 293.9 290.1 286.5 284.1 280.4 276.1 273.2 269.6 267.9 262.9 261.7 260.1 257.9 259.1 261.9 262.9 260.1 258.8 257.3 255.6 253.3 249.2 246.4 242.8 232.3 239.4 237.1 236.2 237.3 238.4 239.7 242.2 243.3 242.5 240.6 239.4 237.4 236 232.9 229.2 224 225 220.1 215.4 210.4 201 192.2 185.8 182.2 175.7 174.5 173.1 171.8 169.6 172 177 180.8 182.4 186 189.8 194 199.6 205.8 210.8 212.4 212.4 212.2 210.9 206.1 201.8 207.7 224.3 235.2 251 254 250.5 252.6 252.4 251 247.6 243 233 224.1 216.8 209.8
409.7 404.4 399.7 393.1 389.1 384.5 384.6 385.7 386.2 384.3 383.2 384.4 379.8 382.3 382.7 379.2 376.5 378.9 380.5 383.9 388.1 391.8 395.5 401.6 407.6 417.9 423.5 432.3 437.8 436.9 431.3 430.8 440.4 455.5 449.3 424.5 413.7 409.2 409.3 407.8 406.4 402.9 398 395.3 391 390 387.9 385 386 389.3 390.5 391.2 391.5 392.7 395.7 398.8 401.2 403.2 400.2 393.4 387.1 385.2 389.3 390.4 392.7 395.3 399.1 397.6 395.5 393.3 394.2 397.2 400.6 403.6 409.8 406.6 400.3 394 386 385.6 386.7 389.3 392.1 395.4 404 404 400.6 399.4 396.1 381.6 362.2 347.6 338.2 330.3 325.3 322.1 321.7 321.3 321.1 321.6 322.1 321.4 319.8 318.1 316.3 314.4 312.5 309.8 305 302 300 297.8 296.5 295.6 292.9 290.1 287.7 285.3 281.9 278 275.6 275.8 272.8 265.6 263.1 261.3 260.1 258.4 258.6 261.3 262.1 260.1 258.5 257.2 255.2 251.3 247.6 246.3 243.7 235.8 242.4 240.9 240.8 242.1 243.4 244.3 245.8 246.4 245.8 245.1 244.1 241.2 239.8 236 232.3 231.6 229.1 227.4 220.5 215.5 209.8 203.9 195.3 186.2 182.1 179.9 174.6 172.2 168.3 169.8 170.7 175.9 180.2 183.9 187.7 191.9 197 201.5 205.5 206.7 207.7 208.3 209 209.2 205 201.9 213.9 223.9 230.5 242 245.6 248.1 249 248 243.2 234.7 227.1 217.5 209.7 203.2
405.7 399.3 395.2 390.6 386.7 384.2 383.2 384.5 383.4 379.2 376.2 373.7 375.3 377.7 378.2 376.7 372.3 373.8 377 379.3 383.1 386.7 388.2 394.9 399.9 405.9 412.2 417.2 422.7 423.6 423.1 422.9 427.4 435.9 433.2 423.4 415.2 407.9 405.4 404 401.3 397.2 393.5 389.5 386.7 376.2 383.2 388.8 389.8 390.4 392.9 398.7 399.8 396.7 397.6 398.1 399.3 404.8 402.9 396.4 389.3 384.5 381.8 382.6 383.4 385.5 389.3 390.2 389.2 387.5 390.1 392.7 399.2 405.8 413.5 407.7 397.6 387.7 383.5 382.6 382.7 384.8 388.6 393.5 401.8 401.3 400.7 399.7 396.2 378.8 357.8 343.2 331.6 324.1 320.8 318.8 319.2 319.6 319.4 319.7 319.5 319.1 318 316.2 314.2 312.1 310.4 308.5 306.5 302.3 298.2 295.8 293.7 292.4 289.5 286.9 284.5 281.7 278.7 278 277.8 276 272.4 265.6 263.3 261.7 260.8 260.1 261.4 262.4 261.2 259 256.3 254.2 252.8 250.1 247.3 246.8 240.7 242.9 245.1 243.8 244.2 246.8 248.9 249.4 250.2 250.9 251.3 251.4 250.3 246.3 242.9 238.9 235.6 234.1 232 230 227.6 221.2 216.5 208.8 201.9 196.6 189.4 185.7 182.9 179.5 176.7 171.6 171 171.5 178 181.6 185.2 189.4 193 197.9 199.9 202 204.1 205.5 206.1 206.7 205.9 193.6 213.3 222.4 231.7 241.1 247 246.3 245.8 241 234.7 228.3 220.8 210.5 201.5 195.7
398.7 391.9 390.5 389.2 387.2 385.8 383.1 381.8 381.3 375.2 372.7 371.9 371.6 368.7 370.3 370.5 367.8 369.4 371.3 375.6 379.3 382.3 386.2 391.5 397.4 404.3 411.4 413.7 416.2 416.7 415.5 418 421.9 423.4 423 422.3 417.3 411.1 407.3 402.1 398.2 393.2 389.6 386.8 379.1 383.3 387 390.2 391.1 391.9 396.8 405.9 407.5 403.2 399.5 396.7 398 401.5 406.6 404.3 394.1 384.7 378.2 377 377.8 378.9 383.5 385 385 382.7 385.7 387.6 391.4 399.3 402.4 395 390.3 383.5 382.4 382 381.8 382.2 386.6 392.6 397.2 399.8 399.5 402 395.2 376.4 352.9 338.2 326.6 320.9 317.1 315.6 315.6 315.9 316.3 317 316.4 315.8 314.7 313.4 312.6 311 309.9 307.7 305.8 301.1 297.2 294.4 290.5 288.9 286.1 283.5 281.7 280.5 280 279.4 278.2 274.8 270.2 267.8 265 263.2 261.6 261 260.8 260.8 260.4 257.9 255.3 252.4 249.5 247.3 244.2 243.2 245.2 248 248.7 248.7 250.2 251.9 253.7 256.1 255.6 256.7 258.2 257.8 256.7 252.8 249 244.2 243.1 238.9 236.3 233.4 229.2 225.8 218.9 215.1 204.9 200.3 196.2 192 187.1 182.5 181.1 176.1 170.3 168.9 172.9 179 182.8 187.1 189.8 194.6 197.3 199.4 201 202.2 203.2 203.8 203.7 192.7 210.1 221.7 229.4 239.5 245 244.1 238.8 234.2 227.9 219.9 210.5 198.9 189.4 178.9
401.4 397.9 394.4 389.7 388.3 385.9 383.8 382.5 377.1 374.3 374.6 376.2 374.4 374 369.7 366.9 365.2 364.3 366.6 370.9 375.4 378 384.3 391.2 397.8 404.6 412.3 415.4 415.8 413.8 412.7 414.4 416 418.7 416.5 417.1 411.4 407.3 405.3 401.1 396.5 394.1 386 381 374.3 384.9 389.2 391.5 391.6 393.9 400.6 404.8 406.2 407.1 402.7 395 394.1 396.3 405.5 400.1 396.8 386.3 378.8 371.5 372 372.7 373.2 375.9 377.9 377.7 378.6 382.2 383.9 386.7 387 385.6 384.2 383.6 381.6 381.4 381.2 381.8 388.7 394.7 395.4 398 401.8 402.2 393 368.8 345.4 331.7 320.5 316.8 314.2 312.1 311.8 311.9 312.7 313.1 312.7 311.7 310.5 309.9 310.9 311 309.6 307 303.5 299.3 296.4 294.1 291.4 288.2 284.2 283.9 283.5 281.5 281 279.8 277.1 275.5 273.5 270.3 267.4 265.5 263.6 261.8 261.9 260.3 259.7 256.9 254.4 251.7 249.1 246.2 246.1 247.1 248.1 250.2 253.6 255.5 256.6 258.9 260.7 262.7 262.5 262.3 263 262.9 261.4 259.1 256.3 250.7 251.7 246.5 240.7 236.2 231.4 226.3 221.6 216.5 206.9 200.9 197.3 193.1 187.6 183.9 181.5 175.3 168.9 169.9 170.7 177.9 180.7 184.6 188.5 192.3 194.6 196.2 197.5 198.4 199.6 199.1 200 193.1 204.5 216.9 224.4 231.9 236.9 234.4 229 225.6 219.2 206.4 193.5 185.1 178.5 166.9
405.6 401.9 395.2 390.3 388.7 386.9 384 381.5 379.3 376.3 376.3 380.1 377.9 374.7 373.5 370.3 368.4 365.5 365.1 366.8 369.5 376 381.3 389 395.8 402.5 410.6 417.5 420.5 417.3 412.3 410.1 411.5 412 410.8 409.7 408.8 405 403.2 400.9 396.9 393.7 383.6 381.2 360.6 378.4 395 393.2 388.8 391.4 398.3 404.2 401.8 403.4 402 395.4 389 388 396 394.2 390.3 382.1 375.8 369.8 367.3 368.4 368.7 368.9 370.4 372.5 372.4 375 377.8 383.2 387 386.4 386 388.1 383.8 380.9 380.9 380.5 381.7 388.9 396.9 399.8 401.3 400.4 390.2 369.1 341.6 325 314.5 312.7 312.2 309 308.4 309.4 310.8 311.5 310.6 309.4 308.3 309.6 310.3 310.6 308.1 303.6 300.9 298.4 296.2 294 292.7 289 287.9 286.2 284 281.8 280.5 279 278.8 278.3 275.4 272.6 269.7 267.9 265.5 262.7 261.6 259.8 259.7 257 254.3 253.2 250.3 248.4 248.9 251.3 252.2 255.7 259.3 262.9 264 265.8 267.7 268.5 266.9 267 266.5 266.5 264.1 261.8 259.9 260 257.8 256.5 250.3 243.8 234.3 227.8 221.6 216.7 209.4 200.4 196.7 192.4 189.2 184.2 181.5 178.7 172.8 169.3 169.7 177 179.3 181.5 184.6 186.7 190.9 192.7 193.7 194.7 193.6 193.1 195.2 190.1 197.1 209.4 215.3 221.5 224.6 222.5 218.1 214.9 207.4 194.9 182.5 176.5 167.1 159.1
411 407.4 401 393 390.5 387.7 387.4 385.5 381.1 379 378.1 381.4 383.3 382.6 376.2 370.6 367.9 365.1 363 364.4 366.8 371.7 376.1 383.2 390.5 396.7 404.5 413.6 419.4 421.2 416.8 411.3 407.2 410 409.6 405 404 401.9 399 403.6 400.2 386.2 380.5 376.3 357.4 370.9 381.9 385.8 384.8 392.2 393.2 399.2 400.6 404.8 408 402.5 395.9 387.3 382.9 381.1 379 373.7 371.1 370.6 367.2 366.5 366.3 366.1 366.7 367.4 368.6 370.9 376.8 382.6 390.7 394.3 398.8 398.7 389.8 383.8 384.4 383.8 379.7 381.9 390.5 399.4 398 388.2 383.2 363 341.5 322.1 311.9 310.2 308.3 306.1 308.3 311.2 311.3 310.1 309 307.8 308 309.4 310.1 309.2 306.7 302.6 300.4 298.9 296.5 294.2 293.6 292.3 291.9 288.7 285.4 282.4 281.4 280.9 280.6 278.8 276.5 274.3 271.9 269.2 266.7 264.2 261.2 261.3 260.7 258.7 254.6 253.5 252.1 251.3 253.1 255.3 257.6 260.1 263.5 267.4 271 272.1 272.7 270.8 271.8 272 269.7 268.8 267 265.1 265.6 266 265.1 262.1 258.3 252.4 241.6 229.6 222.2 214.9 209.1 204.2 196.8 193.5 188.3 184.9 182.9 180.6 176.1 167.4 168.9 175.5 177.6 179.3 180.2 182.6 186.1 189.6 190.1 188.9 189 188.3 190.5 186.1 189.8 198.4 205.8 209 210.4 208.6 204.2 198.2 191.8 179.5 174.7 164.5 159.1 159.1
414.2 408.5 400.7 395.2 394.4 395.9 390.9 388 385.1 384 381 383.2 384.5 380.4 374.7 369.7 366.6 364.6 363.2 362.5 364.1 367.7 372.1 377.5 382.4 387.2 396.1 403.8 409.8 414.1 413.6 409.2 404.9 409.2 410.3 399.7 390.5 386 385 386.3 380.5 376.8 372 363.1 350 365.9 370.7 379 383.8 390.8 389.7 395.4 401.8 408.5 410.5 405.3 397.1 389.1 383.3 378.4 375.2 372.7 370.4 368.8 366 364.9 365.1 364.9 365.6 366.3 367.4 371.8 377.8 386.9 398.8 406.2 403.6 395.6 390.6 390.9 395.4 390.7 380.5 379.5 380.2 387.2 392.3 379.8 375.5 356.4 338.4 320.9 308.1 305.9 304.3 305.9 309.8 310.7 308.8 307.8 307.2 307.1 307.2 307.8 309.1 308.2 304.9 302.1 299.8 298.7 297.2 295 295 294.5 292.9 290 286.3 284 283.2 282.5 281.4 279.5 277.4 275.8 273.5 271.1 268.7 266.2 264.4 264.1 262.3 258.8 253.9 255.6 254.6 256.1 258.1 259.8 261.2 263.9 266 271.9 276 277.1 276 274.3 275.3 275.6 274.1 272.6 272.1 271.5 271.9 271.6 270 267.5 263 257.6 249.8 236.5 225.4 215.8 208.1 203.1 198.9 193 188.7 186.2 183 179.7 172.4 168.2 168.8 172.6 175.7 176.4 176.9 178.7 182.6 186.4 185.8 182.8 183.6 184.2 186.5 184.6 182.6 189.8 192.8 196 196.5 193.7 189.2 182.6 176.5 171.1 163 159.1 159.1 159.1
417.7 408 404.1 400.7 399.7 398.9 391.9 390.3 388.9 387.4 384.3 384 382.6 377.6 374.2 369.9 366.9 366.4 365.5 361.8 362.3 363.8 364.6 370.5 374.7 377.7 384.8 390.5 399.5 403.9 406.3 402 394.7 396.9 395.4 389.8 381.4 374.4 374 373.3 367.7 366.1 364.7 360.9 350.9 358.4 362.4 369.8 376.3 380.2 385.3 388.6 393.2 399.2 402.5 399 387.4 387.5 389 380.5 374.7 371.6 367.8 365.2 364.8 363.1 363.7 363.9 364.6 365.4 367.6 374.3 382.7 394.5 410.7 410.2 406.4 397 393.3 398.5 401.4 398.6 383.6 379.7 378.8 377.6 375.9 371.7 368.6 352.1 335.5 319.3 307.4 303.5 302.1 303.1 306 309.5 309.3 307.4 305.7 305.4 306.1 306.9 307.6 306.2 303.6 301 299.4 298.5 297.3 295.7 296.5 295.3 293.4 291.1 287.3 286.3 285.4 284.3 281.9 280.9 279.6 277.4 275 272.1 269.2 266.7 264.9 263.5 261.8 260.2 258.5 258.3 257.5 259.9 261 262.4 263.8 267.2 270.2 276 279.8 281.1 280 277.7 278.3 278.3 276.5 276.9 277.2 277.5 277.5 276.7 274.4 269.4 265.8 258 248.9 241.3 231.8 224.3 213.2 204.6 199.4 192.3 188.8 184.5 180.4 176.8 175.2 171.3 168.8 168.3 169 171.1 173.4 175.2 177.5 181.9 180.2 180.9 181.2 180.4 180.6 180.3 179.3 184.4 186 186.7 186 184.3 178.3 173.8 168.1 162.5 159.1 159.1 159.1 159.1
418.7 413.1 408.9 404.9 403 399.4 395.5 394.2 390.4 388.5 386.2 384.8 384.8 382.9 378.5 375.7 368.5 367.8 369.1 363 360.7 360.8 362.3 364.2 367.2 367.7 369 374.3 380.8 388.3 390.6 384.6 381 375.7 376.6 376.5 375 367.1 366.4 363 360.9 360.7 359.9 360.6 351.3 352.6 353.5 359 365.3 370.5 375.8 378.1 383.3 387.9 391.5 386.5 378.8 377.9 382.7 375.2 370.3 365 363.1 363.2 363 361.9 361.7 363.4 364.1 365 368.9 376.7 387.2 398.7 413.7 418.9 410.2 408.9 407.7 407.5 401.7 398.4 385.7 383.4 388.2 384.7 374 368 363.9 351.6 330.2 311.6 299.8 298.6 300.4 300.9 302 305.3 306.1 305.4 304.4 304.4 306.1 305.9 305.6 303.2 302.2 300 298.9 298.2 297.1 297.5 297.7 295.8 293.9 291.5 290 288.7 287.6 286 283.9 282.9 280.8 278.2 274.1 271.6 269.4 267.4 266.3 265.4 263.8 261.5 260.8 258.8 259.7 262.5 264 265.1 266.9 269.6 274.4 278.9 282.6 284.3 283.4 281.6 280.9 280.9 280 281.5 282.5 283.1 282.5 281 277 271.5 262.7 251.3 243.5 239 231.3 223.9 215.3 205.3 199.2 193.1 191.2 188 182.2 177.6 175.4 171.1 168.7 167.4 167.7 166.7 169.1 170.3 172.6 174.4 177.1 178.7 178.6 178.3 178.5 177 171.6 179.2 179.4 178.9 178.4 177.2 171.5 166 161.3 159.1 159.1 159.1 159.1 159.1
420.8 415 411.5 407.4 404.3 401.2 399.4 397.6 392.5 390 388.4 388.9 393.6 391.3 385.5 379.4 371.6 373.1 371.9 367.2 362.3 361.7 360.3 360.2 359.9 358.2 357.9 364.3 367.1 373.4 375.3 370.3 371.7 369.4 369.1 368 366 364.7 363.2 361.9 359 355.7 356.3 357.2 355 345.2 343.5 350.8 356.8 359.4 362.2 365.3 369 369.5 370.3 369 364.7 368.2 369.4 362.1 359.6 356.8 364.6 366.6 365 364.6 364.2 364.5 365.1 365.7 368.2 377.1 388.8 400.1 417.2 419 413.7 407 418.9 417.4 409.1 396.2 386.8 384.2 392 385.9 374.3 367.9 361.4 343.7 322 306.6 296.3 295.6 297.3 298.7 298.7 301 302.6 301.9 301.2 303.2 304.1 303.3 302.5 301.8 300.6 299.3 298.6 298.1 299.6 299 298 297 294.6 294.2 293.4 290.9 289.7 287.9 286.2 284.9 282.2 279 275.9 272.7 270.5 268.9 267.2 266.1 265.7 263.6 261.3 259.5 261.7 263.6 265 266.5 268.8 272.9 275.6 279.6 283.8 286.2 286.2 284 284.2 283.9 284.5 286.4 285.9 287.6 286.1 283.8 278.6 269.8 257.2 246.1 236.7 231.4 224.1 216.5 210.2 205.1 200.7 198.4 195.2 191.2 183.1 176.8 172.5 170.3 168.7 168.3 167.7 167.2 164.5 168.1 169.1 171.5 175 176.3 176 176 174.8 173.4 171.6 172.2 174.3 173.1 171.4 168.3 166.2 160.2 159.1 159.1 159.1 159.1 159.1 159.1
417.5 412 410.3 409.6 407.3 404.7 402.1 399.5 393.4 391.8 390.6 389.3 393.1 392.4 391.1 382.8 375.1 374.5 374.5 374.1 365.1 363.1 363.8 363 363.8 361 357.8 355.7 358.8 363.3 364.9 363.6 364.7 366 367.5 366.8 366 365.1 364.1 365.2 360.5 352 349 353 355.5 352.1 345.6 337.7 345.2 345.6 346.5 349.7 352.4 350.7 351.7 354.9 354.1 351.2 349.7 349.8 349.8 357.5 363 370.1 369.2 366.6 368 371.6 368.4 367 367 377.5 388.1 393.3 403.3 410.1 411.1 400.5 404.7 408.5 396.6 386.7 383.9 380.8 384.2 387.5 382.5 363.8 343.4 326.6 311.3 301.3 295.2 293.9 294.3 295.3 297.2 299.6 302.2 301.4 301.2 300.8 301.8 301.1 301.6 301.2 300.7 299.9 299.4 301.1 301.6 301.1 300.7 300.1 298.8 297.8 296.8 294.3 291.9 290.2 288.5 286.9 284.5 282.7 278.9 275.1 271.9 270.3 268.6 266.9 265.7 262 261.8 261.4 263.4 264.7 265.9 266.8 271.3 274.5 276.3 280.1 284 287.3 288 287.4 286.9 287 288.6 288.5 288.8 288.6 286.7 284.6 278.2 268.6 256.9 244.9 234.2 227.6 220.5 214.1 208 207.4 204.1 200.3 196.6 191.6 187.8 180.5 177.8 172.8 168 167.3 167.4 166.8 166.8 167 167.9 169.3 172.7 174 173 173.3 170.8 170.2 168.9 169.1 170.9 168.9 166.8 164.9 163.4 159.1 159.1 159.1 159.1 159.1 159.1 159.1
418.9 414.9 412.5 413.5 408.3 405.4 403.1 400.5 394.4 391.1 390 389.8 392.3 392.4 392.1 383.8 379.3 376.7 375.6 372.2 368.8 369.8 366 364.9 367.3 362 358.3 355.5 355.4 356.4 360.3 360.3 362.5 367 368.1 368.9 370.7 367.8 366.8 366 363.1 353 344 348 351.4 350.8 344.8 335 327.4 332.9 332.3 330.1 331.4 334 337.6 340.3 342.5 346.9 343.4 341.7 341.7 348.5 354 360.2 364.1 366.2 377.2 379.7 371.7 366 365.4 376.4 384.4 386.6 390.5 396.2 397.4 391.9 389.7 391.5 390.6 384.4 380.6 374.1 368.5 364.7 359.6 342.7 327.5 314.8 306.1 300.3 295.9 293.1 292.8 293.7 295.6 298.4 299.6 300 300.1 299.5 299.4 299.9 300.5 300.6 300.8 300.7 300.5 303.5 304.2 303.8 303.4 303.1 303.1 301.9 298.8 296.4 294.2 291.7 289.9 288.1 285.8 282.8 280.2 276.5 271.7 270.2 268.3 265.8 263.2 262.1 261.9 263 264 264.7 265.5 267.4 272.6 275.5 277.2 280.7 284.3 288 289.3 290.2 289.4 288.4 289.1 289.8 290.2 289.3 287.4 283.1 275.4 263.7 253.5 243.7 231.9 224.3 217.6 213.7 212.1 209.3 204.3 200.8 197.9 194.8 190.5 183.8 179.9 176.3 167.7 167.3 167.2 166.9 166.4 165.5 167.1 167.8 167.8 168.3 168.4 168 166 166.1 166.6 167 166.9 166 164.3 162.9 162.6 159.1 159.1 159.1 159.1 159.1 159.1 159.1
422.4 423.2 420.8 417 412 406.4 405.3 401.3 393.7 391.5 391 392 392.2 391 387.5 382.3 380.4 380.6 379.2 375.4 373.4 376.1 369.9 365.8 364.4 363.6 357.9 355.2 354.4 353.8 352.9 357.8 362.8 365.8 371.4 373.2 371.6 371.3 369.2 362.1 356 350.5 341 349.2 356.2 355 348.3 340.7 335.3 320.4 314.2 311.3 314.8 317.5 323.4 327.6 329.3 335.1 333.3 334.7 341.7 346.4 352.6 357.9 362 364.2 363.2 362.2 358.3 358.8 362.6 370.2 381.5 385.3 385.9 382.8 381.4 382.5 384.2 387.1 392.2 389.2 374.2 360 351.5 351 349.2 334.5 320.9 309.9 306.1 302.7 297.2 294 291.6 292 292.5 294 295.9 296.8 297.5 297.3 298 298.8 299.4 300.3 300.6 302.4 303.6 306.5 308 308.3 308.5 308 306.5 303 300.5 298.4 296.2 293.6 291 289.2 285.7 282.7 280.2 277.2 271.6 269.3 267.1 264.9 262.5 262.3 262.5 262.6 262.8 263.4 264.7 267.3 271 275.2 278 280.1 284.1 287.9 289.8 290.9 290.7 289.7 290 289.5 289 289.3 286.6 279.3 268.3 257 246.9 236.3 227.6 222.1 218.1 215.3 213 210.1 205.5 203.1 200.5 197.7 193.7 188.9 182.7 177.7 168.7 167.2 167 166.8 166.6 165 166.2 165 165.6 165.7 165.3 164.9 164.6 165.5 165.8 166 165.8 164.5 163.5 162.9 161.3 159.1 159.1 159.1 159.1 159.1 159.1 159.1
428.6 429.2 427.3 421.3 414 407.3 406.6 404 394.1 393.5 395.8 393.8 393.2 391.7 390.4 389.2 385.7 385.8 387.1 385.4 379.6 383.4 376.3 369 367.3 362.5 357.7 358.7 359.2 355 353.5 356 360.1 360 366.1 370.6 365.9 365.2 364.4 359.8 353.5 345.7 343.1 345 354.7 355.9 348.8 340.2 337.2 329.9 323.5 318.8 310 300.9 307.2 312.6 320.5 323 325.1 332.4 340.9 345.9 357.7 359.4 361.6 363 362.4 359.6 358.5 357.9 359.6 363.1 378.8 383.5 382.2 377.1 374.9 377.4 378.1 376.6 377.4 372.2 361.8 351.6 347 344 340.6 330.2 320.6 310.4 306.1 304 300.9 297.9 292.6 290.4 289.7 290.8 292.3 294.8 294.6 295.1 296.6 297.6 299.2 300.2 302.7 306.3 308.2 311.3 313.1 313.1 311.7 310.2 308.3 304.5 302.5 300.5 298.1 295.5 292.9 289.9 286 283.1 280.2 277.2 273 267.8 266 264.6 261.9 262.2 262.5 262.6 262.4 262.3 263.9 266.4 269.9 273.8 277.5 280.8 282.1 284.8 288.5 290.9 291.3 291 290.7 288.6 287.7 284.3 277.8 269.7 258.8 249.3 240.2 234.6 227.8 223.5 219.5 215.8 213.5 209.3 206.8 204.4 202.7 200.4 197.3 192 186.3 180.6 170.5 167.4 166.9 166.7 166.5 166.4 165.6 164.7 164.1 164.8 165.1 165.1 164.5 165 165.1 165.2 165.1 164.3 163.5 162.8 160.7 159.1 159.1 159.1 159.1 159.1 159.1 159.1
435.1 434.1 429.7 422.9 417.1 409.8 406.3 399.4 396 399.3 402.1 399.8 397.9 398.1 400.9 396.3 389.4 392 393.7 392.2 384.9 385.3 380.3 375.9 377.2 366.5 364.5 367.7 366 358.1 355 351.8 355 356 356 361.9 357.3 358.1 361.9 352.7 347.9 345.4 343.3 339.3 344.1 341.9 339.1 334.5 332.5 331.7 311.6 309.7 306 299.9 300.1 300.6 308.3 313.6 317.3 329.1 336.9 341.5 352.8 356.4 358.1 361.2 363.9 362.9 360.1 357.3 356.1 356.9 367.2 377.6 377.9 375.1 371.5 371 372.5 371.1 373.1 366.8 361.6 353.9 349.4 345.1 338.1 333 323.9 315.2 309.2 303.9 299.9 296.7 293.2 286.4 288.7 287.3 288.8 292.4 294.7 296.2 298.1 300.7 302.2 302.9 306.5 311.5 315.5 316.1 317.7 316.9 315.4 313.6 311.5 307.7 305.1 302.6 299.6 296.2 292.9 289.7 286.1 281.9 278.7 276 273.7 268.1 265.3 262.5 261.1 261.7 262.1 261.6 261.2 262.1 263.9 265.8 268.7 271.6 273.4 276 280 285.2 288.8 290.9 292.1 288.3 287 285.1 281.3 275.8 266.7 257.7 250.7 243.2 238 233.3 229.3 225.3 220.6 217.4 213.7 211.4 209.2 206.8 206 206.3 202.4 196.4 190 182.9 175.8 167.5 166.5 166.3 166.3 166.2 165.7 165.6 165.6 165.4 164.9 162.7 164.4 164.3 164.5 164.3 165.5 163.4 163.4 162.3 159.8 159.1 159.1 159.1 159.1 159.1 159.1 159.1
442.7 438.5 431.6 424.4 420 413.8 405.4 400.6 404.7 409.3 411.2 406.1 403.4 403.1 403.5 400.1 394.8 397.5 399.5 396.6 388.4 387.6 387.2 385.8 385 376.5 373 367.9 368.1 360.4 356.8 354.4 351.8 349.8 350.4 354.4 354.5 354.2 353.9 352.1 347.2 344.9 341.5 337.9 336.9 334 328.6 321.3 315.4 311.9 301.3 300.1 297 297.1 295.3 295.8 298.1 301.3 313 318.9 326.9 333 339 347.9 352.2 357.5 365.6 365.9 362.9 360.5 355.7 352.6 356.2 366.1 371 370.6 369.2 368 365.6 363 363 361.8 360.5 356.6 350 347.9 345.7 342.3 334.5 324.9 314.8 305.5 295.8 294.9 293 288 286.4 286.4 288.4 292.5 297 299.8 306.2 306.5 304.7 307.3 313.6 317 320.6 321.9 321.1 320.6 319.2 317.3 314.9 311.8 308.6 303.6 299.7 296.2 292.7 289.4 284.9 280.7 277.1 273.9 270 268.2 266.5 261.3 260.3 260.7 260.7 260.3 261.2 262.7 264.8 266.5 267.8 270.8 271 271.8 274.8 280.5 285 288.7 287.6 282.5 281.2 278.8 273.7 263.2 255.8 250.6 246 241.8 237.6 233.5 228.9 225.4 221.5 217.8 215.6 213.9 212 209.6 212.7 213.7 209.4 201.4 195.2 187.4 181.4 174.2 167.5 166.2 166.3 166 165.8 165.4 165.9 165.7 164.8 163.1 163.2 164.4 164.5 165.6 163.3 163.2 163.2 162.9 159.4 159.1 159.1 159.1 159.1 159.1 159.1 159.1
449 440.2 436.5 427.5 422.8 417.9 410.6 409.8 411 415.3 414.8 412.1 409.2 408.5 406.6 405.9 401.8 405.6 408.6 405.2 392 390.1 389.2 390.6 395.3 385.1 375.4 371 368.6 361.6 355.8 355.8 353.4 352.1 349.2 348.9 350.1 351.2 357.9 361.4 347.3 343.2 340.6 338.1 337.1 337 330 317 305.1 296.9 295.2 294.3 293.5 293.9 293.8 294 295.6 298 306.6 313.7 320.2 323.9 327.8 335.3 342 351.3 359.7 355.2 355.5 356.3 351.7 345 346.7 354.2 360.1 364.2 365.4 364.2 363.2 359.2 357.8 359.5 358.7 358.5 356.4 361.8 362.6 355.5 344.2 330.2 318.5 306.5 296.3 291.4 290.2 288.5 285.7 286.9 289.3 294.1 298.5 302.5 306.2 306 306.2 311.1 319 324.5 326 326.1 325.1 323.9 322.7 320.7 318 314.8 310.4 305.4 300.9 297.2 292.9 288.3 283.8 279.6 275.8 271.6 267 266 265 260.6 259.4 258.7 259.3 260.9 261.5 263.7 265.4 266.8 268.4 270.5 270.8 270.9 271 273.9 278.2 283.1 280.6 276 273.9 269.5 263.4 257.7 253.6 249.8 245.1 240.5 235.9 230.7 227.6 224.6 222.5 219.9 217.6 216.1 215.1 217.9 222.5 221.3 216.6 209.3 200.2 192.6 185.1 180.8 176.4 172.9 166.8 166.6 166 165.9 166.1 165.3 164.4 163.9 164.6 162.8 165.9 163.9 163.7 163.3 162.9 162.1 159.3 159.1 159.1 159.1 159.1 159.1 159.1 159.1
450.9 445 437.5 428.9 427.2 423.5 419.7 416.2 415.5 420.6 421.8 419.5 418.7 417.6 416.5 414 409.1 411.6 410.8 407.9 397 393.4 390.6 391 391.6 389.5 375.9 370.5 366.8 360.1 354.4 353.7 352.6 350.9 349.7 347.9 348.8 350 357.1 360.6 354.3 342.3 338.9 337.7 339.1 341.1 336.4 325.1 314.9 305.5 296.9 293.3 296 294.6 292.6 292.7 293.1 294.4 295.3 301.9 307.8 312.2 317.2 325.9 331.8 339.5 342 344.8 346.4 345.4 342.7 339.5 340.5 345.3 348.2 351.7 356.4 359.5 358.7 356.1 356.4 360.1 369.5 365.7 363.6 362.1 363.3 356.4 343.7 331.3 319.3 308.8 296.8 288.1 287.8 285.9 286.3 287.8 290.1 296 299.1 302.3 304.5 305.1 307.7 313.9 321.9 327.7 329.1 328.6 327.9 327.4 325.5 323.6 320.7 316 311.4 306.9 302.6 297.7 292.3 286.6 282.7 278.4 273 268.2 265.1 263.8 262.4 258 257.9 258.8 259.8 260.7 262 264.5 265.9 267.4 269.1 269.9 270.3 270.4 270.5 270.1 272.2 275.1 274.5 270 268.3 265.4 261.2 256.2 251.9 247.2 242 236 231.2 227.1 226 224.2 222.1 220.3 219.4 218.6 221 226.3 229.3 227.4 223.8 216.9 209.2 200.9 188.9 182.9 179.1 176 170.1 167.1 168.1 167.9 166.4 164.9 163.9 164.4 165.2 165.1 163.3 164 163.6 163.2 162.8 160.8 159.1 159.1 159.1 159.1 159.1 159.1 159.1 159.1
455.3 448.2 439.2 435.3 431.1 429 427.2 425.6 425.9 429.4 431.5 431.4 427.1 425.8 424.4 421.3 413.4 415 413.5 409.9 400.3 395.9 390.2 388.2 387.2 383.7 374.2 370.1 365.4 360.5 354 352.5 351.1 349.9 348.8 348 349.2 348.5 349 351.7 346.6 339.6 341.7 339.8 343.7 348 345.4 334.2 320.4 311.9 306 311 310.4 304.1 296.4 295.4 289.7 291.1 291.8 290.5 292.8 300.8 308.7 318.2 324.7 330.1 336 341.8 345.7 344.2 342.9 340.1 335.9 341.3 344.3 346.9 348.9 353.4 357.2 354.8 355.7 358.2 360 363.2 364.5 362.3 359.2 356.3 345.8 335.2 322.9 309.5 297.1 288.3 284.6 283.8 283 286.2 289.9 295.3 298.1 300 301.9 304.8 310.8 316 321.6 327.5 330.2 331.3 330.9 330.3 327.8 325.6 321.1 316.7 312.5 308.3 302.8 297.1 291 284.6 278.8 273.6 268.7 263.8 261.4 260.4 258.9 256.9 257.7 258.7 259.5 259.2 262.1 265 266.4 267.2 267.9 268.5 269.1 269.6 269.5 268.9 268.3 269.9 268.8 264.8 263.3 260.9 256.7 252.5 247.8 242.4 236.3 231.1 227.5 224.6 223.8 223.1 221.9 220.4 220.7 221.8 227.1 233.2 234.5 232.7 229.8 223.9 218.4 208.3 197.8 187.1 182.1 178.3 174.5 169.7 168.5 167.3 167.1 165.8 165 163.5 162.6 163.4 163.3 163.3 162.8 162.4 162 161 159.1 159.1 159.1 159.1 159.1 159.1 159.1 159.1
461.2 452.5 445.9 440.6 437.3 435.5 435.4 435.5 434.4 438.7 443.1 441.2 432.8 430.9 429.5 425 421.8 422 421.3 418.2 409 398.2 389.5 387.7 386.2 383.1 375.9 373 371.6 368.4 355 353.7 351.3 349.6 348.6 347.4 347 345.7 351.3 352.2 353.8 351.6 347 347.2 349.9 350.5 345.1 335.8 325.5 319.9 316.7 317.7 319.2 313.4 301 296 291.9 289.9 290.5 289.4 288.8 290.1 300.5 309.4 316.4 322.7 330.8 339.9 348.4 346.8 346.5 343.2 335.7 336.7 347.7 348.2 348.4 348.7 350.7 358 363.7 363.8 362.8 364.7 365.3 361.3 358.8 357.2 348.4 337.6 324.8 310.5 297.8 286.2 282.6 279.9 273.8 283.7 288.4 293 295.7 297.8 301 305.3 311.4 318.4 323 327.4 331.8 334.7 334.3 333 329.7 325.9 321.5 317.3 314.4 309.4 302.4 295.7 288.6 282.2 274.4 268.9 265.3 262.2 259.9 257.6 255.9 256.9 258.1 258.4 257.4 259.3 262.6 264.5 265.2 265.8 266.5 267.1 267.8 268.3 268.3 267.8 266.9 268.1 265.6 261.8 258.7 255.3 251.8 247.5 241.9 236 231 227.9 224.8 222.8 222.1 221.7 221.4 220.5 221.9 224.5 230.7 237.6 239.3 238.3 236 231.4 223.9 214.4 203.3 193.7 187.8 180.8 176 170.8 168.2 167.1 166.6 166.2 165.3 163.1 163.5 163.4 163.2 162.7 161.7 161 160.6 159.8 159.1 159.1 159.1 159.1 159.1 159.1 159.1 159.1
462.4 456.4 452.7 449.5 447.4 445.3 442.8 442.9 442.6 444.5 448.3 446.3 439.1 432.9 432.4 430 429.9 432.7 431.5 428.9 417 403 394.6 391.6 387.8 385.9 384 380.5 382.1 376.8 363 359.5 352.7 350.6 350 351.8 350.4 353.8 361.8 365.6 360.4 352.4 348.4 352 350.4 346.2 345.9 347.1 342 332.8 323.5 322.7 317.5 310.5 305 301.2 297.3 287.6 288.2 288.1 287.2 286.3 289.1 298.7 306.1 315 322.4 333.3 341.3 345.6 343.6 344.5 332.5 330.4 341.3 350.6 344.7 346.1 347.7 360.2 367.6 374.4 375.7 374.6 380 366.6 356.5 350.6 346.1 338.5 325.7 312.2 298.2 288.3 284.3 281.3 274.2 278.5 285.2 289.5 292.1 295.8 299.6 303.5 309.3 316 321.1 328.1 335.6 338 335.9 333.5 328.2 324.6 319.9 317.8 313.7 307.4 300.6 292.9 284.4 277.4 269.8 266.1 263.3 260.9 259.2 257.4 255 255.1 256.5 255.5 256.7 260.9 261.6 263 263.8 264.4 265 265.7 266.4 267 267 266.8 266.2 266.4 263.7 258.8 253.9 249.6 245.8 240.8 235.9 232.1 228.2 225.2 222.9 221.1 220.7 220.4 220.4 219.7 223.2 227.5 233.8 239.8 241.4 241.9 240 236.8 230.1 219.2 209.2 199.6 192.5 184.1 176.6 171.6 168.3 166.9 166.3 166.3 165.8 163 162.7 161.8 161.7 162.2 161.1 160.1 159.3 159.1 159.1 159.1 159.1 159.1 159.1 159.1 159.1 159.1
466.3 462.9 462.7 463.5 463.9 461.9 456.9 452.3 451 450.1 453.9 456.5 450.8 446.1 440.3 439.2 438 440.5 440.1 435.8 423.8 407 396.3 391.9 386.2 385.4 383.5 381.5 382.1 376.8 367.6 362.6 353.9 352.2 352.8 355.6 355.1 361.2 363.9 362.3 357.1 356.9 353.1 357.6 360 361.3 361.8 365 354.4 347.9 346.3 337.1 329.5 327.4 317.5 311.9 306.7 297.4 291.3 286.4 285.5 290.2 283.7 289.6 296.5 305.6 312.7 321.9 328.6 331.3 330.2 330.4 325.8 320.1 328.7 333.1 338.8 342 345.9 355.8 366.1 380.9 388.9 389.2 392.2 367.2 356.3 347.2 341.7 334.3 323.8 314.6 303.1 294.6 286.1 278.8 272.9 275 280.6 285.6 289.6 293.7 297.9 301.9 305.9 315 323.9 329.8 337.2 338.5 335.9 330.6 325.1 321.7 318 315.2 310 303.6 297.2 289.1 279.3 270 266.6 264.1 262.3 259.7 257.5 255.7 254 253 253.9 256.2 258.6 261.5 260.9 261.2 262.3 263 263.6 264.3 264.9 265.8 265.6 264.1 263.8 263.3 261 254.6 250.3 247.6 241.3 236.2 233.1 229.2 225.9 223.2 220.9 219.1 218.8 218.5 216.9 218.3 223.3 228.7 233.2 238.8 242 244 244.3 240.9 234.5 225.1 216 205.5 195.1 185.9 178 171.6 168.1 166.3 166.3 166.7 162.9 162.2 163 162.6 162.9 162 161.1 160 159.1 159.1 159.1 159.1 159.1 159.1 159.1 159.1 159.1 159.1
472.3 472.2 473.3 475.1 476.7 472.9 470.1 464.7 457.6 456.2 458.8 461.4 463.1 457.3 452.3 448 446.9 448 445.6 437.3 423.6 405.6 396.2 385.3 382.8 382.8 380.6 377.9 375.6 370.7 363.4 360.6 358.4 354.3 355.9 362.5 362.3 364.6 364.3 364.5 366.7 366.7 368.2 372.4 379 376 379.7 376.5 373.9 378.8 374.3 364.2 348.8 342.9 340.3 335.1 317.6 305.9 294.8 293.5 290 287.9 284.4 283.9 284.3 293.2 302.3 311.2 318.7 320 320.3 324.8 322.8 311 313.9 323.7 338 343.1 348.4 352.2 361.6 373 375.9 381.2 376.9 366.9 351.2 341.5 337.8 333.5 327.8 319 308.3 296.9 286.6 276.8 269.5 267.8 274.8 282 286.6 291.5 295.8 299.8 304.1 311.7 320.9 327.3 331.9 333 330.6 325.9 322.2 318.9 315.7 311.1 305.4 297.7 289.7 282.2 272.5 267.2 264.8 262.5 261.1 259.2 257.1 255.4 253.8 252.4 252.6 255.1 258.4 259.2 258.3 258.7 260.4 261.5 262.2 263 264 264.7 264.5 263.3 261.5 255.8 255 250.2 243.4 244.5 237.9 233.1 229 227.1 223.8 220.3 217.2 216.6 216.1 215.8 214.4 217.2 221.3 226.3 232.3 237.1 240.9 244.9 246.8 244.4 238.4 228.3 218.3 205.9 196.1 184.4 174.8 170.8 167.2 165.6 165.8 165.2 162.7 162.4 162.7 163.1 162.5 161.7 160.7 159.1 159.1 159.1 159.1 159.1 159.1 159.1 159.1 159.1 159.1 159.1
483.7 477.8 480.5 483.5 484.8 483.2 479.9 477.6 474.2 468.4 468.4 469 471.2 464.3 456 458.7 458.3 450.2 445.8 439.1 429.3 407.4 391.9 385.7 385.2 386.1 386.3 383.7 384.4 384.9 382.6 373.7 368.6 367.3 367.2 369.5 367.7 370.3 369.6 374.7 379.1 384.4 383.5 385.6 393 396.1 413.1 399.7 389.9 385.7 388.4 384.2 373 352 357.3 364.2 343.8 315.9 300 300.1 292.8 286.4 284.6 283.2 282.2 280.7 288.5 300.4 308.9 310.4 310 315 315.4 305.9 301.5 314.9 330 342.5 347.3 347.5 350.5 356.6 364.4 369.6 360.6 353.5 344.3 339.6 339 335.7 332.4 326.3 312.2 298.2 286.1 276.1 268.3 254.6 267.4 277.9 283.5 287.4 290.8 295.4 299.9 305.3 316.2 325.6 328.2 327.8 325.7 322.2 317.5 312.8 310.2 305.5 299.8 290.8 282.8 274.6 268.3 265.6 263.2 261.2 259.8 258.4 256.8 255.1 253.5 252.2 251.4 254.6 256.6 256.5 255.7 255.7 257.8 259.1 260.3 261 261.7 264.8 264.4 263 260.3 259.2 257.2 252.6 244 236.7 233.4 231.3 226.3 223.6 220.5 215.9 214.6 214.1 213.7 213.2 212.3 215.2 218.3 222.4 230.8 235.7 240.1 244.5 246 245 239.1 230.6 217.8 205.3 194 183 173.1 168.2 166.3 164.9 163.5 162.3 161.4 162.3 162.3 160.4 161.2 160.1 159.1 159.1 159.1 159.1 159.1 159.1 159.1 159.1 159.1 159.1 159.1 159.1
490.8 486.5 488.4 490.6 491.5 491.9 487.3 485.8 480.9 475.8 476.3 476.5 483.1 477.1 463.2 465.4 466 463.7 460.3 453.2 437.4 407.5 392.3 390.8 395.4 398 395.7 401.6 400.4 394.9 390.8 386.5 386.3 393.1 388.8 375.8 375.8 382.8 391.8 394.8 400.1 404.7 411 411.2 407.1 412.4 418.2 416.7 403.4 393.5 391.7 389.5 387.6 371.4 356.7 360 347.1 338.6 323 303.4 296.8 287.2 284.3 283.5 289.5 290.5 279.2 287.4 296.3 297.9 298.7 299.4 300.7 293.2 291.3 303.2 317.8 329.9 334.1 336.4 338.2 343.5 352.2 359 362.9 355.8 343.3 339.7 338.1 333.2 330.1 321.1 312.4 300.5 287.6 274.7 265.3 251.2 261.9 273.9 278.6 282.9 286.1 290 293.1 299.7 309.9 322.1 326 325 321.8 316.2 310.6 305.7 303.1 299 291.1 284.9 277.8 270.1 266 263.8 261.6 259.9 259.2 259.3 258.1 254.8 253.3 252.6 251.6 252.7 254.8 253.9 254.4 253.1 254.1 254.7 255.8 258.5 261.5 263.8 264.4 261.3 259.6 258.6 255.6 247.6 239.3 233.9 231.5 223 221 217.9 214.6 211.1 211.7 211.7 211.1 209.2 209.5 211.7 212.8 217.9 226.4 234 238.6 242.8 246.4 245.5 235.9 227.3 215.2 201.1 188.6 180 172.1 166.4 163.1 161.9 161.6 161.4 160.8 160.8 160.7 160.4 161.2 159.5 159.1 159.1 159.1 159.1 159.1 159.1 159.1 159.1 159.1 159.1 159.1 159.1
498.4 497.2 498.4 500.7 501.6 502.6 495.6 489.2 485.9 482.4 484 486.1 489.1 486.5 468.6 473.8 483.1 483.2 474 458.5 437.1 410 401.4 405.7 408.4 412.2 416.4 425 416.7 407.9 407.6 405.6 409.4 420.3 405.2 397.7 391.4 403.9 410.8 414.5 422.3 433.2 437.8 423.4 428.1 426.1 437.4 442.2 424.6 403.6 402.4 400.5 390.1 381.3 368.1 356.1 351.5 340.7 327.2 308.1 298.7 289.6 285.3 283.7 284.6 290 284.6 274 283.1 285.2 286 283.7 284.9 282.3 282.1 290.7 303 315.4 322.6 328.4 330.5 334.5 337.8 342.4 350.5 346.8 341.6 340.9 344.9 340.1 334 324.1 310.7 300.8 289.4 273 261.5 249.2 262.3 268.6 273.1 278.1 281 283.4 288.6 294 301.6 314.9 320.7 320.5 316.3 310.7 305.1 298.6 295.2 291.8 287.1 280.6 273.7 266.1 264 261.9 260.3 260.2 261 261 259.1 254.6 253.2 252.2 248.9 252.2 253.9 254.7 252.6 249.5 249.8 250.3 250.9 253.4 259.5 262.2 261.1 259.8 258.2 255.1 248.4 240.8 235.2 232.1 226.3 218 215.2 212.6 211.2 205.2 207.7 208.9 208.9 207.4 204.8 206.9 208.7 211.8 221.5 229.8 236.5 240.9 244.4 242.9 232.9 220.8 208.4 196.9 187.2 180.1 173.5 166.1 161.1 159.1 159.4 159.1 159.1 159.5 159.8 160.3 161.1 160.2 159.1 159.1 159.1 159.1 159.1 159.1 159.1 159.1 159.1 159.1 159.1 159.1
506.1 506.6 505.4 509.7 511.5 506.4 502.6 493.5 490.7 489.1 490.7 491.9 493.6 493.2 480.7 480.5 482.6 478.6 466.2 452.8 436.7 421.5 416.4 416.6 416.2 423.3 428.3 429.8 426.9 423.4 417.3 419.6 423.1 431.2 424.3 413.2 410.4 420.9 428.9 424.9 425.2 438.3 449.7 443.6 449.6 442 453.9 449.9 428.4 415.3 409.6 405.3 406 395.9 382.3 358.6 358.2 348.9 332.8 313.2 305.5 293.6 286.9 284.6 284.3 290.9 286.9 279.2 270.1 272.5 273.8 274.3 272.5 272.7 273.8 279.9 292.4 304.1 313.8 321.8 326.5 326.5 330.1 332.1 335.5 344.4 346.2 350.9 351.7 342.7 333.7 322 309 299.9 284.3 269.2 254.2 247.8 256.3 261 266.4 271.7 275.2 279.7 283.4 286.4 292.4 302.5 309.6 311.6 309.2 303.5 297.9 294.3 290.7 287.4 282.9 276.3 269.3 264.1 261.7 260.6 261.6 262 262.7 261.5 258.5 254.1 252.8 251 248 246.8 251.7 251.8 249.7 246.6 245.3 245.9 246.4 252.1 255.6 255.5 253.2 255.2 253 248.3 241.9 234.4 229.4 226.9 222.9 215.8 210.8 208.3 206.5 204.6 204 206.2 206.3 203.7 198.8 201.4 203.3 206.3 215.9 223.5 229.8 234.9 238.9 232.9 223.3 211.2 199.2 191.5 185.7 181.8 175.4 164.3 159.2 159.1 159.1 159.1 159.2 159.1 159.7 160.1 159.1 159.1 159.1 159.1 159.1 159.1 159.1 159.1 159.1 159.1 159.1 159.1 159.1 159.1
515.5 514.7 514 514 517.6 512 504.1 498.6 495.7 494 495.7 497.8 499.9 499.4 486.9 483.9 484.5 483.6 476.2 471.4 451.6 440.5 440.5 429.8 423.6 429.8 433.4 433.8 434.1 430.3 426.1 426.7 430.1 432.8 433 427.9 425.5 431.2 440.5 439.8 440.1 449.3 461.3 468.3 473.9 466.2 461.4 450.8 433.5 422.5 411.5 407.6 408 406.6 403.5 373.1 361.7 353.4 340.9 324.4 310.7 298.5 292.2 285.9 292.4 294.6 290.1 280.4 274.7 267.6 268.1 268.6 267.7 268 268.5 270.1 277.9 290.9 301 310 313.2 312.4 317.5 320.8 323.5 330.3 335.2 336.9 340.3 340.1 333.5 319.9 311.6 300.1 284.5 260.8 244.1 242 248.9 254.1 259.5 264.8 269.3 273.3 276.7 280.2 285.4 290.9 296.5 298.8 297.5 294.5 291.6 291.4 289.9 284.2 277.8 271.4 265 261.7 259.9 259.8 260.8 261.5 261.5 259.7 257.3 253.9 252.1 250 247.9 243.6 246.2 245.9 244.2 241.2 240.5 241.4 240.5 243 248.7 246.4 243.9 245.3 242.7 237.7 232.4 228.3 226.8 224.7 220 214.6 209 205.9 204.3 203.3 200.2 201.9 203.4 200.9 198 196.8 197.2 199.8 209.3 217.4 222.4 226.9 228.9 221.4 210.5 201.3 194.8 190.5 185.8 181.2 173.6 161.9 159.1 159.1 159.1 159.1 159.1 159.1 159.1 159.1 159.1 159.1 159.1 159.1 159.1 159.1 159.1 159.1 159.1 159.1 159.1 159.1 159.1 159.1
517.5 520.7 518.3 513.9 517.3 519 513.8 506.8 505.1 505.4 506.1 508 501.2 494 492 495.8 495.7 495.5 492.5 488.4 468.5 461 456.9 441.4 432.4 434.4 436 438.9 443.3 435.4 432.5 433.8 435.3 436.6 439.3 445.1 439 440 445.4 454 466.6 467 474.6 482.2 485.2 475 462 461.7 451.5 428.1 412 412.7 412.5 409.5 409.1 391.3 371.7 363.2 351.7 329.9 313.9 304.1 296.8 299.2 301.5 296.6 291.3 283.4 277.3 272.2 267.9 266.2 265.4 264 265.2 265.5 266.8 273 280.6 287.5 291.6 297.4 304.6 309.4 314.8 318.8 321.9 326.1 343 341.8 333 317.1 304.8 292.8 272.1 254.3 241.4 234.4 240.9 246.7 251.6 256.7 261 264.9 268.9 272.8 276.5 283.6 287.3 287.5 285.5 286.5 289.3 291.7 288.4 280.8 273.3 266.9 262.6 260.2 259.1 259 259.8 260.3 259.8 257.9 256 253.7 251.7 249.2 247.8 242.4 238.7 241.2 240.7 236.7 236.2 234.8 231.3 231.8 233.4 233.6 231.8 234 232.8 229.5 226.4 225.5 222.9 219.1 216.4 213.1 208.6 203.6 202.5 201.3 199.9 199.8 199.8 198.1 198.1 195.3 193 195.4 204 211.7 214.7 215.3 213.5 207.5 201.3 195.8 192.4 186.3 184.8 179.4 170.4 159.1 159.1 159.1 159.1 159.1 159.1 159.1 159.1 159.1 159.1 159.1 159.1 159.1 159.1 159.1 159.1 159.1 159.1 159.1 159.1 159.1 159.1 159.1
511.2 510.3 511.2 512.2 513.2 514.4 514.6 514.8 516.4 515.9 511.5 508.3 505.7 500.9 504.5 506.6 503.7 503 500 487.9 477.1 459.5 452.3 441.9 435.3 434.8 437.3 440.1 442.8 441.4 439.3 439.5 441.5 446 447.4 452.1 453.5 452.3 461.5 468.7 482.8 482.7 483.9 496.4 500.7 492.1 471 462 447.3 429.8 414.8 416.9 415.2 410.1 408.7 404.1 393.1 369.3 363.5 338.9 323.2 313.6 303.9 311.8 311.3 297.7 290.1 285.1 277.9 271.1 272.5 269.7 266.3 262.6 261.7 259.9 261.6 262.5 265.4 272.3 275.3 283.3 294 302.2 305.2 306.6 311.4 316.3 327.9 333.1 326.1 309 292.9 277.7 264.1 253.9 242.7 230.6 232 237.6 243.2 247.6 251.9 256.6 261 264.9 269.4 271.4 275 278.7 281.5 286.5 292.3 289.6 284 275.9 269.8 265.1 261.1 260 259.1 258.3 258.2 258.4 257.5 255.4 254.6 253.1 251 247.3 246.6 240 234.8 235.4 234.8 233.2 231.1 230.3 225.9 221.4 222.9 222.8 222 224.6 222.8 221.6 222.3 220.4 217 214 211.6 210.7 206.9 199.9 199.1 199 198.8 199.2 199.9 198.5 198.3 196.2 192.7 191.4 196.5 201.1 203.5 205 202.9 200 195.9 193.4 188.8 182.3 180.3 176.3 164.9 159.1 159.1 159.1 159.1 159.1 159.1 159.1 159.1 159.1 159.1 159.1 159.1 159.1 159.1 159.1 159.1 159.1 159.1 159.1 159.1 159.1 159.1 159.1
507.7 507.8 508.8 509 512.3 515.3 517.5 518.7 519.9 519.5 519.1 514.4 509.2 510 515.3 515.9 510.3 510.4 505.3 495.7 476.8 462.7 455.4 443.3 436.6 434.3 437.3 440.9 443.1 445.8 447.5 445.5 447.9 456.1 457.3 464.1 467 465.2 471.7 475.5 485.1 485.7 488 502.6 509.2 504 489.8 469.8 447.6 429 427.2 421.5 414.6 413.3 412.6 412.7 406.9 379.3 370.9 356.4 338.2 325.4 319 315 308.1 298.3 290.2 284.9 278.8 278.2 277.6 272.5 271.1 264.6 263.4 261.8 259.7 257.8 258.2 262 264.4 268.5 278.1 285.2 290.9 294.6 298 303.3 313.1 317.6 315.2 298.9 288.1 281.8 268.2 258.7 242.5 231.5 227.4 230.4 235.3 241.4 246 250.9 255 258.3 261.2 264 268 275.7 282.8 289.2 289 284.7 277.4 271.5 268 264 261.4 260.3 259.3 258.7 257.2 256.1 253.9 254.2 253.3 252 249.1 245.3 241.3 236.5 231.9 229.1 231 229.2 227.5 227.1 223.8 222 217.2 216.1 217 214.1 213.1 216.5 217.2 216.3 213 210.9 209.5 207.8 204.1 197.6 197.1 196.7 197 199.3 199.5 198.8 198.3 197.1 192.3 188.4 190.7 193.3 196.6 197.7 196.1 194.3 193.1 189.4 184.5 178.6 175.7 171.7 161 159.1 159.1 159.1 159.1 159.1 159.1 159.1 159.1 159.1 159.1 159.1 159.1 159.1 159.1 159.1 159.1 159.1 159.1 159.1 159.1 159.1 159.1 160.3
505.5 505.9 507.1 509.6 514.1 517.2 520.5 520.4 523.3 522.6 523.3 519.1 518.2 518.8 517.8 519.3 512.9 512.9 510.8 501.6 477.6 465.7 458.4 445.9 438.7 436 438.2 440.9 445.3 449.9 452.1 452.5 455.9 461.9 463.5 466.9 472.4 478.1 479.7 482.8 492.9 497 496.1 509.2 515.5 514.7 496.7 473.3 456.4 453.5 442.8 423.1 422.5 421 423.9 415.5 411.3 401 384.2 376.9 357.1 343 330.4 321.9 310.3 298.9 295.2 290.7 287.5 289.2 283.5 276.4 273.8 266.8 265.1 266.9 265.3 263.4 261 257 258.6 258.6 260.9 266.2 274 279.7 285 290.3 295.9 299.5 296.4 295.5 300.3 287.5 272.6 257.8 244.5 237.2 228.7 224.3 230.1 236.6 241 244.9 248.6 251.9 254.9 260.5 269 281.2 289.2 289.6 285.6 279.9 274.4 270.2 266.6 263.3 261.7 260.6 259.6 259 258.4 256.1 253.4 249.6 249.9 247.9 244.7 241.9 237.4 234.5 232.3 229.5 225.4 227.1 224.6 222.8 220.2 217.3 214.1 213.7 210.9 210.5 210.5 213.9 213.8 212.5 208.2 206.2 204.4 201.2 198.6 196.3 195.7 196.8 201 200.8 198.7 197.6 197 194.5 190 185.7 185.7 187.6 190 190.4 190.9 190.4 188.2 185.3 180 176.6 172.8 163.8 159.1 159.1 159.1 159.2 160.2 159.1 159.1 159.1 159.1 159.1 159.1 159.1 159.1 159.1 159.1 159.1 159.1 159.1 159.1 159.1 159.1 159.1 159.5 165.3
503.4 504.4 506.4 510.6 515.9 520.9 524.5 524.9 524.2 526 526.5 523.7 524.2 521.2 520.9 519.5 520.7 518.7 518.5 504.1 487.3 465.2 457.4 451.2 443.9 439.2 438 441.1 446.6 453.7 455.6 456.3 456.8 461.9 468.4 468.8 477.8 484 486.1 493.5 499.4 499.7 498.6 501.9 516.5 515.1 500.1 480.1 469.3 462.3 448.4 442 436.4 435.7 432.5 425.5 421.3 423.3 415 383.3 383.2 369.9 338 329.9 317.6 306.6 299.5 301.7 305.1 303.1 290.5 281.1 278.7 272.4 269.3 270.8 269.4 266.9 265.2 257.9 255.7 256 254.9 253.7 258.1 266.9 271.6 278.2 284.4 288.2 298.6 308.8 307.6 288.5 275.3 263.1 255.1 241.1 229.4 220.3 226 229.6 234.4 237.6 240.3 247.5 257.6 267.7 280.6 288.5 289.7 288 283.6 278.2 273.6 270.2 267.1 264.8 262.5 261 259.8 258.7 257.6 256.2 254.4 252.1 247.5 239.5 239.3 236.4 234.2 231.4 229.8 226.6 221.6 223.7 222.2 219.1 217.6 214.2 211.2 210.1 207.9 207.3 208.3 211.6 208.7 205.5 202.2 199.9 197.5 196.1 194.5 193.3 198.7 202.4 201.6 199.5 197.9 195.5 193.2 189.9 187.6 184.6 181.4 183.2 184.1 185.9 186 184.8 183.3 180.9 177.7 173.2 167.3 160.8 159.6 159.1 159.1 160.6 160.2 160.2 159.1 159.1 159.1 159.1 159.1 159.1 159.1 159.1 159.1 159.1 159.1 159.1 159.1 159.1 159.1 159.1 164.7 176.4
502.7 504.4 506 510.8 515.4 521.8 528 526.2 526 528.8 528.1 524.7 527.4 527.1 523.6 521.9 525 522.4 520.5 511.5 486.7 468.1 455.1 451.5 445.9 440.1 438.2 441 444.9 452.3 457.3 459.5 459.9 461.7 473.7 481.2 485.7 489.8 492 500.4 501.9 501.1 500.6 496.1 508.7 505.1 499.2 490.3 476.6 470.3 466.2 460 456.2 439.1 444.9 436.2 428.2 434.1 422.7 395.6 387.1 368.7 349.3 339.1 326.6 316.3 314.4 319.1 318.7 312.6 302.2 289.7 287.4 282.9 275.4 273.7 272.9 272.4 265.9 263.5 261 258.7 257.4 255.8 252.2 253.6 258.8 267.2 279.3 289.6 300.1 304.4 295.9 295.3 289.1 272.6 258.8 242.7 227.7 220.3 218.7 220.8 224.3 227.1 234.4 243.9 257.5 271.9 284.6 290 288.1 283.8 279.9 275.9 273.2 270.8 268.5 266.4 263.1 260.8 258.8 257.2 255.9 253.8 251.4 248 244.7 241.4 235.2 233.2 232.1 229.7 226.5 224.7 219.9 218.9 218 216.4 214.9 212.4 209.2 207.5 205.1 203.9 204.3 205.3 203.6 199.7 196.6 193.1 193.9 192.8 190.4 197.1 201.8 203.7 200.9 198.8 197.2 193.7 188.9 186.8 183.4 181.8 178.7 179.1 178.6 181.3 181.7 180.1 178.6 175.8 172.3 165.7 161.4 160.6 160.8 159.3 161.3 161.3 160.7 160.2 159.1 159.1 159.1 159.1 159.1 159.1 159.1 159.1 159.1 159.1 159.1 159.1 159.1 159.1 159.1 164.8 174.9 184.6
502.9 504.5 508.5 510.6 513.9 518.3 522.7 525.8 528.7 533 531.4 527.3 531.9 532.2 527.4 525.9 529.7 524.7 523.5 522.1 504.2 473.4 453.8 446 442.6 439.8 438.6 441.4 444.9 450.9 457.4 461.6 461.9 463 472.3 484.3 489.2 495.1 497 501.8 503.5 500 496.6 491.8 495 492.3 495.5 499.4 481.8 474.1 469.4 465.2 455.6 438.4 438.9 432.6 432.1 433.8 428.4 404.4 399.7 384.9 382.8 363.2 345.9 329.6 330.7 331.4 328.4 321.5 315.8 302.1 295.5 291.2 284.7 279.2 275.9 273.5 271.6 272.2 269.2 268.5 266.2 260.5 259.1 253.8 250.8 257.1 272.9 286.2 297.1 298.9 299.9 309.2 306.9 284.6 260.6 242.1 225.7 216.1 214.4 215.9 217 220.5 228.4 240.1 250 267 277.2 281.9 281.7 277.6 273.6 271.1 271.2 269.7 267.4 264.8 262.2 259.8 256.8 253.3 251.5 248.4 245 242.2 239.9 238.8 235.7 233.2 227.7 227.3 220.6 220.5 215 213.2 217.8 213.1 212.3 211.2 207.6 204.9 202.9 200.7 199.4 197.7 196.6 195 193.7 189.9 188.3 187.3 193.2 199.7 202.8 203 199.8 197.9 195.8 192 186.8 184.1 180.5 177.9 175.9 175.2 176 177.8 176 175.4 172.9 170.4 165.1 161.9 161.8 161.3 161.5 161.1 161.5 160.9 160.4 160.2 159.1 159.1 159.1 159.1 159.1 159.1 159.1 159.1 159.1 159.1 160.5 159.1 159.1 159.1 167.8 176.3 184.1 195.2
502.9 505.1 507.8 509.7 512.9 515.6 520 525.7 531.3 534 538.6 536.2 534.9 536.6 531.1 529 534.8 527.4 523.7 518.7 504.5 472.7 453.4 442.2 441 439.8 440 441.3 444.4 449.4 455.7 462.9 462.8 464.5 468.3 482.7 490.4 496.5 499.1 502.7 502.1 496.1 489.2 486.6 482.9 483.8 485.1 480.6 472.3 472.4 478 471.7 454.6 437.7 440.6 442.4 433.7 430.4 418.3 419.4 410.6 406.7 406.9 396.9 362.9 345.5 344.9 344.6 340.8 331.3 321.6 310.1 304 298.6 291.3 284.8 279.2 275.5 276.7 279.3 276.2 276.5 277 272 266 257.2 251.2 254 273 285.6 297.2 303.7 310.6 316.2 311.5 295 265.9 244.9 231.6 219.5 210.6 213.1 216 215.8 222.4 231.7 240.6 253.3 264.7 270 270.6 269.5 267.7 265.4 265.5 262.8 260.3 258 255.8 253.6 251.8 247.7 244.8 242.6 241.9 239.4 237.2 236.8 233.4 230.1 227 221.3 215.3 215.4 210.5 213.3 210.2 209.7 208.8 209.3 207.2 202.7 200.9 197.4 196.9 193.7 193.7 191.3 188.9 186.3 183.6 185 195.1 200.3 203 201.4 198.4 194.8 192.9 186.5 182.7 181.3 179.1 174.3 173.3 173.7 173.7 173.9 172.7 170.9 167.1 162 161.4 161.6 162.1 161.8 162 161.9 161 160.4 159.5 159.1 159.1 159.1 159.1 159.1 159.1 159.1 159.1 159.1 159.1 159.1 162.3 163.9 163.4 168.1 178.7 182.9 193 204.6
504.2 506.6 506.3 509.6 513 515.2 519.5 524.8 532.9 540.2 546.5 546 536.5 537.3 535.6 528.9 528.5 528.8 521.5 517.4 502.5 479 459.3 444.1 442.1 441.9 440.6 443.1 444.6 448.1 452.7 459.1 461.2 464.6 467.8 480.4 492.1 498.5 503.8 508.9 502.8 492.8 484.8 479.7 470.7 468.5 468.2 471.3 467.7 469.5 471.8 466.2 457.7 444.6 441.4 436.2 434.6 436.4 438.9 430.1 423.2 421.2 417.9 394.9 372 357.6 356.8 353.2 350.7 341.8 331.1 325 318.3 310.3 299.4 292.7 286.6 282.5 282.9 286.1 287.5 284.1 281.7 283.5 272.9 255.5 247.6 254 273.5 286.5 301.6 313.2 314.8 313.8 301.5 290.1 265.2 245.9 232 221.3 209.1 210.4 212.6 213.4 214.4 222.9 229.5 236.5 245.8 253.4 256.6 256.4 254.2 252.3 249.5 249.1 248.8 247.6 246.6 246.5 244.4 242 239.6 238.5 238.6 236.9 235.6 234.4 232.7 225.3 222.2 213.7 214.4 208.8 207.4 211 210 206.9 207.8 206.4 204.6 201.1 198 196.3 191.4 191.6 190 188.1 185.1 180.4 180.6 187.2 195.6 200.7 200.9 199.5 197.6 191.9 189.1 182.9 180.5 179 175.8 172.1 171.7 171.9 169.6 168.7 165.8 162.5 162.2 161.9 161.8 161.3 161.6 162 161.6 161.7 162 160.3 159.1 159.1 159.1 159.1 159.1 159.1 159.1 159.1 159.1 159.1 159.1 160.5 163.2 165.6 169.2 175.8 183.3 190.3 200 213.5
504.9 506.7 507.3 509.6 513.1 515.3 517.7 521.6 529.1 539.9 547.8 547.3 539.1 538.6 539.6 528 524.9 528.4 523.3 516.5 502.2 477.5 464 448.7 443.8 443.4 442.3 444.1 445.5 447.8 451.2 454.5 458.4 462.4 466.6 476.7 491.5 498.2 503.9 505.9 499.2 489 483.6 468.5 462.5 462.4 464.1 462.5 461.6 464.3 462.9 458.1 453.5 446.6 446 445.7 444.3 452.9 451.4 439.8 436.7 423.8 415.9 400.1 386.5 376.3 371.2 366.9 363.4 352.6 350.2 347.9 342.8 324.8 314.5 306 295.3 287.5 288 287.6 288.9 286.7 282.9 280.8 275.2 258.8 247.9 253.3 273.2 287.7 302.5 318.5 315.4 308.1 295.1 276.7 258.5 242.6 230.1 222.3 213.2 206.3 208.1 207.6 205.2 210.4 219.2 225.9 230.2 233.5 234.8 236.3 236.3 235.3 234.9 236.4 238.7 238.6 240.1 240 239.2 237 234.9 234.2 233.9 235.2 234.4 231.1 226.4 220.6 216.7 211.8 207.9 203.5 200.3 206.7 205.8 199.9 205.3 203.9 202.3 198.8 195.2 193.5 191.5 187.4 185.7 181.7 177.6 176.7 179.2 187.2 193.6 196.7 196.1 196.3 192.8 186.8 185.7 181.7 178.7 176.4 174.4 168.8 169 166.9 165.6 163.7 162.3 162.1 162.4 162.5 162.1 161.6 161.2 161.6 162 162 160.8 160.6 159.1 159.1 159.1 159.1 159.1 159.1 159.1 159.1 159.1 159.1 160.4 163.7 165.3 169.8 174.3 180.7 188.8 196.6 208.4 220.7
507.1 507.8 509 511 512.7 514.9 516.7 518.5 526.1 535.2 542.9 547.2 543.8 536.9 536.6 526.8 525.7 523.2 520.8 511.5 497.2 476.9 464.9 453.4 448.9 445.9 444.7 445.2 446 447.5 450.5 452.8 456.1 460.3 467.5 477.1 490.4 495 497.9 496 490.3 484.3 479.4 465.1 458.6 456.7 458.4 457.8 460.9 463.9 463.4 460.9 458.3 457.5 456.3 455 453.4 454 451.5 443.2 438.4 424.6 413.5 413.7 398.6 394.3 383.8 387.8 373.9 363.1 366.7 374.6 368.8 340 332.1 326.2 307.5 292.8 291.1 290.2 286.9 285.6 278.8 275.4 269.9 258.8 246.6 249.7 267 283.4 295.9 306.5 309.2 300 286.9 272.1 255.9 239.6 224.1 212.6 211.3 201 201.2 197.2 197.6 203.4 209.4 218.2 221 221.1 223.6 223.1 222.6 223 224.3 225.2 229.7 232.4 233.5 233.5 233.1 231.5 230.2 230.9 232 233.4 232.4 227.7 221 215.4 211.7 206.5 200.9 201.9 195.4 201.3 200.2 193.9 199.8 197.6 197.2 194.8 191.7 190.5 187.3 184.1 180.9 176.8 173.9 173.8 180.2 184.5 188.8 192 191.5 190.4 186.8 183.1 181.6 180 177 174.6 171.2 166.5 165.2 163.3 162.2 161.8 162.6 162.6 162.6 162.6 162.4 162.2 162.4 162.3 161.7 161.4 161.6 160.3 159.7 159.1 159.1 159.1 159.1 159.1 159.1 159.1 159.1 159.1 162.9 165.2 169.6 174.4 179.5 186.3 194.4 204.5 217 230.4
509.2 511.5 512.4 512.7 513.8 515.4 516.3 517.7 520.9 530.3 537.3 542.6 539.3 533.1 531.2 524.1 524.5 521 513.7 500.2 493 476.2 464.2 455.5 448.9 445.7 445.2 445.4 445.9 446.7 449.5 451.8 454.5 459.5 467.6 478.8 488.7 492.9 493.8 493.2 486 479.3 472.4 461 452.6 452.6 454.1 457.4 460.8 468.4 470.2 469.6 467 465.2 465.1 466.6 468.2 463.5 454.6 449.5 434.8 426.7 414.6 408.2 404.8 400.2 397.3 400.1 380.1 371.4 374.7 373.7 373.9 370.4 352 342.9 324.9 300.4 297.2 290.9 285.8 282.1 277.3 271.5 271.9 271.1 259.7 244.5 255.5 274.4 286.4 286.2 287.8 282.8 274.5 262.4 247.2 235.9 214.5 203.9 200.6 198.6 194.9 192.7 192.3 195.4 201 207.2 214.8 217.6 221.7 219.8 216.4 214.5 213.5 215.5 221.4 225.9 228.3 227.9 226.9 226 225.7 227.1 228.8 227.7 224.7 218.8 213.2 208.4 203.3 200.4 195 196.1 192.9 191.7 194.7 191.1 194 192.1 190.9 190.2 188.6 186.5 186 181.7 173.1 172.2 172.8 170 176.8 179.8 182 183.3 184.3 183.3 182.1 179.6 178.5 175.4 173.6 171.2 169.2 164.7 163.5 161.9 162.2 161 161.7 162.7 162.5 162.7 161.8 160.3 160.6 161.2 161.1 161.6 159.7 159.1 159.1 159.1 159.1 159.1 159.1 159.1 159.1 159.1 159.1 161.6 163.6 166.1 172.5 179.4 185.4 192.1 200.1 210.4 223.7 236.6
510.7 513 514.7 514.4 514.9 515.9 516.7 520.8 521.3 525 531.4 535.6 535.2 529.6 526.1 520.3 521 516.3 505.1 496.4 492.8 476.6 462.6 454.2 447.7 445.3 444.4 444.6 444.8 445.8 448.4 451.7 455.3 460 466.6 477.3 489.9 490.2 489.6 488.1 480.4 474.1 466.8 458.4 449.8 449.9 453.4 460.9 464.5 474.5 480.1 486.2 479.3 478.4 473.8 480.9 483.7 474 463.5 457.7 446.7 445.6 436.2 413.5 412.3 404.7 400.8 401.9 395.2 375.7 374.4 370.4 378.6 369.2 357.2 345.2 330.7 307.8 296.7 293.1 287.4 285.5 280.9 278.6 279.4 276.9 266.2 251.5 242.3 256.7 261.5 259.4 260.3 261.2 256.6 247 234.8 216.2 204.6 197.7 195.8 194.8 193.9 192.8 192.3 191.6 193.2 200.7 210.6 214.1 217.9 218.3 215.9 212.7 208.2 208.7 214.9 219.5 222.6 222.8 221.6 220.4 220.3 222.4 222.1 220.5 216.8 211.3 206 200.5 198.1 193.6 189.9 189.9 188.8 185.9 189.7 189.5 188.3 188.8 187.9 185 184.2 182.3 180 177.1 171.3 170 170.6 168.5 170.3 173.9 176.7 176.4 176.7 176.8 174.6 173 173.5 171.9 168.9 166.9 163.7 160.8 161.3 163.3 162.4 162.9 162.7 162.8 162.5 162.3 162.1 162.1 162.2 161.9 161.5 161.3 159.4 159.1 159.1 159.1 159.1 159.1 159.1 159.1 159.1 159.1 159.1 161.5 166.1 170.5 169.8 182.9 189.9 196.1 203.1 216 228.8 243.1
511.7 513.8 515.3 515.7 515.6 516.4 519.5 523.6 525.6 527.2 527.9 528.3 528.7 528.3 520.8 515.3 513.2 508.3 499.5 491.7 484.5 471.9 458 452.9 445.5 443.1 443.1 443.6 443.8 444.8 447.4 450 453.8 458.9 466.4 476.7 487.3 487.3 484.7 480.8 475.2 470 462.8 453.4 448.3 448.3 452.4 459.6 467.2 478.3 486.6 494.4 492.3 491.4 490.5 488.3 491.1 481.9 486 468.3 456.3 448.9 433.7 417.2 411.6 408.2 404.8 401.5 387 378.2 373.9 369.2 367.7 364.5 357.6 347.7 340.6 320 305.9 297.4 294.6 291.8 287.9 284.5 283 276.4 266.1 258.8 233.6 240.8 236.7 234.3 237.6 240.3 240.6 233 221.4 207.3 198.5 193.9 193.4 193.7 193.4 193 192 191.3 190.5 195.4 204.3 210.2 212.7 213.3 210.4 207.5 204.4 204.7 207.7 211.7 215.5 218.1 216.4 215.6 215.7 215.1 215.7 215 210.2 203.8 199.8 197 195.2 191.7 188.5 184 184.8 183.7 186.6 186.8 181.3 183.3 183.1 180.2 178.7 178.3 176.6 171.5 170.8 168.5 168.8 167.4 167.7 169.3 171.3 171.9 171.6 171.4 170.6 168.2 168.1 167.5 164.5 161.5 162.9 163.9 163.6 163 161.8 163 162.7 162.6 162.5 162.2 162 161.7 161.7 161.4 161.9 162 160.4 159.3 159.1 159.1 159.1 159.1 159.1 159.1 159.1 159.1 159.1 165 169.8 175 180.2 182.6 192.5 199.4 207.6 218.5 235.4 246.5
510.9 512.7 514.6 515.9 516.3 517.7 523 526.5 529.1 532.9 532.6 527.9 523.7 522.2 516 508.1 506.1 501.2 493.9 489.8 484.5 472.6 457 450.7 444.4 441.6 441.4 442.3 442.9 443.9 446.5 449.1 452.3 457.2 463.8 474.5 483.5 485.6 480.8 474.8 471 468.6 459.8 453.9 448.4 447.1 450.4 456.8 464.7 476.4 486.2 492.9 503 500.5 503.9 496.4 493.7 490.3 486.3 467.5 466.1 447.5 433.1 422.4 418.6 420 419 403.8 390.5 371 368.6 368.6 368 369.8 367.3 355.8 343.1 330.9 315 301 304.8 301.7 300.2 299.6 295 281.2 269.1 257.7 232.4 233.1 224 219 218 222.9 223.1 217 206.4 199 195.2 191.9 189.3 190 193.1 193.3 194.4 193.7 188.9 189.3 195.8 203.8 208.8 206.7 202.6 201.7 203.7 204 204.4 206.7 209.3 209.8 210.7 210.2 208.8 208.7 209.9 209.7 204.3 199.7 196.5 193.9 193.6 192.5 188.9 183.6 180.3 180.5 183.6 183.6 181.9 179.1 178.3 177.1 176.3 172.9 171.4 168.7 168.5 168 166.1 166.9 166.8 166.6 167.6 169.4 170.4 169.7 167.2 163.8 162.9 163.6 163 162.3 163.3 162.4 164 163.8 163.7 162.6 162.8 162.7 162.4 162.1 161.9 161.6 161.3 161.3 161.7 161.9 161.2 159.9 159.1 159.1 159.1 159.1 159.1 159.1 159.1 159.1 162.6 173.1 178.8 179 186.9 186.1 194.1 204.4 211.3 221.6 238.9 246.7
511.5 513.1 514.5 515.9 517.9 520.2 524.6 527.3 534.1 536.4 535.1 529.3 519.3 513.1 507 501.8 501.2 498.9 494.1 488.6 483.1 469.5 455 447 442.4 440.1 438.5 440.5 441.6 442.8 444.7 447.2 450.2 452.8 459.6 467.4 474.1 480.8 476.9 471.3 465.7 462.1 457.9 454.7 449 445.1 449.6 455.5 464.6 476.1 485.1 492.6 503.2 506.7 510.7 501.8 507.5 504.3 484.1 471.4 458.4 449 440.2 431 426 431.2 417.3 405.4 390.1 374.3 369.2 369 371 370.2 368.1 359.6 345.4 330.6 317.2 318 314.2 312.7 313 313.2 305.3 288.3 272.2 259.2 241.2 218.4 214.8 212.6 211.9 210.4 206.6 202.4 195.9 194.7 194.7 191 189.8 187.4 189.3 193.4 196 194.7 189.8 188.2 189.4 196 199.3 199.7 199.3 199.7 202.9 203.4 204.1 204.4 206.1 207.1 206.3 206 205.1 203.8 206 204.8 199.7 195.6 192.4 190.1 190 188.7 186.4 184.7 182 177.6 177.3 179.9 179.6 176.3 176.7 174.5 172.6 169.1 167.6 167.3 167.3 167.1 166.2 164 164.4 165.3 165.8 167 169.6 168.7 163.2 163.8 163.6 163.4 163 163.4 163.5 163.7 163.8 164.2 163.3 162.9 162.8 162.6 162.3 162 161.8 161.6 161.3 161.2 161.5 161.8 161.7 160.7 159.5 159.1 159.1 159.1 159.1 159.1 159.1 160.4 174.4 179.6 183.6 185.7 191.8 194.3 190.9 205.8 213.6 226.9 240.3 247.6
513.1 513.7 515.4 519.1 522.1 528.8 529.3 531 534.4 536.1 532.7 525.2 516.2 505.6 501.7 497.6 499.6 498.2 492.8 488 482.9 470.3 453.5 445.7 439.4 437.7 436.8 439.1 440 441.9 443.3 445.4 447.7 450.5 453.6 461 468.4 475.2 471.8 467.1 462.7 460.1 457.7 453.6 448.8 446.1 448 454.1 466.2 476.4 485.2 493.3 502.4 505.4 508.6 514.9 518.3 496.1 481.1 471.2 462.8 463 459.2 442.6 432.5 431.6 427.8 405.2 385.4 373.6 371.5 372.6 371.9 369.3 368.6 363.7 350.9 332.3 333.4 331.9 327.4 331 325.5 326.7 315.3 294.8 276.3 259.8 246.5 228.4 219.6 215.6 211.3 206.8 205.2 204.3 205.4 202.4 198.1 195.8 190.6 188.7 188.7 187.3 194.3 190.1 187.9 187.2 190.2 190.9 191.3 195.4 195.9 198 201.2 201.3 202 202.4 201.4 202.5 202.4 202.8 202 199.1 200.4 200.3 194.1 190.7 188.5 185.6 185.2 183.1 183.6 182.3 180 176.2 175 175.8 176.1 176.6 173.6 170.4 170.3 168.9 167.6 167.1 166.7 166.4 165.5 164.3 164.5 164.4 164.4 164.8 165.8 163.9 163 163.6 163.4 163.3 163.2 163.3 163.4 163.9 164.2 164.5 164.1 163 162.8 162.5 162.3 162.1 161.8 161.6 161.3 161.2 161.4 161.3 160.7 159.8 159.3 159.1 159.1 159.1 159.1 159.1 163.3 169.5 182 187.8 186.8 191.6 197.3 201 201.6 203.1 215.5 227.5 241.2 249.1
516.4 516 518.1 520.6 523.3 530.2 531.3 531.5 533 533.3 528.7 521.1 512.6 506.1 495.3 492.4 495 496.8 491.8 484.8 478.1 467.2 454.5 445.3 438 436.5 435.8 437.9 440 441 442.2 444.7 447 448.9 451.9 455.1 461.6 467.6 467.4 463.6 461 458.9 457.5 451.9 447.1 447.2 447.8 454.2 466.3 476.6 484.9 491.4 498.6 505.4 509.4 514.4 512.6 488.1 480.5 478.4 467.9 466 458.6 463.8 453.9 450.4 428.3 414.8 393.2 377.9 371.8 371.4 370.9 367.6 365.2 357 348 351.2 346.1 343.4 345.3 347.8 340.1 337.4 325.6 304.6 283.8 264.8 247.7 235.1 223.3 216.2 211.3 210.3 214.6 211.7 212.9 206.8 200.5 196.7 196.1 198 196.9 187.1 186.9 191 186.6 190.9 198.3 190.7 191.6 192.7 193.9 194.7 194.6 195.4 195.6 195.5 196.2 194.7 198.3 198.2 198.3 196.3 191.5 190.7 190.6 186.7 183.8 183.3 181.7 180.2 180.8 179.6 175.9 172.8 173.9 174.2 171.6 171.5 171.7 169.8 169.2 168.7 168 167.3 166.6 166.2 165.5 165 164.4 163.6 163.8 164.1 163.1 164.3 163.6 163.4 163.2 163.2 163.2 163.2 163.5 163.9 163.9 164.6 163.9 163.3 163 162.8 162.5 162.2 161.9 161.6 161.4 161.2 160.8 160.6 160.2 159.1 159.1 159.1 159.1 159.1 159.1 165.9 171.4 179.9 186.5 195.6 193.6 195 200.8 206.1 208.6 204.9 213.3 225.1 239.8 250.1
516.5 517.4 520.4 521.7 525.3 529.1 529.6 529.7 527.2 526.3 520.7 518.6 511.6 503.1 491 489.1 491.6 494.4 494.5 489.8 478.8 468.2 455.3 443.3 436.8 435.3 436.2 437.2 439.6 441 442.5 444 446.5 448.1 450.1 452.4 454.3 459.1 464.2 459.2 454.5 452.1 450.9 445.6 443.7 437.6 447.7 453.2 462.1 475.7 484.3 490.3 498.4 506 509 510.3 505 492.9 486.1 484.7 478.6 466.4 464.9 467.9 476.5 473.3 444.4 421.8 400.4 383.1 376 373.2 371 366.5 362.8 363.8 363.5 364.9 359.1 354.8 358.9 353.7 345.4 338.1 326.9 311.8 287.6 268.5 250.2 238.6 224.1 217.4 217.9 220.8 223.5 216.4 214.4 209 201.5 197.5 200.6 198.8 193.3 185.2 189.5 188.2 185.1 195.3 196.5 194.2 192.6 191.5 189 186.5 186.6 184.6 184.6 185.7 188 190.4 192.1 192 191.7 191.7 188.7 188.7 183.1 181.1 180 179.7 178.4 177.7 177.8 173.6 172.3 170.8 171.4 170.2 168.3 167.1 167.5 168.8 168.1 167.1 166.8 165.9 165.9 165.3 164.8 165.1 164.8 164.2 164.3 164.4 164.4 164.1 163.5 163.1 163.1 163.1 163.1 163.2 163.5 163.9 164.4 163.6 163.9 163.6 163.1 163.1 162.8 162.5 162.2 161.9 161.6 161.6 161.3 161.1 160.8 161.2 159.1 159.1 159.1 159.1 165.2 174.6 180.5 189.2 195.6 197.9 198.8 197.3 207.6 213.8 215.3 214.3 213.3 224.3 237.3 248.1
517.7 517.1 524 522.4 523.6 525.8 525.3 526.5 518.2 515.9 513.7 513.3 506 496.8 488.2 486.8 487.8 489 488 481.8 472.4 465.3 452.8 443.6 436.6 435.2 436.8 438.4 438.7 440.1 442.3 444.2 446 447.3 447.7 448.7 449.6 452.1 453.8 456 451 449 444.1 440.2 439.4 438.5 446.4 451.1 457.6 469.4 479.4 488.4 495.6 503.2 508.8 508 501.2 493.3 490.6 488.8 480.9 473 473.5 476.7 480.9 479.1 455 439.1 402.8 389.3 381.5 373.1 368 363.6 366.2 368.7 369.8 369.3 364.7 363.1 361.3 355.8 347.1 335.7 321.4 303.5 280.3 260.8 247.2 234.7 228 228.6 229.5 230.5 228 221.6 215 209.1 203.2 205.4 203.8 196.6 188.2 183.2 186.3 184 184.8 195.3 193.8 193 190.7 188.3 184.3 181.2 182.2 181 181.7 182.2 182.1 180.4 184.6 185.5 186.2 189.3 187.3 180.7 177.9 178.1 177.3 176 173.3 174.7 173 171.3 171.7 171.3 169.9 168.3 167.1 166.1 166.4 166.6 166.9 167.1 166.6 166.2 165.3 165.4 164.1 164 165.2 163.1 163.4 163.9 163.9 163.8 163.3 163.4 163.9 163.8 163.8 163.3 163.7 164.2 164.5 164.5 164.1 164 163.3 163.2 163.1 162.8 162.5 161.8 161.9 162 161.9 161.6 161.8 161.9 159.5 159.1 159.1 167.1 180.8 187.2 194 198.8 203.5 202.5 205.8 201.5 213.3 219.7 221.3 218.9 220.2 228.4 239.9 246.8
515.5 516.8 518.3 520 520.9 524 523.6 521.1 511.6 504.4 507.3 504.9 499.3 493.4 486 484 483.1 482 479.7 474 467.2 460.9 451.2 443.4 437.7 434.7 436.5 437.8 437.7 439 440.3 442.2 443.9 444.5 445 445.5 445.7 446.7 445.7 447 446.7 445.3 442.9 437.5 440 437.5 443.2 448.4 454.1 463.5 475.4 485.4 493.6 501.5 508.3 505.9 502.7 499.3 496 497.8 495.9 489.3 490 488.5 485.5 474.3 461.7 449.6 411.1 395.3 384.6 376.4 367.2 365.4 369.5 372.3 373.3 370.9 367.9 365.4 361.2 352.9 342.1 328.5 310.7 289.6 273.6 253 241.1 241.5 241.5 241.2 242 240.5 236.3 232 223.4 216.6 212.5 212 205.1 198.8 192.6 184.4 181.7 182.7 182.3 190 189.7 187.6 185.1 182.4 178.7 176.2 176.4 179.4 181.1 179.3 177.6 176.4 179.3 180.8 178.7 183.8 182.3 176.3 172.4 171.4 174.1 172.7 170.3 170.7 169.9 167.8 169.4 168.9 167.4 165.6 164.7 165.3 165.6 166.1 166.5 166.7 166.3 165.9 164.6 164.1 164.2 163.2 164.8 164.7 164.1 163.6 163.8 164.6 164.2 164.7 164.2 164.6 164.2 164.3 164.6 164.7 163.8 162.2 164.3 164.3 163.6 163.2 163.3 163.1 162 162.2 162.4 162.5 162.5 162.4 162.6 163.1 162.3 162.6 168.5 182.2 191.3 197.1 203.2 207.1 211.6 211.8 214.6 212.3 218.4 225.5 226.1 223.4 227.3 233.9 241.4 246.4
522 519.1 512.4 514.5 517.1 522.6 520 512.1 506.8 496 500 495.5 495 491.9 484.5 481.9 481.3 475.5 473.3 467.2 465.3 453.7 447.5 442.7 440.4 436 435.1 436.5 437.3 438.5 439.6 440.7 441.6 442.1 442.7 443.3 442.8 440.8 438.9 439.7 440.8 438 435.3 432.5 432.9 437.8 441.3 446.2 451.8 459.3 469.2 478 486.4 493.7 498.8 498.3 505.8 507.6 506 501 501 495.6 496 497.2 488.6 477.4 459.7 441.7 413.5 402.7 399.6 386.1 373.7 367.9 372.8 375.9 375.3 372.1 369.2 366 360.8 348.6 333.3 316.2 296.6 278 254.2 241.9 247.1 254.5 252.2 253.8 255.4 253.8 251 244.6 236.2 226 223.2 216.8 209.2 200.2 195.7 186.2 183.3 181.5 179.1 180.7 182.6 183.1 177.8 175.3 175.5 174.8 174.1 175.8 178.8 179.4 175.3 173.7 174.1 176 176.3 178.1 176.3 171 170.2 170 168.4 167.8 166.8 168.6 168.1 168.1 167.5 165.6 166.3 166 165.4 164.5 164.8 165.8 165.6 166.3 166.1 164.4 164.6 165.5 165.1 165 164.4 164.4 164 164.6 165 165 165 165.3 163.9 163.9 164.8 164.5 164.5 164.5 164.1 163.7 164.7 164.5 164.3 163.9 163.7 163.7 163.1 163.1 163.4 164.1 163.8 163.4 163.8 164.2 165 172.7 184.2 195.7 200.8 207.6 212 217.4 221 222.3 222.3 223.6 223.3 231.5 233.2 233 232.7 239.1 245.5 250.6
516.4 516.6 510.2 509.7 511.2 515.1 503.4 501.1 503.1 495.5 493.4 494.8 498.9 487.9 482.3 481.6 481 475 464 456.9 451.2 446.6 445.6 443.9 441.8 439.8 437.7 435.4 435.9 436.5 438.7 440.7 441.5 442.1 442.4 442.8 440.4 437.6 433.2 434.4 433.9 432.3 431.7 428.2 433.6 435.6 439 443.9 450.8 460.4 470.3 480.6 487.7 492.7 495.3 496.7 503.8 508.2 507.1 498.6 497.1 496.9 497.9 497.3 490.2 471.1 454.8 435.8 419.9 411.9 400.8 387.8 377.1 371.5 375.7 376.7 375.2 371.6 368.6 365.3 352.4 337.4 322 306.6 287.3 260.8 257.1 266.6 272.3 267.9 262.9 265.9 268 265.1 263.1 263.4 254.5 244.1 233.3 219.8 212.6 201.4 195.4 186.7 188.2 185.1 181.6 178.8 178.4 177 177.3 176.5 176.2 175.1 173.7 174.1 173.6 173.3 172.3 170.9 169.8 171.2 171.3 171.3 171.3 170 169.6 169 169.1 168.3 167.5 167.3 166.7 167.1 168.6 168.1 167.6 167.1 166 165.6 164.7 163.9 164.7 166.1 165.6 165.1 164.6 165.2 164.2 163.7 164 165 164.5 164.5 164.7 165 165.4 165.5 165.5 165 164.3 164.8 164.5 164.4 164.3 164.4 164.7 164.5 165.1 165.3 165.5 165.1 165.2 165.4 165.4 165.3 164.9 164.8 163.8 166.1 172.8 184.8 195.1 205.4 212.5 217.9 223 229.3 231 231.5 230.6 232.5 231.9 237.9 240.2 240.2 239.5 245.8 252.6 256.5
509.4 507.4 504.1 504.8 505.6 494.8 489.9 493 497.8 493.1 490.6 500.2 506.6 496.6 489.7 482.4 477.9 471.1 453.8 449.5 446.5 445.2 444.2 443.5 441.4 440.4 439.3 437.4 433.1 436.5 439.2 440.4 441.2 441.9 442.5 442.1 440.2 435.8 431.6 429.5 429 429.4 428.4 428.8 430.8 433.1 436.1 442.6 451.4 461.2 468.7 478.6 486.8 491.5 494.7 495.3 502.4 504.8 500.8 498.8 496.7 494.8 493.1 490.8 483.6 465.9 442.2 429.3 415.1 407.2 397.5 390 379.7 375.5 377.2 378.1 374.6 369.5 363 352 338.7 324 310.3 291.8 274.8 260.8 279.5 289 294.5 293.1 290.4 294.2 295.6 298.8 303.8 310.6 287.7 263.8 240.6 227.7 214.5 204 198.9 192.3 193.6 190.8 185.2 179.3 177 179.1 182.3 178.8 177.3 176.5 174.5 173.5 173.6 173.5 172.3 171 171.1 169.7 169.8 170.9 171.4 171.4 170.5 169.2 168.9 169.1 169.5 167.5 168.4 168.2 168.5 167.7 167.1 166.5 166.4 166.9 165.4 164.9 163.9 165.6 165.3 165.6 164.6 165.7 165 164.6 163.9 165.1 165.1 164.7 165.3 165.4 165.1 165.9 165.9 164.3 164.4 165 164.8 164.6 164.6 164.9 165.1 165.5 165.7 165.7 165.8 165.5 166.3 165.8 165.2 165.9 165.4 165.1 164.7 168.8 181.6 195.8 206.2 214.1 223.7 230.1 235 238.7 240.6 238.7 238.3 242.5 243.7 243.4 247.1 247.6 248.9 252 256.9 261.7
499.1 502.1 499.6 497.9 493.8 489.1 484 483 484.3 486.4 494.4 499.2 504.5 501.8 492.8 482.7 467.4 458.6 445.8 442 445 443.6 442.8 442 441.2 440.2 439.2 437.2 433.4 436.2 439.1 439.4 440.1 441.5 442.1 441.4 440 436.7 431.8 429.6 426.6 426.5 426.2 428.7 430.6 432.3 435.1 441 451.8 459.6 468 475.8 483.5 488.9 493.2 494.2 498.4 501.5 502.7 502.1 503.7 491.3 485.9 483.9 467.2 445.3 435.7 423.9 412.4 402.6 396.8 390.3 381.9 380.3 380.4 377.8 372.6 365.7 354.1 339 325 312.2 299.7 285.5 276.4 277 295.4 302.7 309.3 311.8 318.4 324 323.3 335.3 343 323.8 299.4 262.1 239.6 230.8 216.1 205.5 196.7 200 198.2 196.1 192.4 189 188.2 191.7 189.7 187.9 182.7 176.5 174.5 174.9 173.9 171.8 172.4 171 172 174.3 176 175.7 173.4 171.7 170.7 171.2 171.5 170.5 169.4 169.3 168.7 168.4 168.3 168.2 167.6 167 167.2 167.1 166.5 166.3 166.1 164.2 164.9 164.2 164.8 165.3 164.7 165.4 164.5 165 164.8 165.6 165.7 166.1 166.1 165.9 166 164.9 164.7 165.1 165.1 165.2 165.2 165.3 165.5 166.1 166.2 166.2 166.2 167.8 167 167 166.3 166.5 165.7 167.2 171.7 183.8 195.9 206.9 215.6 221.9 232.9 239.3 245.9 249.2 247.9 244.7 247.1 250.3 250.3 250.3 254.4 255.1 257.5 256.6 261.4 265.7
494 493.2 487.8 487.3 487.6 484.2 481.6 481.6 485.6 488.8 492.7 497.2 501.9 497.8 495.3 486.3 470.1 453 440.3 438.9 442.7 441.9 441 440.5 440.4 439.4 438.3 436.4 431.3 435.1 437.8 437.3 440.2 441.1 441.7 440.8 439.9 437.6 434.3 429 427.1 425.6 426.3 428.9 430.2 431.1 436.1 441.2 451.2 458.7 466.8 473.8 480.5 484.6 489.1 493 500.1 500.9 503.4 503.4 503.8 491.3 485.2 480.2 465.7 443.1 426.5 417 410.6 402.7 397.7 393.7 391.2 388.7 386.5 383 377.2 367.3 354.7 338.9 322 309.5 298.7 292.6 287.4 288.2 308.9 316.5 321.1 327.7 332.4 335 336.3 338.7 334.7 320.3 290.1 255.7 240.7 228.7 215.9 203.2 205 205.2 203 201.4 201.6 201.6 202.8 199.3 195.7 192 183.9 178.9 175 175.2 175.3 173.6 172.8 172.7 172.2 176.1 177.7 176.5 174.2 171.5 171.1 172.3 172 171.9 169.5 168.6 168.1 168.4 168.1 167.7 167.7 167.4 167.3 166.9 166.5 166.5 167.8 167.5 165.4 166.3 164.5 165.1 165.8 166.1 165.1 165.1 165 166.5 166.5 166.4 165.7 166.3 166.3 165.3 164.7 165.3 165.5 165.5 165.6 165.7 165 166.7 166.8 167.7 168.9 169.1 168.4 167.6 168.4 168.3 168 172.5 182.4 194.9 206.2 215.2 223.6 231.3 236.6 247.9 254.5 255.2 254.5 252.5 254.5 257.6 258.4 259.3 261.6 263 263.7 264.4 264.5 268.4
484.3 488.8 484.6 484.5 485.5 482.5 480.9 481.1 483.5 488 493.6 501 507 507.4 499.9 486.5 472.6 449.7 435.7 436.7 439.5 439.8 439.9 439.1 439.1 437.9 436.2 435.8 431.1 433 435 436 439.1 439.3 439.4 439.2 439 438 433.9 429.9 427.2 424.2 427.7 427.6 429 430.6 434.7 438.8 449.1 456.8 464.4 470.6 474.8 481 487.5 492.9 496.7 496.3 500.3 502.9 502.8 502.8 489.9 471 454.7 440.8 421.7 414.6 410.2 409.6 411.7 409 402.2 397.8 394.2 390.3 383.6 371.6 357.4 339.3 324.7 312.8 304.6 299.1 293.6 302.1 319.8 328.6 331.7 338.4 340.6 341 343.3 336.3 322.7 316.9 287.7 256 240 226.8 214.7 216.2 216.6 213.9 210.2 209 210 210.4 208.8 206.1 199.9 196 189 183.1 177.3 176.1 179.3 178.7 175 174.4 175 178.4 177.9 176.2 173.7 171.2 171.7 173.2 172.4 171 170 169.4 168.8 168.3 167.8 167.4 167.1 167.1 167.5 166.7 166.6 168.5 169.2 168 166.2 167.5 165.2 165.1 165.5 166.1 166.1 166 165.8 166.7 166.6 166.5 166.1 166.8 166.6 165.1 165.4 165.5 165.8 165.8 165.8 165.8 166.5 167.8 168 169.3 170.3 170.5 169.5 169 169.6 169.9 172.3 180.2 191.8 204.2 215.1 226.6 236.6 241.6 250.4 256.6 262.2 263.1 262.3 261.3 262.3 264.3 265.1 265.9 269.2 271.5 271 273 267.3 274.5
477.7 480.1 482 483.8 485.7 481.4 480.5 481.6 485.7 490.7 497.3 501 502.9 501.4 495 483.9 470.3 449.5 434.5 433.9 435.9 437.4 437.4 436.6 436.8 436.4 434.4 434.1 432.3 429.9 431.7 433.8 436.9 437.8 438 437.7 437.4 437 433.4 430.3 426.6 422.8 424.8 425.8 426.7 429.8 433.7 438.8 447.8 457.4 464.6 470.9 475.6 480.8 486.3 489.9 491.7 493.7 496.6 501.5 502.3 502.5 489.1 472.5 454.4 443.3 424.8 414.7 418.3 422.5 425.3 421.8 410.7 403.6 402 399.2 388.6 371.7 355.1 341.2 327.9 318.9 312.1 310.3 304.8 316.3 330.3 337.2 340.5 340.6 340.7 339.5 334.8 328.1 319.4 304.2 277 255.2 239.1 227.7 219.7 226.1 223.4 221.6 219.6 218.3 219.2 219.1 216.4 212.5 206.8 201 194.9 189.5 183.5 180.5 184.4 181.8 175.8 177.2 179.7 180.1 179 176 173.7 172.7 173.2 172.9 172.8 171 170.2 169.5 168.7 168 167.5 167.3 167.3 167 167.6 168.4 169.3 172.6 169.4 168.2 167.4 167.8 168.1 167.4 166.2 165.7 165.3 165.3 166.7 167.1 167.4 166.6 166.6 167.2 166.4 165.7 165.8 166 166.1 166.1 165.5 164.3 167.7 169.1 169.6 170.7 171.6 172.2 170.6 170.1 172.2 173 177.5 190.7 202.1 212 223.2 235.3 244.3 250.6 261 265.2 269.6 268.4 268.5 268.5 268.9 269.9 270.5 273 277.1 279.3 278.5 280.6 279.6 279.1
476.1 478.4 480.5 483.2 484.2 479.3 482.6 484.7 488.7 495.8 502.7 506.2 505.3 500.9 495.1 487.7 477.2 454.2 436.9 431.7 430.1 432.8 434.7 434.5 434.3 434 433.5 432.2 432.1 429.4 428.4 433.4 435.7 436.3 436.5 436.1 435.7 435.3 433.1 429.4 425.8 422.7 422.8 425.7 428.1 430.4 433.5 437.5 444.4 455.7 464.2 472 476.5 481.6 484.3 487.6 489.6 491.7 494.7 499.9 501.9 502.2 489.7 476.6 463.6 454.3 439.7 426.3 430.6 435.8 439.3 426.3 417.1 414.5 414.8 405.7 389.9 368.8 352.2 339.8 336.3 328.3 320.3 321.2 320.3 323.3 331 338.9 346.9 343 342.6 341.4 333.4 321.2 311.2 292.4 267.1 253.1 239.9 228.1 232.8 232.2 229.4 226.6 228.7 229.2 230.4 229 225.3 219.2 213.1 207.3 201.3 196.1 189.3 186.2 189.1 186.5 181.1 179.1 181.7 182.4 179.9 176.7 174.5 174 174.5 174.3 172.3 171.5 170.6 170 169.5 168.2 169.9 170.8 169.5 168.7 168.6 169.1 170.4 171.2 171.2 168.6 168.2 168.5 169 167 165.4 165.9 166 166 166.7 167.2 167.5 167.9 168 168 166.1 166.2 166.3 166.4 166.4 166 164.1 166.2 168.8 170.3 171.1 171.9 172.3 172.3 169.9 173.4 175.7 178.1 186.4 199.7 210.3 221.1 232.6 242.6 251.9 258.7 266.5 270.4 272.4 273.2 273.8 273.4 274.4 275.4 275.9 280.1 284.2 286.1 285.3 287.8 288.1 282.6
474.9 477.6 478.4 478.4 479.1 480.4 483.2 486.3 488.9 493.7 499.9 503.8 503.3 500.8 496.1 492.5 483.4 458.4 440.1 433.2 424.9 428.3 431.9 432.5 432.3 432 432 431.6 430.9 429.4 426.5 432 433.9 434.7 434.7 434.4 434 432 430.2 427 424.4 421.6 423.5 423.6 427.3 430.8 433.5 437.1 444.3 453.9 463.7 471.1 475.4 478.4 484.5 488.4 490.2 492.1 496.5 499.2 500.6 502.4 490.7 483.2 479.5 467.4 438.6 432.4 434.5 440.4 444 440.9 426.8 432.4 441.5 421.4 403 381.2 365.1 353.5 342.9 334.5 329.6 332.1 331.3 331.2 332 340.9 347.1 342.8 340.9 336.3 328.1 317.8 303.4 284.1 268.2 256.4 245.6 233.1 239.7 236.5 233.9 236.2 237.4 242.9 241.6 238.4 233.8 226.4 218.2 213.8 206.8 202.1 194.8 191.7 193.4 191.2 184.8 179.2 182.7 183.5 181.1 179.1 177.7 175.7 175.2 175.9 177 174.9 172.7 172 172.7 173.5 174.8 173.3 172.4 170 169.2 170.3 170.4 170.3 170.3 169.7 169.7 168.7 169.6 169.4 166.4 166.8 166.5 166.7 166.5 167.2 167.6 168 168.3 167.3 166.7 166.4 166.4 166.8 166.8 165.6 168.1 169.2 170.2 171.1 171.7 172.1 172.5 173.9 171.6 176 178.8 183.3 193.3 205.3 218.2 229.4 241.3 248.7 257.9 270.3 278.6 277.2 276.9 277.8 278.9 278.3 279 280.1 281.7 286.1 290.1 291.8 291 294 293 291.1
475.7 480 478.6 477 477.8 482 484.4 485.9 487.5 490.7 493.6 497.4 498 498.3 494.9 491 484.7 464.1 445.2 431.2 423.9 427.6 430.2 430.8 430.7 430.7 430.6 430.3 429.9 429.1 425.7 430.4 432.1 433.4 433 431.7 431.8 429.9 427 424.7 421.8 421 423.4 425.7 426.8 429.3 432.5 435.6 443.5 449.4 460.1 467.1 472.3 476.8 483.9 487.9 490.5 492.7 495.1 497.3 497.4 498.1 487.3 483.3 478.3 462.7 437.1 438.2 441.6 441.4 440.8 439.6 442.2 448.4 454.4 428.7 405.8 384.9 372.2 359.7 348.8 337.5 341.3 340.6 334.7 334.2 336.1 342.1 345.7 340.2 336.2 330.4 320.8 313.2 296.3 283.7 271.2 257.2 245.3 243.3 244.8 241.8 245 249 250.2 252.3 250.6 246 239.6 232.6 226.9 219.6 211.5 207.8 199.1 198.4 198.3 195.4 189.2 183.4 182.5 184.2 183.2 182.4 180.9 177.6 176.7 179.9 180.2 177.4 178.4 179.3 180.4 180.3 180.8 181.1 180.4 175.6 172.8 173.4 170.6 170.5 170.6 169.9 169.4 170 169.9 169.6 166.7 167.1 167.1 167.4 167.3 167.3 167.7 168.1 168.4 166.8 167.3 167.3 166.6 166.4 165.6 167.8 169.6 169.5 170.3 171.7 172.1 172.5 174.1 174.8 173.6 178.7 183.4 189.1 201.2 210.9 222.7 235.1 244.2 253.8 264.4 280.2 280.9 282.1 281.1 282.3 283.7 283.2 283.3 284.7 287.8 291.6 295.6 297.2 296.3 296 297.6 299.2
476.4 477.9 476.9 475 479.3 482.1 484.6 485.3 486.2 489.4 493 494.8 496.5 496.9 495.4 489.3 483.7 471.2 444.9 427.5 421.3 426 428.6 429.4 429.4 429.4 429.2 428.9 428.6 427.8 424.8 429.9 431.2 431.7 431.4 429.5 428.8 426.2 424.1 423 420.9 421.6 423.8 425.7 428.8 432.1 434.4 437.3 443.2 449.1 460.2 468.1 474.8 481.6 486.1 489.5 492.8 496.9 495.2 495.5 495.9 491.3 487.2 485.2 479.5 459.2 439.5 442.6 444.7 441.7 441.7 442.6 454.1 466.1 459.8 432.5 406.9 390.1 377.5 366.5 351.9 344 344.2 342.5 336.7 337.2 337.5 343.3 342.5 338.3 332.5 325.7 318 308.3 296 282.8 272.5 258.2 245.5 250.8 254.2 253.8 258 259.7 259.6 260.6 258.8 253.8 244.7 238.5 232.5 226.2 217.1 210.2 205 205.7 202.5 199.3 192.6 187.4 185.9 188.7 186.3 186.2 182.4 179.7 180.7 184 183.3 182.7 187.3 187 188.3 189.2 189.7 189.2 187.3 183.2 179.7 179.2 173 171.1 170.3 169.8 169.7 170.4 170.8 168.8 167.3 167.3 167.1 167.8 168.2 167.6 168.1 168.6 168.7 167.5 167.8 168 167.8 166.9 167 167.1 170.2 170.1 171 172.2 172.6 175.5 178 177.8 180.6 180.9 189.7 193.9 205.5 218.5 229 240.5 250 259 270.9 281.1 285.6 283.9 286.2 286.5 287.8 287.6 287.6 291.3 294.8 297.9 299.8 302.1 301.6 300.7 302 304.3
473.7 473.7 472.2 476 480.2 481.7 482.6 483.5 484.7 486.9 492 493.3 494.2 496.6 495.8 489.1 482.4 467.1 442.6 427.3 420.3 424 427.5 428.3 428.3 428.1 427.8 427.5 426.1 425.1 425.6 429.3 429.7 429.8 429.5 428.3 426 423.7 420.9 419.9 419.9 423.6 425.1 426.6 429 433.3 437 438.8 444.4 455.9 466.2 473.1 479.6 486.4 490.9 494.2 497.9 499.1 501.7 499.4 503 500 488.9 481.8 478.8 454.8 444.3 444.4 446.1 453 448.4 457.2 470.1 476.7 461.6 430.7 405.7 393 384.1 369.8 357.8 345.3 345.9 342.1 339.6 339 341.5 345.1 341.1 338.2 333.7 325.3 315.9 306.4 295.8 284 273.7 260.6 248.7 261.1 267 267.3 268.1 267.7 268.3 268.1 264.3 257.6 249.9 242.6 236.3 229.6 222.1 215.6 214 210.1 206.1 203.6 196.7 191.3 191.6 192.2 189.2 187.8 184.2 182.6 186 188.5 187 191 196.4 196.4 195.4 195 195.2 192.6 189 186.2 183.1 179.8 175.2 171.9 170.5 170.4 170.5 170.4 171.6 170.2 166.8 167.4 167.6 168 168.6 168.4 168.4 169.2 168.4 168.3 168.1 168.3 168.2 167.6 168.3 170.6 170.6 170.8 171.2 172.8 175 177.4 180.2 180.5 184.1 185.6 193.7 200.8 212.5 224.7 234.1 245 255.5 264.9 275.3 284.9 285.8 286.5 289.4 289.8 292.4 291.3 292.5 296.2 302.1 304.6 305.2 306.8 307.1 307.3 308.6 309.6
