ncols 200
nrows 82
xllcorner 380000
yllcorner 483950
cellsize 50
638.3 637.9 635.7 631.8 626.9 623.6 620.6 616.4 610.6 601.8 579.7 549.1 533.7 517.2 505.8 499.6 492.6 485.6 477.9 471.9 465.6 457.5 448.5 439.6 430.3 421.4 413.5 407.3 402 396.2 389.2 376.5 371.2 367.5 366.5 350.4 344 336.4 335.7 336.4 331.1 319.9 324.3 326.2 325.5 320.2 314.7 310.3 305.5 294.3 292.2 289.8 284 280.6 278.7 278.7 282.8 281.2 279.6 280.1 283.3 286.6 286.8 284.6 277.2 271.9 271.7 280.7 285.8 291.9 298.8 307.5 312.1 316 323.3 329.8 340.3 352.3 356 373.6 386 396.3 403.2 408.4 412.1 415.6 423.6 432.6 441.2 446.6 449.9 453.7 458.7 468.3 477.6 482.8 484.1 483.3 483.5 484.1 480.8 476.6 471.2 468.7 465.6 462.5 457.6 449.9 441.4 430.8 417.5 404.6 392.8 381.9 373.2 366.2 357.7 345 329.3 318.6 309 302.1 298.1 296.1 296.4 295.1 302.9 310.5 312.2 319.6 327.6 336.8 347 351.3 358.1 371.8 377.1 382.1 391.1 395.7 403.4 406.3 408.6 410.2 413.7 419 426.2 433.3 439.9 447.7 455.3 462.1 465.8 468.3 473.7 477.7 481.2 483.6 484.8 485.6 485.8 486 485.8 486 487.4 490.4 496 501.9 508 506.5 501.9 504.1 507.9 510 509 502.1 483.3 473.6 465.3 458.7 453.3 454.2 453.1 451.7 451.8 452 450.9 448.5 443.1 437.9 435.9 431 426.5 429.4 429.2 429.6 428.8 427.9 426.1 426.7
637.2 635 630.8 627.2 624.6 621.2 618.7 616.6 609.7 590.8 568.2 543.9 528.2 514.6 507.6 499.6 491.4 483 471.2 464.7 457.9 451.2 443.7 436.2 428.4 420.5 413.5 408.4 402.9 396.7 389.7 382.4 377.2 373 366.7 361.5 356 352.6 349.9 345.4 330.1 321.1 320.2 321.9 318.4 312.9 304.6 303.3 298.7 289.6 286 283.8 282.4 280.4 279 285 283.5 280.8 279.8 283.1 288.9 291 291.4 286.8 278.8 274.2 273.2 284.4 289.2 295.3 304.8 312.7 318.2 318.8 325.1 332.5 340.7 351 360 378.5 386.6 394.6 405.4 410.1 413.6 418.6 427.6 437.2 445.5 450.6 454.8 459.7 471.3 480.9 485.9 488.8 491.5 489.5 489.2 488.2 485.7 481.8 480.2 475.1 470 462.9 454 447.4 437.4 425.1 412.2 402 392.9 385.1 378.3 369.4 357.9 344.1 329.4 315.3 304.3 297.6 297.7 296.6 296.8 295 309 316.9 317.7 321.5 330.3 340 349.6 354.1 362.8 371.7 379.3 388.8 395.8 404.1 407.3 409.6 411.4 415.5 419.1 430.1 437.4 443.3 450.9 458.8 466 470.7 475.2 480.8 485.1 488.1 489.1 487.9 489.8 490.4 491.2 492.3 494.6 500 504.1 500.5 497.2 497 497.4 499.1 498.1 498.3 499 496.7 486.8 478.3 473.4 468.1 460.5 459.1 457.2 456.7 456.5 454.2 453.1 450.5 450.4 448.7 442.9 440.7 436.2 434.6 435.3 436.7 438.1 439 438.7 436.6 426.4 433.2
637.4 635.2 630.8 626.6 623.5 620.7 617.1 612.3 601.5 582.6 560.9 537.8 523.9 513 503.2 494.4 485.2 475.8 469 460.4 447 445.4 439.4 432.6 425.5 418.9 412.7 407.9 403 396.7 389.9 381.9 374.9 370.8 369.8 367.6 362.6 358.8 354.5 346.6 333.8 319.5 313.8 308.4 300.1 303.7 294.1 289.6 292.7 288.2 284.4 283 281.4 280.6 281.8 284.6 282.7 281.6 281.6 286.7 292 295.4 293.2 285.8 281.2 271.9 274.7 286 290.1 298 307.7 316.9 319.8 320.2 326.9 333.4 342.3 352.7 366.1 379.9 388.2 394 408.2 413 416.2 422 432 444.5 452.2 457.8 461.4 473.4 483.9 489.2 492.3 495.9 495.3 493.1 493 491.6 491.6 490.8 488.2 478.4 469.8 461 450.3 441.1 432 420.3 409.9 400.2 394.1 386.2 376.8 366 353.8 341.3 326.9 312.2 301.4 298.2 297.7 297.1 296.7 298.8 313.4 319.7 323.9 329.4 333.8 344.4 352 358.7 367.6 374 382.2 394.7 401 408 411.4 412.8 416.2 421.8 431.9 438.9 446.6 455 462.9 470.3 476.6 481.4 485.4 490.6 493.3 494.7 495.1 495.2 495.5 497.5 499.2 504.5 506.2 510.1 513 508.2 499.8 497.8 496.9 497.8 497.7 496.1 490.9 487.6 482.9 478.7 475.1 470.4 465.7 461.1 458.2 455.4 454.9 454.1 454.5 454.3 454 449.4 449.1 444.8 443.4 445.3 446.3 447.3 447.2 445.1 443.9 434.9 438.3 439.6
636.2 633.1 627 623.7 618.9 615.9 610.4 598.7 585.9 571.4 542 526.9 514.5 503.4 496.1 487.6 478.6 469.4 462.6 454.6 445.3 439.6 435.2 428.9 423.5 416 409.7 405.1 400.9 395.9 388.8 379.4 376.2 376.7 374.4 368.7 362.4 359.5 354.1 344.7 331.8 317.4 312.3 309.1 309.6 302.9 295.5 290.2 285.1 285.9 283.5 282.4 280.1 281.9 283.7 284.8 283.7 282.4 282.8 287.3 296.3 298 291.8 285.4 284 272.5 273.2 281.9 289.4 298.1 306.6 316.7 317.3 317.8 324.6 332.9 344 359.5 370.4 383 389.8 398.5 410.9 415.5 419 427.9 439.3 448.4 457.2 463.5 473.5 484.7 491.3 495.3 497.4 498.2 497.5 498.3 499.6 499.9 499.4 496.1 488.7 478.4 467.1 458.3 444.7 434.4 427.2 417.3 408.6 400.4 391.9 382.5 372.3 361.9 351 339.1 325.3 310.4 300.3 298.4 297.7 297.6 296.9 306.3 315.2 322.1 331.2 334.3 338.6 349 355.1 366.3 374.3 379.3 388.6 399.1 406.3 410.9 414.1 416.3 422.2 432.8 441.3 449.7 457.5 466.9 474.8 480.7 488.6 492.1 493.9 496.3 498.2 499 499.4 500.2 500.9 506.3 510.2 516.4 513.1 517.2 514.4 509 499.7 499.2 497.3 500 502.5 495 489 486.7 484.2 480.8 476.5 469.8 463.8 459.6 457.4 456.5 456.9 457.6 459.6 459.3 458.4 456.9 456.5 456.4 455.4 455.1 455 454.1 450.8 446.3 445.5 445 445.6 446.9
633.4 628.8 625.4 620.1 613.8 609.4 602 588 573.4 551.4 526.3 512.9 501 492.9 486.9 478.9 472.2 463.1 457.2 449.8 442.3 436.1 432 425.4 419.3 411.4 404.5 398.9 394.8 391.4 386.4 380.6 379.7 378 371.9 361.8 356.1 356.1 347.5 338.9 329.6 319 317.1 310.9 304.2 296.7 288.5 287.8 285.4 282.6 283.4 283.8 284.1 284.1 286.2 286 284.7 284.2 286.2 294.1 300.3 297.2 290.4 291.4 283.6 273.5 272.9 277.9 288.1 295.5 304.8 308.9 317.2 324.4 324.4 334.8 349.2 363.6 375.7 385.4 388.7 403.8 412.9 417.1 424.3 434.4 443.3 451.6 460.7 471 482.2 492.1 498.1 500.7 501.1 501 501.1 504.9 507 508.1 505.6 499.2 489.5 476.3 465.2 456.2 444.5 434 426.3 417.8 408.8 399.7 389.4 380.6 371.3 361.3 349.7 332.4 322.2 310.9 302.7 299 298.5 297.9 298.8 308.9 317.1 328 334.2 336.6 343.4 353.3 363.4 372 378.8 386.1 398 404.2 409.9 414.7 417.4 422.7 432.3 443.7 452 459.5 470.2 479.1 489.2 495.5 498.8 500.5 500.5 502.3 503.1 504.4 503.2 509.9 514.2 512.9 514.3 518.9 515.7 516.5 516.8 508.9 502.1 501 499.8 500.3 497.3 491.8 487.3 485.6 482.5 478.1 473.8 467.6 462.5 460.3 458.9 460.1 462.5 465.2 466.7 466.5 460.9 463.9 463.5 462.6 461.5 460.4 458 453.3 451.4 450.6 450.1 450.6 451.8 455.7
629.8 626.6 621.8 615.3 606.5 598.7 585.9 574.6 557.4 528.3 509.6 497.9 491.4 485.1 479.6 472 463.4 457.3 450.6 444.7 438.4 434.5 424.8 421.6 413.7 406.6 399 391.3 387.9 385.1 381.2 376.1 371.8 370.2 364.5 356.7 352.5 351 342.3 333.1 324.7 316.2 309.7 303.6 297.2 289.8 286 284.7 284.2 284.7 290.2 287.5 287.3 286.7 288.6 287.6 286 289.6 295.2 302.5 301.5 295 295.2 290.8 278 274.1 273.7 278.3 279.4 291.3 305.9 316.1 323.6 329.4 328.5 338.8 352.2 366.6 378 383.6 391.8 408.7 417.7 421.6 429.9 439.6 448.2 457.2 465 478.1 487.6 499.1 502.4 503.9 504.8 508 509 509.6 511.2 513.7 510.6 499.2 486.1 472.5 463.2 454.6 444.9 435.2 427.6 419.5 408.3 397.8 388.3 379.4 370.3 360.3 347.1 334.3 322.9 308.8 303 300.6 297.6 298.3 301.8 314.6 323.2 331 338 342.2 349 357 368.6 375.8 383.2 392.5 402.2 408.6 414 417.6 422.7 431.6 446 455.3 462.2 472.3 485.4 496 503.1 505.1 510.5 514.5 520.4 522.2 523.1 520.7 517.7 516.8 516.5 515 515.1 517.8 516.3 515.1 515.1 509.4 505.7 502.4 499.5 498.3 495.9 495.4 493.8 491.7 486.5 479.2 469.9 467.2 465.2 465.3 467.3 470.3 472.8 473.3 472.1 468.8 468.4 467.8 467.4 466 463.5 459.5 458 457.4 455.7 455.3 456.2 458.5 461.2 467.2
627.3 623 616.3 604.4 593.7 583.6 570.6 547.1 525.9 507.5 496.6 486.6 481.6 477.1 470.9 462.4 456.9 450.8 445 436.4 431.9 426.9 421.1 411 406.2 399.1 391.3 385.1 380.8 377.4 374.5 370.3 365.9 362 355.5 350.8 347.6 341.8 334 324.1 316.3 311 305.3 299.1 293.9 287.7 285.9 288.3 286 286.5 289.4 292.6 289.3 289.7 291.5 289.2 288.1 297.1 304.2 304.1 297.9 296 292.8 286.3 278.9 274.8 274.9 286.9 285.6 296.1 306.6 316.1 325.7 330.6 331.7 341.2 357.6 368.9 376.2 385 396.8 412.4 421.9 425.5 435.9 445.1 454.8 463.3 470 484.2 495 502.9 505.4 508.2 511.1 514.4 518.7 519 513.5 517.1 510 496.8 481.9 470.8 461.9 453.3 444.4 436.5 427.8 417 405.2 396 387 377 368 357.9 344.8 331.6 319.8 308.9 305.2 298.4 299.7 298.8 305.2 320.1 327.4 335.9 341.6 347.4 356 364.1 371.8 379.6 388 397.5 405 411.1 417.5 422.9 432.7 447.8 459 466.2 477.6 493.1 502 508 518.7 521 524.7 525.9 531.1 532.2 531 526.6 523.2 523.4 522.7 519.7 520.8 519.2 517.9 517.2 514.9 507.8 500.9 499.2 501.4 499.3 499.9 499.3 497 493.8 489.4 480.9 475.1 475 474.3 476.6 478.5 480.1 478.4 475 473 472.3 471.9 470.1 467.5 465.5 463.9 464.1 463.4 462.6 463.4 466.2 470.4 478.8 489.7 497.6
620.6 613.3 605.5 585 585 566 538.2 521.5 504.3 493.2 485.3 479.8 474.1 467.8 462 452.6 447 442.8 436.3 430.3 425.1 419.6 413.6 404 395.1 388.7 379.6 374.8 370.3 367.5 363.8 361.2 358.3 354.7 349.1 343.9 339.4 331.3 324.1 316.3 313.3 309.7 304 296.2 288.6 287.1 285.6 288.6 288 292.7 296 291.7 289.6 293.1 297.9 292.1 293.2 305.1 307.7 302.9 296.6 291.6 292.8 290.7 281.5 275.1 281.2 289.8 290 295.6 305.8 313.6 319.7 327.4 334.7 346.9 358.4 367.4 375.9 387.7 401 415.7 425 430.8 440.8 450.2 459.8 467.2 474.4 490.5 502 506.1 510.6 514.5 519.9 524.2 524.8 524.7 516.5 513.2 506.1 492.7 479.1 468.4 459.7 452.4 444.3 434.4 423.7 413.1 402.7 393.9 382.6 371.5 362.8 353.1 341.3 327.7 317.2 310.1 304.2 299.6 299.7 301.2 310.3 324.8 332 338.9 344.5 352.3 360.9 368.4 375.8 384.8 393.2 401.6 409.7 415.6 421.3 429.1 444.1 459.9 469.6 481.6 499.5 509.7 520.7 527.4 527.3 528.9 529.3 530.9 535.2 534.6 535.5 538.7 540.5 539.6 532.5 527.9 522.7 520.2 520.1 521.3 519 512.3 507.9 506.6 503.4 501.5 501.1 500.5 500.7 497 492.5 488.7 487.2 487.4 487.3 485.5 483.9 480.4 477.6 476.1 475.7 474.5 471.8 469.6 468.5 468.5 467.3 468.4 469.8 473.4 478.8 491.7 500.1 501.7 501.8 501.6
607.6 601.8 585.3 577.3 559 535.1 522.6 509.7 496.2 483.1 477.8 472 465.4 458.3 450.7 444.8 440.3 434 424.4 421.4 415.8 411.4 403.7 394.7 380.8 374 369.4 367.2 364.7 360.5 354.3 354.6 351.4 345 340.7 333.4 327.9 319.7 314.6 310.6 307.4 302.6 294.6 286.6 286.3 286.8 291.1 291 297.4 300.7 296.7 293.1 298.2 304.6 305.7 296.4 303.8 309.2 308.2 304 301.1 302.1 299.6 291.7 278.7 275 282.6 287.1 294.9 295.2 301.3 310.4 323.9 329.4 340.2 352.9 359.8 366.7 380.6 392 405.3 418.6 426.3 434.4 443.9 454.3 464.3 470.4 482.2 497.3 506.4 511.1 515.4 524.6 527.9 529.9 530.8 525.8 517.5 509.6 503.8 488.8 476.8 466.4 462 452.5 442.5 430.1 418.6 409.3 398.8 388.2 374.3 365.5 357.7 349.2 332.7 323.8 317.9 310.5 305.5 302.6 300.3 304.6 315.9 328.3 334.9 341.8 348 357.9 365.2 372.2 380.1 388.9 398.6 407.1 414.9 419.5 426.9 439.2 456.4 470.2 480.7 497.8 516.7 532.3 534.4 533.9 536.9 542.1 545.8 553 563.4 566.2 567.8 568.5 568 565.1 548.3 539.1 531.5 537.2 542.1 539.2 534.5 530.1 518.5 508.5 502.1 503.2 506.7 508.1 508.1 506.7 504.5 502.4 499.3 494.9 490.3 485.8 483.1 482.6 481.7 480.9 479.4 477.1 474 473.2 471.9 471.1 472.4 476.9 483.5 500.3 501.4 502.8 502.9 504.9 504.3 501.4
593.5 585.3 573.5 549.1 530.3 519.3 509.3 497.6 487.5 477 469.2 462.9 454.1 451.3 444.7 436.8 431.9 425.9 416.6 411 406.6 400.9 393.6 384.7 377.8 364.3 361 359.6 357.7 353.8 349.4 346 345.1 339.1 331.5 326 315 311.5 308.5 304.6 300.4 295.2 289.1 289.8 288.8 288.4 294 299.9 304.9 302.8 299.3 301.2 309.9 316.1 314 302.8 306.9 308.7 308.3 306.8 309.4 308.6 299.9 285 276.3 279.2 277.8 287 296.3 297.9 300.5 310.2 324.8 333.9 346.6 358 367.3 376.1 385 396.2 406.7 418.9 426.2 434.8 445.6 459 467.1 474.3 490.2 503.9 510.1 517 525.6 530.9 532.8 531.6 529.2 526.2 523.1 517.1 504.8 495.3 478.8 471.3 460.7 448.8 437.7 426.4 415.5 403.2 390.9 380.3 368.3 359.6 352.5 346.7 341.9 328.7 314.3 309.9 306.8 302.3 301.3 307.6 320.6 330 335.8 342.9 351.4 361.4 367.5 375.1 383.5 393.1 403.6 411.2 418.5 424.5 433.6 449.7 467.2 478.9 493.4 514.1 530.7 537.3 539.2 546.5 557.6 563.8 567.5 568.4 567.3 568.4 570.1 570.2 569.9 568.3 562.3 562.7 562.5 562.3 560.3 555.6 541.1 532.5 524.9 512.6 506.5 508.3 514.5 516.7 518.9 517.9 511.9 504.2 498.1 491.1 488.8 488.3 488.6 488.2 487.1 487.1 487 487.3 484.4 478.2 476.5 482.7 490.7 493.3 500.5 501.8 503.9 505 505.7 506.1 503.2 501.7
578.3 566.7 544.3 526.1 515.5 506.2 497.2 485 474.3 468.5 460.9 453.2 448.4 441.1 436 430.7 425.7 420.5 411.6 405.3 397.7 393.2 388.6 378.8 368.3 364.7 357.5 352.5 346.6 339.7 344.2 342.2 337.1 330.9 326.1 319.3 315.1 306.9 303.4 301.1 300.5 296.9 290.4 290.7 290.3 294.2 301.6 307.6 309 307.1 309.4 313.6 322 325.4 320.2 310.6 306.5 307.2 308.9 313.7 314.3 305.4 292.2 279.4 278.5 279.1 280.9 290.1 301.8 303.5 304 317.4 327.5 338.3 352.1 363.8 372.1 378.4 386.4 398.2 409.2 418.9 424.9 434.3 450.7 463 469.9 479.8 498.8 507.8 515.7 525.4 531.6 534.3 534.3 533.6 532.3 531.9 530 526 507.8 491.7 480 468.3 455.8 444 432.2 420.5 408.3 398.3 385.6 376.4 365.7 357.8 354.1 347.9 337.8 326.9 311.4 310 307.7 302.1 301.6 308.5 318.5 331.1 335.5 344.7 354.8 363.7 370.5 378.6 386.9 396.6 406.5 415.3 422.6 429.6 441 459.3 474.2 488.1 506.5 527.6 538.3 545.6 559.2 561.9 562.8 568.8 570.4 571.5 572.7 571.9 572.2 571.8 572 571.8 571.1 569 565.5 563.2 559.9 557.3 552.3 540.7 528.1 520.3 514 522.1 525 526 523.7 516.6 507.3 500.2 495 492.8 493.3 494.2 495.1 494.5 495.6 496.4 497.6 495.5 491.1 494.4 499.9 500.9 500.9 496 501.1 501.4 505.2 507.6 509.3 507.4 505.5 502.4
556.7 541.9 529.7 517 506.3 497.1 487.6 475 468.9 460.3 452.2 446.1 440.3 434.3 430.8 428.4 425 420.2 411.7 400.7 394.1 391.3 387.6 383.5 376.1 368.7 359.1 357.2 355.1 349.7 334.7 327.2 326.8 322.1 317.4 313.8 308.7 306.3 303.9 297.7 292.8 292.1 291.5 291.2 295.4 303.7 311.2 315.7 316.3 314.9 316.7 323.4 331.5 331.5 324.8 315 310.5 309.8 313.8 316 309.3 298.3 284.7 277.6 284.5 280.4 286.8 294.3 306.7 312.5 313.3 321.9 331.1 342.7 356.5 365.1 371.8 380.2 390.1 401.9 410.1 416.8 426.5 440.6 456.4 465.5 473.4 491 506 510.9 522.7 532.6 535.8 536.1 536.2 535.6 535 534.2 533.6 530 513.2 494.2 480.6 466.4 452.1 437.5 426.7 415.3 404.9 393.7 382.6 373.5 363 358.6 352.2 342.3 332.8 323 312.4 309.3 302.8 302.2 302.4 312.6 324.8 332.8 338.8 349.9 356.9 367.3 373.5 381.7 390.2 401.2 410 419.1 427.2 434.3 448.9 465.5 479.6 499 520.7 533.9 543.7 557.9 561.4 564 569.2 573.3 576.4 574.9 574.2 573.7 575.4 578.7 579.1 578.3 573.9 568.9 564.3 563.6 564.3 562.2 556 546.2 536.8 525.6 521.8 529.8 531 526.7 516.7 508.3 499.8 498.9 497.9 497.7 499.1 498.9 499.8 501.7 502.9 504.7 502.6 501 501.2 503.8 504.2 502.7 502.4 496.4 503.5 504.7 506.4 508 508.6 506 503.1 500.2
541.3 531.9 520.3 510 497.9 487 475.1 467.1 461.8 458.1 449.1 440.8 434.6 427.3 424.9 425.2 422.4 416.9 408.9 399.1 394.4 390.4 385.3 380.4 374 368.3 360.1 357.2 350 343.3 337.1 327.6 318.8 309.3 305.8 299.8 301.1 298.4 292 293.6 291.5 292.9 292.2 294.7 304.9 310.7 320.3 324 325.1 323.2 323.6 331 338.4 336.5 329.5 321.8 316 314 314 309.3 298.9 289.1 277.3 284 280.4 284.1 288.4 297.2 307 314.3 309.8 324.7 333.9 346.4 358.6 363.2 371.6 382 392.6 403.6 412.2 418.7 430.5 448.4 460.5 469.4 481.5 499.3 508.7 514.6 527.2 537.6 538.8 538.1 538.5 543.6 544.5 542 538.9 532.2 513.8 494.2 477.7 461.6 446 434.1 422.5 408.9 398.9 388.3 378.7 372.7 364 356 344.3 332.8 325.9 317.4 309.4 305.4 303.2 302.3 306.9 314 326.2 334.7 344.2 354.1 362.7 366.4 375.3 384.2 393.8 403.7 412.7 420.3 427.6 438.5 455.3 472.8 489.8 510.4 530.1 538.4 553.8 561.1 568 573.3 577.1 575.9 577.9 577.7 581.8 586 586.1 583.5 580.9 578 573.1 569 567.6 567.7 567.5 565.3 560.8 553.8 544.4 537.6 537.6 536.4 533.2 524.8 515.5 508.4 505.1 501.7 502.2 502.5 502.2 501.9 502.9 506.6 507.9 507.6 506.3 504.9 504.3 506.1 505.4 503.5 503 497.3 505.1 506.2 505.9 504.4 502.2 499.6 493 491.4
534.9 523.8 513.3 499.1 484.8 475.1 467.3 460.6 454.8 451.7 446.1 439.4 432.3 427.4 422.6 421.3 416 409.5 403.8 398.8 391.1 387.1 380 372.5 366.5 362.1 357.3 349.1 338.9 333.3 328.6 323.7 320.4 316.1 309.5 302 294.2 296 295.5 294.5 293.8 293.6 297 301.5 311.8 320.3 326.8 331.3 331 326.1 331.2 340 343.7 341 335.1 328.4 322.1 316.7 311.2 301.3 290.2 282.2 278.1 278.5 280.7 286.8 287.1 292.4 297 301.1 313.4 326.1 336.4 349.7 356.1 359.2 371.5 382.4 395.6 407.3 412.7 422.7 436.7 454 465 474.8 489.4 505.6 511.1 520.7 533.7 543.2 551.4 552.4 564.2 567.5 564.2 564.4 559.2 532.1 512.9 491.8 475.5 460.3 442.5 431.1 418.3 400.9 393.5 385.3 382.2 374.8 363.3 352.1 338.2 329.9 321 313.1 306.7 304.3 303.8 303.2 308.4 316.1 327.9 338 349 357.4 364.1 372.3 378.7 386.7 394.3 406.4 417.2 424.6 429.8 445.4 463.1 481.4 498.7 522.1 535 547.7 561.4 568.2 574.4 577.9 578.3 578.6 586.4 588.7 589.4 589.8 587.3 582.3 579 576.5 574.2 570.9 570.3 571.2 571.7 570.2 565.7 559.5 554.1 550.6 545.5 542.9 538.7 530 523.4 514.7 508.7 507.8 506.2 505.3 505.3 505.4 508.4 507.6 508.7 508.6 508.3 506.4 504.7 505.4 504.9 504.4 504 502.7 505.2 504.5 503.1 501.2 496.5 493.4 490.6 482.6
523.8 513.7 500.4 489.3 476.3 465.1 459.9 452.5 447.8 443.4 438.4 434.2 429.4 424.1 418.1 407.3 407.2 402.9 398 392.7 386.6 379.7 373.4 366.6 360 354.6 348.4 338.5 330.9 327.1 324.1 320.5 319.4 313.8 303.7 298.5 296.1 296.3 295.9 295.4 299.2 303.6 305.5 309.4 317.7 324.2 330.6 335.4 330.7 330.1 340.4 346.8 348.7 346.3 340.3 332.2 323.7 315.7 308.6 298.3 289.8 281.5 278.6 278.7 280.7 282.4 286.2 295.7 306.6 310.8 310.4 326.1 339.3 351.4 354.8 358.5 374.2 383.6 397.4 410.4 417.3 427.9 444.3 461.4 469.8 482.5 497.8 510.5 518.6 529.7 542.4 557.1 561.9 568.6 570.7 569.6 569.3 566 557.2 527.3 511.7 491.3 474 456.9 440.7 424.7 404.6 393.9 390.7 388.2 381.9 371.7 359.8 344.1 331.7 324.7 317.3 309.4 305.1 304.8 304.3 305.5 315.9 319.3 332.5 342.8 353.3 359.6 367.5 374.5 382.8 390.7 400.6 410.6 419.2 428.1 438.6 453.6 471.7 488.3 507.8 531.6 542.1 560.2 567.5 575.5 576.3 579.6 586.1 589.2 589.9 590.4 590.2 589.3 585.8 579.9 578.1 575.3 574.9 574.5 574.1 572.3 573.8 569.9 565.7 560.2 555.1 557.6 554.4 549.1 544.7 532 522.1 518.3 516.5 511.3 510 509.1 508.9 510.3 510.3 507.8 508.3 508.4 508.8 508.9 507.6 506.7 506.9 506.1 504.9 503 504.4 503.2 497 494.1 488.8 484 478.7 474.6
514.6 505.4 492 479.4 468.9 457.3 450.8 445.1 438.8 433.1 429.2 426.2 421.9 415.6 409 405.4 393.1 395.1 389.5 385 377.8 371.4 366.5 358.5 352.7 347.4 341.8 335.5 322.8 320.6 317.5 317.1 312.3 303.8 298.6 297.8 298.2 297.2 297.6 302.3 307.9 313.5 313.6 317.2 325.2 327.2 334.8 339 333.9 337.2 347 352.4 353.9 351.5 343.7 334.3 321.5 313.9 307 296.7 291.3 284.4 279.7 279.1 278.3 281.4 290.2 298.9 308.4 313.9 318.2 332.5 345 349.5 352.7 363.7 379 388.2 399.7 414 423.1 434.3 452.3 465.6 477.7 491.8 505.6 514.4 527.2 537.7 554.6 562.7 570.4 574.3 574.2 573.6 570.6 565.9 551 526.4 507.4 487.6 470.1 452 434.2 418.2 402.8 393.5 390.7 387.3 377.5 365.5 355.5 343.6 332.8 323.3 317.5 310.2 306 305.7 305.1 314.6 322.2 325.5 335.5 348.8 356.6 361.7 369.1 374.5 384.6 394 404.3 414.5 423.5 434.4 446.4 463.1 479.7 496.1 520.3 535 552.6 566 575.6 577.3 578.9 589.1 591.8 593.3 592.2 591.1 588.3 587.1 582.4 578.4 576.6 577.5 578.9 576.2 572.7 568.9 570.6 567.8 564.3 561.2 562.3 562.4 558.7 550.2 537 528.2 522.7 522.6 520.1 516.2 512.3 511.5 510.2 509.4 508 506 507 507.9 509 508.4 507.5 507.9 508.1 508 505 503 499.2 496 489.1 485.8 480.4 475.3 470.8 467.6
494 492.3 482.8 468.1 455.4 448.4 441.9 434 427.9 423.9 417.6 415.3 410.6 407 402.1 396.7 390.2 377.1 381.1 375.9 368.2 364 359.3 353.8 345 341.1 335.6 329.3 320.9 313.4 308.9 304.7 300.8 299.8 304.6 306 299.1 298.5 300.7 308.3 316 321.9 324.5 329.9 333.3 335.7 342.3 344.5 342.1 343.9 353.4 359.9 361.5 355.2 345.1 331.4 316.6 314.3 311.7 302.6 292.5 285 281.4 280.2 279.8 283.2 294.8 304.1 313.3 318.8 327.1 340.4 350.9 352.7 354.9 370.8 382.1 391.3 402.9 416.8 426.4 442.2 460.6 472.7 487.5 503.1 513.2 525.9 534.5 543.3 561.4 569.4 575.8 578.9 577.8 574.1 570.6 564 539.8 524.7 501.6 482.8 464.5 447.1 433.1 419.4 405.8 391.3 386.3 381.1 370 358.6 350.2 340.8 329.2 319.6 314.8 307.2 306.8 306.8 305.8 317.6 325.7 333.2 346.2 352.6 359.5 365.1 372.5 378.5 387.2 397.4 408.7 417.3 427.8 439.8 454.3 472.5 488.3 506.1 529.6 540.7 559.5 568.8 574.9 578.9 581.8 586.9 591.3 591.9 591 588.7 585.6 585 581.6 580.9 579.4 578.8 577.1 574.3 573.1 571.8 569.1 567.8 565.7 564.5 563.6 560.9 555.9 540.3 531.9 527.3 525.1 522.5 520.4 515.9 512.4 509.4 507.8 506.1 504.1 505.1 503.5 505.8 507.9 507.9 508.5 509 510.8 510.2 509 499.4 492.3 484.7 481.3 477.3 472.3 467.5 463 455.2
495.6 478.7 464 456.2 447.2 439.2 432.9 425.6 417.9 412.8 407.7 404.4 400.6 397.9 393.2 388.1 383 377 369.9 367.1 359.2 357.4 354.5 350.1 342.6 335.4 328.2 322.3 318.2 316.8 310 301.9 301.1 311.1 312.4 306.5 301.9 303.1 306.5 314.2 322.2 328.1 334.9 340.3 342.8 347.3 351.5 352.3 351.6 352.5 362.8 368.1 365.5 355 340.8 321.6 315.9 316 313.2 301.8 288.9 282.4 283.4 280.7 279.2 294.3 299.9 308.3 318.6 326.5 335.1 346.4 356 359.6 364.3 374.5 384.5 392.7 408.2 419 431.6 451 466.5 480.8 498.6 513.8 526.6 540.5 547 563.8 568.4 573 577.5 580.5 579.3 574.7 569.2 556.5 531.5 517.6 494.7 477.9 456.1 442.7 429.7 416.7 403.1 389.6 383.2 373.2 362.3 349.7 343.1 333.8 323.5 314.8 308.7 307.9 308.1 307.9 306.7 319.6 327.5 340 350.3 357 362 368.5 374.7 381.3 390.4 401.5 412.1 421.2 432.7 446.1 465 481.9 497.4 520.2 536.7 546.8 557.8 569.3 576.5 580.6 584.3 588.8 588.8 589 589 588.5 588.5 587.5 584.9 583.1 582.3 581.1 581 576.2 572.3 570.7 569.3 566.8 564.2 562.6 558.9 553.7 544 534.2 529.9 527.6 524.8 519.3 515.2 509 506.2 505.7 503.1 502 501 501 501.7 504.9 507.7 508.3 509.4 509.3 511.4 511.2 506.2 490.1 483.3 479.5 475.1 469.9 464.8 457.9 449 442.5
487.7 476.8 460.7 448.8 438.7 432 423.8 418.1 408.2 391.8 392.8 396.5 391 386.8 383 379.3 374.1 369.8 361 355.3 350.9 349.1 347.9 344.9 338.5 329.1 319.9 313.9 316.8 314.8 304.1 303 309.5 315.9 314.6 309 307.1 310.2 312.7 314.5 324.2 334 341.9 346.1 350.7 355.7 358.9 361.4 362.2 362.3 370.9 373.1 364.8 350.2 334.8 319.5 317.5 317 310.1 298 286.8 281.9 281.6 280.9 286.8 294.8 302.8 310.1 319.4 328.5 339.7 350.5 358.9 364.5 370.2 379.1 388.2 397.6 412.5 424.6 438.7 458.5 472.9 490.7 510.9 526.4 536.5 551.4 560.1 571.9 571.4 577.7 581.4 583 580 573 565.3 539.8 523.6 506.3 487.9 471 450.2 437.5 424.4 411.7 401.3 388.3 379.3 367.3 355.8 345.7 333.5 325.7 316.8 309.1 308.2 308.3 308.5 308.5 309.9 320.9 331.3 345 353 359.3 365.1 372.3 376.7 384.7 394.6 406.8 416.5 426.8 438.3 455.7 474.7 490 509.3 531.2 540.9 551.4 561.3 572.2 579.2 583.3 587.3 592 590.9 589.6 589.2 588.3 588.9 587.5 586.8 585.5 583.6 583.7 580.8 576.6 572 569.8 567.4 564.9 561.3 557.7 550.8 543.3 535.6 532.2 530 528.2 525.2 518.6 511.8 503 500.2 501 498.9 497 492.2 492.8 497.5 501.3 504.7 505.1 506.3 503.6 506.7 503.3 491.5 485.8 481 475.9 470.3 462 452.7 445.2 438.6 435.6
480.8 469.1 456.2 445.2 435.1 425.9 414.1 405.6 408.3 403.8 393.3 381 374.9 376 374.4 371.1 368.1 363.1 355.6 347.1 343.2 340.9 338 334.8 333 327.5 318.6 312 308.4 305.4 304.6 302.6 311.9 317.1 313.7 310.3 311 317.3 320.7 315.2 328.8 339.8 346.5 353.6 360.3 365.2 367.8 372.4 372.7 370.4 376.4 372.9 361.2 347.5 336.8 327.6 321.4 318.1 306.7 294.8 284.4 282.3 281.9 280.7 290.6 296.4 304.6 312.5 322 332.1 342.7 353.8 361.1 367.5 374.1 384.9 393.7 403.7 416.1 431.2 446.2 465 480.7 500.5 520.5 534.1 545 558.8 571.4 578.6 575.6 580 581.8 583 579.6 571.7 552.6 528.8 515.8 497.6 481.5 464.8 446.7 430.8 418.8 406.2 396.6 384.3 372 358.7 349.9 338.6 324.6 319.4 312.2 309.1 308.7 308.8 308.8 308.2 311.2 323.8 337.2 348.6 355.3 361.3 367.6 375 381.9 389.4 399.2 410.1 419.9 433.3 443.9 465.7 483 499.8 521.8 539.2 550.3 559.9 569.7 579 581.2 588.9 590.2 593 592.8 590.5 592.3 591.2 591.3 589 588.1 586.7 586.2 583.8 579.4 574.8 571.6 570 568.4 567 563.7 558.7 550.7 535.4 532.4 530.9 529.6 526.2 519.3 511.4 505.7 499.8 495.8 495.7 491.8 486.6 484 480.8 479.7 483.4 488 491.1 494.2 495 493.3 489.5 485.6 479.9 472.8 465.8 458.1 448.1 440.4 436.9 434 428.2
473 464.6 454.9 443.2 432.5 423.5 419.3 417.9 416 410.6 402.5 392.7 382.2 366.3 360.7 362.3 361.3 356.8 350.5 345.7 334.2 333.9 332.4 329 331.2 324.2 316.1 309.2 307.9 305.1 307.2 312.7 312.5 314.2 312.6 314.1 315.6 322.7 328.6 329.3 335.7 344 354.4 363.1 370 371 377.8 383.2 382.8 381.2 376.7 371 359.5 351 341.5 330.5 319.6 313.4 300.9 290.8 284.6 283.7 282.2 281.9 287.8 292.3 301.3 307.8 323.4 334.7 345.1 355 362.1 369.5 376.9 386.8 398.2 409.4 419.6 435.3 454.8 471.7 489.2 512.5 526.5 539.3 547.8 567.9 578.7 580 579.7 579.6 580.4 579.8 575.6 563.1 536.6 521.6 507.8 488.4 475.5 456.6 439.3 423.7 410.5 400.7 389.7 378.8 364.3 352.5 342.7 333.7 316.6 312.4 310.4 309.5 309.7 309.9 309.5 308.9 311.6 326.8 341.5 350.9 358.3 363.7 369.3 376.8 384.9 393.4 403.6 414.4 423.7 438.3 454.5 474.7 491.6 511.9 534.4 553.2 559.2 569.4 578.2 586.3 586.8 590.7 596.8 597.3 595.4 591.2 592.2 590.3 590 588.2 588.2 586.4 584.7 581.7 578.3 575.1 572.3 573.2 571.3 569.8 567.1 560.6 540.3 534.3 531.5 526 522.7 517.6 510.8 503 496.7 494.3 484 486.2 482.2 477.5 475 471.4 468.5 471.3 473.6 474.1 475.3 477 476.1 473.9 470.5 464.8 457.5 449.6 445 438.8 434.7 430.4 423.3 414.6
468 459.1 451.4 443.7 435.9 429.5 425.7 424.1 418.8 410.5 401.2 392.5 382.5 373.2 365.7 356 351.1 349.6 343.8 339.8 333.2 327.4 322.8 321.8 317.9 315.3 315.8 311.8 309.1 306.9 317.3 314.7 312.6 314 318.5 324 322.6 326.1 334.4 338.2 343.8 351.6 361.2 369.8 375.1 381.2 386.3 394 394.5 390.2 381 372.1 361.8 352.8 341.1 325.3 315.7 306.6 295.8 288.6 287.3 287.2 282.9 282.9 294.5 299.4 304.8 317.3 326.4 336.1 347.4 355.1 361.8 369.2 379.6 390 402.4 413.8 426.2 439.5 460.8 477.8 497.6 521.3 529.7 545.9 558.9 572.7 579.3 579.6 580.1 579.6 580 577.4 568.3 541.2 528.1 516.8 499 482 467.5 447.6 432.8 414.6 402.6 392.9 383.7 371.4 357 343.5 335.3 323.4 314.3 311.7 311.8 310.3 310.5 310.9 310.2 309.4 316.5 329.2 343.2 352.5 359.7 365.3 371.2 379.7 388.3 397.6 409.3 420 428.5 443.9 463.1 483.2 503.5 527 544.7 563 566.6 575 580.5 588.5 591.9 595.1 597.7 597.1 594.7 597.4 595.4 592.9 590.9 586.2 586.6 585.7 584.3 582.8 579.4 575.4 573.7 576.4 576 572.2 564.9 550.7 535.9 531.1 524 521.4 514.7 510.9 499.8 494.3 488.2 481 478.9 471.7 472.6 469.6 469.7 467 460.3 450.7 451.5 452.5 454.2 455.8 457.9 456.4 453 450 446.2 441.2 436.3 432 420.8 414.6 407.4 402
462.1 451.3 444.3 440.3 435.3 430.7 426.8 423.5 414.1 404.8 395.8 388 377.9 369.2 361.2 356.4 349.9 343.9 339.1 335.4 331.7 327.9 325.2 322.6 326.6 324.7 319.6 316.3 308.6 308.1 311.8 315 314.8 316.5 326.9 332.8 331.3 333.8 339.3 345.1 349.6 358 368.7 375.5 382.4 390.2 396.5 405.8 404.7 396.7 385.1 372.9 363.8 352.7 336.9 315.6 307.2 304.9 294.4 288.8 289.1 284.5 281.9 289.9 298.6 306.4 305.4 314.7 331.5 340.7 349.5 356.4 363.2 372.1 385.1 394.3 407 418.2 431.6 449 464.3 484.8 507.6 523 527.6 548.9 565 570.7 577.8 579.6 580.1 580.1 579.4 574.6 553.4 533.3 521.9 509.2 491.1 476.1 458.3 437.8 423.8 413.1 399.4 386.5 378.8 368.7 354.4 342.5 335.4 327.1 318.7 316.6 314.2 312.7 311.2 312.2 312.3 310.7 321.8 331.3 344 353.6 360.8 366.8 373.5 382.1 391.3 402.9 413.4 424.6 433.9 450.3 471.3 495.1 518 541.2 556.8 567.1 572.6 579.6 587.9 592.4 592.2 594.9 595.8 595.9 597.3 600.3 599 595.8 592.8 588.3 586.7 585.6 581.8 581.7 577.5 576.3 576.9 578.6 576.8 570.8 563.1 544.1 534.4 524.5 519.3 512 505 497.9 491.1 481.6 479.8 469.6 464.3 459.2 463.1 462.6 463.8 462.2 458.5 451.6 445.4 441.3 443.4 447.6 448.8 448.3 446.6 442.6 436.8 426.5 418.4 412.8 406.7 400.9 395.9 393.1
451.4 440.2 439.4 436.6 431.6 426.8 417.7 413.9 406.8 398.9 390.8 382.8 374 366 357.6 352.7 347.8 343.5 338.9 335 331.8 328.4 326.4 325.7 326.6 321.9 323.3 319.5 309 308.9 310.7 319.7 320.8 325.9 330.5 339.6 339.1 338.8 343.6 351.9 358.1 366.6 375.4 381.7 389.6 397 405.7 413.6 412 402.2 386.2 372.9 364 350 332.5 322.5 315.2 305.7 294 288.2 284.2 284 285.4 290.7 300.3 307.6 311.5 319.5 334.2 345.3 354 357.3 365.7 376.7 388.8 398.3 412.3 424 435.1 455.1 471.3 494.1 517.6 521.3 529.7 550.8 567.5 576.4 579.1 579.2 580.1 580.1 577.6 567.2 542.8 528.4 516.2 501.6 484 467.2 448.6 431.3 417.6 407.3 395.4 386.9 377 367.3 357.1 347.3 339.7 330.3 328.7 325.9 318.9 315.5 313.4 313.3 313.4 312 324.8 336.7 346.7 355.2 361.6 369.2 375.8 384.1 395.2 406.3 416.7 427.6 440.1 458.5 482.1 503.8 530.9 549.6 568.2 570.4 575.7 580 594.3 601.7 600.1 600.9 599.7 598 596.8 598.6 598.6 597 594.3 589.6 585.3 582.5 580.5 580.6 581.5 580.3 578.5 576.8 573.7 566.1 549.2 532.9 524.4 517.1 509.9 502.8 494.2 487.3 481.9 475.9 467.3 463 459.4 455.9 453.5 455.9 458.8 455.4 449.9 442.9 440.4 437 437.4 438.8 436.1 434.8 431.5 428.9 421 414.6 407.5 401.8 397.9 394.1 392 387.6
443.1 435.4 431.4 428.6 424 418.2 410.5 402.9 398.3 392 384.6 376.7 370.2 361.7 355.9 350.3 344.7 338.8 335.1 333.7 331.9 329.2 328.1 330.2 325.1 319.3 311.9 309.9 311.2 314.1 319.9 327.6 330.6 330.9 334.7 344.2 342.9 343.9 349.6 358.7 366 374.9 381.9 390.7 397.8 407 419.1 423.4 417.6 405.3 385.7 373.3 362 346.4 334.8 327.2 315.9 302.9 292.5 286.7 285 285.1 288.3 290.6 295.8 300.5 311.6 321.7 335.7 347.7 355.4 361.3 369.2 380.7 390.7 404.9 418.4 428.3 441.6 459 475.9 496.9 515.6 521.4 536.2 554.4 572.2 578.8 579.8 579.5 579.6 579.5 573.1 554.3 536.9 522.7 510.2 493.1 477.4 459.1 438.4 424.1 410.6 401.5 393 383.5 374.8 365.9 357.1 349 339.6 334.5 334.8 332.3 321.4 317.4 315.7 314.4 312.4 315.4 324.8 337.8 349.5 357.2 364.3 371.1 378.3 387 398.9 411.6 420.5 432.2 447.8 467.1 489.9 513.2 542.1 558.2 568.6 567.2 574.6 582.2 597.6 608.3 609.7 605.4 599.9 599.4 599.6 598.3 596.7 595.1 594.1 589.9 587.4 585.8 583.6 581.7 579.7 579.5 575.3 570.9 562.2 547.3 534.4 522.8 515.3 508.1 501 493.2 482.6 479.5 473.1 466.3 460 455.1 452.4 449 444.5 448.2 449.3 445.8 439.6 434.8 431.9 428.8 429.9 429 425.2 423.4 420.4 415.2 408.8 402.7 399.2 396.7 393.9 391.1 387.4 381.2
443.3 433.5 428.4 419.7 407.8 408.1 403.5 391.8 390.1 385.4 378.9 371 366.1 360.2 355.4 349.1 341.9 335.1 332.6 331.2 331.9 331.8 332.7 331.9 324.1 315.7 311.9 315.5 321.9 317.6 326.3 334.5 334.9 334.5 343 349.3 350 353.3 356 366.3 375.3 380.7 392.1 401.1 411.6 420.5 426.9 428.8 420.5 405.9 387.7 373.6 355.6 342 335.4 325.5 313.8 303.1 291.4 288.2 285.4 285.4 290.7 297.8 302.9 308.4 312.7 321.3 336.5 347.5 355.3 363.1 370.8 382.5 394 409.2 421.9 431 445.3 463.9 482.4 502.3 515.6 526.6 541.1 563.7 572.4 579.9 580.2 580.2 580 573.3 565.6 544.4 530.7 517.8 502.3 485 467.6 448 432.5 417.6 405.2 396.1 388.3 380.4 371.2 362.1 354 346.8 339.8 339 339.2 332.6 321 318.8 317.3 315.8 313.1 320.5 325.3 338.8 350.8 358.8 366.3 373.3 380.3 390 402.9 413.8 426.3 436.5 450.1 475.5 497.6 525.6 549 563.8 571.2 570.1 575.6 586.1 596.1 608.2 610.3 611.5 610.6 605.8 608.6 603.6 599.2 599.7 599.4 594.6 591.4 587.6 583.1 576.7 573.3 570.8 566.1 554.2 542.1 532.4 522.8 514 506.1 498.1 491 484.4 477 470.2 462 457.7 452.6 447.2 445.4 442.1 432 440.5 438.7 434.2 429.9 424.9 421 418.3 418.7 416.6 416.1 414.6 411.6 406.9 403.1 398.2 396.1 393.8 390.7 384.1 377.4 368.5
443.2 439.5 433.2 426.8 417.6 407.6 399.4 392.2 381.7 375 368.6 361.5 359.4 357.4 354.1 347.2 338.3 333.2 330 329.3 333 336.5 335.7 330.5 322.4 313.2 321.7 326.6 328.1 321.8 331.9 337.3 337.2 341.8 351.2 355 358.6 363.7 369 376.7 384.1 394.1 402.2 409.2 420.4 428.3 433.8 433.4 423.8 408.5 387.5 368.6 351.7 342.1 331 322.8 310.7 300.6 293.4 291.5 288.4 285 292.3 299.1 306.2 312.4 318.8 327.3 340.2 347.5 352 364.4 373.2 384.2 396.7 412 423.3 435.5 450.4 469.7 486.8 505.9 519.8 532.3 546.4 570.7 573.7 580 579.9 579.8 575.8 572.3 554.2 536.3 524.9 509.4 493.4 476.7 459.5 440.2 425.7 409.9 398.6 390.6 385.2 376.1 363.8 352 348.2 343.9 341.4 342 335.5 325.1 321.6 318.7 317 316.3 318.7 324.2 331.8 338.9 350.4 359.7 367.4 375.2 383.3 393.5 406.2 416.9 428.3 441.1 460.2 482.6 506.7 536.3 554.2 568.6 573.4 572.2 580.2 591.4 599.3 610.8 612.2 612.7 613.4 614.2 613.2 605.3 603.2 600 595.4 592.2 589 581.7 578.7 572.8 558.8 553.7 544.7 536.5 528.6 521.6 513.9 506.3 498.6 492.6 482.1 474.6 466.6 457.2 451.3 444.7 443.8 439 437.2 432.8 420.9 428.2 424.9 421.3 416.9 412.2 409.1 407.6 406.2 408 408.3 407.5 403 401.9 396.7 392.2 386.9 382.5 377.1 371 364.2 357.9
448.5 443.8 435.6 426.8 419 411.1 402.7 397.4 389.2 374.8 364.3 356.6 357.6 356.2 352 345.3 338.9 336.9 333 327.9 328 329.5 328 315.3 315.2 317.1 329.7 332.6 332.2 325.1 334.8 337.5 344.8 351 357.7 362.8 368 373.4 380.5 385.7 397.4 402.9 409.2 420.5 430.6 437.8 439.2 433.7 424.6 409.6 388.3 367.4 358.1 347.4 333.3 321.8 311.1 299.4 295.9 295.7 291.8 286.3 286.6 297 306.5 316.1 325 334.4 344 353.6 360.2 366.3 376.1 385.5 401.7 416.3 427.2 440.1 454.6 474.3 489.9 507.7 522.7 538 557.2 572.3 580.4 580.1 579.4 579.2 574.4 565 543.5 530.8 517.3 500.4 485.8 469.9 452.5 435.8 417.6 405.7 396.2 387.2 379.1 368.9 357.1 347.6 341.2 339 332.2 330.8 326.6 324.2 325.6 320.3 317.3 315.4 320.5 328.8 337.9 344.1 355.4 361.5 369.4 377.6 387 398.1 410.1 419.2 431.4 445.5 467.2 489.1 517 542.4 562.9 571.3 576 574.5 580.6 589.3 598.2 604.7 609.5 612.8 613.3 613.3 605.9 598.3 592.7 590.2 588 586.5 584.3 579.8 568.7 553.3 543.8 538.2 534.6 526.2 519.6 512.6 505.9 498.5 490.5 482.4 471.9 458.2 451.9 444.1 441 437.7 432.5 427.2 424.8 420.3 412.8 415 412.7 410.3 406.9 402.1 400.2 398.7 396.8 397.5 396.9 393.6 391.1 387.2 382.3 377 373.4 369 362.5 355.6 349.8 347
451.1 443.6 433 424.4 416.2 407.3 393.9 386.7 384.3 377.8 365.5 357.9 351.6 353.5 351.8 346.7 341.6 337.4 333.7 328.5 324.5 323.2 317.2 315.3 321.9 326.5 333.6 336.2 333 330.2 335.7 345.7 353.2 359.7 366.1 370.9 377.1 384.6 392.9 400.6 407.8 409.6 419.4 430 440.8 442.5 440.3 432.9 422.4 409.3 390.9 374.5 357.6 345 331.1 319.8 309.2 299.3 296.5 294.3 286.8 286.8 287.8 295.2 307.1 317.4 328.3 336.7 350.1 359.4 365.7 370.4 378.6 388.2 403.3 419.3 431.3 440.5 460.2 478.4 494.3 512 525.9 542.3 567.1 575.1 580.6 580 579.3 576.8 571.2 552.2 536.7 524.7 509.6 493.5 478.9 461.2 445.5 431.5 421.1 409.1 396.9 384 376.6 367.3 356.6 346.4 339.3 343.3 343 337.8 333.7 330.8 328.1 319.5 317.6 316.4 323 330.7 340.8 348.8 357.8 365.8 372.7 381.6 391.7 402 412.6 422 434 449.7 472.3 495.6 523.5 547.5 567.8 573.9 575.4 581.1 588.3 593.2 597.6 602.2 605.3 609.4 611.6 605.1 595.6 593.5 586.5 582.7 577.8 577 577 565.1 549.4 541.4 535.7 530.5 521 514.7 509.7 502.3 496.9 489.8 480 469.3 456.8 447.5 442.2 437.4 432.5 424.8 421.1 417 416.5 414.4 406.7 406.3 404 401.7 398.7 396 392.9 386.8 381.3 382.4 379.9 378.8 378.2 374.5 371.1 367.4 361.7 355.8 350.4 346 340.7 337.2
445.4 438.6 428 416 417.1 413.9 407.3 399 389.9 379.6 369.9 359.4 353.5 350.1 342.9 337.8 337 333 329.8 326.5 322.8 320.6 317.8 318.5 321.6 328.3 335.3 336.7 336.7 340 345.4 353.4 361.1 367.1 373.5 379.3 387.4 395.3 405.1 413.8 419.9 421 429.8 441.5 445.2 444.2 440.6 431.4 419.5 407 391.2 373.7 355.3 340.6 324.7 315.1 304.1 297.8 294.6 288.8 287.5 287.2 289.2 298.9 311.2 322.2 331.6 343.4 354.6 363.8 370.6 373.6 380.5 388.8 404.1 419.3 431.6 446.1 465.2 483.7 500.6 515.4 527.9 548.1 570.3 574.8 580.7 579.9 578.5 570.4 560.4 543.6 531.1 519.2 502.3 485.6 469.7 453.8 437.3 425.1 417.2 405.4 390.6 380.7 373.4 368.7 359.4 345 353.7 353.3 350.8 346.2 337.2 331.5 322.6 320 318.4 318.1 326.9 335.8 346.3 351.4 360.3 369.1 376.9 385.5 394.7 405.2 414.8 422.4 435.4 452.8 476.7 500.5 529.9 552.1 570.8 577.1 580.2 585.4 590.9 595.6 598.5 600.1 600.8 602.9 601.3 594.1 589.2 579 572.2 567.8 565.3 561.8 559.7 552.6 536.9 532.2 526.2 517.7 509.6 504.1 498 492.8 487.3 478.4 467.9 455.5 446.3 439.9 434.2 431.2 426.1 419.8 414.9 410.5 410.2 408.7 404.7 399.4 395.9 390.8 386.1 384.8 384.2 378.4 369 365.4 360.4 365.3 369 365.7 360.5 357.7 353 346.3 339.8 334.8 327.5 324.2
445.3 432.9 429.4 429.8 424.9 417.1 407.1 397.2 390.5 381.9 370.7 362.2 355 352.7 351.4 347.5 342.2 337.6 333.7 329.6 324.7 321.4 318.7 318.7 323.4 332 337.4 338.1 342.9 349.3 351.5 357.4 366.2 374.1 380.9 388.2 397.4 405.8 415.7 425.6 428 433 442.1 449.8 448.9 444.6 439.2 429.4 416.5 402.6 387.3 372.1 352.1 332.2 319.1 308.8 300.3 294 292 288.6 287.8 288.2 295.8 303.5 314.2 324.2 332.5 344.8 357.8 367.5 374.7 378.1 383.8 392.1 404.6 421.1 433.3 452.2 471.5 489.5 509.5 521.3 536.3 562.5 574.2 580.3 581.7 579.3 575.1 567.3 551.1 537.8 526.2 512 493.2 478.5 462.9 446.5 433 419.5 410.7 399.9 387.6 378.9 373.5 372.2 359.7 362.5 364.4 361.7 361 352.9 337.7 327 322.4 321.3 319.6 324.1 328 337.4 346.8 354 362.2 372.4 380.4 389.6 398.9 408 417 426.3 437.5 454.8 480.8 505.2 534.7 555.8 573.2 579.6 582.4 584.9 591.3 593.3 595.2 597.1 594.6 593.6 591.4 587 572.7 564.3 560.9 557.7 555.7 555.2 554.5 550.7 535 521 512.4 505.8 500.7 495.8 489.6 482.8 474.5 464.4 456.8 449.5 442 435.4 438 434.3 425.2 417.1 411.9 408.2 404.8 402.8 399.6 397.9 396.7 394.4 389.3 385.5 381 377.7 374.3 371.8 368.6 350.4 360.1 355.6 348.9 342.8 335.2 329.8 323.8 321.4 318.7 317.5
445.3 434.3 434.6 431.2 423.4 415.1 406.7 397.4 390 382.9 374.1 365.3 358.4 356.5 354.7 350.2 343.9 342.2 337.7 331.6 328.2 327.1 320.4 320.1 327.2 337.1 339.7 342.7 350 353.7 361 366.2 371.7 380.7 388.8 397.5 405.3 414.5 422.5 430 434.1 442.4 451.9 454.1 450.5 444.8 437.9 426.2 412.5 399 384.1 366.9 352.7 333.8 318.8 306.7 297 291.4 289.3 289 289.9 293.3 297.7 304.7 315.2 325.2 334.5 346.2 360.5 371.3 377.8 381.2 387 398.4 408.9 422.9 435.4 457.1 480 495.7 513.2 527.9 545.9 571.8 575.5 580 580 575.9 572.6 558.9 540.8 530.9 521.3 502.5 487.6 468.1 453.8 439.7 428 414.3 403.8 396.1 387.9 380.2 374.1 367.9 360.8 370.3 369.2 369.4 366.9 357.8 340.7 328.1 324.5 322.3 320.7 327.3 332.8 339 346.4 357.2 367 375 384.6 392.7 402.6 410.7 419.9 429.2 441.3 460.2 482.9 508.7 537.1 557.2 574.4 578.6 581.7 586.7 590.6 595.1 594.1 593.8 592.4 589.3 585.1 576.9 562.7 558.1 554.3 549.6 546 546 543 533.9 519.9 508.4 501.7 498.5 494.3 486.1 476.6 467.4 460.3 456.3 451.2 445.6 441.2 442 434 426.4 422.8 416.4 411 406.6 400.1 401.5 397.2 394.2 389 383.2 378.4 374.6 371 368.2 364 360.1 357.7 340.5 343.1 338 333.7 330.6 326.4 322 319.1 317.6 313.7 314.6
443.2 438.7 435.9 427.8 419.8 413.1 406.2 398.6 390.7 381 372.9 365.4 362.6 360.8 357.9 352.2 350.1 346.1 338.2 336.3 336 332.5 322.6 321.4 333.2 337.9 343.5 348.7 353.9 359.5 367.5 373.6 380 388.1 398 406.2 415.1 422.5 429.9 430.9 440.2 452.8 457.9 456.2 452 444.9 435.9 421.8 408.4 394.9 378.8 364.5 348.1 331.6 317.8 303.4 294.8 291 290.1 290 291.4 295.7 298.8 303.8 314.6 323.8 336.2 347.3 360.2 370.8 378.1 383.8 391.1 402.9 412.9 426.3 441.8 463.6 483.5 501.4 517.9 535.5 557.3 573.9 577.6 578.2 577.3 573 567.2 553 536.6 528.1 510.4 494.5 480.7 462.5 444.9 432.9 423 410.3 399 391.1 384.3 375.6 373.1 363.1 374.3 373.8 373.3 373.1 369.4 359.1 341.7 330.4 327.7 324.3 323.2 328.5 334.4 340.7 351 359.4 368.6 377.8 389.5 398 406.9 415.3 424.5 432.9 445.8 464.8 487.3 510.6 540 557.4 573.2 579 583.8 583.8 589.3 590.1 590.4 591.8 590.1 589.6 584.9 561.8 555.9 554.2 551.6 541.2 538.2 533.9 526.8 518.1 507.9 501 497 492.2 483.7 471.4 455 451.9 453.7 451.4 447.1 441.2 440.8 433.7 427.4 418.9 412.5 407.5 402 397.1 394.8 391.5 385.9 383.2 377.8 370.9 368.6 363.5 358.9 355.4 349.6 343.9 338.8 330.3 332.4 330.8 328.5 325.4 322.8 319.5 315.7 305.4 306.8 301.9
443.3 441.2 435.6 426.5 417.8 412.6 406.4 397.5 389.2 378.1 371.4 366.7 364.8 363.2 359.7 354.6 351.4 347 344.4 343.2 340.9 334.5 324.5 324.9 334.2 340.8 350.2 352.8 356.6 365.3 372.1 379 387.2 396.1 405.8 414.5 423.3 431.3 436.9 438.2 449.2 460.5 460.6 458.4 453.3 444.1 432.6 418.2 402.7 385.7 372.4 359.6 345.3 328.3 313.7 301.4 295.3 291.6 290.6 290.7 289.1 295.3 301.8 308.5 313.1 326.1 334.6 348.9 358.9 368.5 376 384.5 396.1 409.9 419.8 430.8 448.9 470.1 487.8 507.6 524.4 540 563.6 573.5 576.3 575.9 570.7 569.9 561.9 544.2 532.2 520.6 502.6 488.4 474.9 459.4 446.1 431.4 421.6 408.6 397.7 390.1 384 380.6 380 365.2 378.2 377.4 376.8 375.5 369.1 357.9 344.6 335.1 331.3 325.2 324.8 326.7 333.1 344.1 353 363.4 374 383.8 392.7 403.5 410.4 419.7 428.3 438.7 448.1 469.3 491.5 512.7 543.5 557 571.8 579.5 584.4 582.8 586.3 589.2 590.8 591.7 587.6 583.3 567.8 558.5 554.4 551.7 546.6 533.1 531.3 524.2 512.9 507.2 500.8 496.4 491.2 483.9 474.1 461.4 451.8 446.7 445.6 444 439.5 435.2 430.8 424.4 419.4 410.8 403.4 397.2 392.5 387.2 383.6 380.5 374.4 371 364.7 359.4 357.6 352 346.6 343.4 337.3 334.8 330.1 326.3 326.7 325 321.4 319.7 314.4 306.9 301.5 298.6 296.3 294.6
439.7 438.7 432.7 423.5 417.7 412.7 405 396.6 387.3 380.4 374.7 370.3 366.6 365.6 361.1 355.5 352.5 352.8 349.6 345.9 343 336 324.5 335.2 339.5 348.8 354.7 357.4 365 371.6 377.2 384.9 392.7 403.1 412.6 422.5 430.2 437.3 443.6 448.5 461.1 465 463.1 460.5 453.6 442.7 430.7 416.6 396.4 379.4 364.6 352.2 339.8 324.7 311.8 303.3 300.1 295.7 291.5 293 291.5 295.4 305.8 311.6 316.1 326.1 338.3 350.5 361.3 368.7 375.6 386.4 400 415.1 425.2 436.9 455.5 475.3 492 512.9 526.4 549.2 572.6 573 573.4 572.9 570 567.1 553 537 525.9 513.7 497 484.3 470.8 457 443.8 431.9 421.6 410.6 400 391.1 387 386.4 374.4 372.9 379.8 380.7 380.1 377 368.6 358.4 352 342.2 335.6 327.3 325.1 328 335.7 346.7 356.2 366.8 377.2 386.5 402.7 408.6 415.5 422.7 433 441.6 450.9 473.2 495.7 518.2 546 559.8 574.3 582.6 580.5 582.5 586.3 588.3 589.7 587.2 585.6 573.4 560.4 561 555.4 547.1 532.6 530.7 523.9 514.6 506.9 502.3 497.6 491.6 486 476.9 467.3 456.8 446.7 436.9 436.2 433.8 431 426.8 422 417.5 411.6 402.8 392.1 388.4 382 376.7 374.5 364.8 366.3 361.8 353.4 348.5 345.5 341.5 337.4 333.6 329 329.3 323.3 304.5 315.7 317.2 319 319.4 317.1 309.6 301.9 295.3 292 290.6
439 434.5 430.7 422.3 414.7 408.4 401.2 395.9 390.2 384.4 377.7 372.7 371.5 365.7 358.3 355.5 355.6 356.5 350.7 345.9 341.3 327.7 326.1 340.5 344.2 351.6 358.4 366.1 370.7 378.1 383.8 390.2 399.9 410.7 420.7 427.8 434.9 442.9 452 459.6 468 468.7 466.2 461.6 452.6 442.3 427.2 408.8 391.8 372.4 354.9 345.1 333.5 325.8 322.4 310.7 305.7 298.6 293.6 293.1 292.1 296.9 308 315.1 319.8 332.3 340.7 351.7 360.3 370.4 378.5 391.2 405.3 415.5 428.4 441.2 461.7 480.4 497.5 515.3 532.9 563.4 572 572.4 571.5 569.8 567.8 559.7 540.7 533.1 525 506.4 491.7 479.8 467.2 454 440.6 431.6 420.1 407.3 397.2 390.2 387.5 377.1 374.1 383 383.4 385.5 383.7 378.7 371.9 368.8 361.4 350.2 339.3 329.4 328.9 330.1 339.9 353.4 364.9 373.2 382.4 391 401.3 412.5 419.2 427.6 437.4 447.7 457.7 476.5 501.7 519 548.4 560.5 577 582.5 582.3 585.6 587.7 587.9 588.1 586.1 572.1 558.5 559.2 555.2 551.1 533.9 532 525.8 516.7 508.5 502.8 497 490.6 486.3 479.3 469 460.5 449 438 431.1 428.9 425.5 422.9 418.5 413.8 408 402.5 394.9 382.6 379.6 375 369.2 363.9 359.4 355.1 350.6 340.6 337.3 331.8 330.5 325.8 323.5 319.8 318.2 315.4 309 307.9 313 319.3 321.3 318.4 310.8 300.8 293.8 290.3 287.4
434.6 425.4 421.2 413.3 408.3 402.6 397.1 394.2 389.4 383.3 377.3 372.9 368.4 359.5 356.6 356.9 358.4 352.9 347.1 328.6 327.8 332.1 337.6 345.7 351.1 355.2 362.4 369.8 377 383.9 389.9 396.4 406.5 418.5 427.5 435.2 441 450 460.7 468.4 472.1 471 468.4 462.1 453.7 440 419.2 400.2 385.6 370.6 359.8 342.5 338 330.4 321.2 313.2 305.6 298.2 293.1 293.1 291.7 300.9 311.1 316.2 324.5 334.5 344.3 354.4 364.1 373.1 381 395.6 408.9 420.4 431.9 446.8 466.7 484.5 503.5 521.4 544.4 571.7 572.4 572.4 572.4 569.2 562.7 547.5 537.7 530.2 518.7 501 488.3 475.5 465.5 450.5 439.4 429.9 421.9 400.4 391.7 384.6 379.6 381.1 387.8 390.7 389.4 388.8 387.1 383.5 380.1 376.7 370.3 359 345.5 337.4 338.3 332.2 346.3 357 369.1 380 388.5 395.6 406.3 414.8 424.2 431.4 440.5 448.8 462.5 483.1 503.8 531.7 546.7 560.1 576.8 580.9 581.3 586.1 586.9 585.8 584.9 571.7 556.8 559.3 553.9 552.6 544.9 530.1 527.2 519.5 510.4 503.1 496.2 487.4 481.9 476.2 471.1 460.9 453 439.2 427.5 422.9 421.6 417.2 413.6 408.3 406.1 402.2 393.9 386.6 378.9 372.3 366.6 362.9 358.8 349.8 341.7 337.3 328.9 321.3 321.2 319.7 316.1 312.5 307.2 305.2 301.3 298.5 298.6 310.6 319.2 318.1 312.6 305.8 299 295.4 292.6 287.4
428.8 417.8 407.9 404.1 401.7 399.7 394.7 390 384.7 379.8 372.9 366.5 361.3 357 355.5 354.5 351.9 344 339.6 328.6 344.6 346.5 339.8 349.8 355.5 362 368.6 374.9 382.3 387.2 394.1 402.2 414.6 423.5 432.5 439 447.6 459.2 468.5 472.5 473.3 472 469.3 463 452.9 437.8 421.2 406 389.1 372.9 356.8 344.1 342.9 334.1 321.8 311.1 302.7 296.3 293.1 293.1 291.1 301.5 311.8 320 329.6 338.6 347.4 357.4 365.3 373.6 383.7 397.6 412.1 422.6 432.7 450.5 470 487.1 507.4 527.1 558.7 572.7 571.9 571.1 572.2 567.3 559.8 542.1 535.8 528.4 513.4 497.5 484.3 472.2 458.5 448.3 439.2 429.4 418.7 404.1 395.4 384.8 388.9 392.3 396.6 399.1 397.1 393.3 393.7 391.1 387.9 382.7 374.2 359.8 348.5 345.5 331.9 335.4 348.2 363 370.9 382.8 391 400.8 411.1 420 427.9 433.8 445.7 453.5 470 489 511.2 538.9 550.6 562.7 574.6 578.5 580.4 583.4 585.1 583.2 578.2 560.8 559.1 557.6 553.1 549.8 535.5 528.8 523.1 513.2 504.4 497.5 487.7 478.3 472.4 465.9 461.3 453.2 444.5 434.9 420.6 415.5 409.6 408.1 406 400.8 398.4 395.5 389.4 379.4 372.6 363.9 357.2 354.4 349.7 343.2 337.6 328.7 319.1 318 308.8 302.7 300.5 298.7 298.8 294.8 294.1 293.7 293.3 298.8 311.4 312.6 309.9 304.7 301 296 289 274.3
423.7 412.7 407.1 405 399.4 392.2 390 384.4 379.7 375.1 365.2 356.9 355.8 355.7 352.6 347.3 343.8 337.7 330.4 342 351 349.7 348.2 349 359 367 373 379.8 386.2 391 397.6 409.2 420.8 427.2 435 443.3 456.6 466.5 473.3 476.6 475 472.9 470 463.7 452.5 438.1 422.6 405.2 387.4 370.2 354.6 346.2 340.5 330.2 318.9 308.1 300.8 295.8 293.3 293.5 295.6 302.8 311 320.1 332.2 342.8 352 358.6 365.8 373 384.1 397.1 410.5 425.2 434.8 452.9 473.1 490.2 511.8 533 564.8 573.2 571.4 573.4 572.8 568.3 548.7 537.6 532.7 526.5 507.6 495.1 485.5 468.6 458.1 447.8 439.5 431.3 420.2 405.9 397.7 388.7 396.2 401.3 405.6 405.6 405.2 403.1 401.1 398.3 392.9 385.1 372 357.4 349.9 346.1 335 339.4 353.2 364.5 375.6 385.8 396.2 404.4 416.5 424 432.6 440.3 448.7 458.6 475 497.3 520.2 543.8 554.6 568.8 572.3 576 581.2 580.9 582.1 580.1 571.5 559.4 558.4 557.9 554.4 549.7 528.5 524.6 517.8 506.3 499.9 487.7 479.2 471 463.7 458.3 450.9 445 437.4 428.4 419.2 410.8 405 401.8 399.9 395 387.2 386.6 381.4 370.5 363.2 353.5 346.9 344.6 340.6 334 328.7 319.9 309.6 306.8 304.4 303.3 302.1 303.7 309.6 311.8 304.5 298.2 294.2 289.7 292.2 302.6 308 304.7 299.8 291.2 277.7 274.4
424.3 415.6 409.6 406.1 400.1 390.2 378.9 375.5 374.1 366.1 357.4 353.5 353.3 352.7 350.1 344.7 337.5 340.8 332.9 344.8 352.8 352.9 353.6 353.6 360.2 369.3 375.6 383.7 389.5 396.3 406 418.7 426.8 432.8 439.4 451.6 464.9 472.9 479 482.3 479.8 476.8 473.2 463.8 450.3 434.1 416.6 400.6 384 369.3 357 346 335.6 326.2 319.6 307 300 295.9 294.5 295.4 300.4 304.6 312.1 320.4 330.3 341.9 352 358.8 367.3 375.5 385.1 397.7 411.9 426.2 437.6 456.7 475.3 493.3 516.4 540.3 569.2 573.3 572.3 573.1 571.1 564.6 545.8 542.6 535.7 523 505.8 493 483.4 471.8 458.4 448.6 440.3 431.7 423.6 408.6 393.1 400.8 404.4 410.7 412.9 414.2 414.5 412.9 408.3 403.9 396.4 384.4 370.2 353.1 348.4 339.3 338.1 345.3 359 369.8 380.7 391.6 401.8 412.1 421 427.5 436.9 444.6 453.4 466.3 483.8 503.5 532.2 549.1 559.4 567.1 572 575.7 579.5 581.1 576.2 574.7 565 559.5 559 553.2 553.4 540.9 525.2 519.9 510 500.4 494 480.9 471.5 463 455.1 449.8 443.8 433.4 428.6 420.4 412.3 404 400.2 398.1 394.2 386.5 380 374.4 369.9 360.5 353 346.2 338.3 336.7 332.4 326.3 320.8 309.2 307.5 306.4 315 319.5 318.8 319.5 320.1 313.9 305.5 298.3 297.2 300.5 295.6 286.1 297.3 293.2 285 277.5 277.5 286.6
427.7 415.4 409.8 403.1 398.1 390.3 384.6 373.9 364.8 359.8 354.8 352.1 351.1 350.9 345.4 348.5 346.6 341.6 337.3 347.6 355.2 359.2 359.5 359.5 366.7 369.9 381.2 386.6 394.6 403.2 415.1 424.2 433 439.3 447.4 460.5 471.2 479.2 484.9 487.1 486.9 483 473.7 461.2 446.1 428.9 408.8 393 380.1 369.2 359.2 349.4 338.9 327.7 316.8 307.7 300.4 295.4 295.1 298.3 301.7 306 312.9 320.4 331.5 345.3 353.7 360.1 369.4 377.5 386.6 398.2 413.6 426.7 441.1 459.2 478.2 499 521.4 546.8 570 572.7 572.5 571.9 569.7 562.8 546.4 539.1 533 520.4 506.1 493.6 482.7 471.2 459.3 449.4 441.3 432.4 425.1 403.9 404.3 408.8 413 417.5 420.3 421.9 421.4 418.8 415.3 410.4 399.2 386.5 370.7 353.4 342.4 339.8 339.5 350.2 362 374.1 383.3 396.5 408.5 417.3 423.5 432.9 441.9 448.8 458.7 472.9 493.7 519.5 541.4 553.3 563.3 569.7 572.2 577 578.4 579.7 570.2 564.1 561.9 558.6 558.4 553.8 545.4 526 522.8 514.1 503.2 495.8 484.4 475.5 465.3 456.1 450 440.8 435.5 427.5 419.2 409.8 404 399 394.2 390.9 383.7 380.4 373.6 360.7 357.4 348.1 343.6 340.5 335.1 327.1 325.3 313.3 311.1 310.4 316.6 326.3 324.2 323.3 326.6 326.9 321.4 310.8 306.3 308.6 309.9 311.3 310.3 300.8 290 284.8 283.2 288.6 300.3 305.3
428.1 418.4 409.9 403 397.5 390.1 379.5 375 363.1 356.4 353.2 350.8 348.8 347.6 349.3 349.8 347.6 342.8 341.7 353 359.5 363.6 363.6 368.2 374.6 380.6 382.9 390.8 402.5 412.5 422.4 431.1 439 446.1 457.8 468.6 477.2 484.7 490.3 493.3 492.2 484.4 472.9 455.5 441.3 421 402.2 388.4 378.3 369.8 361.8 354.6 344.6 332 317.3 305.7 299.5 296.4 295.6 299 302.5 308.7 315.7 323.9 335.4 346.3 356.1 364.4 374 382.2 390.9 403.1 416.7 429.4 443.3 462.9 484.4 503.9 527 551.4 564.8 572.3 571.6 571.6 570.2 562 545.8 540 532.1 522.5 506.2 491.2 481.3 467.9 458.5 449.5 440.2 434.5 421.5 404.3 413.5 416.4 421.3 424 426.5 428 426.7 424.4 423.3 418.5 405.1 389.9 374.8 358.6 347.4 341.8 341.5 351.6 368.8 379.3 389.7 400.7 412.4 422.1 430.6 438.2 445.6 454.5 466.3 482.5 506.8 534.8 550.7 559.3 566 569.5 572.9 576 579.3 576.6 566.9 563.2 561.6 556.2 552.2 546.6 531.6 525.8 519.3 504.6 496.9 488 478 468.4 460.7 451.1 445.8 434.1 428.4 420.3 410.5 401.7 392.9 393.5 389.3 380.8 377.1 369 357.6 354.2 350.6 346.3 343.6 341.8 334.4 315.6 314.7 315 319.6 323.7 326.7 328.1 325.1 329.9 330.5 324.8 315.3 317.9 321.7 324 325.6 325 322.4 316.7 312.5 306 301.6 307.3 312.9 311
429.6 418.6 408.8 401.3 397.1 389 377.4 367.6 362.7 359.4 355.7 351.3 350 350.4 350.4 349.1 342.7 337.8 347.8 356.6 363.7 365.3 368 373.1 379.4 386.9 393.3 400.1 408.7 420.4 429 437 445.8 455.9 466.3 475.9 483 490.2 494.8 497.9 494.1 483.7 467.3 447.8 428.3 414.3 399 387.2 375.3 367.1 359.8 351.1 342 330.3 315.3 304.5 297.5 296.9 295.9 300.2 305.7 314.4 319.5 328.4 338.8 350 360.3 369.5 378.5 387.5 396.1 407.5 420 432.7 447.1 467 488.4 506.8 533.6 552.5 565.7 572.1 571.3 571.4 569.3 563.2 546.3 541.5 533.9 523.3 508.6 496.7 483.5 468.8 457.9 450.4 442.7 432.3 417.3 414.8 423.5 425.7 428.5 429.4 432.5 433 433.5 434.5 431.3 423.6 411.6 395.4 379.9 365.5 355.4 343.8 345.5 359.1 372.1 384.7 397.5 408.7 416.3 425.9 433.3 442.6 449.6 459.7 474.3 495.5 518.4 545.2 557.3 563.2 567.9 569.3 569.8 570.9 575.8 566.4 563.6 563.5 559.2 554.3 544.2 529.8 528.2 522.6 509.6 498.9 490.6 482.3 473 465.2 457.9 448.5 439.9 430.2 418.5 409.8 406.8 403 391.6 387 382 375.6 365.3 356 350.7 348.9 346.3 343.9 341.6 327.5 317.8 324.7 331.3 330.7 331.8 332.5 332.2 329.4 329.5 332.1 328 320.1 321.9 328.2 331.8 336.6 336.8 335.3 332.5 326.8 319.6 313.6 313.5 317.6 313.6 305.9
428 417.8 406.5 397.4 393.1 381.8 385 379 372.4 365.4 358.3 351.1 351.4 351.7 350.5 345 340.4 345.7 354 360 365.2 366.4 372.1 377.6 384.5 391.9 399.9 408 417.1 425.2 433.8 443.9 454.3 463.6 472.9 480.1 486.3 494.4 501.1 502.5 494.3 478.9 464.4 439.7 420 409.6 396.2 383 372.1 364.8 357.6 349 338.8 328.1 315.5 306.1 299.9 297.4 298.8 305.5 311.7 316.9 321.4 329.7 342 354.7 362.1 375.1 381.6 390.6 399.9 411.9 424.6 436.4 450.9 469.5 489.7 509.7 536.9 555.2 565.5 568 571.3 572.1 570.6 567.2 555.5 544.5 533.9 521.8 511.6 499.5 487.7 472.6 459 452.1 439.9 430.7 416.7 427.4 431.2 434.1 433.1 435.9 439 440.5 443.7 445.4 439.6 427.1 415.7 399.6 384.5 372.3 362.1 346.1 349.7 367.2 376.3 389.1 403.2 415 423.6 431 437.9 446.6 454.8 465.6 482.6 505.5 533.3 550.5 558.9 563.8 567.2 567.4 566.8 568.3 565.5 562.5 557 553.5 550.8 543.7 535.9 530.3 522.2 509.4 500.8 493.3 486.2 478.3 469.4 463.6 456.9 451.5 441.1 431.8 425.2 418 408.5 399.4 387 368.3 369.2 361.4 355.1 350.6 346.2 341.3 338.9 338.2 328.2 319.5 328.7 336.2 338.6 344.5 344.5 340.7 336.8 332.7 329.5 330.2 327.7 321.9 331.3 338.3 342.3 345.5 345.9 343.7 338.2 330.1 322.2 314.4 318.5 314.9 308.9 302.2
427.6 421.2 413.6 403.9 392.2 393.7 390.7 382.7 374.6 366.5 357.9 352.7 353 352.3 349.7 342.6 348.1 353.6 355.7 362.3 367.1 370.4 378.7 383.7 391.2 398.8 406.9 414.8 425.2 433 441.1 451.4 460.9 470.2 477.3 482.5 490.4 501.2 506.4 502.5 490 475.4 455.7 436 420.7 407.2 390.2 379.2 368.8 361.2 353.5 344 333.7 324.8 315.3 306.5 301.1 298.2 298.9 308.4 314 314.8 322.4 332.5 347.2 358.7 367.3 375.2 383.4 392.5 404 417.6 429.7 440.2 452.8 471.9 490 512.6 538.2 552.3 563.5 567.3 572.2 573.7 571.5 569.7 563.8 549.1 539 527.2 515 504.2 491.6 478.6 464.2 450.7 442.3 427.9 432.1 437 440.4 442.4 441.6 442.4 446 449.4 452.7 452.4 445.2 432.1 418.4 402.2 387.5 373.2 362.4 348.1 355.5 373.2 385.3 393.8 407.9 419.9 429.2 436.4 443.9 452.2 460.9 474.6 496 519 543.7 554.3 559 563 567.1 565.5 562.9 559.6 556.9 554.1 550.5 546.4 541 539.1 528.6 520.5 510.9 502.7 494.9 487.8 481.2 474.6 468.1 463.7 456.7 448.9 442.8 432.5 420.8 410.7 402.3 391.9 380.6 367.6 356.4 351 347.4 343.3 337.5 333.7 326.1 323.1 322.3 328.9 336.8 345.6 348.5 355.1 354 345.5 343 339.8 336.8 334.8 333.3 326.5 338.8 347 351.5 353.8 352.6 346.2 337.4 327.6 318.5 317.5 317.3 316.6 314.1 310.6
428.7 422.2 414.3 400.5 404 399.9 392.9 384.8 372.9 363 356.5 354.6 353.6 352.5 348.1 347.3 354.2 356.3 359.1 362.8 370.5 376.5 383.3 389.1 397 404.6 412.4 421.5 430.3 440.2 449.2 458.2 467.8 474.8 480.1 486 499.1 507.9 509.4 502.2 485.7 470.6 451.8 434 418.1 401.3 386.7 373.9 362.9 354.3 344.1 336.8 327.8 319.5 314.2 308.4 304.1 297.6 301.1 306.5 313.7 319 324.3 335.5 347.4 359.6 369.5 377.4 386.5 397.6 410.8 424.6 433.5 441.2 450.7 473.5 492.7 516.2 538.4 554 563.8 569 573.2 573.3 573.6 573.1 567.4 555.3 543.6 530.8 518.6 508.9 495.3 482 469 454.4 441 427.6 445.9 448.2 449.6 449.9 450.2 453.3 456.3 458.7 460.3 457.6 449 435.1 421.4 402.9 386.5 376.7 360.4 351 366.8 378.1 387.1 399.1 412.7 422.6 431.9 440.5 449 457.4 468.6 485.1 506.3 531.3 547.3 557 560.2 560.7 561.8 557.7 554 555 549.8 545.1 543.6 539.4 535.7 529 520 512 504.6 497.4 490.5 483.7 476.6 470.8 464 455.1 448.3 439.3 431 423.9 412.4 404.2 395.9 386.3 375.3 366.3 358.1 352.7 346.3 336.6 330.3 326.3 325.8 327.1 330.9 340 349 352.4 358.9 364.9 361.6 357.7 354.9 352.2 349.5 347.2 342.3 334 344.5 355 359.9 359.3 354.2 344.7 332.1 323.3 320.6 324.2 326 326.1 322.9 318.1
430.6 423.2 415.9 413.3 407.1 401.8 394.7 384.9 372.3 361.4 357 356.7 355.4 353.6 348.8 353.7 355.3 360.4 365.8 370.7 373.8 379.1 386.2 393.7 402 409.4 416.7 426 438.2 447.8 456.7 465.8 473.3 479.1 485 493.7 507.1 512.7 509.7 497.7 482.2 463.2 448 428.7 409.7 396.4 381.8 367.1 356.7 352.9 348.3 338 331.2 324.1 315.3 311 307.1 299.1 299.6 305.3 310.3 317.4 329.3 335.1 347.6 360.4 370.6 379.8 388.1 400.8 417.1 429.1 435.3 442.3 458.9 477.5 495.5 522.7 541 558.2 566.8 570.6 574.2 574.9 576.5 575.3 570.6 561 547.5 535.8 525.3 510.7 497.2 479.8 465.3 457.3 446 444.5 455.7 456.7 458.1 458.3 461.2 463.8 466.4 466.9 465.7 461.5 447.6 434.9 422.8 403.9 384.3 370.5 358.1 354 372.3 384.3 394 404.9 419.2 427.5 437.5 444.6 453.3 462.9 475.6 496.7 518.8 541.3 548.6 554.4 554.7 553.9 553.6 551.6 551.5 548.9 545.7 540.9 537.9 533.4 525.5 518.7 512.7 506.2 499.7 492.6 486.5 479.3 471.4 464.7 456.8 446.6 437 429.4 423.2 417.2 405.2 397.6 390.1 383.4 374.7 365.7 359.6 353.8 346.9 336 331.2 336.4 340 337.9 337.9 350 357.7 366.5 370.1 369 366.7 364.9 363.8 363 361.3 356.8 351.7 344.8 355.9 363.4 365.8 362.7 356.3 341.6 332.5 329.9 332.5 335.9 338.8 334.5 328.4 323.2
438.2 427 421.8 418.8 407.7 401 393.9 381.6 372 363.5 361 360.9 360.3 358 349.3 358.5 361.7 364.6 369.3 374.3 377.8 382.7 389.4 397.2 405.3 414.1 421.4 433.4 444.4 454.5 463.5 471.6 478.2 483.7 490.3 503.4 512.6 514.7 506.1 494.2 477.2 456.7 440 423.1 406.8 392.1 376.7 365 356.9 351.9 347 339.2 332.9 321.6 314.4 310.6 307.2 300.3 302.8 306.7 312.4 318.7 329.3 339 349.6 361.4 374.1 383.7 393.1 404.3 421.5 428.1 436.1 445 461 479.7 497.2 527.7 545.8 562.6 569 572.6 578.1 579.3 580.2 577.9 573 563.3 553.3 541 528.9 516.7 499.1 479.8 466.8 459 442.4 457.2 464.4 463.8 465.5 467.1 472.3 473.9 474.8 473.9 470.9 464.4 445.4 434.5 422.7 405.1 385.3 370.3 355.9 359.6 376.4 391.1 400.3 412.7 422.7 433.1 441.4 451.2 459.5 470.1 486.5 507.6 532.5 546.9 548.5 550.8 550.9 550.4 549.4 549.1 548.1 542.7 536 534.2 532.1 524.8 518 512.2 506 500.8 494.8 487.9 480.1 472.4 465.4 458.1 449.6 434.5 428.9 418.6 413.5 409.2 400 392.4 387.3 382.3 378.4 372.5 365.1 355.5 349.2 333.7 333.3 343.8 345.9 348.6 348.2 355.7 365.2 370.5 370.5 369.4 369.9 370.7 371.8 371.5 371.5 369.8 363 359.2 367.5 372.5 372.5 368.6 360.3 350.7 344.5 344.7 347.6 347.7 342.6 336.9 330.7 320.1
442.6 431.8 428.5 421.7 409.8 400.4 391.4 379 371.5 368.1 366.2 364.8 362.9 350.9 357.3 361.6 364.5 368.6 372.1 378.2 383.3 389.6 395.2 401.9 410.1 418.9 427.2 440.1 450.1 461.9 470.3 476.9 482.3 489.8 502.7 510.7 514.9 512.4 503.5 490.1 471.6 450.6 434.4 418.7 404.8 389 375.6 368.2 360.6 353 346.2 339.2 331.5 320.2 315 311.6 304.6 300.7 303.8 308.7 315.2 323.9 335.4 344.2 356.2 367.2 376.5 384.5 396 407.6 421 432.5 440.5 450.4 466.2 483 501.3 529.4 547.8 564.7 572.1 576.4 580.3 583.1 583.6 580.6 575.5 565.7 555.6 544.7 533 517.6 498.9 482.7 471.6 453.3 465.3 473 472.8 472.5 475.2 479.3 483.3 484.3 484.3 480.2 475.2 466 447.3 434.5 421.2 404.8 384.9 367.4 357.9 370.2 381.5 395.4 408.4 418.4 433 439.8 448.3 456.1 466.5 480.5 499.6 519.1 544.1 548.1 549.3 550.1 547.3 547.6 545.7 545.6 543.1 539.4 534.7 528.7 524.5 518.2 511.9 506 501.1 495.5 488.9 481.8 474 466.6 459.9 452.4 443.4 433.5 424 416.5 409.3 401.6 392.8 389.2 388.4 386 380.8 373.5 362.7 353.1 337.1 334 341.4 349.9 352.3 355.4 356.9 361.6 363.2 367.2 369.3 370.4 372.9 375.6 377.6 379.5 380.4 377.5 372.5 372.2 377.7 380.4 380.3 375 366.4 360.1 356.4 355.5 353.3 345.8 340.8 334.6 324.8 312.6
444.8 437.9 429.4 419.4 409.5 399.2 388.4 379.2 374.5 372 368.7 365.5 358.8 352.2 362.5 363.6 366.4 370.9 378 382.6 386.7 393.4 399.9 408.2 415.3 423.1 434.8 445.3 456.8 467.2 475.3 482 489.5 502.8 511.2 514.9 514.8 510.1 500.6 485.4 466 448.8 434 417.3 401.5 388.7 377.2 370 361.7 353.2 346.2 337.6 326.2 318.7 315.4 312.5 305.3 302.8 305.3 312.8 318.8 331.2 336 343.9 357 370.6 379.7 388.9 401.4 412.6 426 435.1 443.6 456.1 470.9 484.8 503.7 531.1 551.3 569.7 575.8 579.3 585.1 587.2 586.3 582.7 576.8 567.1 557.1 546 535 520.4 503 487.8 471.5 470.2 480.3 480.9 480.6 484.6 487.5 490.7 493.6 494.4 491.3 486.8 479.6 466.6 450.9 434.2 414.2 397.8 383.6 363.9 362.6 375.7 387 399.6 412.3 424.3 433.9 444.6 453.7 463.8 473.8 491.2 508.6 532.5 545.7 550 549.6 545.6 546.9 542.2 542.7 543 541.7 536.9 531.9 524.7 516.7 512.3 507.3 501.9 496.7 491.3 483.8 475.3 467.8 460.1 454.7 447.2 439.1 429.5 421.7 414 405.8 393.6 388.4 389.8 390.8 383.9 376.4 369.3 357.5 343.8 337.9 347.7 353.8 357.5 360.8 364.2 365 369.7 372.1 372.1 373.2 376 379.1 381 383.7 385.1 384.1 381.3 377.8 381.1 384.6 388 386.1 380.3 372.4 364.6 360.2 355 347.9 340.9 335 326.7 315 302.8
450.7 440.6 430.1 416.1 408.2 397.5 386.3 379.4 375.8 372.6 366.7 364.5 356.3 359 364.3 366.5 368.2 373.8 380.6 385.6 390.1 397.7 405 413.1 420.5 429 440.3 452.3 464.2 473.9 481.3 489.4 502.4 511.9 517.6 516 514.6 509.6 497.3 480.1 463 449.3 431.4 414.1 398.5 387.7 378.2 371.3 361.4 352.4 346.3 334.6 319.1 314.5 312.9 310.8 301.9 303.7 306.7 310.9 325.3 333.4 340.8 351.7 359.1 372 382.1 390.2 405.9 414.1 427.3 437.5 446.5 460.9 475.5 490.3 509.5 532.2 557.9 572.3 578.3 582.1 590.7 594.8 593.1 586.1 579 569.3 557.9 548.3 536.6 517.8 505.7 485 476.3 488.2 491 490.4 490.9 494.3 496.1 500.4 502 501.6 498.2 492.4 483.1 466 450.8 428.9 411.3 394 377.5 364.2 367.9 378.3 393.3 409.5 422.5 431.9 441 450.7 462.2 472.5 484.8 501.3 519.3 542.2 548 550.8 548.3 547.3 544.4 541.5 541.3 541.1 537.9 533.6 527.3 521.3 515.3 509.3 503.1 496.7 492 486.9 478.3 469.1 462.8 454.7 447.6 441 429.4 417.8 411.5 401.6 392.8 384.9 384.9 389.8 385.7 377.1 366.7 359 346.3 340.1 351.4 354.7 362.1 366.9 370.6 373.2 373.4 374.1 376 377.3 380.5 383.2 385.3 386.8 387.4 388.3 386.6 386.6 384.7 387.6 391.2 391.6 386.4 378.8 370.9 363.5 356.1 347.7 339.8 335.2 326.6 318.2 307.3 298.7
451.8 439.8 427.9 414.9 406 395.2 384.5 379.1 374.9 373.5 370 364.4 356.9 362.2 366.1 368.5 371.2 375.6 382.4 388.8 393.8 402.3 411.1 418.2 425.6 436.6 448.1 461.2 471.9 480.1 488.9 501.7 512.2 518.4 521.5 516.7 515.4 506.5 491.9 476.8 457.8 443.5 424.3 406.4 393.6 383.1 374.4 366.7 357 350 344.2 329.8 316.2 311.1 305.8 303.9 306 307.3 311.7 316.1 325.8 333.2 340.3 349.6 365.1 374.5 385.3 398.2 409.6 416.7 432.9 444.9 452.9 468.3 481.5 496.5 515.3 540.7 562.8 576.1 582.2 591 597.7 600.8 598.8 590.6 581.7 574.3 559.8 550.3 535.1 518.4 496.8 489.2 497.4 498.5 499.9 499.8 500.2 502.2 506.9 509.4 510.6 507.9 503.8 495.2 482.4 464.9 445.4 424.1 405.3 387.3 370.5 372.3 381 386.9 402.2 418.9 429.2 437.3 447 454.8 466.6 479.7 495.1 510.5 532.6 543.3 547.9 550.3 548.7 543.4 540.8 540.4 540 538.8 534.4 530.1 522.7 517.3 512.4 507.6 500.4 494.3 485.8 482.1 472.4 464 456.6 451.3 442.5 424 418.3 400.8 395.6 393.2 385.8 380.9 372.5 382.4 375.3 365.5 361 345.8 347.4 352.4 358 365 370.8 376 378.9 383.6 384.9 381.9 380.9 384.5 388.3 391.9 392.8 392.2 391.8 392 392.4 390.1 388.8 391.9 392.2 387.5 381 373.7 365.4 356.4 345.5 339.8 336.2 332.6 328.2 313.2 303.8 296.5
452.2 441.1 429 414.4 402.5 390.5 383.2 378.5 377.5 374.9 370 365.2 358 364.8 367.5 370 373.9 379.5 385.6 392.4 400.9 407.2 416.3 424.3 433.6 444.6 458.3 470.5 478.4 486.1 501.2 511.5 518.5 524.4 525.7 518.5 514.3 504.5 491.9 473.1 451 433.1 416.4 401.3 390.5 379.3 369.5 363.8 352.3 343.2 339.8 327.4 317.6 312.9 306 306.3 310.4 310.1 313.3 317.4 324.7 335.5 345.6 355.4 367.1 373.3 391.2 407.6 416.3 424.6 436.9 443.2 460.1 473.8 486 501.7 522 542.5 566 576.8 587.5 598 605.3 605.3 602.5 591.8 581.9 576.3 563.3 548.2 531.7 510.8 502.6 508.5 510.7 509.5 509.1 509.1 510.2 513 515.7 518.3 517.5 512.4 506.4 495.2 479.8 462.8 436.6 419.7 398.7 376.7 378.8 386.9 393.9 403.2 410.4 427.8 434.9 442.3 449.4 461.1 475.4 487.8 502.8 520.5 538.3 545.2 547.2 548.1 544.7 542.3 540.2 539.5 539 538.1 533.3 525.6 519.6 513 508.3 502.9 498.5 491.8 480.9 475.5 468.2 462.6 455.4 447.5 431.3 428.1 421.3 411.1 405.1 398 388.6 383.1 376.2 370.2 366.9 360.9 350.7 349.3 361.4 368.9 373.7 378.7 381.8 384.6 388.5 393.6 395.1 389.6 390.2 392.7 398.8 400.1 401.2 400.8 398.7 398.9 397.5 390.2 388.7 389.3 385.7 381 375.6 369.3 361 355.2 349.1 338.2 333.1 331.3 316.3 306.8 301.4 288.7
449.2 438.2 426.3 413.1 399.7 389.6 383.5 382 379.8 376.6 371.4 365.9 360.7 366.8 369.5 373.1 377.6 384.6 392.2 399.6 406.7 413 424.5 431.5 441.7 455.3 467.8 477.8 487.5 499.4 511.5 518.5 525 528.4 530.4 520.9 513.5 503.7 490 468.9 449.3 433.1 417.1 403.4 390.1 376.8 367.8 362.6 356.3 345.4 334.5 326.8 318.4 313.3 306.2 310.1 312.9 313.4 315.9 323.2 330.2 340 347.1 358 367.8 382.7 396.4 410.1 422.8 434.8 442 456.9 465.7 474.9 493.4 506.9 527 550.9 572.2 579.6 592 604 608.8 609.3 606.5 595.1 586.5 579.8 564.1 546.5 528.7 508.4 520.1 522.4 522 519.9 518.7 518.8 522.2 523.6 523.7 525.4 523.5 517.4 507.2 493.4 475.4 457.8 432.3 413.2 389.1 386.5 391 402.1 408.7 417.2 424.6 431.7 440.5 447 456.5 470.4 485.4 498.3 510.3 531 541.1 543.5 547.6 545.9 544.1 541.7 538.3 537.9 537.6 534.1 528 520.5 512.4 508.1 504.5 500.9 486.1 480.7 478.7 470.6 466.6 454.7 454.2 446.9 442.7 439.3 430 418.4 408.3 397.8 389.4 383.8 374.5 366.8 355.3 350.1 349.8 360.5 366.8 379.2 384.7 388.9 388.8 392.8 397.2 402.1 401.4 397.5 399.8 404.6 408.7 411.3 410.9 406.3 403.6 402.6 398.9 392.9 386.5 381.4 377.3 374.4 371.4 369 365.9 358.4 346.1 334.5 327.3 318.9 308.3 305 298.7 289.4
448.1 435.6 422.5 410 396.6 391.3 388 385.9 382.3 377.6 371 366 366.9 368.5 372.9 378.2 383.6 390.4 396.9 403 411 421.1 428.7 437.8 451.8 464.9 475.6 485.4 497.7 511 518.3 525.8 529.8 531.7 530.7 521.5 513.8 503.6 487.8 466.7 447.8 431.8 415.5 402.8 390.3 379.7 370.9 363.5 354.7 345.1 335.4 326.2 318.6 313.2 307.8 307.6 313.1 314.5 318.9 328.1 337.9 344.2 352.5 361.2 374.9 385.4 396.7 413.9 427.3 433.4 450.4 461.8 473.8 481.6 499.6 515 533.8 558.1 575.5 585.7 598.3 610 613 613 610.2 599.3 589.3 581.9 567.4 548.1 534.1 521 530.2 532.7 533.3 532 530.6 532.5 532.9 531.2 530.5 531.9 526.7 518.7 505.5 486.1 468 445.5 424.6 405.6 395.4 403.1 405.8 415.8 423.7 426.4 437.4 443.6 449.6 455.6 468.2 482.3 493.9 505.5 523.2 541.1 542.3 543.6 547.2 548.2 549.1 542.7 537.4 534.7 531.6 527.5 526.4 525.3 519.8 513.5 508.5 501.7 495.2 488.5 482.1 476.7 470.1 463 457.1 452.2 445.3 436.9 426 415.8 404.9 398.1 390.6 379 366.4 356.1 353.3 358.5 370.5 376.5 382.4 387.9 394 395.3 394.6 398.7 404.2 407 406.1 407.1 410.1 415.5 419.2 419.5 414.7 408.2 406 404.1 401.5 396.9 388.3 376.3 372 370.7 370.9 370.9 364.9 355.2 343.1 333.6 325.8 318.2 312.8 305.9 295.9 285.2
443.7 432.1 419.2 408.2 398.6 391.1 388 384.4 380.5 374.1 367.8 370.7 369.6 372.5 378 383 388.5 394.1 400.1 408.3 417.1 425.7 435.3 448 462 474.7 483.6 495.1 509 519.3 527.1 532.1 534.3 535.5 533.4 524.5 514.9 501.2 482.7 463.1 446.2 427.8 412.9 400.9 389.9 379.1 370.5 361.7 353.2 345.5 334.1 324 317.9 310.8 308.4 307.9 311.5 315.4 321.2 330.9 340.4 348.7 356.9 369.4 380.5 390.7 404.4 418.3 430 443.6 455.2 458.6 483.2 495.6 506 523.2 543.4 566.4 578 591.1 607.2 616 617.8 617.6 613.2 605.5 595 584.8 566.5 549.4 539.9 539.8 541.9 545.2 544.9 542.3 542.4 542.6 543.5 541.2 540.1 535.5 529 516.2 498.6 479.9 460.3 437.1 419.1 394.7 404.1 410.7 422 427.7 431.2 443.4 447.1 456 459.3 470.9 479.6 491.4 500.9 514 536.8 545 544.4 547.2 549.3 550.8 550.2 544.4 538.6 537.9 535.9 532 528.2 525.4 520.4 514.5 507.7 501.5 495.1 487.9 481.2 474.5 468.7 462.1 455.7 447.3 438.5 429.2 420.4 412 402 395.1 383.3 370.8 358.9 365.5 361.5 377 381 386.5 391.9 397.2 402.3 400.7 399.9 405.1 409.8 412.1 412.5 414 418.5 424.9 426.3 422.2 414 409 407 406.9 405.1 399.4 389 377 370.8 369.2 369.7 366.4 358.6 349.5 340.4 332.4 326 319.8 312.1 300.6 290 279.8
438.6 428.8 416.8 406.5 398.4 391.9 386.2 382.8 378.2 370.1 375.4 373.8 374.6 378.8 382.4 386.9 391.3 396.7 405 414.1 421.7 430.7 443.2 459.3 472.3 482.8 493.6 507.5 517.9 527.8 533.3 535.9 538.4 538.5 536.6 528.6 512 495.9 478.8 456.4 443.4 423.7 409.6 398.7 388.3 375.3 366.5 360.5 353.1 344 332 324.3 320.1 312.7 309.2 308.8 313.1 322.3 326.7 335.1 342.4 352.7 362.4 373.2 382.6 394.8 408.7 423 435.4 451.3 464.4 480.3 488.4 503.3 520.8 536.4 557.4 576.2 584.8 601.8 615.2 620.6 622.4 621.6 619 612.6 597 584.6 567.2 557.8 554.4 554.8 556.3 560.5 556.6 555.7 556.9 556.3 551.8 547.4 542.8 537 527.8 512.4 491 471 448.2 429.5 409.1 411.2 415.6 425 435.4 436.7 444.4 448.4 459.8 465.2 474 478.7 487.8 496.9 508.8 525.7 542 543.9 548.2 550 547.1 553.5 552.2 545.8 541.6 540.6 538 534.7 531.1 527 520 512.9 507.2 502.4 495.3 488 480.9 474 467.4 459.6 450.8 438.4 430.6 422.4 414.9 406.6 396.2 386.2 373.7 363.5 372.1 377.6 379.3 381.3 388.5 398 401.7 406.3 411.6 408.9 408 411.3 415.6 417.4 416.9 420.5 426.1 430.3 428 421.4 411.6 408.3 409.3 410 406.4 398.4 387.9 376 368.1 367.1 365.3 358.6 351.9 344.2 336.8 329.7 324.1 315 305.8 292.2 281.6 273.4
435 427.3 415.2 407.1 400.4 393.8 388.2 382 373.1 381.6 380.7 374.6 380.3 384.2 388.5 392 394.9 400.5 409.3 417.9 424.5 437.8 455.4 470.2 482.4 492.8 506.2 517.1 527.2 533.3 535.7 539 540.1 540.7 539.5 524.6 509.7 491.5 473.3 453.2 439.4 421.2 409.4 397.3 385.2 374.8 364.7 356.9 349.8 340.2 333.6 327.8 320.4 312.5 310.7 309 316.2 322.8 329.7 339.5 345.4 355.6 364.4 376.1 389.2 402.1 414 425 436.9 456.4 470.5 487 497.7 512.4 525.1 547.9 571.7 584.8 589.5 606.7 620.9 624.8 627.2 628 625.9 621.4 605.2 588 578.1 569.3 566.1 570.7 571.5 570.2 571.4 574.5 571 565.1 553.9 551.8 544.3 537.3 521.8 502.9 478.6 459.7 437.8 412.3 419.8 426.3 431.5 440.5 441.9 446.5 456.1 461.1 466.5 476.7 482.5 489.1 498 506 519.4 537.9 545.5 549.3 549.4 553.2 554.4 556.5 556.7 550.1 546.9 543.7 541.7 539.6 535.6 531.6 524.7 516 509.3 502.4 496.4 488.3 480.9 473.9 466.3 457.3 449.1 439.8 427 413.2 404 397.3 387.7 377.3 366.8 378.7 386.5 386.2 387 387.2 398 404.9 411.8 417.3 420.5 420.4 418.8 418.3 420.9 422 423.7 427.5 430.6 430.8 426.5 418 409 408.9 410.2 410.3 405.2 395.7 384.9 373.9 366 362.1 355.9 350 345.5 338.8 332.8 325.4 316.6 306 292.6 278.4 272.1 268.7
433.3 426.4 414.2 406.3 399.3 393.5 388.4 377.8 384.7 386 385.4 383.1 386.4 390.5 393.7 395.7 398.7 406.1 414.3 423 432.8 450.7 467.6 480.6 491.8 504.5 516.2 527 533.4 535.7 537.6 540.7 540.6 539.3 535.6 519.2 505.1 487.6 468.6 450.8 434.9 420.2 408.5 395.5 383.7 373.5 363.5 354.5 346 341.9 337.7 328 319.3 312.5 310.8 314.3 316.7 321.3 331.8 343.1 352.3 360.3 370 382.7 394.8 405.4 417.1 428.1 441.7 457.1 479 495.1 508.4 527.7 542 565.7 583.7 591.7 599.1 619.4 626.1 631.2 633 635.5 633.6 627.8 616.2 603.3 594.5 588.6 587.8 585.5 583.3 580.2 581.6 580.9 576.6 569.1 556.4 550.7 544.1 533.8 514.5 489.6 472.3 450.1 433 427.3 428.5 434.6 437.2 444.8 453 458.8 462.7 468.5 478.9 485.3 493.6 498.4 506.8 515.9 531.9 545.5 549.6 549.5 554.7 555 555.2 560.1 559.5 555 550.4 546.8 546.5 546.3 543.4 540.5 531.6 516.8 509.6 503.5 496.3 487.5 479.4 472.5 463.9 455.3 443.3 431.4 423.1 412.1 396.8 387.5 380.8 372.4 383.8 396.4 395.9 397.9 394.9 393.2 404.7 411.9 417.9 426.3 429.4 430.3 429.3 427.8 428.7 428.3 428 429.6 430.3 429 423.2 412.6 406.7 405.8 408.2 410.2 404.1 393.1 382.1 370.2 359.7 351.4 347.9 344.5 339 334.4 326.8 318.5 308.8 296.3 281.8 275.7 272.7 270.3
430.3 423.1 413.1 404.4 397.5 391.2 385.4 385 388.2 388.9 385 387.6 390.7 393.6 396 398.6 403.6 411.6 419.5 426.9 443.8 463.9 478.8 489.5 501.4 513.9 525.5 533.7 536.5 538.2 540.8 541.5 539.2 535.3 525.8 514.6 499.6 479.6 462.5 447.6 434.9 419.9 406.2 392.2 380 369.2 360 354 350 343.5 334 324.1 314.1 313.5 316.3 316.2 319.4 324.6 334.7 345.5 356.8 367.5 377.4 389 399 409.6 420.5 432.6 446.1 465.1 491.1 504.3 518.3 541.6 562.2 579.5 586.4 595.9 612.5 627.4 632.5 636.5 639.8 641 639.1 635 628.4 618.7 611.5 604.9 600.2 596 590.9 591.4 589.3 586 581.3 568.4 557.9 549.8 538.7 523.7 501.8 480.9 460.8 443.6 423.3 433.3 434.7 438.5 444.1 449.8 459.5 466.3 472.8 482.4 488.7 495.5 502.8 508.4 514.5 526.2 541.4 549.3 552.4 556 557.2 558.1 559.5 562.8 562.3 557.9 553.2 550.9 551.6 551.3 547.4 541.4 530.8 518.6 509.4 503 494.4 485.4 472.9 465.3 457.7 445.9 433.7 426 417.6 404 395.1 383 379.7 384.4 398.1 404.5 406.1 408.6 404.8 408.7 413.4 419.6 427 433.8 438.5 439.6 438.5 437.9 437 432.7 429.6 429.2 428.1 425.4 418.9 409.4 403.1 402 406.4 408.6 400.3 390.5 380.2 368.4 358.5 346.5 340 337.1 336.5 331.2 317.8 308.7 296.6 282.6 276.6 275.5 273.3 271
427.5 420.9 410.6 403.9 396.1 391.9 384.2 388.9 390.5 390.1 388.6 390.1 392.9 396.4 399.3 403 408.2 416.7 426.5 437.4 457.8 476.1 487.4 498.2 511.5 521.4 534.5 539.1 539.1 541.1 542.2 540.2 535.6 532.4 520.4 508.2 490.6 473.7 457.3 444.5 431.8 418.2 405 389.2 374.8 363.9 354.7 351.8 347.6 339 326.7 318.5 315 317.7 319.7 318.2 323.5 330.1 339.6 346.3 357.7 371.4 382.2 393 403 413.2 425.1 437.8 452.4 473.1 496.9 519.1 542.8 562.9 578 590.2 597.4 610.3 625.9 632.5 636 641.2 643.7 644.8 642.9 641.7 637.5 632.5 624.6 618.3 611.8 603.8 601.1 597.4 593.4 588 582.4 567.7 555.6 547.1 535.1 512.2 490.4 469.5 452.2 436.5 434.9 443.1 441.9 448.6 451.8 458.7 470 480.6 489.4 494.3 499.2 504.4 510.6 518.5 524.9 537.6 544.7 551.7 556.1 559.7 559.6 559 558.6 559.1 562.8 558.3 552.8 551.7 553.7 554.6 550.5 544.1 529.9 516.2 507.9 499.7 491.1 481.7 468.7 460.5 449.6 439.9 428.4 419.8 409.5 398.2 386.4 388.9 388.2 394.2 411.3 413.1 415.7 418.5 417.2 416.2 421.7 427.4 435.1 442.8 447.1 447.9 448.1 446.9 442.3 435.8 429.8 426.3 424.3 419.4 411.2 403.8 398.7 399.4 407 404.8 396.1 387.1 377 366.8 355.3 347.4 343.9 342.2 337.4 328.9 317 301.8 287.4 284.1 278.7 274.1 273 270.5
425.7 417.4 408.7 402.4 397 392.6 389.8 392.9 391.8 390.4 391.1 393.3 397.2 403.1 406.9 409.8 416.5 424.7 435.3 451 471.2 483.9 494.7 508.1 518.6 533.6 539.5 540.8 539.8 540.5 540 536 535.1 523.4 513.5 501.5 483.8 469.3 453.6 441.5 426.5 413.8 400.3 383.5 366.6 358.4 351.8 343.9 339.5 330 321.1 317.6 315.3 321.2 322.2 322.5 323.8 331.3 338.7 349.2 361.3 374.9 385.5 397.3 408.3 419.6 432.3 445.5 463 484.1 506.1 535.4 561 578.8 589.3 595.6 609.1 622.3 633.7 636.9 640 643.3 646.3 649.1 648.3 647.6 643.1 638.8 630.5 623.8 618.1 612.4 604.9 599.1 593.6 587.9 579.3 562.3 552.3 542.4 522.7 501.5 478.9 458.7 437.8 438.4 449.9 452.5 453.6 455.7 463.2 482.4 489.3 495.3 500.6 503.9 510.4 517 520.3 527.1 535.1 544.7 551.7 555.9 559 558.9 558.3 557.1 555.6 554.5 556.2 555.8 552.8 552.7 552.9 553.3 550.9 544.7 527.7 514.9 505.8 497.9 488.4 478.4 463.8 456 446.5 436.4 422.6 412.6 400.4 389.5 389.2 396.1 401.2 408.3 421 422.9 424.9 426.9 426.7 427 433 437.1 443.4 450.6 455.3 457.1 457.6 453.2 445.9 438.5 430.6 425.7 423 423 416.2 401.3 394 395.6 401.2 399 390.3 381.7 372.5 362.3 351.2 349.2 348.1 342.9 334.4 324.4 312 290.4 294.7 286.3 277.8 274.3 272 270.4
423.6 415.1 407.2 401.5 397.4 388.1 395.4 395.1 392.5 392.4 395.7 402.9 406.8 410.6 414.2 419.1 425.6 435.6 447.1 466.5 479.7 491.2 504.1 516.7 529 536.7 541.1 539.8 539.1 539 539.3 536.2 532.9 518.4 508.9 493 479.8 463.3 449 434.7 421.9 408.7 395.7 381.7 366 358.1 349.3 337.9 328.4 324.1 321.3 318.6 317 324.5 325.4 326.1 328.8 329.9 337.3 348 363.7 378 390 402.8 412.8 425 436.6 450.3 472 492 516.1 545.3 571.4 584.6 595.6 608 620.6 629 637.2 643.6 644.6 647.2 651 654.8 655 653 648.6 643.2 636.8 629.2 623.2 617.9 610.1 599.6 592.9 585.5 571.9 555.5 548.3 530.5 512.4 492.1 466.8 449.6 438.2 446.9 459.6 460.8 463.2 474.3 486.1 495.8 499.1 507.2 510.8 515.3 521.2 527.1 530.6 536 543.1 549.7 555 558.7 559.3 557 555.5 556.1 556.7 555.5 557.8 557.8 552.6 551.2 552.7 551.7 548.4 541.9 526.1 512.8 503 492.9 484.3 473.9 461.8 447.7 438.7 424.8 415.1 402.8 394.3 399.5 403.3 412.5 421.5 426.4 429.1 431.9 434.4 437.1 438.2 434.4 441.3 447.1 452.6 458.8 464.3 466.6 464.8 457.7 447.9 442.2 437 434.4 433.4 429.3 417.8 404.4 398.2 389.5 392.2 391.2 382.9 372.1 362.7 357.4 345.9 347.5 343.3 331.9 319.8 312.2 304.9 302.5 297.2 283.2 274.4 271.6 270.6 268.2
420.8 413 406.4 401.9 397.7 396.8 399.4 398.6 397.8 399.7 405.9 410.4 413.8 416.2 421 427.3 436.7 446.8 461.8 475.2 486.3 498.8 511.4 520.6 529.9 537.5 540.2 539.9 537.3 538.2 537.8 535.2 526.1 518.3 505.7 489.4 474.4 460.1 439.7 427.1 415.8 403.5 390 378.5 368.5 356.9 344.7 337.7 330.3 327 323.3 318.6 320.2 327.8 330.3 331.6 333.1 336.2 344.5 350.3 362.3 380.3 394.4 406.5 416 428.3 444.1 458.8 477.2 500.1 529.6 549.4 576.2 590.5 601.7 616.8 625 634.9 644.3 648.4 647.6 655.3 658.7 661.3 660.9 657.8 653 648.7 640.1 633.2 626.2 619.2 610.8 599.1 590.4 581.7 560.7 550.3 539.6 520.6 501 475.8 455.6 441.6 454.8 463.5 469.8 480.5 490.3 497.5 503.1 509.7 513.2 517.5 521.2 526.4 531 534 539.2 545 550.1 554.9 559.6 560.5 561.3 565.4 565.7 574 574.5 563.3 555.6 557 553.6 550.4 551.3 549 547.4 538.1 519.8 508.6 501.4 489.7 478.7 469.2 456.3 441.4 429.9 423.5 411.7 398.7 405.2 408.5 418.8 423.4 428 433.6 438.1 443.1 445.5 448.5 450.2 443.1 449.3 456.4 461.3 467.1 473.8 475.6 469.1 461.2 453.7 450.5 445 444.7 440.7 432.3 421.7 406.9 399.4 388.8 380.1 380.2 370.5 355 343.2 339.2 338.1 333.7 328.3 332.6 332.4 329.5 322 307.9 291.5 278.4 271.5 269 268.8 269
417.1 411.9 406.9 403.3 398.7 402.5 403.6 404.7 406.1 409.3 412.7 416.2 418.7 423.3 428.7 437.5 447.1 460.3 470.6 480.7 493.8 505.7 516.7 521.9 531.8 539.6 540.5 541.2 538.7 538.2 536.9 533.2 524.2 514.6 498.1 485 466.8 452.4 434 420.9 408.2 399.3 387.2 376.3 366.1 353.7 341.7 337 334.5 331.5 327.3 319.5 324.4 333 336.7 338.6 340.1 343.9 350.8 361.7 373 384.5 397.9 407.5 420.4 435.3 450.2 467.7 489.7 512.8 542.2 563.5 583.3 595.2 613.2 621.6 630.2 642.9 648.6 649.1 654.8 664.8 664.7 665.4 665 661.9 657.8 650.9 643.4 636.6 625.8 617.9 607.7 595.8 587.1 576.4 553.4 539.7 528.6 510.6 487.5 465.2 447.7 456.2 471.8 484.9 480.3 499.5 505.5 512.2 517.4 522.4 523.9 525.7 530.4 535.4 539.7 542.4 547.3 551.2 554.8 559 564 566.3 568.1 570.3 572.1 570.5 568.2 556.8 553.7 553.3 553.6 548.2 547.9 547.7 540.4 527.8 513.7 505 496.9 485.1 475.3 464.2 448 436 424.5 414.2 403.9 411.5 418.2 421.9 428.3 430.3 432.4 439.8 444.9 449.7 453.8 459 459.2 453.4 460.3 465.7 469.5 477 482.2 479 472.6 468.2 464 456.8 452.3 450.8 443.7 434.1 423.8 411.4 400.8 388.9 377.9 366.7 355.6 358.2 363.3 356.4 350.7 347.3 347.1 346.2 344.4 337.5 322.4 302.4 286 277.3 272.2 269.7 269.6 268.7
415.7 411.3 407.3 399.7 405.5 407 408.5 411 413.5 417.1 419.8 421.1 424.5 432 438.4 447.3 459.8 468.5 476.1 487.6 499.1 510.7 518.4 524.8 535.8 540.2 541.9 541.6 539.3 538.4 536.8 532.5 521.9 509.1 495 480.7 461.2 444.8 429.1 416 404.8 394.8 381.9 373 362.6 352.2 344.2 339.3 336.8 331 324.6 324.2 328.1 336.4 341.3 344.4 347.3 351.9 360.2 368.5 376.1 387.4 401.4 409.8 424.9 441.1 454.8 474.8 500.2 527.5 550 570 585.2 606.4 618.3 625.4 637 646.6 651.9 653.3 663.8 666.2 665.8 665.2 663 661.6 658.3 651.9 645.1 635.4 627.4 613.7 602.4 592.8 582.8 564.1 547.9 535.2 517.7 498.7 474.5 455.3 466.8 478.5 492.4 503.3 506.3 517.2 521.7 527.8 532.1 533.1 535 537.1 539.8 543.8 548.2 548.9 549.2 555.6 558.4 561.7 565.5 567.5 568.2 569.5 569.2 567.7 561.5 553.1 553.5 556.4 551.5 547.3 545.9 545.9 534.5 520.6 508.4 501 489.3 479.6 468.9 455.4 441 429.2 421.1 410.9 416 428.7 433.7 436.1 439.6 438 440.5 448.3 453.1 458.5 463.4 468.8 466.8 465.6 469.4 471.5 476.7 482.3 482.8 479.6 478.7 475.6 468.7 461.7 455.8 451.3 443.4 434.6 424.1 411.4 400.2 391.2 382.2 360.1 365.7 374.7 369.2 363 357.5 357.6 356.4 356.7 352.6 338.7 318.7 300.4 285.3 278.7 277.7 274.2 270.7 268.3
416.7 411.2 405 407.9 409 411.3 413.5 416.3 419.1 422.4 424.5 429.1 435.4 440.9 447.7 459.8 467.4 473.5 481.7 491.9 504.6 512.1 519.7 531.1 538.1 541.4 542.7 541 539.3 538.8 537.8 534.9 518 504.9 490.6 473.4 457.2 440.6 427.3 416.1 404.7 393.7 382 368 359.9 351.4 345.9 344.8 338.9 330.8 323.1 328.8 331.4 336.3 344 348.8 356.1 363.7 369.9 375 385.4 394.4 405.4 416.1 430.9 446.9 462.8 483.1 507.9 536.6 557 575.6 594.1 613.8 622.4 628.5 641.1 648.1 652.6 659.9 665.6 666.1 665.1 663.2 661.3 660.2 658.2 650.9 642 634.1 625.5 609.6 600.4 590.8 581.5 554.6 540.5 526.2 508 487 461.1 474.2 486.8 495.6 511.2 517.1 527 532 542.3 544.4 545.9 544.2 541.9 545 547.7 551.9 555.7 557.4 558.9 560.4 562.1 563.5 565.9 568.5 568.9 569.5 567 566.5 556.7 555.2 553.3 553.9 550.8 546 542.1 539.7 529.7 513.7 504.1 494.6 484.5 473.4 461.1 448 436.5 420.4 416.5 424.5 430.1 445.4 449.7 449.6 450.7 450.4 455.3 457.5 462.5 469 474.1 473.2 466.9 472.4 475.3 476.9 479.7 481.5 482 483.5 484 478.6 471.6 464.3 455.8 447.5 440.3 430.3 419.5 408.4 400.1 386.9 367.3 375.5 384 382.4 374.9 371.2 363.2 367.1 366.6 363.1 352.1 332.8 313.1 295.3 293.5 289.5 281.7 274 269.4 269.6
416.2 409.2 411.9 407.8 413.5 416.5 418.4 421.5 424.3 426.7 431.6 438.4 446.2 453.3 460.5 467.5 472.8 477.9 485.4 498.2 508.7 516.2 526.7 535.6 539.6 540.9 542.9 541.4 538.8 539.1 540.3 527.6 515.3 502.4 488 467.5 451.6 438.5 426 414.9 403 391.7 376.3 365.3 355.4 351 350.4 346.8 339 325.4 330.6 331.6 335.5 340.9 347.8 352.2 361.7 369.1 376 385.9 392.6 402 410.9 424.5 439.5 452.8 470.7 492.3 516.2 542.1 566.4 581.1 602.5 619 623.9 631.1 643.2 650.8 656.1 664.6 666.7 665.8 665.2 662.7 661 660.6 657.4 646.9 638 629.3 621.9 609.6 599 586.7 570.7 550.4 538.7 520.6 500.6 470 477.1 495.4 504.6 515.2 527.3 536.4 542.8 541.8 543.9 550 552.8 553.6 554.8 554.5 554.9 558.7 561.7 562.9 562.5 564.5 565.1 566.4 567.9 567.2 569.5 569.9 569 563.6 560.1 552.9 551.6 550.3 547.4 542.9 535.1 534.5 524.5 510.9 498.9 488.7 478.1 465.6 452.8 441.1 424.8 425.8 429.9 436.4 452 457.8 459.6 461.9 461.6 462.7 467.6 468.5 473.3 478.4 478.8 477.2 475.5 477.8 479.4 480 481 482 483.8 486.7 484.4 479.7 473.7 465.8 453.5 440.2 432.9 421 413.5 406.4 392.6 375.3 381.2 393.7 397.6 391.5 384.6 380.7 376.6 376.2 372.7 362.1 348.1 328.2 307.6 306.4 300 290.4 280 271.9 270.2 270.8
415.8 416.1 416.7 411.3 418.3 421.3 424 426.5 429.2 433.6 439.4 446.8 454.6 461.3 467 471.9 476 482.3 492.9 502.8 511.8 520.7 534.9 538.9 540.3 541.5 543.5 541.1 538.3 538.7 539.3 523.3 512.2 498.4 480 462.8 448.7 435.6 423.8 410.5 399.3 387.3 373.2 365.3 359.2 356.9 351.9 345.1 337.4 328.5 335.3 329 335.9 345.1 350.6 360.1 368.6 374.6 384.4 392.3 400.7 408.7 420.7 434.6 446.7 462.5 481.5 500.6 529 548.6 571.7 585.4 610.6 622.1 627.2 634.5 645 653 658.6 665.1 666.2 666.9 667 664.4 662.5 662.1 652.8 644 634.4 624.4 618.6 607.4 597 582.4 561.2 542.7 532.1 508.7 487.3 494.1 505.6 514.1 524 535.4 541.8 547.6 550.5 550 550.7 553.4 554.8 556.1 559.3 559.7 559.8 561.4 561.5 562.4 563.3 566.9 566.6 567.6 568.1 569.4 570.9 570.7 572 565.4 558 553.2 551.1 549.4 546.4 543.4 539.7 531.3 522.9 507.4 487.7 480.1 468.4 457.1 444.2 430.9 431 440.4 443.9 457.2 464.2 465.5 469.7 475.4 473.3 475.4 477.7 477.9 481.2 483.8 484.1 480.9 480.3 481 481.3 482.1 482.2 483.7 486.2 485.7 483.4 480.5 473.9 464.5 451 436 423.3 415.9 410.3 396.3 380.2 393.4 401 409.7 407.9 401.8 395.5 386.9 386.5 381.1 371.5 359.3 342.6 322 313.9 308.9 297 286.7 278.1 272.3 271.5 271.8
416.7 419.8 421.9 417.8 423.8 426.9 429.5 431.5 435 442 448 454.7 460.7 466.3 470.2 474.1 479 485.9 496.5 505.5 514.8 531.8 535.5 538.3 540.8 542.2 543.1 540.5 538.3 539.2 533.8 519.8 506 493.2 475 459.9 446.1 432.2 420.7 407.3 391.4 384.8 373.2 366.5 362.5 355 347.6 341.3 337.1 336.9 338.7 332.5 339.1 346.7 355.5 365.3 374.5 384.9 392.2 400 407.3 419.7 426.8 441.7 455.4 471.7 491.2 511.7 537.3 557.4 577.4 597.8 616.8 623.5 628.2 638.3 646.1 655.8 660.3 663.1 665.1 666.6 666 665.3 664.5 660.7 649.2 639.9 628.9 621.9 613.7 600.7 587.3 580.5 556 539.9 520.7 498.4 507.2 516.3 526.5 526.3 543.1 551.4 551.8 557.4 557.5 554.5 555.3 554.4 555.1 557.6 559.1 559.9 561.9 561.3 560.9 561.7 563.2 566.2 567.5 569.6 570 570.5 571.7 577.3 579.1 578.2 562.3 553.1 553.7 556.6 551.9 543.7 539.4 526.6 515.7 499.3 485.7 475.3 459.5 446.5 435.4 439.3 448.2 451.3 458.2 467.9 473.9 475.9 481.5 486.9 484.7 484.2 483.1 484.5 491.5 493.2 490 484.2 483.7 483.1 483.6 484.2 484.5 485.5 484.8 485.7 483.7 480.5 472.8 462.3 449 432.4 421.6 413.6 406.2 386.2 398.4 412.6 419.4 421.2 416.4 409.2 400.9 396.5 392.8 380.8 365.5 351.7 336.7 324.8 316.1 304.8 292.9 281.9 275.8 273.1 272.3 272.6
422.7 425.6 427.3 422.1 429 431.7 434.3 437.6 441.9 448.5 455.1 460.8 465.3 468.6 472.2 475.9 480.8 489.3 499.4 508.4 519.6 535.2 537.7 539.5 540.3 541 541.4 539.4 539.4 540.4 528.1 515.8 500.6 487.2 471.9 457.7 443.4 429.4 414.3 398.3 386.4 379.4 369.2 364 357.3 348.8 343.7 339.5 332.9 339.5 337.8 336.6 341.2 350.4 361 373.7 383.1 390.9 397.7 407 416 426.1 439.5 450.8 466.1 481 502.1 527.3 546.1 569.7 586.2 606.1 620.1 625.1 631.1 640.7 649.7 657.6 660.9 662.5 664.2 665.7 666.2 665.7 664.9 656 645.3 636.6 626.1 619.1 611 595.4 582.2 571.2 548.4 534 510.8 514.4 524.9 532.5 540.3 544.8 544.9 555.5 557 558.4 557.1 556.9 555.8 556.1 556.9 558.5 558.3 557.3 559.7 559.8 561.2 561.2 563.8 566.5 574.6 574.1 573.1 573.8 579.8 582.5 581.6 579.9 569 553.6 554.5 558.2 551.1 545.5 533.9 518.7 503.4 489.2 479.8 468.4 455.2 440.7 450.2 455 461.4 464.5 473.5 479.3 482.5 489.3 494.6 495.6 496.7 496.2 491.3 493.9 502 499.9 494.2 491 486.8 486.3 487.9 486.4 486.1 485.8 484.4 484.1 482.4 477 472.9 461.3 449.1 435.3 421.8 412.9 403.3 396.8 417.2 425.3 431.8 430.2 422.7 413.3 405 403.2 394.4 375.5 352.8 348.8 338.5 328.7 316.8 303.5 290.3 282.4 278 274.5 274.6 274.2
428 431.4 432.2 430.5 433.3 435.7 439.1 443.1 448.9 455.1 460.5 465.6 468.8 470.7 473.8 478 484.1 491.8 501.1 509.7 528.5 536.4 538.6 538.8 539.2 539.7 539.9 538.7 539.8 537.8 520.2 506.9 494.1 483.5 468.1 454.7 440.3 425.6 409.7 393.8 384.4 374.9 366.6 358.6 348.8 343.5 340 336 339.2 339.9 339.3 339 342.4 357.7 369 379.4 389 398.5 404.8 413.1 419.9 437.5 448.5 463.9 476.4 498 517.8 539.5 558.4 580.8 594.5 615.5 622.4 628.1 634.3 644.7 652 659.2 660.6 662.4 665.7 666.7 666.7 664.9 659.1 651.3 643 633.9 625 616.3 605.4 590.5 577.4 559 545.6 518.1 519.5 532 542.7 547.1 548.2 551.8 556.9 555.6 556.6 558 557.5 558 557.3 556.6 555.9 555.9 555.6 556.1 556.8 558.7 561.8 561.7 568.3 575.6 577.2 577.1 576.9 580.6 584.2 585.1 584.1 582.4 567.6 556.3 560.2 558.2 550.3 540.8 526.4 510.1 497.1 484 474.3 463.2 448.5 458.1 462.3 469.1 473.9 477 480.1 487.7 494.7 498.8 503.3 506.6 508 509 508 510.9 509.7 504.8 500.3 498.4 496.3 496.5 491.9 488.1 487.2 486.2 484.9 483.7 482 481.6 473 461.5 450.5 438.6 424.9 414.9 409.7 402 422.9 431.6 437.3 433.7 425.1 415.8 409.5 405.7 388.2 369.4 362.8 356.3 345.5 331.1 317.6 303.9 292.2 285.9 280.7 276.2 275.1 275.6
433.6 435.7 434.8 435 437.1 440.4 446.2 449.1 453.9 459.2 464.2 468.2 471 473 476.2 480.9 486.3 494.4 502.2 510.2 531.8 532.2 537.4 538.2 538.2 538.6 538.3 537.6 537.7 522.9 512.1 498.7 489.2 480 466 451.6 437.1 419.9 403 395.3 381.1 373.8 364.7 361.7 351.4 344.5 341.2 336.8 340.9 341 342.5 342.2 344.8 362.5 375.9 382.4 394.6 403 411.4 418.4 432.9 444.3 455.4 473.9 490.7 512.5 529.9 553.7 573.7 588.7 604.4 619.3 625.1 630.2 635.7 644.8 653.7 660.7 659.8 661.1 664.4 665 664.3 661.8 654.5 647.3 640 630.5 622.5 612 595.3 583.5 569.6 553.4 536.8 537.6 543.5 548.3 554.1 558.3 558.2 561 559.1 557.9 557.6 557.8 560.8 563.9 569.1 571.6 567 565.1 564.2 563.9 565.1 571.1 572.8 575.2 576.9 577.6 577.6 578 582.1 584.1 586.7 586.6 582.6 585 562 554.3 557.2 554.2 545.3 535.7 521.6 504.8 491.3 480 472.4 455.4 464 470.2 476.3 479.6 484.2 487.2 490.5 497 505.9 508.2 513 517.4 517.9 519.8 520.2 519.3 513.4 509.4 507.2 506.2 506.1 501.2 496.8 492.5 488 486.6 485.6 484.5 487.2 485.6 474.6 463.8 452.9 440.4 428 410.9 405.4 414.4 430.3 438.7 441.4 434.6 427.1 421.6 417.2 402.7 385.4 378.1 371 363.5 351.2 332.2 318.7 303.9 295.9 287.2 285.9 275.6 277 277.7
438 437.7 438 439.4 444 447.8 450.6 453.6 457.9 463.5 466.4 469.7 472.4 474.7 479.5 484.1 488.6 495.8 503.4 510.2 518.5 530.2 536.8 537.6 537.2 538.6 534.9 528.4 521 512.8 501.5 491.5 485.3 476.9 463.7 447.7 429.9 413 397.9 388.1 379.1 368.6 367.9 363.6 353.9 347.3 344.4 339.5 341.9 343 344.9 346.8 349.8 366.2 380.1 388.5 399.2 407.1 414.7 423.5 436.5 446.6 466.3 484.9 505.7 523.6 546.3 569.8 581.8 595.9 612.6 621.8 628 631 635.7 644.5 652.8 658.3 659.6 660.4 662.2 662.2 660.3 656.3 651.7 644.6 636.5 627.8 619.2 603.7 587.2 574.8 558.9 543 544.2 552.6 557.1 560.3 565.4 568.6 569.9 568.8 561.8 560.8 559.4 560.4 563.6 571.8 578.8 577.2 577.1 577.1 578.6 577.7 579.6 582.1 580.5 579.5 581.6 582.6 578.7 581.8 586 587.2 587.8 586.1 586.5 583.5 553.6 553.4 554.8 550.8 540 530.6 513.9 501.2 487.6 477.6 462.4 467.4 477.5 483.7 487.9 490.2 495.9 500.8 503.6 508.5 516.7 519.7 523.2 524.6 526.6 528.2 525.9 521 519 516.7 514.9 515.6 511.3 506.7 503.3 499.9 493.7 488.7 487.4 490.9 495.5 488.5 476.7 465.9 455.3 441.9 424.8 420.8 428.3 428 436.1 443.1 440.7 435.7 433.2 427.5 418.4 404.7 394.3 384.4 375.2 365.2 350.7 334.6 321.1 306.9 293.8 288.2 284.9 276.7 278.3 278.5
439.4 438.7 441.5 445.5 448.4 451.6 453.7 457 460.7 464.7 468.7 472.6 473.9 475.7 481.5 487.2 491.6 497.5 503.5 508 517 528.5 530.8 538.2 538.8 534.8 522.7 518.1 513 504 492.7 486.4 481.3 473.7 458.9 441.5 421.8 409.2 396.3 382.4 378.5 374.9 371.2 364.1 354.8 350.3 346.8 343.2 344.1 347.7 350.9 352.5 359.7 369.6 383.3 393.6 404.7 412.4 423.1 430.9 443.5 456.1 475.4 499.1 518.3 541.3 561.2 580.3 592.2 605.9 616.7 623.4 629.2 631.7 635.6 644.3 651.7 654.9 658.5 659.2 659.7 658.7 656.5 653 648.6 643.3 637.2 628.6 617.5 598.9 582.2 563 555.6 550.2 557.1 566.6 572.2 579.7 583.1 584.1 584.1 581.3 570.8 566.2 572 575.4 575 578.4 578.8 578 578.5 581.3 579.3 580.5 581.2 582.5 583.2 585.4 586.6 586.2 585.5 587.3 588 589.2 588.4 586.5 586.8 572.7 553.3 553.3 554.2 544.5 534.9 521.2 507.4 498.8 487.1 469.5 473.8 479.9 487.7 494.8 498 504.1 508.5 513.4 516.7 523.1 527.6 530.3 531.9 532.5 532.2 530.3 525.5 525.7 523.6 522.2 523.5 521 515.5 512 508.7 503.4 497.1 493.5 493.3 497.9 498.9 490.6 480 469.7 458.8 441.1 434.3 440.3 442.2 444.2 444.9 445.9 443.7 441.8 439 431 422.4 410.9 399.3 388.2 376.1 363.8 348.8 335.5 320.5 309.9 293.5 288.9 285.4 278.7 279.6 283.3
440.4 441.3 445.7 449.3 452.4 454.9 456.2 458.7 462.3 466.7 472.3 475.3 477.7 480.5 484.8 488.4 492.3 498 503.5 503.7 507.9 517.2 530.2 526.4 527.1 522 516.2 511.6 504.7 496.2 487.8 483.4 477 467.4 450.7 435.7 417.9 403.5 392.4 390.6 378.9 378.2 371 367 363.8 355.5 350.3 345.8 347.7 354.1 355.8 360.8 367.2 378.3 388.2 400.7 410.7 420.7 429.5 440.8 451.1 469.6 489.9 516.3 538.8 559 575.8 589.3 600.3 614.9 622.4 625.8 628.8 631.1 634.8 642.5 649.5 653.4 657.9 658.4 656.6 657.9 654 651.6 647.6 641.8 634.8 627.1 616.1 599.5 585.3 572.1 553.6 563.1 574.2 582.2 586.7 589 591.4 590.7 589.3 586.7 582.3 581.9 585 582.4 582.5 582.9 580.7 578.9 578.7 578.5 580.9 581.1 582.1 584.1 585.4 585.7 586.6 588 588.3 588.4 589.7 589.8 584.2 587.7 584.3 561.4 558.6 556.3 549.1 540.6 527.3 514 504.3 493.4 483.1 480.1 485.1 491.6 503.6 508.3 512.3 517.8 522.1 524.6 528.8 533.6 537.8 537.9 537.9 536.6 533.2 529.4 531 530.2 525.2 528.8 526.6 523.4 521.5 517.6 509.9 504 499.3 495.2 494.6 499.3 497 493.1 484 473.8 457 437.5 444.9 452.4 455.7 456.1 455 451.8 446.9 447.2 443.5 433.2 422.6 409.4 396.9 384.4 372.2 358.3 344.7 333.3 321.4 311.1 296.9 287.6 289.2 280.7 283.2 292.1
442.4 447.3 449.9 451.4 454.2 457.7 458.5 462.3 465.3 470.3 474.9 477.6 480.5 482.9 486.8 489.3 494.7 499.2 501.4 505.5 507.8 510.9 514.9 518.3 518.6 515.6 510.3 504.9 498.6 490.7 485.1 479.7 471.4 461.4 442.2 432.8 417.9 406.6 395.3 390.7 384.2 379.3 377.2 373.6 367.5 358.9 350.3 351.6 354.2 358.8 362.3 371.3 381.2 382 398 408.2 419.7 430.4 439.1 450.8 460.6 486.1 504.3 532.3 552.1 568.5 584.1 596.1 610.5 621.2 627.1 629.2 630.7 632.8 636.2 643.3 648.8 653.1 657.3 657.4 654.6 654.4 651.7 649.5 646.3 639.4 632.8 625.5 615.3 601 588.5 571.9 569.7 574.2 586.4 589.1 594.4 593.4 592.8 592.3 591.6 586.8 583.3 583.3 584.2 585.5 586.3 585.5 584.5 585.2 583.8 581.3 582.4 582.9 584.4 586 586.1 585.9 587.1 588.2 588.8 590.4 587.1 587.3 588.2 587.7 576.7 560.6 559.9 555.2 545.5 534.7 520.9 510.4 499.4 487.2 483.3 493.1 499.6 510.3 514.2 518.6 526.1 530.5 535.4 539 542 545.6 544.2 541.8 542 539.9 539.6 538.6 538 534.7 530.2 529.2 527 525.7 523.6 518 509.7 504.4 499.6 494.2 491.4 491.9 494.6 494.6 486.2 474.3 451.6 458.8 464.4 464.6 468 465 462.7 456.5 454.4 453.7 445.4 433 418.3 403.1 391.9 377.9 364 351.9 338.3 329.9 318.7 303.8 297.7 295 290.8 281.3 292.3 298.9
448.5 451.7 452.2 454.3 457.3 459.8 462.3 465.3 469.1 472.7 475.9 479.3 482.3 485.2 490.2 492.1 495.9 498.4 501.4 505.1 508.8 511 515.7 515.8 513.2 509 505.2 501.9 496.2 490.1 485.7 477.8 464.7 457.2 453.3 438.8 420.3 413 402.6 392.9 386.6 383.5 381.8 377 365.9 361.4 358.7 358.9 363.8 364.7 370.4 382.6 390 395 402.6 414.4 424.3 437.3 449.1 460.8 475.7 501.1 518 546.7 568.1 582.7 591.5 601.7 616.7 626 630.4 632.3 631.3 633.8 637.7 645.8 650.9 652.2 655.9 656 654 650.3 648.1 645 639 633.1 629.9 624.1 613.8 601.8 592 585.5 583.2 586.3 591.4 594.9 594.6 594.9 592.5 592.8 592.5 589 586.7 582.7 583.5 585.4 585.7 586.2 586.6 585.9 585 585.8 585.4 584.8 585.6 586.4 586.8 585.8 587 586.6 586.7 587.6 586.2 582.6 587.4 585 564.1 560.9 560 546.5 538.6 528.1 517.9 507.7 496.6 500.6 498.8 505.8 512.7 517.7 521.9 530.6 539.1 542 545.2 548.9 551.3 548.8 545.6 546.5 546.3 547.8 549.1 548.3 544.5 539.6 532.9 531.2 526.8 525 521.3 514.1 509.4 505 500.3 493.9 489.5 486.6 491 491 486.6 463.9 468 468.9 477 475.9 479.5 475.9 469.4 463.2 461.6 454.2 442.2 427.1 413.1 398.3 383.3 370.6 359.1 344.8 329.1 322 311.1 301.6 300.3 299.3 286.6 284.7 299 305.5
453.3 455 455.2 456.5 459.3 462.1 463.9 466.9 470.9 473.5 477.9 481.4 483.8 487.6 491.8 493.8 495.3 497.6 500.1 503.3 508.5 510.5 512.1 511.8 508.9 507.2 504.1 501.6 497.1 492.7 487.2 474.5 474.5 471 453 444.2 437 421.9 410.5 398.9 392.4 388.9 384.9 375.5 370.7 368.9 366 365 372.6 371.4 380.4 391.7 398.2 404 411.3 421.3 433.2 447.6 459.1 473.5 493.8 509.9 539.2 559.8 576.7 586.1 596.4 609 619.9 628.1 632.6 634.6 634.7 635.7 637.8 643.7 649.6 652.1 652.6 651.9 648.9 646.7 644.8 639.4 633.5 631.2 627.1 620.7 611.3 604.3 598.1 592.3 592 591.7 594.8 595.5 595.3 593.2 591.8 591.3 592 589.9 586 582.4 584.1 585.5 586.7 587.4 586.9 587.4 587.2 586.8 586.6 586.2 586.6 586.7 586.8 586.3 586.1 585.7 585.4 585.5 582.1 580.7 584.6 579 561.8 563.5 557.5 542.3 535.5 525.3 514.7 503.4 501.1 504.9 509.4 512.4 523.3 528.6 531.8 540.6 546.5 550.1 551.9 554.6 553.2 549.3 548.5 550.3 552.7 555.3 557.5 554.2 549.6 543.7 538.3 534.7 529.2 525.2 521.6 516 509.4 505 500.7 499.1 494.7 487.1 484.4 484.2 480.6 469.5 476 480.8 486.2 486.4 489.4 485.4 477.2 471 460.7 449.1 438.4 421.4 403.7 387.7 373.2 362.2 350.8 338.3 323.1 321.7 315.1 313.2 308.7 297.7 285.5 291.2 303.8 309.3
457 456.2 457.4 458.6 460.8 463.7 466.4 468.9 473.6 476.6 480.2 482.5 484.9 489.4 492.5 494.5 494.8 496.4 498.9 502 506.1 508.1 508.8 507.8 506.2 506 503.4 502.6 500.1 493.6 483.5 486.8 486.5 466 466.8 460.2 444.7 430.2 419.1 407.1 397.8 393.6 384.1 380.2 377.1 374.8 370.5 372.1 376.3 380.1 388.1 397.7 404.8 412.3 422.2 429.7 443.8 459.1 473.4 490.8 508.7 530.8 553.7 574 584.3 592.1 599.2 612.1 620.8 629.5 634.3 636.1 636.6 636.6 638 640.7 644.2 648.1 648.8 647 645.9 643.8 640.2 633.7 630 628.9 624.2 617.6 610.8 607.4 603.4 596.7 597.1 596.2 599.9 597.1 593.6 592.5 593.8 592.1 590.5 589.1 585.6 582 584.3 585.6 586 587.1 586.8 588.1 588.6 588.3 587.8 587.1 587.3 587.4 587.1 586.9 587.1 586.9 586.2 582.1 581.7 584.5 580.8 567.3 562.6 560.3 553.1 539.5 531.4 520.5 511.1 507.3 508.1 513.6 521 524.9 529.8 536.6 540.9 547.7 551.4 554.2 556.2 553.1 552.2 549.8 552.8 554.5 558.5 561.5 562 558.7 554.8 549.8 545.3 540.6 536.3 531.5 525.5 517.5 509.1 504.4 504.7 501.6 491.6 486 481.4 483.1 477.3 484.8 484.1 488.4 495.8 500.2 496.5 491.6 481.2 467.2 456.2 444.1 429.2 412 388.2 374.6 360.1 355.9 343.8 344.1 336.5 332 326.9 318.9 307.7 294.1 287 299.7 308.8 318.4
456.7 458.4 459.4 460.4 462.6 465 469 473.1 476.3 478.7 480.6 482.6 486.3 490.7 494.2 493.7 495.3 497.5 499.7 501.7 504 505.9 505.6 505.8 505.9 505.4 504.5 503.7 502.4 494.4 493.2 494.9 488.3 488.2 480.1 469.5 453.3 438.8 425.6 412.3 404.4 397.2 387.1 386.1 385.4 378.2 379 381.3 383.2 388.1 395.2 405.9 414.4 422.8 432.5 443.9 452.2 471.7 488.6 502.4 527.2 547 564.9 579.2 587 594.2 603.9 610.6 619.1 628.2 633.5 635.6 636.3 636.9 638.3 639.6 642.4 645 645.1 643.3 641.9 640.2 636.9 631.8 630.3 625.5 620.7 615.7 611.5 609.3 603.8 599.9 601.5 600.9 601.3 601.4 595.4 592.2 592.7 589.6 588.6 586.1 582.5 581.7 583.5 585 585 586.6 587.1 589.1 588.4 588.8 588.1 587.7 588 587.3 587 587.2 587.7 587.1 584.5 581.6 581.3 578.9 574.5 566.1 559.8 555.3 548.4 538 530 520.6 515.4 518.5 514 526.5 528.3 533.8 537.4 541.8 546.8 551.8 555.3 556.4 552.9 552.2 550.8 553.1 557.3 558.1 562.9 563.2 562.9 561.6 559.5 556.5 552.8 547.9 541.9 534.8 526.5 517.5 509.3 508.4 506.1 495.4 489.4 486.7 487.6 488.6 487.9 493.6 498.6 506.1 509.8 506.9 502.2 492.6 477.5 462.9 450.7 438.8 421.9 400.5 382.2 366.8 360.1 356.6 355.7 352.1 344.7 337.2 327.6 316.2 305.9 290.7 288.8 304.4 312.9 324.1
457.8 459.7 460.9 462 464 467 471.8 475.4 478.1 479.2 479.7 482 486.4 491 493.3 492.6 494.2 496.9 499.5 500.6 501.5 503.1 504.3 506.4 507 508.3 507 505.5 499.7 500.5 501.2 499.4 496.3 495.5 490 477.7 462.7 448.7 433.8 420.7 411.5 403.5 394.9 396.6 395.3 388.7 391.5 395.1 393.5 398.7 408.6 419.1 427.3 435.3 445.2 457.5 469.3 482.8 502.3 523 542.4 556.6 572 582.8 590 596.3 605 608.7 614.2 621.5 627.9 631.7 632.1 633.6 635.8 636.2 638.5 640 639 640.3 639.3 638.3 636.6 634.1 629.6 624.1 618.5 614.3 612.2 608.9 607.5 604 603.4 605.3 603.9 601.3 597.7 592 590 588.4 585.8 584.8 581.6 582 582.9 584.3 584.6 586 587.8 589.4 588.8 588.9 588.4 588.8 587.8 586.9 586.2 586 586.3 586.6 583.5 583.7 579 574.9 565.5 566.1 562.6 558.6 550.6 539.4 529.4 519.8 524.7 528 525.4 534.5 537.1 541.1 545.5 550.2 553.1 556.5 559 559.5 558 558.2 557.8 559.7 559.8 561.4 560.7 562.7 563.8 564.8 563.5 561.6 558.4 553.9 544.8 535.7 526.6 518.2 511.2 510.4 498.6 494.3 491.4 490.2 491.9 492 492.3 499.6 506.1 513.4 515.2 510.5 500 487.8 473.2 458.4 445.2 429.8 408.9 392.5 377.8 370.3 366.2 364.9 362.4 354.8 345.3 334.8 322 310.6 302.1 290.7 291 309.4 315.7 332.2
