ncols 200
nrows 91
xllcorner 140000
yllcorner 753450
cellsize 50
-1.5 -1.5 -1.5 -1.5 -1.5 -1.5 -1.5 -1.5 -1.5 -1.5 -1.5 -1.5 -1.5 -1.5 -1.5 -1.5 -1.5 -1.5 -1.5 -1.5 -1.5 -1.5 -1.5 -1.5 -1.5 -1.5 -1.5 -1.5 -1.5 -1.5 -1.5 -1.5 -1.5 -1.5 -1.5 -1.5 -1.5 -1.5 -1.5 -1.5 -1.5 -1.5 -1.5 -1.5 -1.5 -1.5 -1.5 -1.5 -1.5 -1.5 -1.5 -1.5 -1.5 -1.5 -1.5 -1.5 -1.5 -1.5 -1.5 -1.5 2.1 2.6 8.6 2.2 20.4 25 -1.5 -1.5 -1.5 -1.5 -1.5 -1.5 -1.5 -1.5 -1.5 -1.5 -1.5 -1.5 -1.5 -1.5 -1.5 -1.5 -1.5 -1.5 -1.5 -1.5 -1.5 -1.5 -1.5 -1.5 -1.5 -1.5 -1.5 1.9 13 32.1 44.7 64.3 76 81.1 77.5 77.5 79 76.9 55.4 48.5 61.2 81 97.7 102.4 104.9 103.8 108.1 118.1 121.1 130.9 141.3 139 131.8 133.5 135.4 139.3 152.3 157 153 145.5 132.2 125.3 121.2 112 123.7 117.9 101.8 82.2 66.2 75 76.8 72.4 78.3 74.1 67.2 62.8 59.2 47.9 55.4 63.5 66.1 59.9 68 78.2 81.5 89.4 101.9 64.8 31.7 10 -1.5 -1.5 -1.5 -1.5 -1.5 -1.5 -1.5 -1.5 -1.5 -1.5 -1.5 -1.5 -1.5 -1.5 -1.5 -1.5 -1.5 -1.5 -1.5 -1.5 -1.5 -1.5 -1.5 -1.5 -1.5 -1.5 -1.5 -1.5 -1.5 -1.5 -1.5 -1.5 -1.5 -1.5 -1.5 -1.5 -1.5 -1.5 -1.5 -1.5 -1.5 -1.5 -1.5 -1.5
-1.5 -1.5 -1.5 -1.5 -1.5 -1.5 -1.5 -1.5 -1.5 -1.5 -1.5 -1.5 -1.5 -1.5 -1.5 -1.5 -1.5 -1.5 -1.5 -1.5 -1.5 -1.5 -1.5 -1.5 -1.5 -1.5 -1.5 -1.5 -1.5 -1.5 -1.5 -1.5 -1.5 -1.5 -1.5 -1.5 -1.5 -1.5 -1.5 -1.5 -1.5 -1.5 -1.5 -1.5 -1.5 -1.5 -1.5 -1.5 -1.5 -1.5 -1.5 -1.5 -1.5 -1.5 -1.5 -1.5 -1.5 2.2 4.7 2.5 3.4 11.2 16.7 18.9 16.6 31.9 35.6 -1.5 -1.5 -1.5 -1.5 -1.5 -1.5 -1.5 -1.5 -1.5 -1.5 -1.5 -1.5 -1.5 -1.5 -1.5 -1.5 -1.5 -1.5 -1.5 -1.5 -1.5 -1.5 -1.5 -1.5 -1.5 -1.5 1.8 7.6 40.6 49.4 67.8 80.3 84.9 85.4 88.1 86.4 81.5 73.2 52.8 63.2 85.1 101.2 110.4 113.2 114.9 116.8 120.1 124.5 125.9 141.3 144.7 138.2 134.1 135.8 139.1 146.6 168 169.4 160.9 144.9 138.7 137.6 123 120.9 138 113.6 100.4 78.4 66.7 77.3 78.5 76 81.2 80.3 73.7 67.4 57 51.7 66.2 71.3 69.5 68.3 79.1 85.5 87.9 102.4 104.7 64.2 29.4 4.3 -1.5 -1.5 -1.5 -1.5 -1.5 -1.5 -1.5 -1.5 -1.5 -1.5 -1.5 -1.5 -1.5 -1.5 -1.5 -1.5 -1.5 -1.5 -1.5 -1.5 -1.5 -1.5 -1.5 -1.5 -1.5 -1.5 -1.5 -1.5 -1.5 -1.5 -1.5 -1.5 -1.5 -1.5 -1.5 -1.5 -1.5 -1.5 -1.5 -1.5 -1.5 -1.5 -1.5
-1.5 -1.5 -1.5 -1.5 -1.5 -1.5 -1.5 -1.5 -1.5 -1.5 -1.5 -1.5 -1.5 -1.5 -1.5 -1.5 -1.5 -1.5 -1.5 -1.5 -1.5 -1.5 -1.5 -1.5 -1.5 -1.5 -1.5 -1.5 -1.5 -1.5 -1.5 -1.5 -1.5 -1.5 -1.5 -1.5 -1.5 -1.5 -1.5 -1.5 -1.5 -1.5 -1.5 -1.5 -1.5 -1.5 -1.5 -1.5 -1.5 -1.5 -1.5 -1.5 -1.5 1 5.8 9.5 3.5 4.6 10.1 9.4 10.2 17.2 19.8 21 27.8 31.1 41.1 44.6 29 -1.5 -1.5 -1.5 -1.5 -1.5 -1.5 -1.5 -1.5 -1.5 -1.5 -1.5 -1.5 -1.5 -1.5 -1.5 -1.5 -1.5 -1.5 -1.5 -1.5 -1.5 -1.5 -1.5 -1.5 -1.5 14.3 53.3 53 67 67.8 85.7 91.8 92.4 94.4 88.6 75 60.7 59.6 72.4 99.7 110.4 116.3 117.4 118.1 124.1 132.1 128.9 139 145.1 140 145.3 139.8 144.3 156.6 175.4 177.9 174.3 158.2 144 144.2 133 118.8 141.8 130.4 114.2 94.7 76.2 72.1 78.5 78.8 82.1 84.5 80.4 74.8 67.7 55.5 62.4 75.5 74.8 70.3 77.8 89.4 91.7 96.3 102.3 101.3 52.7 19.7 -1.5 -1.5 -1.5 -1.5 -1.5 -1.5 -1.5 -1.5 -1.5 -1.5 -1.5 -1.5 -1.5 -1.5 -1.5 -1.5 -1.5 -1.5 -1.5 -1.5 -1.5 -1.5 -1.5 -1.5 -1.5 -1.5 -1.5 -1.5 -1.5 -1.5 -1.5 -1.5 -1.5 -1.5 -1.5 -1.5 -1.5 -1.5 -1.5 -1.5 -1.5 -1.5 -1.5
-1.5 -1.5 -1.5 -1.5 -1.5 -1.5 -1.5 -1.5 -1.5 -1.5 -1.5 -1.5 -1.5 -1.5 -1.5 -1.5 -1.5 -1.5 -1.5 -1.5 -1.5 -1.5 -1.5 -1.5 -1.5 -1.5 -1.5 -1.5 -1.5 -1.5 -1.5 -1.5 -1.5 -1.5 -1.5 -1.5 -1.5 -1.5 -1.5 -1.5 -1.5 -1.5 -1.5 -1.5 -1.5 -1.5 -1.5 -1.5 -1.5 -1.5 -1.5 -1.5 0 1.8 5.4 18.6 8.5 8 10.1 11.7 13.2 14 22.8 27.9 33.1 30 38.2 42 37.6 24.7 2.8 -1.5 -1.5 -1.5 3.5 16.1 23.2 -1.5 -1.5 -1.5 -1.5 -1.5 -1.5 -1.5 -1.5 -1.5 -1.5 -1.5 -1.5 -1.5 -1.5 -1.5 -1.5 -1.5 17 50 61.7 60.7 77.2 83.8 91.2 99.4 102.6 91.4 76 68.3 70.3 64.7 85.8 102.5 113 118.9 121.3 123.7 136.9 134.3 138 141 143.8 145.5 150.7 149 163.5 176.5 181.5 182.7 173 153.3 148.3 146.1 132.9 128.2 143.5 126.6 111.9 94.1 77.5 74.3 80.8 82.7 90.9 87.8 86.7 72.3 69.2 53.7 70.1 77.8 73.9 74.3 85.3 100.9 94.8 101.6 106 99.1 44.7 19.3 -1.5 -1.5 -1.5 -1.5 -1.5 -1.5 -1.5 -1.5 -1.5 -1.5 -1.5 -1.5 -1.5 -1.5 -1.5 -1.5 -1.5 -1.5 -1.5 -1.5 -1.5 -1.5 -1.5 -1.5 -1.5 -1.5 -1.5 -1.5 -1.5 -1.5 -1.5 -1.5 -1.5 -1.5 -1.5 -1.5 -1.5 -1.5 -1.5 -1.5 -1.5 -1.5
-1.5 -1.5 -1.5 -1.5 -1.5 -1.5 -1.5 -1.5 -1.5 -1.5 -1.5 -1.5 -1.5 -1.5 -1.5 -1.5 -1.5 -1.5 -1.5 -1.5 -1.5 -1.5 -1.5 -1.5 -1.5 -1.5 -1.5 -1.5 -1.5 -1.5 -1.5 -1.5 -1.5 -1.5 -1.5 -1.5 -1.5 -1.5 -1.5 -1.5 -1.5 -1.5 -1.5 -1.5 -1.5 -1.5 -1.5 -1.5 -1.5 -1.5 -1.5 -1.5 -1.5 5.6 8 11.4 20.8 15.4 14.4 12.6 15.5 19.1 23.1 29.2 37.2 43.1 41.5 37.8 40.8 27.8 18.7 4.4 1.8 4.6 9.3 18.7 37.2 24 -1.5 -1.5 -1.5 2 -1.5 -1.5 -1.5 -1.5 -1.5 -1.5 -1.5 -1.5 -1.5 -1.5 -1.5 1.7 18.2 47.7 60.1 63.1 70.5 82.2 87.5 94.5 99.7 93.1 72.6 85.7 87.6 80.3 69.3 90.2 102.9 115.5 127.2 130.1 135.4 137.7 143 148.5 152.9 151.7 149.7 157.2 162 177.2 182.6 184.7 180.3 163.4 153.3 149.7 141.6 130.3 145.3 143 125.8 109.8 95.4 79.7 80.8 87.8 90.8 93.5 88.2 84.8 78.6 67.1 60.6 76.7 78.9 78.4 78.5 96.3 102 96.2 97.3 108.1 94.3 51.1 26 11.4 -1.5 -1.5 -1.5 -1.5 -1.5 -1.5 -1.5 -1.5 -1.5 -1.5 -1.5 -1.5 -1.5 -1.5 -1.5 -1.5 -1.5 -1.5 -1.5 -1.5 -1.5 -1.5 -1.5 -1.5 -1.5 -1.5 -1.5 -1.5 -1.5 -1.5 -1.5 -1.5 -1.5 -1.5 -1.5 -1.5 -1.5 -1.5 -1.5 -1.5
-1.5 -1.5 -1.5 -1.5 -1.5 -1.5 -1.5 -1.5 -1.5 -1.5 -1.5 -1.5 -1.5 -1.5 -1.5 -1.5 -1.5 -1.5 -1.5 -1.5 -1.5 -1.5 -1.5 -1.5 -1.5 -1.5 -1.5 -1.5 -1.5 -1.5 -1.5 -1.5 -1.5 -1.5 -1.5 -1.5 -1.5 -1.5 -1.5 -1.5 -1.5 -1.5 -1.5 -1.5 -1.5 -1.5 -1.5 -1.5 -1.5 -1.5 -1.5 -1.5 6.7 5.2 20.9 12.9 16.9 26.1 18.8 20.9 22.2 27.7 26 25.6 30.7 42 49 42 40.2 28.9 24.1 17 9.2 7.8 16.1 22.5 36.4 37.3 8.5 1.3 1.3 9.3 35.3 36.9 37.4 25.6 3.1 -1.5 -1.5 39.1 7.7 17 15.1 5 25.2 45.1 67.4 73.6 75 79.5 83.9 87.8 89.7 82.1 74.4 88.8 89.5 87.6 82.6 76.6 94.3 110.5 125.3 130 132.3 138.3 145.4 157.9 160.3 163.8 153.5 155.7 161.7 173.1 180 182.8 184.4 169.8 159.5 152.5 147.1 141.1 143.8 146.5 142.6 121.3 110.6 98.1 81.6 85.7 87 96.6 92.1 90.9 90 76.1 59.7 69.1 78.6 81.1 79.5 87.9 103.3 96.3 92.8 101.7 110.1 98.4 94.3 56.6 38.7 23.2 8.6 -1.5 -1.5 -1.5 -1.5 -1.5 -1.5 -1.5 -1.5 -1.5 -1.5 -1.5 -1.5 -1.5 -1.5 -1.5 -1.5 -1.5 -1.5 -1.5 -1.5 -1.5 -1.5 -1.5 -1.5 -1.5 -1.5 -1.5 -1.5 -1.5 -1.5 -1.5 -1.5 -1.5 -1.5 -1.5 -1.5 -1.5
-1.5 -1.5 -1.5 -1.5 -1.5 -1.5 -1.5 -1.5 -1.5 -1.5 -1.5 -1.5 -1.5 -1.5 -1.5 -1.5 -1.5 -1.5 -1.5 -1.5 -1.5 -1.5 -1.5 -1.5 -1.5 -1.5 -1.5 -1.5 -1.5 -1.5 -1.5 -1.5 -1.5 -1.5 -1.5 -1.5 -1.5 -1.5 -1.5 -1.5 -1.5 -1.5 -1.5 -1.5 -1.5 -1.5 -1.5 -1.5 -1.5 -1.5 -1.5 -1.5 2.9 6.8 10.1 10.7 11.4 14.8 19.5 22.3 30.3 33.3 38.8 31.1 28.5 37.7 41.1 40.2 34.5 29.8 27.4 23.5 23.2 20 17.1 22.7 37.9 38.9 19.6 15.5 8.5 14.5 32.2 38.1 46 48 38.6 13.7 7.9 37.9 49.7 40.1 37.3 14.4 23 39.2 68.3 79.7 81.2 79.9 83.9 87.9 90 79 79.8 85.9 91.3 92.8 90.9 79.2 80.5 96.7 114.5 120.3 124.9 132.7 142.1 150.6 158.3 163.4 161.1 162 160.7 164.1 172.1 170.8 173.1 185 165.1 158.1 153.7 149.7 142.9 150.9 149.6 141.5 122.2 106 95.6 82.1 86 92.2 96.1 94.5 92.8 87.3 79.1 65.3 76.1 85.1 85.5 78.9 98.5 98.8 95.4 97.7 108.9 101.8 97.7 93.1 80 67.9 44.7 36.7 21.4 5 1.9 -1.5 -1.5 -1.5 -1.5 -1 -1.5 -1.5 -1.5 -1.5 -1.5 -1.5 -1.5 -1.5 -1.5 -1.5 -1.5 -1.5 -1.5 -1.5 -1.5 -1.5 -1.5 -1.5 -1.5 -1.5 -1.5 -1.5 -1.5 -1.5 -1.5 -1.5 -1.5 -1.5
-1.5 -1.5 -1.5 -1.5 -1.5 -1.5 -1.5 -1.5 -1.5 -1.5 -1.5 -1.5 -1.5 -1.5 -1.5 -1.5 -1.5 -1.5 -1.5 -1.5 -1.5 -1.5 -1.5 -1.5 -1.5 -1.5 -1.5 -1.5 -1.5 -1.5 -1.5 -1.5 -1.5 -1.5 -1.5 -1.5 -1.5 -1.5 -1.5 -1.5 -1.5 -1.5 -1.5 -1.5 -1.5 -1.5 -1.5 -1.5 -1.5 -1.5 -1.5 -1.5 0.8 2.1 7.6 11.8 13 12 14.6 19.9 37.6 38.3 44.9 35.6 34.9 30.8 31.5 32.6 35.2 30.7 31.4 30.3 28.1 25.7 24.4 20.9 37.7 36.7 26.8 27.3 22.4 18.8 29.5 37.7 51.9 70.6 59.7 40.3 33.4 23.8 42.5 45.3 38.2 26.2 20.9 35.4 56.4 80.5 85.1 83.9 84.1 89.4 88.6 78.6 82.2 88.4 90.5 94 95.5 96.1 76.4 81 97.2 113.1 116.9 126.9 142.1 144.7 154.8 164.7 169.5 174.3 164.2 164.2 166.5 169 172.4 176.7 169.7 163.1 162.8 154.1 142.7 153.6 156.4 152 139.1 119.6 104.7 91.7 83.4 92.3 98.9 95.9 93.7 93.5 85.1 72.6 75.5 85.8 88.4 84.3 89 99.4 93.4 94.2 103.1 106.4 97.6 93.8 86.7 75.4 65.4 63.7 54.6 52.6 33.8 25.9 -1.5 -1.5 -1.5 -1.5 3 2.2 -1.5 -1.5 -1.5 -1.5 -1.5 -1.5 -1.5 -1.5 -1.5 -1.5 -1.5 -1.5 -1.5 -1.5 -1.5 -1.5 -1.5 -1.5 -1.5 -1.5 -1.5 -1.5 -1.5 -1.5 -1.5 -1.5
-1.5 -1.5 -1.5 -1.5 -1.5 -1.5 -1.5 -1.5 -1.5 -1.5 -1.5 -1.5 -1.5 -1.5 -1.5 -1.5 -1.5 -1.5 -1.5 -1.5 -1.5 -1.5 -1.5 -1.5 -1.5 -1.5 -1.5 -1.5 -1.5 -1.5 -1.5 -1.5 -1.5 -1.5 -1.5 -1.5 -1.5 -1.5 -1.5 -1.5 -1.5 -1.5 -1.5 -1.5 -1.5 -1.5 -1.5 -1.5 -1.5 -1.5 -1.5 -1.5 -0.1 2.2 4.2 9.6 15.9 13.2 13.8 18.2 34.5 40.6 46.9 45 34.5 30.9 31 31.3 32.6 35.3 33.2 31.8 32.4 30.7 26.2 23.5 23.7 30.8 31.6 38.9 35.9 31.6 27.5 36.5 48.4 71.7 70.3 60.3 45.3 48.2 28.4 38.1 37.7 34.5 25.6 30.3 49 73.2 85.7 89.9 91.9 89.4 87.2 80.1 85.8 88 93.3 94.1 100.5 102.3 92.7 78.6 84.3 106.4 118 125.1 140.8 146.5 149.6 161.5 169.1 171.3 167.1 165.7 167 169.8 170.7 171.1 168.4 171.2 165.5 164.8 152.4 152.9 164.8 156.6 151.7 135.4 121 103.9 88.4 90.5 97.1 98 97.4 98.9 92 84.7 67.8 83.1 89.3 88.2 88.5 94.4 95.5 91.2 96.2 104.1 99.2 94.9 90.3 88.1 72.5 63.4 60.4 55.9 52 39.9 30.3 5.8 4 2.8 4.3 4.1 8.7 4.7 -1.5 -1.5 -1.5 -1.5 -1.5 -1.5 -1.5 -1.5 -1.5 -1.5 -1.5 -1.5 -1.5 -1.5 -1.5 -1.5 -1.5 -1.5 -1.5 -1.5 -1.5 -1.5 -1.5 -1.5
-1.5 -1.5 -1.5 -1.5 -1.5 -1.5 -1.5 -1.5 -1.5 -1.5 -1.5 -1.5 -1.5 -1.5 -1.5 -1.5 -1.5 -1.5 -1.5 -1.5 -1.5 -1.5 -1.5 -1.5 -1.5 -1.5 -1.5 -1.5 -1.5 -1.5 -1.5 -1.5 -1.5 -1.5 -1.5 2.7 -1.5 -1.5 -1.5 -1.5 -1.5 -1.5 -1.5 -1.5 -1.5 -1.5 -1.5 -1.5 -1.5 -1.5 -1.5 -1.5 1.4 2.8 5 10 24.4 22.4 14.1 17.2 27.4 37 50.7 55.5 42.5 31.6 31.4 31.5 32.3 34.9 35.2 34.9 35.5 38 34.9 30.6 24.7 30.7 43 46.3 44.2 29.9 28.9 34.8 45.5 64.7 72.4 67.7 55.7 60.4 39.5 40.6 42.6 39.9 40.3 23.6 41.9 64.2 83.7 91.9 97.8 97.4 87.7 85.2 86 87.7 93.9 93.1 108.8 108.7 107.8 88.4 80 95.6 115.7 119.7 137 151.3 150.6 154.2 161.8 172.4 171.7 167.6 168.1 176.7 172.3 172.7 170.5 173.3 174.2 169.3 161 150.3 165.6 167.9 158.6 154.9 138.8 120.2 102 90.7 93.3 99.7 101.1 102.5 100.1 91.1 81.1 79.8 87.4 94.4 94 92.1 93.9 90.8 91.2 102.3 103.4 97.2 102.4 101.7 87.5 71.7 62.1 58.8 54.7 47.3 49.8 32.6 10.6 17.6 14 10.3 22.1 26.6 26.2 21.2 -1.5 -1.5 -1.5 -1.5 -1.5 -1.5 -1.5 -1.5 -1.5 -1.5 -1.5 -1.5 -1.5 -1.5 -1.5 -1.5 -1.5 -1.5 -1.5 -1.5 -1.5 -1.5
-1.5 -1.5 -1.5 -1.5 -1.5 -1.5 -1.5 -1.5 -1.5 -1.5 -1.5 -1.5 -1.5 -1.5 -1.5 -1.5 -1.5 -1.5 -1.5 -1.5 -1.5 -1.5 -1.5 -1.5 -1.5 -1.5 -1.5 -1.5 -1.5 -1.5 -1.5 -1.5 -1.5 -1.5 -1.5 0.7 -1.5 -1.5 -1.5 -1.5 -1.5 -1.5 -1.5 -1.5 -1.5 -1.5 -1.5 -1.5 -1.5 -1.5 -1.5 -1.5 2.9 6.4 8.5 21.8 32.9 39.4 20.6 17.6 26.4 33.9 40.1 54.7 51 36.9 32.7 33.1 33.1 37.9 36.2 36.1 37 38.7 36.8 37 39.1 27.9 39.9 46.7 45.8 39.3 31.7 33 46.4 53.2 72.2 71.7 58.3 50.5 55.7 67.2 45.3 43.3 48.5 45 36.2 57.5 74.6 91.6 94 96.3 89.5 86 91.3 90 94.7 98.4 107.5 112.3 112.9 104.8 84.9 90.2 106.8 118.7 129.2 151.4 156.6 157.4 161.4 177.3 178.4 177.3 173.5 191 191.6 179.7 181 181.8 190.5 178.7 173.5 162.1 167.5 170.7 170.1 160.1 156.3 136.1 111.7 100.6 98 103.1 104.2 100.8 105.6 101.9 89.8 78.9 86.9 93 92.2 93.5 94.3 89.2 88.9 98.2 101 107 115.4 108.5 99 80.8 67.1 60.6 56.3 52 57.2 48 26.1 25.4 29.4 30.1 18 31.6 35.2 38.7 33.7 -1.5 -1.5 -1.5 -1.5 -1.5 -1.5 -1.5 -1.5 -1.5 -1.5 -1.5 -1.5 -1.5 -1.5 -1.5 -1.5 -1.5 -1.5 -1.5 -1.5 -1.5
-1.5 -1.5 -1.5 -1.5 -1.5 -1.5 -1.5 -1.5 -1.5 -1.5 -1.5 -1.5 -1.5 -1.5 -1.5 -1.5 -1.5 -1.5 -1.5 -1.5 -1.5 -1.5 -1.5 -1.5 -1.5 -1.5 -1.5 -1.5 -1.5 -1.5 -1.5 -1.5 -1.5 -1.5 -1.5 -1.5 -1.5 -1.5 -1.5 -1.5 -1.5 -1.5 -1.5 -1.5 -1.5 -1.5 -1.5 -1.5 -1.5 -1.5 -1.5 3 6.6 10.6 13.8 24.2 28.6 48.3 30.4 23.7 18 35 33.4 47 54.3 51.1 38.6 37.2 38.5 43.1 42.7 39.2 39.8 44.5 51.7 45.3 39.3 39.2 34.5 46.3 51 51.5 36 36.8 46.2 49.9 53.8 65.5 56 53.2 73.2 68.1 56.8 48.5 48.6 51.4 41.8 50.4 65.5 85.1 93.5 92.7 87.9 91.1 91 97.1 104.3 106.5 109.6 118.2 121.7 117.4 101.4 97.5 105.7 109.9 119.6 141.3 155.4 158.2 164.2 183.3 187.8 189.4 185.7 181.1 194.7 193.4 198.9 191.1 193.2 196.3 179.8 171.3 167.1 171.4 178.3 172 163.7 158.1 128.3 114.8 110.8 101.5 106.6 105.7 104.2 105.3 104 86.4 87 97.4 94.1 92.3 93.5 89.7 88.8 94.5 99.6 108 119.5 113.2 106 91.7 74 65.7 60.2 54 57.7 58.5 37.6 33.9 33.8 43.7 43.8 25.3 36.4 48 48.6 44 39.1 -1.5 -1.5 -1.5 -1.5 -1.5 -1.5 -1.5 -1.5 -1.5 -1.5 -1.5 -1.5 -1.5 -1.5 -1.5 -1.5 -1.5 -1.5 -1.5
-1.5 -1.5 -1.5 -1.5 -1.5 -1.5 -1.5 -1.5 -1.5 -1.5 -1.5 -1.5 -1.5 -1.5 -1.5 -1.5 -1.5 -1.5 -1.5 -1.5 -1.5 -1.5 -1.5 -1.5 -1.5 -1.5 -1.5 -1.5 -1.5 -1.5 -1.5 -1.5 -1.5 -1.5 -1.5 -1.5 -1.5 -1.5 -1.5 -1.5 -1.5 -1.5 -1.5 -1.5 -1.5 -1.5 -1.5 -1.5 -1.5 -1.5 0.6 25.8 27.3 19.4 23.8 24 24.8 30.8 35.4 31.2 24.9 23.8 33.1 36.7 45 51 45.3 40.2 40.6 45 47.2 48.3 46.7 47.8 53 55.7 49 50.8 46.5 44.6 51.3 55.9 43.1 48.9 40.1 46.4 51.4 56.4 67.3 53.8 61.4 68.2 65.2 54.9 51.4 48.9 55.6 39.3 60.9 72 87.8 87.3 88.7 92.1 96.6 101.4 111.4 115.6 117.9 128 131.6 125.8 114.3 108 116.7 121 115 136.9 148.2 158.2 170.3 183.4 188.8 194.7 191.4 188.3 196 198.4 197.8 202.9 200.3 193.6 189 178.1 166.1 175.5 179.5 180.6 171.6 163.1 146.1 121.5 123 111.3 101.2 110.7 113.6 108.5 107.3 104.7 87.6 92.4 100.2 93.8 93.8 90.6 89.1 88.5 96.4 111.5 121.4 120.5 112.7 95.2 83.2 70.4 60.5 56.2 60 60.5 52.9 37.4 38.4 46.8 63.7 59.7 38 46.5 59.1 66.6 54 47.7 5 1 -1.5 -1.5 -1.5 -1.5 -1.5 -1.5 -1.5 -1.5 -1.5 -1.5 -1.5 -1.5 -1.5 -1.5 -1.5 -1.5
-1.5 -1.5 -1.5 -1.5 -1.5 -1.5 -1.5 -1.5 -1.5 -1.5 -1.5 -1.5 -1.5 -1.5 -1.5 -1.5 -1.5 -1.5 -1.5 -1.5 -1.5 -1.5 -1.5 -1.5 -1.5 -1.5 -1.5 -1.5 -1.5 -1.5 -1.5 -1.5 -1.5 -1.5 -1.5 -1.5 -1.5 -1.5 -1.5 -1.5 -1.5 -1.5 -1.5 -1.5 -1.5 -1.5 -1.5 -1.5 -1.5 -0.1 1.5 9.5 39.3 24.4 27.6 31.5 28.1 26.3 31 38.7 36.4 20.9 23.2 31.9 40.7 46.3 56.9 51.6 45.5 42.9 48.3 52.7 50 50.2 54.3 56.6 55.1 57.6 57.1 49.6 48.4 62 48.4 47 44.9 44.4 53.5 60 68.8 61.3 61.6 69.3 72.2 67.1 63.2 57.6 63.4 57 50.9 66.9 74.2 82 88.6 92.8 99.8 112.8 116 125.9 128.2 128.5 133.7 135.2 126.4 111 118 123.9 124.3 136.6 148 158.7 164.1 181.1 190.6 193 198.2 196.1 194.3 199.7 208.5 205.1 202 205 193.8 182 176.6 176.3 185.2 194.6 181.3 173.3 159.9 132.7 137.2 120.8 105.5 105 114.2 110.9 115 109.4 101.2 91.8 98.1 94.3 98.9 94.1 90.4 90.3 96.5 110.2 123.1 121.1 116.5 100.6 87.4 76.1 66.9 58.7 65.9 61.9 55.4 44.8 56 54.7 60.9 70.4 64.1 47.2 56.5 70.9 71 64.7 50.9 25.3 29 2.9 -1.5 -1.5 -1.5 -1.5 -1.5 -1.5 -1.5 -1.5 -1.5 -1.5 -1.5 -1.5 -1.5 -1.5
-1.5 -1.5 -1.5 -1.5 -1.5 -1.5 -1.5 -1.5 -1.5 -1.5 -1.5 -1.5 -1.5 -1.5 -1.5 -1.5 -1.5 -1.5 -1.5 -1.5 -1.5 -1.5 -1.5 -1.5 -1.5 -1.5 -1.5 -1.5 -1.5 -1.5 -1.5 -1.5 -1.5 -1.5 -1.5 -1.5 -1.5 -1.5 -1.5 -1.5 0.6 1.9 -1.5 -1.5 -1.5 -1.5 -1.5 -1.5 -1.5 -1.5 1.6 6.3 23.9 27.8 29.9 35.1 32 26.8 27.2 34.6 34.2 28 20 25.2 36.1 44.2 49.7 57 48.8 47.2 49.8 56.6 54.2 54.7 62.4 60.4 57.2 62.3 68 66.9 57.1 61 68.8 53.3 55.4 49.4 53 55.4 63.7 66.4 53.8 67 71.9 72.6 72.1 63.7 70.9 68.3 56.1 56.8 68.9 79 88.4 97.8 104.2 117.9 121.6 131.2 134.9 132.2 140.5 143.4 136.1 116.2 119.2 127.5 139.5 139.8 151.2 157.5 170.7 172.8 185.7 194.7 197 206.5 205.2 204 209.9 209.4 207.6 211.4 198.9 190.3 183.3 174.9 186.4 192.6 185.8 177.9 166.2 146.2 157.4 139.7 122.1 107.5 107.8 119 117.3 115.4 109.7 99.7 97.4 97.3 99.5 100.4 90.9 91.8 92 104.5 119.3 121.9 116.9 106.8 87.9 81 73 66.2 63.3 64.6 63.6 56.2 54.7 58.1 60.3 64.2 70.7 68.8 59.4 66.4 76.2 74.8 74 62.6 47.6 42.7 11.5 -1.5 -1.5 -1.5 -1.5 -1.5 -1.5 -1.5 -1.5 -1.5 -1.5 -1.5 -1.5 -1.5
-1.5 -1.5 -1.5 -1.5 -1.5 -1.5 -1.5 -1.5 -1.5 -1.5 -1.5 -1.5 -1.5 -1.5 -1.5 -1.5 -1.5 -1.5 -1.5 -1.5 -1.5 -1.5 -1.5 -1.5 -1.5 -1.5 -1.5 -1.5 -1.5 -1.5 -1.5 -1.5 -1.5 -1.5 -1.5 -1.5 -1.5 -1.5 -1.5 -1.5 -1.5 9.3 10.2 -1.5 -1.5 -1.5 -1.5 -1.5 -1.5 -1.5 3 7.5 18.4 26.6 33.5 34.4 34.9 30.9 26.7 28.9 30.2 25.4 20.3 21.7 29.2 36.2 41.8 46.7 45.3 44.2 48.8 58.1 61 66.5 66.7 62.2 59.1 66.6 75 76.6 70.9 57.6 70.2 77.4 62.6 68.3 51.5 55.1 62.3 64.7 55.7 57.3 63.7 69.2 73.2 71.6 75.6 81.2 61.9 55 57.8 81.7 87.2 99.1 103.2 115.3 130.5 142.2 143.2 146.7 147.7 150.7 148.9 127.9 119.7 134.5 142.4 146.8 156.6 157.4 172.5 172 179.4 195 199.3 207.8 213.9 208.5 206.2 215.4 214.1 207.6 204.4 199.3 187.2 181.8 186.3 190 183.5 182 173 155.4 169.9 158.8 138.2 125 108.4 111.7 117.1 118.4 115.1 111.7 97.8 99.2 97.9 97.5 91.9 92.9 99 99.3 119.2 125.1 119.8 111.6 95.8 82.6 77.2 74 64.2 66.5 67.7 64.2 59.7 60 64.6 67 68.6 71.9 69.1 65.7 76.1 76.1 79.8 80.4 71.4 54.2 44.1 22.2 -1.5 -1.5 -1.5 -1.5 -1.5 -1.5 -1.5 -1.5 -1.5 -1.5 -1.5 -1.5
-1.5 -1.5 -1.5 -1.5 -1.5 -1.5 -1.5 -1.5 -1.5 -1.5 -1.5 -1.5 -1.5 -1.5 -1.5 -1.5 -1.5 -1.5 -1.5 -1.5 -1.5 -1.5 -1.5 -1.5 -1.5 -1.5 -1.5 -1.5 -1.5 -1.5 -1.5 -1.5 -1.5 -1.5 -1.5 -1.5 -1.5 -1.5 -1.5 -1.5 -1.5 6.7 7.3 5.7 -1.5 -1.5 -1.5 1 3.5 15.5 6 9.6 14.4 25.8 33.8 35.3 38 33.9 28.1 27.2 28.1 26.3 22 18.6 21.9 25.4 29.4 37.3 39.5 39.3 45.3 50.3 57.5 71 74.9 63.6 61.8 63.7 75.1 77.1 74.6 69.7 65.6 75.6 69.4 71.2 58.2 56.1 63.1 67.6 54.1 58.2 57.7 62.5 69.5 71.7 69.6 83 84.6 65.5 57.2 77.9 84.2 93.5 111 111.1 124.7 143.5 147.1 149.3 149.4 153.7 153.5 141.9 123.2 133.8 139.2 146.9 160.6 165.8 170.6 180 179.6 198.3 202.9 205.5 216.4 218.2 209.9 206.3 216.3 214.8 212.5 208.1 199.7 192.5 189.5 195.5 188.6 183.9 178.2 170.9 173.7 170.1 162.1 137.9 123.5 111.5 123.4 129.1 122 117.8 112.2 99.2 97.3 94.5 93.3 94.1 102.1 104.4 114.5 132.7 132.5 118.7 109.7 84.6 79.9 78.8 73.3 69.6 74.3 69.5 64.7 69.7 69.5 65.3 73.6 73 71 64.1 75.4 80 83 86 84.8 80.3 64.4 48.9 24.3 2.3 -1.5 -1.5 -1.5 -1.5 -1.5 -1.5 -1.5 -1.5 -1.5 -1.5
-1.5 -1.5 -1.5 -1.5 -1.5 -1.5 -1.5 -1.5 -1.5 -1.5 -1.5 -1.5 -1.5 -1.5 -1.5 -1.5 -1.5 -1.5 -1.5 -1.5 -1.5 -1.5 -1.5 -1.5 -1.5 -1.5 -1.5 0.7 1.1 1.8 2.2 -1.5 -1.5 -1.5 -1.5 -1.5 -1.5 -1.5 -1.5 -1.5 -1.5 -1.5 7 7.8 -1.5 -1.5 -1.5 -1.5 6.2 12.6 23.2 13.5 13.8 22.7 32.4 35.8 43.2 47.1 29.7 28.4 31 30.8 24.9 20.9 21.4 24.7 27.8 29.8 34.3 38.4 43.1 43 47.4 68.6 82.8 65.7 69.6 67.9 67.3 76.2 81.1 82.1 71.1 75.3 77.6 63.9 69.5 64 59.3 74.3 59.5 58.6 59.1 58.9 64.5 66.4 67.3 73.7 79.3 79.9 66.9 72.2 83.3 90.1 105.8 116.4 118.4 130.9 147.8 150.4 152.9 155.1 157.4 156.7 132.6 131.9 135.3 141.6 152.5 170.8 169.7 172.6 173.7 182.5 200.2 209.3 210.8 218.2 218.6 207.7 210.2 218.5 218.8 213.4 206 204.6 186 191.3 190.5 183.9 175.3 178.3 179.9 172.9 172.2 157.7 132.5 117.1 124.5 127.7 133.2 119.2 116.5 102.1 100 95.6 95.6 96.9 101.4 108.4 116.7 130.4 142.1 126.7 113.8 97.3 96.5 91.8 82.6 73 77.2 74.8 66.6 72.6 73.2 68.3 66.7 75.8 76.5 74.5 67.4 80.1 81.8 85.2 89 86.1 82.1 71.7 57 33.9 6.3 -1.5 -1.5 -1.5 -1.5 4.4 8.1 12.5 12 5.5
-1.5 -1.5 -1.5 -1.5 -1.5 -1.5 -1.5 -1.5 -1.5 -1.5 -1.5 -1.5 -1.5 -1.5 -1.5 -1.5 0 1.5 3 6.7 1.7 -1.5 -1.5 -1.5 -1.5 -1.5 -1.5 2.2 2.8 2.3 2.2 11.9 -1.5 -1.5 -1.5 -1.5 -1.5 -1.5 -1.5 -1.5 -1.5 -1.5 4 9 -1.5 -1.5 -1.5 -1.5 6.4 21.3 14.3 25.9 13.8 16.6 29.9 35.4 54.6 41.7 32.7 29.8 33.7 40.5 29.3 22 22.4 26.1 27.3 28.3 30.8 35.2 35.9 36.1 39.8 53.9 70.6 64.9 69.4 73.6 77.1 73 80.6 81.2 81 73.6 75.2 74.6 77.1 75.2 69 68.8 67 60.3 61 59.5 64 63.9 66.2 69.1 79 78.1 80 74.1 76.7 86.3 99.1 120.7 122.1 124.5 147.3 150.8 152.8 155.7 158.7 160.7 150.4 145.5 142.2 139.9 147.4 157.6 165.5 171.1 173.3 174.7 193.3 201.8 207 212.1 215 211.2 211.7 219.7 225.4 219.8 217.4 207.8 194 190.5 191.5 193.5 179.4 181.4 190.1 179.3 175 173 150.1 122.5 124 130 132.1 129.4 122.1 110.7 101.2 96.7 96.1 96.7 101.3 106.8 118 132.1 144.1 140.3 119.9 103.8 108.2 102.2 96.9 88.4 76.1 77.4 69 69.8 81.6 78.6 69.5 71.3 77.2 78.7 74.8 77.5 83.5 82.6 89.2 91.4 83.9 83.4 75.3 69.1 45 20.2 9.2 13.9 25.4 36.1 42.5 49.4 47.3 42
-1.5 -1.5 -1.5 -1.5 -1.5 -1.5 -1.5 -1.5 -1.5 -1.5 -1.5 -1.5 -1.5 -1.5 -1.5 -1.5 0.4 2.8 10.6 23.1 -1.5 -1.5 -1.5 -1.5 -1.5 1.8 -1.5 3.6 5.4 6.4 6.1 2.2 1.7 -1.5 -1.5 -1.5 -1.5 -1.5 -1.5 -1.5 -1.5 -1.5 3.4 5.4 4.9 2.7 0.6 -1.5 2.6 10.1 19.7 13.6 14.3 14.9 24.1 31.5 38.4 46.8 35.1 30 29.7 39.3 30.2 23.7 23.1 24.6 28.4 30 30.4 34.7 35.6 35.8 38.2 42.4 53.3 56.2 69.4 75.3 86.2 82 83 82.8 80.8 71.4 76 80 83.2 83.3 76.1 68.6 62.5 61.6 63.1 61.9 62.7 66 62.9 64.1 71.1 79 82.1 82.3 69.3 82.2 91.3 115.1 136.2 134.2 133.6 150.6 154.9 156.8 164.4 167.3 160.7 150.7 159.2 145.8 143.4 148.1 157.8 164.7 170.2 171.9 180.3 195.2 197.8 208.3 211.9 212.3 211.1 223.1 226.7 221.3 218.9 217.7 203.1 193.3 192.8 194 187.6 179.4 195.2 192.5 183.9 182.1 165.4 129.8 125.9 124.3 133 130 121.2 116 103 98.2 96.6 97.8 100.6 108.7 118.1 133.7 139.7 144.5 131.8 112.7 107.5 108.3 103.6 96 85.1 82.5 75.3 67.9 86.5 85.8 78.2 69.8 75.7 81.5 78.8 74.5 81.6 82.5 83.4 87.8 87.5 87.3 83.1 80.8 76.6 73.2 48.5 50.8 60.9 96.5 86.6 93.3 90.6 79.7
-1.5 -1.5 -1.5 -1.5 -1.5 -1.5 -1.5 -1.5 -1.5 -1.5 -1.5 -1.5 -1.5 -1.5 -1.5 -1.5 0.5 2.8 10.6 22.8 -1.5 -1.5 -1.5 0.7 2.1 23.5 6.4 6.4 12.7 12.5 8.6 3.8 1.9 -1.5 -1.5 -1.5 -1.5 -1.5 -1.5 -1.5 -1.5 -1.5 1.4 1.2 5.4 4.2 3.3 -1.5 -1.5 5.3 9.6 10.7 13.4 13.4 22.2 25.1 32.9 40.4 40 34.1 29.1 28.8 29.5 26.2 24.4 29.2 32.2 29.4 31.9 36.6 38.7 35.4 36.4 38.3 44 59.2 68.9 77.6 91.4 96.9 94.8 85.5 83.3 74.9 78.2 83.4 83.9 85.3 79.2 73.3 67.3 60.9 62 62.4 67 71.4 68.3 63.2 64.9 75.4 82.9 86.8 84 82.4 82.1 99.9 132.1 138.9 138.1 137.2 154.9 156.9 167.5 175 160.1 152.2 164.3 168.3 149.9 149.8 154.1 163.1 170.6 170.7 172.3 187.7 192.7 202.3 209.5 213.4 214.6 221.1 233.3 224.2 225.8 218.1 210.5 200.6 194 195.5 196.6 181.3 188.3 196.8 193 184.2 174.7 160.2 127.3 124.8 125.8 132.1 126.9 112 105.3 101.6 98.8 98.3 98.9 113.6 118.9 134 143.5 150.1 138.4 122.7 114.4 110.4 109.4 104.5 97.9 80.1 79.5 71.9 83 94.3 83.2 75.1 69.2 79.7 81.7 79.9 85.1 85.3 82.6 88.4 87.1 90.6 94.5 86.6 88 83.1 84.2 92.7 103.6 138.6 150.3 151.9 147.1 129.4
-1.5 -1.5 -1.5 -1.5 -1.5 -1.5 -1.5 -1.5 -1.5 -1.5 -1.5 -1.5 -1.5 -1.5 -1.5 -1.5 0.1 1.9 8.2 13.2 3.8 0.8 1.7 2.7 30.1 43.3 40.5 12.5 17.2 28.5 25.3 17.4 4.6 1.2 -1.5 -1.5 -1.5 -1.5 -1.5 -1.5 -1.5 -1.5 -1.5 -1.5 5 5.8 6.2 5.8 -1.5 -1.5 7.1 9.8 21.3 14.8 15.2 16.5 23.7 33.7 41.2 55 48.6 32.2 29 27.2 25.1 29.7 28.2 34.6 36 37.8 37.2 38.2 35.3 35.7 45 60.8 70.1 78 86.5 100.8 103.3 101.2 86 79.8 72.4 84.3 83 85.2 83.8 78.7 69.7 62 61.5 63.8 67 69.6 73 64.5 65.2 68.8 82.4 90.1 85.9 78.5 86.9 90.7 116.3 139.1 140.2 137.8 141.3 155 160.3 165 161.7 157.6 159.6 163.1 162.5 152.6 154.5 156.8 162 167.8 171.5 183.4 194.8 209.3 222.3 219.1 221.8 218 230 226.5 227.5 230.9 219 209.7 197.9 195.9 199.9 189.5 185.9 195 197.2 188.3 181 174.5 156.2 126.2 124 125.3 121.3 113.1 102.6 101.7 99.3 99.8 98.7 113.4 119 135.8 144.8 150 148.6 133.8 121 120.8 110.7 109.2 103.1 95.2 85.2 83.7 70.2 89.8 88.8 81.2 76.7 70.9 81.2 82.6 85.2 88.4 84.4 82.9 84.9 91.8 100.4 96.2 90.5 89.2 86.6 88.3 104.3 136.6 153.1 151.2 151.3 141.3
-1.5 -1.5 -1.5 -1.5 -1.5 -1.5 -1.5 -1.5 -1.5 -1.5 -1.5 -1.5 -1.5 -1.5 -1.5 -1.5 -1.5 0.6 6.1 8.7 9 5.8 6.6 22.1 32.4 46.4 48.8 39.2 23.2 29.6 33.6 26.7 15 6.2 -1.5 -1.5 0.2 -1.5 -1.5 -1.5 -1.5 -1.5 -1.5 -1.5 1.5 5.1 7.1 6.2 6.9 -1.5 1 6.2 14.3 20.9 30.3 17.3 16.1 22.8 31.8 55.2 53.4 46.8 34.8 34.6 28.4 30.9 31.5 34.5 32.4 35.3 38.1 35.4 33.1 36 46.4 61 70.7 79.6 84.9 100.6 105.3 106 101.7 87.1 78.5 80.6 84.8 84.9 85.6 81.7 67.5 62.6 63.2 65.2 68.5 70.9 69.1 66.4 66.3 70.3 77.8 86.6 93.3 89.8 83.3 89.2 103.7 119.3 131.1 139.1 135.9 139.9 154.5 164 162.2 167 168.1 169.7 169.6 157.9 152.8 157.9 161.9 170.8 171.4 179.9 192.7 206.2 220.2 220.4 224.5 229.5 227.3 230.8 227.8 231.6 224.2 215.8 201.5 199.9 200.5 200.3 188.9 188.8 195.9 193.7 185 184.6 169.3 140.5 127.6 124.2 115.2 108.2 103 101.1 101.3 100.5 100.2 110.2 120.6 137 150.8 149.8 154.4 145 131 122.6 116.5 108.8 106.1 101.8 91.5 98.2 83.7 77.5 88.4 87.3 83.3 80.6 71.9 81.6 83.5 87.4 86.8 86.5 85.9 94.7 106.6 126.9 107.2 94.8 92.4 88.7 100.7 130.3 150.8 150.6 149.8 146
-1.5 -1.5 -1.5 -1.5 -1.5 -1.5 -1.5 -1.5 -1.5 -1.5 -1.5 -1.5 -1.5 -1.5 -1.5 -1.5 -1.5 0.7 4.7 5.8 7.9 12.2 13.8 24.2 41.1 52.8 67.6 57.8 41.5 28.1 36.5 32.8 22.7 13.5 7.2 2.6 4.1 1.9 -1.5 -1.5 -1.5 -1.5 -1.5 -1.5 -1.5 4.8 5.2 6.1 7.3 3.4 2 2.2 8.9 24.9 30.9 25.3 27.9 19.2 28.1 33.2 43.7 40.8 43.4 38.2 38.5 35.6 31.2 33.7 29.4 29.5 32.6 31.5 32 40 44.7 62.6 67.8 76 95.1 97.1 110.7 113.1 108.3 101.8 87.3 74.2 83.5 82.4 85.2 78.6 68.7 66.8 73.3 76.6 73.2 76.5 74.7 67 68.2 80.7 71.8 81.9 95.1 101.2 91.5 82.7 91 106.7 119.3 130.9 140.7 143.6 147.4 154.6 168.2 171.2 168.7 171.2 174.9 170.3 168.3 158.1 166.2 176.7 172.8 177.8 192.3 202.7 210.5 216.1 228 237.7 239.3 229.6 227.6 227.4 225.7 218.8 210.9 202.2 201.1 201.2 190.3 189.6 192.7 192.4 196.7 186.5 178 158.7 134.7 125.3 120.5 115.8 113 112.7 111 106.8 102.8 103.9 119.7 136.5 152.6 153.1 155.5 155.5 137.9 126.8 122.7 117.7 113.2 107.7 100.8 97.3 101.4 80.8 84.9 92.4 88.5 87 82.4 72.9 85.3 88.3 92.3 94.4 97 95 101.2 125.9 131.8 125.6 110.4 97 97.9 118.3 145.6 149.1 147.8 145.3
-1.5 -1.5 -1.5 -1.5 -1.5 -1.5 -1.5 -1.5 -1.5 -1.5 -1.5 -1.5 -1.5 -1.5 -1.5 -1.5 -1.5 2.2 3.8 6.7 7.4 12.7 18.6 42.4 45.5 55.3 68.1 66.1 59.5 43.7 32.8 36.2 32.2 20.8 14.9 9 8.7 5.5 2.4 -1.5 -1.5 -1.5 -1.5 -1.5 -1.5 3.7 3.9 4.6 6.9 7.2 6 5.8 3 13.8 31.7 31.4 32.9 30.5 23.1 28.5 32.6 44.4 47.4 42 43.5 41.6 32.8 30.8 29 29.1 29.5 31.4 32.9 39.8 45 53.3 68.6 76.6 90.9 94.6 110.1 117.6 114.1 107.7 101.7 78.1 75.8 84.4 82.9 75 74.7 76.2 76.8 82.2 83 79.9 79.2 69.2 72.9 81.4 86.1 74.4 89.3 103 103.9 96.9 89.2 95.9 109.4 129.4 136.6 142.5 149.6 149.5 158.3 163.4 166.6 174.9 175.1 181.2 175.2 175.3 168 178.8 184.1 180.3 187 200.6 207.2 215.7 235.3 240.6 241.6 235.4 229.2 227.6 224.8 222.8 220 208.1 198.2 197.3 193.6 190.5 190.6 195.3 198.9 192.7 184.1 167.4 145.3 155 141 129.4 123.3 121.6 120.4 116.8 114.2 113.1 121.1 139 153.1 155.5 160.4 156 144.7 135.9 125.4 122.2 119.1 114.4 107 98 103.4 98.6 83.9 86.5 90.9 93.6 89.1 83.7 79.5 87.2 92.3 98.2 99.6 104.1 101.3 126.1 129.3 130.6 134.5 121 100.3 108.3 137.9 144.3 143.2 143.1
-1.5 -1.5 -1.5 -1.5 -1.5 -1.5 -1.5 -1.5 -1.5 -1.5 -1.5 -1.5 -1.5 -1.5 -1.5 -1.5 -1.5 3.4 4.2 5.4 8.8 14.8 21.2 45 59.2 65.3 61.7 64.7 64.5 60.9 39 34.6 38.1 29.1 27.4 14.5 12 7.5 3.1 -1.5 -1.5 -1.5 -1.5 -1.5 -1.5 1.1 2.2 3.3 7 18.1 23.4 8.8 5.6 6.1 18.6 28.4 32.3 35.6 24.2 24.5 31.1 45.1 48.3 49.7 39.8 48.4 34.7 29.6 34.6 33.5 31.1 31.7 32 32.8 45.7 63.5 69.4 81.8 92.3 101.4 100.6 119.3 116 113.8 111.7 93.4 76.3 81 79.8 75.7 76.6 78.4 71.2 88.8 98.5 96.8 86.9 81.5 78.4 80.2 95.7 88.5 83.6 101.4 115.4 108.1 103.1 98.3 99.3 116.8 134.1 136.7 140.9 149 152.2 155.1 164.6 178.1 176.6 177 178.4 186.7 183.8 178.3 190.8 187.3 200.1 201.7 206.7 224.1 240.4 249.4 248 239.1 232.7 230.5 226.7 225 223.2 208.8 202.3 192.8 193.9 190.8 191.2 196.3 199.4 193.2 181.5 177.4 164.7 158.9 155 145.5 136.7 132.3 135.9 128 122.5 122.8 115.1 135.2 157.2 160.1 168 164.3 151.7 137.8 136.8 123.6 125.6 124.1 115.5 104.7 101.8 107.5 100.1 89.3 85.1 94 101.2 95.9 85.5 84.7 88.7 100.2 111.3 106.9 111.5 117.2 130 133.4 135 136.5 124.8 104.2 122.1 139.8 141.5 140.1
-1.5 -1.5 -1.5 -1.5 -1.5 -1.5 -1.5 -1.5 -1.5 -1.5 -1.5 -1.5 -1.5 -1.5 -1.5 1.3 7.4 8.8 7.5 6.9 12.1 19.8 38.1 47.7 64.7 72.5 67.9 63.7 65.2 62.6 50.4 34.5 34.5 34.6 32.6 23.3 18.8 11.3 9.3 7 2.2 -1.5 -1.5 -1.5 -1.5 -1.5 0.7 2.2 5.9 17.4 26.7 18.3 9.9 7.1 10.8 17.1 30 33.3 31.7 24.7 27.4 37.1 47.9 50.7 46.7 38.8 36.3 32 30.5 38.7 31.9 31.8 32.6 34 45.6 60.9 70.7 83.8 99 103.7 101.3 111.7 119.6 121.8 114.3 106.5 89.3 75.9 76.9 77.7 77.4 78.9 75.6 83.8 98.1 99.3 102.9 87.1 82 89.8 96.1 97.3 88.5 91.7 109.7 116.8 116.2 111.3 100.2 103.1 126.4 136.7 138.7 143.6 150.3 156.1 157.7 174.9 179.2 177.1 178.7 187.5 195.2 198.6 193.7 196.1 207.8 216 220.2 236.8 247.9 253.6 252 246.9 239.7 237.3 228.5 225.2 222.9 213.3 201.6 191.8 193.3 191.3 189.9 190.5 196.8 190.1 187.6 183.2 169.6 168.3 162 153.4 149.4 130.3 147.1 139.9 133.4 134.3 123.5 127.8 157.7 166.9 169.9 176.2 163 146.7 136.7 137.4 130.3 129.8 123.2 113 103.8 111.6 109.6 106.2 95.4 88.7 99.9 104.2 94.2 84.4 84.7 97 113.8 114.5 122.4 117.7 130.2 132.8 133.8 137.7 134.5 117 112 126.8 135.3 130.3
-1.5 -1.5 -1.5 -1.5 -1.5 -1.5 -1.5 -1.5 -1.5 -1.5 -1.5 -1.5 -1.5 -1.5 -1.5 2 15.3 24.5 14 15.1 18.9 27.2 42.6 50 61.4 72.6 68.4 64.8 63.9 63.9 51.4 42.8 34.2 36.7 34.1 30.7 23.6 18.5 21.6 16.6 9.7 8.8 2.2 -1.5 -1.5 -1.5 -1.5 3 2.2 13.4 26.9 24.2 14.3 17.3 15.5 17.8 20 30.2 32.2 25.7 30.7 31.7 48.7 47 45.6 37.6 36.1 35 30.6 38.1 34.3 32.2 33.3 42 38.2 54 69.7 79 98.5 103.6 102.8 101.5 118.5 121.9 119.5 115.2 98.4 80.4 76.1 79.4 82.6 82.9 79.8 91.9 87.5 99.5 102.4 96.6 93.2 97.3 96.6 101.8 99.3 92 97 110.8 116.3 118.2 116.2 104.5 108.1 126.4 137.9 139.5 144.3 156 158.2 168.4 177.4 178.1 179.2 188.9 199.9 205.8 210.3 201.6 207.4 219.9 225.3 239.5 246.5 257.9 257 252 247.1 243.2 235.9 225.1 221 214.6 203.5 190.7 190.4 193 189.3 188.4 190.6 195.8 190.7 187.8 179.5 174.6 171.6 159.6 149 141.2 145.3 152.4 144.5 141.5 134.8 132.2 156 167.3 170 177.1 174.8 159.1 141.7 140.3 136.3 134.9 129.5 121.4 110 114.7 113 106.8 108.6 100.7 98.9 104.8 104.1 93.5 85.5 85.7 106.9 119.2 119.5 125.7 123.6 133.1 133.1 135.1 136.3 131.6 116.5 114.4 120.2 120.2
-1.5 -1.5 -1.5 -1.5 -1.5 -1.5 -1.5 -1.5 -1.5 -1.5 -1.5 -1.5 -1.5 -1.5 -1.5 1.6 6.5 8.2 11.6 16.3 22.1 37.9 53.3 58.2 60.1 65.2 70.5 68.3 65.9 58.8 55.2 46.5 34.6 35.4 35 36.7 29.6 33.8 29.1 30.1 18.9 10.7 12.2 1.2 -1.5 -1.5 -1.5 -1.5 4.6 9.7 25.7 29.7 19.4 23.1 29.7 23.4 28.2 23.5 35.9 29.7 28.9 29.9 40.7 51.9 44.1 38.9 38.7 37.9 33.8 32.1 32.6 35.3 35.5 43.5 44.4 47.2 65.2 73.2 90.2 106.8 102.3 103 111.4 120.4 122.2 121.4 111.6 87.7 77.3 79.5 83.5 90.7 91.3 92.2 98.5 94.6 103.5 98.1 99.9 109.3 105.7 98.1 102.7 100.4 95.6 103.9 117.6 119.1 119.2 123.6 111.7 110.2 125.4 140.8 138.4 156.6 160.2 165.1 171.5 179.5 177.9 186.9 199.8 212.3 219.6 215.7 210.7 217.9 224.9 229.8 242.1 256.2 259.8 254.9 250.5 243.8 238.1 228.3 222.8 217 208.9 195.2 186.1 194.1 195.9 187.5 188.2 198.4 196.3 190.2 190.8 179 177 165.6 155.7 151.4 139.2 155 157.3 150.5 140.1 138.9 148 165.6 170.5 178.9 181.1 165.6 156 145.9 137 136.9 133.3 126.4 121.1 116.2 123.8 113.2 110.7 110.8 102.3 103.1 108.7 101.8 91.9 85.6 98.2 119.5 123.9 126.8 123.3 126.9 132.2 132.3 136.7 134.9 127.7 110.6 110.1 113.6
-1.5 -1.5 -1.5 -1.5 -1.5 -1.5 -1.5 -1.5 -1.5 -1.5 -1.5 -1.5 -1.5 -1.5 -1.5 0.4 2.6 2.2 7.6 11.5 27.2 40.2 53.6 64.4 62.5 62.7 70.5 70.1 64.2 56.7 51.1 47.5 34.7 35.2 35.1 34.8 32.6 37.2 35.7 38.1 33 16.5 12.8 4.6 0.6 -1.5 -1.5 -1.5 1 4.5 23.5 31.6 28.1 31 38.2 37.9 37.3 38.1 31.5 30.9 31.7 34.5 32.8 45 50.7 43.7 42.8 42.6 39 31.6 34.5 36.5 42.2 40.2 44.6 46.3 55 65.4 82 97.8 107.6 101.3 103.1 112.1 120.2 119.9 115.6 91.8 80.4 79.2 83.7 91 94.2 87.5 99.2 101.8 96.7 102.4 107.9 111.1 112.8 106.9 102.8 106.1 101.4 99.6 109.2 123.7 131.5 127.2 133.2 118.4 112.8 133.5 137.9 146.4 161.2 161.7 166 164.7 171 183.9 197 209.4 219.9 224.3 219.4 221.2 223.1 227 238.2 249.9 252.3 255.7 249.7 243.2 237.4 228.6 225.5 220.8 214.2 198.3 185.6 190.6 191.5 186.9 188.4 191.4 195.6 194 199.4 186 177.7 173 161.9 151.1 144 147.7 161.4 165 149.7 141.3 146.6 155.8 166.2 179.6 181.8 176.3 162.8 156.6 151.5 141.7 135.5 131.1 129.3 125.9 125 125.8 117.3 111.3 110.8 107.6 108.6 109.3 103.4 96 90.8 116 121.3 123.2 123.7 123.8 125 128.2 132.2 134.1 129.1 118.2 102.5 100.4
-1.5 -1.5 -1.5 -1.5 -1.5 -1.5 -1.5 -1.5 -1.5 -1.5 -1.5 -1.5 -1.5 -1.5 -1.5 -1.5 -1.5 -1.5 2.6 17.9 22.5 32.6 39.1 54.6 60.8 65.9 62.9 67.5 67.3 54.9 53.4 45.9 36.5 36 35.6 39.1 39.8 46.4 39.8 39.5 40.6 27.5 14.5 9.2 4.1 -1.5 -1.5 -1.5 -1.5 -1.5 11.4 30.1 32.8 27.6 45.2 44.3 43.8 40 39.2 31.5 36.6 38.6 35.3 35.2 46.7 52.1 46 41.4 44.6 34.7 39.9 40 41.7 51.2 45.8 50.5 55.7 64.3 69 83.6 102.9 107 103.1 105.8 118 120 115.4 98.6 89.2 81.8 83.3 91 96.4 88 99.5 103.2 97.8 100.1 108.2 114.5 114.4 119.7 107.4 103.5 104.4 103.1 104.7 120.4 124.3 129.5 134.3 133.2 123.5 115.7 134 141.2 154 162.2 170.7 164.4 163.8 169.7 187.5 204.8 215.8 221.1 225.2 221 223.5 232.4 232.5 240.6 246.9 246.8 243.4 238.8 232.3 226.7 221.5 221.8 216.6 201.1 189.9 185.5 187.6 187.3 187.2 191 192.3 200.5 200 193.5 184.1 177.7 165.2 154.9 153.3 148.7 159.9 166.2 162.1 145.8 144.6 154.5 161.9 172.4 180.2 179.7 175.1 174.3 159.2 152.9 147.8 137.3 132.8 128.9 127.5 130.9 130.9 124.1 114.6 110.9 109.1 110.5 110.1 104.3 89.6 101.9 119.8 123.4 124 124.3 122.1 124.1 125.1 129.3 127.7 126.3 121.5 96.2
-1.5 -1.5 -1.5 -1.5 -1.5 -1.5 -1.5 -1.5 -1.5 -1.5 -1.5 -1.5 -1.5 -1.5 -1.5 -1.5 -1.5 -1.5 2.5 30.3 36 28.8 38.7 48.3 58 66.1 64 57.2 64.6 55.3 55.9 52.8 38.3 38.3 36 38.5 44.4 49.7 47.1 40.1 41.4 39 22.3 11.8 5.8 -1.5 -1.5 -1.5 -1.5 -1.5 7.2 23.1 27.8 26.9 46.3 45.4 44.2 40.8 38.4 33.9 39.1 39.7 37.8 40.1 40.5 53.5 47.7 44.5 38.1 36 42.2 44.1 41.7 46.4 51.8 57.9 72.5 71.8 74.8 76 99.6 99.5 104 102.7 114 118 108.3 97.3 99.3 88.3 87.2 91.2 96.5 96.9 90.2 95.2 95.9 97.2 106.6 111.9 121.5 121.8 122.5 112.1 106.4 108.4 103.3 115.6 128.3 126.8 131.1 136.3 138 130.9 122 134.4 141.5 154.3 154.1 168.3 163.5 164.6 171.6 194.4 213.6 216.5 221.7 220 222 226.7 232.9 235.5 240.4 237.8 235.6 230.5 224.4 219.1 218.8 220.4 216.6 204.2 195.5 184.2 185.2 186.6 187.2 188.2 194.3 203.5 200.8 197 188.2 180.2 174.2 161.8 153.9 151.3 156.6 163.8 166.5 156.2 148.1 153.9 159.9 164.7 176.6 178.6 177.1 178.3 177.1 164.4 154.4 151.5 140.5 139.2 136.7 134 134 134.2 129 115.5 111.1 108.9 111.3 108.7 98.3 89.4 116 117.8 122.6 123.1 123.3 120.5 117.1 121.2 126.5 127.3 127.6 117.4
-1.5 -1.5 -1.5 -1.5 -1.5 -1.5 -1.5 -1.5 -1.5 -1.5 -1.5 -1.5 -1.5 -1.5 -1.5 -1.5 -1.5 -1.5 5.3 33.6 36.6 35.1 34.2 45.3 61.8 65.9 65.8 62.2 53.2 52.5 51.9 52.7 41.6 42.1 38.3 43.4 42.5 48.7 61.4 46.8 38.5 39.5 26.8 14.3 7.1 2.8 1.4 -1.5 -1.5 -1.5 2 9.1 25.2 24.4 46.5 45.3 43.3 42 38.5 40.6 45.2 40.8 39.7 41.4 43.4 48.1 52.8 49 37.5 36 45.7 47.1 45.4 43.7 58.3 63 71.3 77.7 71 78.7 89.1 101.5 106.4 100.3 103.5 113 106.9 97.3 99.6 102.2 93.1 93.6 96.1 94.3 89.1 94 102.3 105.1 104.7 109.9 120.2 126.1 125.2 121.7 118.1 111.5 112.8 108.4 130.1 128.3 136.1 139.4 140.6 137.8 140.5 132.8 133.8 139.4 143.7 153.9 158.6 162.3 162.7 179.3 199.8 212.6 216.4 215.2 214.2 224.4 228.9 229.9 228.1 230.9 228.9 224.6 221.5 216.8 214 213.9 212.8 207 193.9 184 185.8 191.4 188.4 187.9 198.8 202.2 203.2 202.4 196.3 185.4 176.7 164.7 155.5 153.2 162.8 161.1 165.9 166.9 155.4 151.1 157.4 157.6 169.1 175.7 175.7 175.7 176.9 177.1 171.6 155.4 150.2 145.3 142.8 140.9 139 137.3 130.8 129.2 116.1 112.2 110 111.1 109.3 99.8 92.7 109.2 118.7 122 122.3 126 113.8 108.2 121.8 127.8 126.2 124.7
-1.5 -1.5 -1.5 -1.5 -1.5 -1.5 -1.5 -1.5 -1.5 -1.5 -1.5 -1.5 -1.5 -1.5 -1.5 -1.5 -1.5 1.1 8.4 35.7 40.6 39.4 34.5 42.7 51.9 66.3 66.4 64.7 56 53 50 48 44.7 42.6 44.7 47.3 43.5 43.6 49.4 49 42.9 37.3 31.4 19.8 10.7 6 3.1 0.7 -1.5 -1.5 -1.5 5.5 8.3 15.7 24 37.8 42.1 40.7 40.5 45 48 48.9 41.9 43.2 45.3 53.8 53.5 45.8 37.6 36.5 42.3 48.1 48.1 42.5 57.4 60.1 73.2 79.1 76.8 75.4 89.3 104.9 108.6 105.7 102 106 104.6 98.8 107.4 104.9 98.4 96.9 98.7 95.9 94.3 92.2 103.5 105.4 107.5 106.9 112.2 123.2 127.7 126.4 124.8 118.7 116.9 116.1 116.4 130 136 137.4 139 142.9 143.2 147.7 144.1 132.2 134.8 145.1 154.4 158 159.6 166 188.2 199.8 212.5 209.6 206 219.3 219.3 221.1 223.1 219.6 219.2 216.5 214.4 213.2 211.1 211.8 210.1 204.2 202.8 185.7 185.1 185.4 187.9 188.6 199.1 202.1 202.9 203.9 202.4 193.3 182 171.1 157.5 154.3 164 163.6 164.8 167.5 169.5 160.3 152.9 154 157.9 169.8 174.9 174.7 175.7 174.9 175.8 173.2 156.2 150.4 148.4 152.3 152.2 141.9 134.5 132 126.7 113.8 114.6 109.6 112 110.8 105.3 94.8 105.4 121.6 120.9 123.6 121.4 107.2 112.1 120.1 126.6 124.5
-1.5 -1.5 -1.5 -1.5 -1.5 -1.5 -1.5 -1.5 -1.5 -1.5 -1.5 -1.5 -1.5 -1.5 -1.5 -1.5 -1.5 1.9 8.9 33.3 42.3 45 41 35.4 45 65.4 65.8 65.1 60.4 54.3 50.2 45.8 43.7 45.1 45.6 51.5 49 44.4 44.6 47.5 41.9 35 31 28.8 18.9 11.6 5.2 3.2 -1.5 -1.5 -1.5 -1.5 5.9 9.6 22.6 37.8 44.3 43.5 46.2 45.9 49.9 55.9 47.3 48.9 47.5 52.4 55.6 50.4 37.7 36.6 43.7 47.3 48.6 45.6 49.3 56.1 70.7 82.3 85.4 84 83.8 101.2 108.2 104.7 101.5 100.2 100.4 101.4 119 113.7 105.9 105.2 108.2 100.8 103.4 95.5 99 105.5 107.3 108.3 108.7 118.2 122.8 128.3 130 122.3 115.8 116.6 113.2 128.9 132 137.5 137.3 143.5 149 148.6 151.8 142.9 133.2 137.4 147.5 159.5 162.6 162.1 169.8 181.9 197.1 203 202.2 205.1 219.1 213.6 217.4 214.3 213.3 211.9 213.3 208.9 206.4 205.7 202.4 197.8 196.5 189.9 184.5 185.9 190.7 192.9 194.2 202.7 204.2 208.3 205.8 199.5 186.1 178.5 164.4 154.1 161.4 169.4 166.9 167 169.8 170.2 157.3 153.8 156.2 161.5 171.6 173 173.9 173.4 174 176.2 167.5 151.9 148.9 146.9 152.4 153.5 139.1 136.2 129.1 125.5 114.4 111.4 109.5 111.8 113 104.6 93.5 106 116.9 119.4 120.6 119.4 106 116.2 122.9 122.6
-1.5 -1.5 -1.5 -1.5 -1.5 -1.5 -1.5 -1.5 -1.5 -1.5 -1.5 -1.5 -1.5 -1.5 -1.5 -1.5 -1.5 2 20 31.2 39.2 47.9 46.7 42.8 35.1 43.6 58.3 65.1 61.7 58.7 51.7 46.3 44.2 46.7 45.8 54.7 52.3 45.3 44 46.3 43.9 37.4 32.9 32.3 25.7 16.1 10.4 7 1.9 -1.5 -1.5 -1.5 1.5 5 18.2 38 45.9 46.8 49.7 48.2 52.3 55.7 60 51.2 56.2 49.8 49.5 52.6 42.4 43.4 42.6 44.8 46.4 49.5 46.5 53.4 68.4 78.2 90 99.7 95.4 94.5 106.9 102.1 99.9 99 98.3 106.3 119.6 121.5 116.8 107.9 112.9 108.4 107.9 105.7 95 106.1 108.2 109.3 108.3 111.9 122.3 125.1 134 128.7 120.5 117 115.4 117.7 127.8 135.9 138 143.7 153.6 157.3 148.1 149.4 138.6 135.1 145.9 151.1 165.6 159.9 166 172 175.1 187.9 196.3 200.1 196.6 206.8 207.9 211.1 209 203.5 202.6 201.1 201.8 199.4 192.4 192.1 190.1 188.4 186 192.6 191.7 195.1 191.1 198.6 205.1 208.3 206.3 204.3 191.9 186.1 174.7 156.9 157.5 167.9 165.3 164.9 169.3 174.4 166.8 153.6 153.6 156.4 163.8 170.6 172.7 172.2 171.7 173.8 169.8 152.6 148.9 146.4 143.7 149.2 141 136.9 133 125.8 124.1 115.7 109.3 109.2 113.1 110.9 104 93.5 102.3 115 119.7 119.5 111.6 105.8 118.3 118.8
-1.5 -1.5 -1.5 -1.5 -1.5 -1.5 -1.5 -1.5 -1.5 -1.5 -1.5 -1.5 -1.5 -1.5 -1.5 -1.5 -1.5 1.2 8 34.3 39.6 47.2 51 55.7 45.7 39 43.6 57 61.7 61.3 54.7 49.6 45.4 44.7 45.2 54.8 52.2 46.2 43.8 44.3 44.5 45.3 36.8 32.8 30.6 19.8 16 14.8 8.1 -1.5 -1.5 -1.5 -1.5 1.4 14.8 32.4 43.8 48.3 47.8 51.8 50.9 59.6 58.2 64.1 55.9 54.9 49.8 52 42.2 41.1 45.6 44.7 46.8 50.1 49.1 53 63.2 74.9 85.5 98.9 110.5 101.4 104.5 103.9 104.8 101.1 99.2 107.6 114.7 126.2 121.7 112.3 110.2 112.3 108.9 116.9 107.7 103.8 109 109.8 111.1 109.9 115.1 121.8 131.5 131.8 123.9 119.5 119.9 117.5 121.5 134.2 136.2 140 155.5 167.9 162.4 153.8 149 144.7 150.6 161.6 157.1 157.3 158.2 164.6 165.5 170.6 183.6 190.9 189.9 194.5 198.6 204.2 202.7 199.8 196.8 196.1 195.8 190.2 185.5 186.4 185.8 184.6 186.1 188.2 193.9 196.2 197.8 195.3 206.7 205.9 205.7 205.5 200.2 188.6 179.6 163.1 159.9 163.3 168.4 165.5 167.1 174.3 171.3 159.6 151.6 155 157.9 166.8 170.3 170.1 170.2 170.5 170.9 153.4 147 145.4 142.1 139.3 139.6 134.3 135 124.7 122.1 115.8 109.9 107.7 110.2 108.3 107.9 100.1 92.3 102.2 112.2 114 114.9 108.8 108 114.2
-1.5 -1.5 -1.5 -1.5 -1.5 -1.5 -1.5 -1.5 -1.5 -1.5 -1.5 -1.5 -1.5 -1.5 -1.5 -1.5 -1.5 1.2 5.4 34.9 43.1 47.3 51.2 58.7 56.5 47.6 40.4 46.9 55.7 60.7 57.8 52.8 49.9 46.1 45.8 51.4 52 47.4 44.8 44.6 46.3 52.5 49 33.8 32.7 27.1 19.9 21.6 15.3 3.4 -1.5 -1.5 -1.5 -1.5 2.4 24.5 41.2 45.2 47.5 51.9 49.9 52.4 59.9 65.9 60.6 56.6 50.2 48.4 43 41.2 48.7 48.3 50.3 49.8 56.7 46.5 52.8 61.9 73.3 86.7 103.2 114 101.8 108.5 105.3 100.9 99.5 103.6 116.3 122.4 125.5 121.8 110.4 110.5 109.1 121.3 126.2 106.9 110.2 113.1 113.6 110.2 111.5 114.2 124.2 126.7 128 124.3 121.9 118.3 119.7 126.7 134.4 139.9 155.5 172.5 175.2 172.3 156.7 157.4 148.2 182.1 175.4 159.3 158.2 158.6 161.1 167.4 173.7 182.3 183.7 182.5 193.6 196.6 195.7 197.3 195 183.5 182.2 182.8 181.4 181 183.2 182.2 193.3 189.3 195.5 200 204.1 190.9 201.5 205 204.8 205 201.7 192.8 188.5 173.5 162.7 158.6 167.8 164.3 162.6 169.5 172.8 165.8 154.4 151.1 156.4 159.1 168 169.2 169.9 168.2 161.8 153.2 145.6 143.9 139.6 134.4 128.8 129.1 130.4 123.6 120.1 118.4 118.1 107.7 106.5 104.4 104.5 102.5 96.4 92.7 99.7 109.4 112.3 108.3 102.2 105.9
-1.5 -1.5 -1.5 -1.5 -1.5 -1.5 -1.5 -1.5 -1.5 -1.5 -1.5 -1.5 -1.5 -1.5 -1.5 -1.5 -1.5 1.4 8.3 30.1 45.9 47.1 50.4 56.2 56.7 50.5 39.6 39.8 45.9 55.8 56.4 53.2 53.8 46.2 46.4 52.6 55.8 53.6 46.3 45.1 45 53.3 54.6 40.5 36 38.9 32.6 26.6 23.2 13.9 4.1 -1.5 -1.5 -1.5 4 12.4 36 44 43.8 51.2 50.1 50.5 65 65.8 60.7 59.9 52.8 46.8 45.8 48.2 50.5 49 51.2 51.6 52.9 48.5 53.7 58 65.4 77.4 92.3 112.7 108.1 106.6 107.4 102.8 101 100.7 107.1 120.2 128.1 129.1 120.1 110.9 110 121.8 130.7 124 111.3 113.7 118.6 113 111.6 112.5 120.3 123.6 125.2 124 121 120.6 119.1 122.1 128.5 135.9 150.1 175.7 183.5 181.9 174.6 170.9 157.1 155.8 173 176.5 163.1 156.9 156.6 163.9 169.2 175.1 176.9 176.5 180.1 187.5 192.8 194.5 192.9 185.5 175.3 174.2 173 174.7 178.1 188.1 197.6 192.4 194.1 203 203.2 196.9 198 204.2 205 202.7 200.6 196.1 193.9 183 165.7 162 163.1 161.4 162.6 166.6 175.5 170.6 158.9 151.2 150.6 154.7 159.1 165.5 165.1 163.7 152.3 148.4 143.3 140.8 138.9 134.6 124.2 120.6 123.5 122.8 121 119.5 118 115.2 105.6 104.9 103.7 102 91.5 97.8 93.7 91.2 104.1 101.9 94.4 89.2
-1.5 -1.5 -1.5 -1.5 -1.5 -1.5 -1.5 -1.5 -1.5 -1.5 -1.5 -1.5 -1.5 -1.5 -1.5 -1.5 0.6 2.1 9.4 25.5 34.8 47.3 50.1 52.6 51.8 50.6 49.1 39.5 39.7 42.9 47.2 51.2 54.3 47.8 46.1 57.9 61.5 56.4 51 47 49.1 50.9 57 47.8 35.5 39.3 37.4 31.9 26 23.2 9.4 -1.5 -1.5 -1.5 -1.5 11.3 23.4 39.4 39.8 43.9 49.5 44.8 60.4 67.6 61 60.3 54.5 46.3 51.8 67.9 49 54.2 50.4 58.7 55.6 55.3 49.3 57.1 60.7 70.6 84 101.9 114.5 113.3 110.3 103 101.6 101.3 105 117 131.8 137.1 132.2 112 112 128.8 131.7 128.8 125.3 113.1 123.5 118.9 112.8 111.9 114.7 122.1 123.4 124 124.7 121.1 122.6 122.9 125.1 135.8 151 169.8 189.8 192.7 187.1 181.7 171.8 154.7 160 163.3 158.2 155.1 155.1 163.1 167.6 172.2 171.4 171.3 171.6 181.1 186.4 188.5 186.3 181.5 174.2 170.3 169.4 168.2 168.8 184.5 196.9 197.4 198.3 198.3 206.3 201.1 200.5 200.3 209.2 208 201.9 199 195.3 185.8 172.3 163.1 160.2 159.6 162.3 164 167.3 172.7 166.6 153.3 149.4 151.1 156.5 157.1 155.7 155.6 151.2 141.9 138.6 136.7 136.7 137.6 131 122.4 116 116.7 119.6 118.2 117.8 118.8 110 103.5 99.2 101.8 94.7 90.6 95.9 93 90.1 91.3 89.9 88.6
-1.5 -1.5 -1.5 -1.5 -1.5 -1.5 -1.5 -1.5 -1.5 -1.5 -1.5 -1.5 -1.5 -1.5 -1.5 -1.5 0.9 2.7 3.5 13.4 30.6 44.4 55 52 50 48.8 48.1 45.8 40.7 41.4 44.4 48 51 48 47.3 57.4 64 61.3 54.1 48.9 57.6 49 57.4 46.4 38.1 37 34.5 32.1 23.8 23.2 17.1 -1.5 -1.5 -1.5 -1.5 9.9 12.4 30.9 34.5 41.3 40.2 43.7 51.5 69.1 67.6 58.3 55.9 47.1 51.2 73.9 58.3 53.2 53 62.3 61.6 60.3 52 57.5 59.4 65 77.6 90.2 113.9 119 116.8 111.7 99.1 104.8 104.9 114.6 129.4 138.8 135.3 118.7 113.7 131.7 135.4 136.9 130.6 117.6 119.8 128.8 119.1 113.2 112.7 114.2 119.9 121.7 123.9 124.6 123.5 123.3 129.3 133.2 149.4 168.5 193 205.3 199.7 193.8 185.9 171.1 153.5 154 153.8 154 154 153.9 162.4 166.7 169.1 169 169 174.8 182.9 183.1 182 180.4 174.9 170 168.5 166.6 168.3 179.7 194.5 199.8 200.9 197.4 203.7 206 202.7 202.5 208.2 212.2 207.3 195.5 192.8 188.8 178 170.9 160.8 159 161 162.9 163.6 170.3 169.4 166.2 155.1 147.3 149.9 150 150 150.1 142.1 137.1 134.3 130.9 133.7 135.2 136.2 125.3 116.3 117.1 115.1 118.4 118.8 116 114.6 102.7 98.8 98 94.1 88.7 93.8 92.3 92.1 91.3 90.9 91.3
-1.5 -1.5 -1.5 -1.5 -1.5 -1.5 -1.5 -1.5 -1.5 -1.5 -1.5 -1.5 -1.5 -1.5 -1.5 -1.5 1.6 5.8 6.4 9.5 26.2 42.2 46.4 53.9 50.8 49.2 49.4 54.2 45.3 41.4 43.6 45.7 46.8 45.2 48 62.8 64 65.9 64.8 51.6 55.8 52.5 47.9 48.1 41.7 36 37.2 33 24 24.1 22.1 4.7 -1.5 0.5 -1.5 -1.5 9 16.6 24.1 31.6 41.4 43.1 46.9 69.6 71.7 63.4 55.5 50.6 52 69.5 73.8 60.4 56.3 59.4 67.7 62.6 57.1 50.1 58.5 61.4 70.8 81.3 96.4 112.5 120.4 116.5 100.9 107.3 108.6 114.7 125 144.1 143.5 125.8 116.6 127.7 144.8 140.9 136.3 129.8 118.3 128.5 125.1 117.2 113.4 113.3 115.1 120.4 124.8 124 130.7 130.2 133.4 138.4 147.8 168.5 188.1 207.6 207.5 210.8 199.3 188.9 166.9 154 153.7 153.6 153.5 153.6 155.2 160.5 166.6 166.5 167.7 171.8 179.3 180.6 179.1 177.8 173.3 169.1 166.7 165.1 169.4 176.7 190.1 201.3 202.3 199.8 200.3 205.3 205 207.3 205.8 212.9 210.4 202.1 188.9 188.7 183.7 177.4 170.5 160.2 160.2 161.1 161.8 166.3 167.4 168.2 159.4 148.7 146.1 145.7 142.7 140.7 137.8 133.8 132.1 130.7 131.6 133.3 136 130.3 118.3 112.3 111 112.6 121.2 116.8 112.9 101.2 98 95.3 92.7 88.6 88.9 88.2 89.5 90.5 91 90.2
-1.5 -1.5 -1.5 -1.5 -1.5 -1.5 -1.5 -1.5 -1.5 -1.5 -1.5 -1.5 -1.5 -1.5 -1.5 1.5 2.2 4.7 9.2 12.5 18.7 31.2 41.7 46 48.9 50.9 51.6 53.5 50.7 43.6 42.7 51 43.1 43.2 44.7 52.7 60.2 64.5 65.3 58.6 51.3 51.5 48.1 46.6 45.6 40.1 33.8 33 26.7 22.3 24.7 16.3 5.4 7.8 2.2 -1.5 5 15.2 17.3 19.8 32.9 41.6 42.5 56.2 75 71.1 55.9 60.5 58.3 64.4 76.9 67.4 58.1 55.5 68.2 67.4 63.4 52.6 55.5 59.4 70.3 81.9 83.8 96.5 109.2 116.3 100.4 104.7 109.7 111.9 126.7 140.5 148.6 133.8 127.6 126.9 147.3 149.6 142.8 137 125.3 128.9 127.4 119.1 115.1 114.1 114.8 117.8 123.3 123.6 127.7 132.5 136.4 145.7 151.5 168.5 186.7 204.2 209.3 212.2 210.1 201 190.2 168.7 156.5 154.1 153.7 153.3 156.1 160.2 166.7 171.9 176.7 173.1 173.3 178 176.2 174.9 172.3 170 165.1 164.2 167.6 176.1 185.5 196.9 203.2 201.6 199.1 203.1 207.3 205.8 209.9 205 208.9 207.7 192.7 185.9 184.4 181.1 182.1 168.5 163.7 161.4 162 162.6 168.2 166.4 165.1 151 146.7 145.3 143.3 138.3 136.1 131.9 131.4 129.7 130.9 132.3 132.5 132.9 119.2 112.7 110.7 110.3 114.9 115.4 111.6 106.3 102.1 95.5 93.1 91.4 88.4 88.1 87.9 88 87.3 88
-1.5 -1.5 -1.5 -1.5 -1.5 -1.5 -1.5 -1.5 -1.5 -1.5 -1.5 -1.5 -1.5 -1.5 -1.5 3.2 3.7 5.1 6.5 10.9 19 26.8 34.1 39.1 47.2 53.6 58.7 60.1 58.9 47.1 42.6 42.3 43.1 44.6 44 50.7 56.3 60.4 67.5 64.5 53.3 53.3 55.3 46.5 44.6 42.6 37.3 31.9 27.5 21.8 26.4 22.1 7.2 11.8 10.8 7.4 2.5 9.8 16 18.2 28.6 41.8 41.4 43.3 61.6 66.8 55.4 63.3 65.6 68.3 74.4 71.5 66.3 59.4 63.1 70.3 69.5 61.8 57.2 58.3 62.9 72.5 76.9 86.7 99.4 110.6 98.6 96.4 108.8 112.4 126.4 145.5 153.1 142.1 131.2 126.4 138.6 151.2 144.7 138.7 132.6 136.3 129.7 124.5 117.8 115.5 115.7 116.5 119.7 125.6 126.4 133.4 137.8 147.5 154.9 169.4 181.3 195.2 207.6 211.3 212.4 210.9 204.6 188.1 171.4 160.5 154.1 154.7 159.5 164 167.8 173 178.2 179.9 175 173.9 175.1 172.9 172.3 172.5 164.8 164.1 166.3 173.7 180.1 186.8 200.3 201.8 197.7 203.9 205.1 202.5 206.1 206.3 201.7 203.6 191.7 187.1 183.7 182.8 184.4 175.6 166.1 162.8 164.2 163.2 159.2 164.8 165.4 152.6 147.7 145 143.4 136.6 136.8 133.2 132.5 131.8 131.3 129.3 128.8 131.9 117.6 114.5 111.4 110.3 115 113.2 112.7 108.2 107.4 104.2 95 91.8 90.1 89 87.9 87.5 87.4 86.5
-1.5 -1.5 -1.5 -1.5 -1.5 -1.5 -1.5 -1.5 -1.5 -1.5 -1.5 -1.5 -1.5 -1.5 -1.5 3.4 5.3 4.4 7.2 8.4 17.7 26.5 31.2 37.4 45.5 53.6 63 66.6 70.2 58.7 43.7 43.8 42.6 47.3 44.9 48.4 56.4 57 64.2 64.7 54.4 57.7 54.8 50.7 45.3 45.1 40 30.6 24.3 20 17.9 20.5 9 9.2 14.5 8.3 6.7 2.4 13.2 17.6 22.5 33.3 39.6 41.6 45.9 47.3 51.5 60.1 67.3 79.4 85.6 79.5 74.2 62.5 60.3 73.3 71.7 67.9 60.6 67.4 60 67.6 71.3 81.7 88.1 97.7 96.1 88.3 103.5 116 129.5 150.9 160.5 151.5 135.8 136.2 134.9 150.3 153.9 141.2 138.5 137.1 134.7 130.5 123.9 120.8 118.2 116.9 118.4 119.8 125.9 135.2 136.1 148.2 158.1 171.5 182.7 189.4 200.7 205.7 211.8 212.1 210.2 205.8 185.8 173.9 164.7 160.1 161.5 165.8 170.2 176.1 179.9 181.7 180.5 174.9 174.8 173.3 172.6 170.8 166.5 164 164.9 168.8 174.7 181 184.8 192.6 195 199.4 204.4 199.2 199.4 199.4 198.3 197.7 194.5 189.9 187.1 187.7 184.5 176.3 175.6 165 168.4 168.8 166 154.7 164.2 153.3 147.5 143.9 142.8 134.8 134.3 133.6 133.6 137.1 136.1 126 125.5 129.8 122.4 114 112.7 109.8 109.5 112.9 115.7 119.7 114 105.5 106 98.9 101.2 94.8 88.5 88.3 87.9 87.8
-1.5 -1.5 -1.5 -1.5 -1.5 -1.5 -1.5 -1.5 -1.5 -1.5 -1.5 -1.5 -1.5 -1.5 8.5 8.4 5.6 5 7 10.1 15.1 30.2 34.6 36.8 41.9 51.1 69.1 71.4 74.3 73.2 56.2 50.2 49.8 45 48.5 45.4 55 56.4 57.6 64 54.4 59.2 62.7 54.1 47.2 44 39.5 30.9 24.1 20.2 17.4 15.2 11.7 8.8 13.4 10.4 9.1 3.6 4.2 16.9 22 23.5 38.5 37.9 36.1 39.6 42.2 55.2 65.1 81.5 88.4 88.8 84.2 77.2 65.3 71.5 73.8 71.8 69.2 62.4 64.5 64.2 73.6 79.6 81.7 85.8 92.2 86 97.3 116.5 133 155.5 173.6 159.7 149.2 143.8 138.3 145.5 157.3 148.9 143.2 135.9 139.8 135.4 131.9 127.1 123.5 121.1 123.4 123.5 128.8 135.1 144 147.1 161 177.2 184.6 188 193.1 200.1 206.3 212.8 211.9 211.2 205.6 181.2 174.2 173.4 167.7 166.7 173.1 178.8 180.7 182 182 177.2 175.5 173.9 170.8 169.4 167.6 163.6 162.8 166.2 171.2 175 178.9 181 186.7 193 202.1 196.7 194.3 197.3 198.4 201 198.5 196.1 192.5 191.1 190.2 179.8 171 167.6 167.4 177.3 172.6 166.1 151.2 152.6 146.3 145.1 135.4 133.9 132.7 132.4 129.9 127.2 132.7 128.7 123.9 126.1 125.4 113.7 111.6 109.7 111.3 112.5 116 122.8 120.8 114.3 104.2 102.8 104.6 102.3 98.3 91.2 88.5 88.5
-1.5 -1.5 -1.5 -1.5 -1.5 -1.5 -1.5 -1.5 -1.5 -1.5 -1.5 -1.5 -1.5 -1.5 4.4 13.4 6.4 8.2 6.6 9.7 11.2 25.9 34.3 39.8 41.9 54 74.7 77.3 76.3 70.4 61.7 60.7 62.5 54.4 52 59.7 54.5 52.7 56.6 59.3 63.2 60.4 66 63.5 51.5 46.8 44.4 38.6 29.7 25.4 19.8 19.3 18.1 9.6 8.9 11 8 4 5.8 9.7 19.9 22.3 34.6 36.3 27.2 30.7 45.3 55.7 64.3 75.6 90.5 91.6 93.3 83 74.2 70.8 74.3 79.5 75.9 67.2 62.8 60.4 72.1 73.6 82.7 79.3 86.2 82.5 96.4 117.9 134.8 154.6 166.5 159 157.2 145.1 143.8 145.4 153.1 155.6 147.7 138.1 146.7 141.1 134.5 130.6 126.6 127.7 123.3 125.7 128.3 137.7 145.9 144.3 161.1 174.1 182.7 187.6 188.6 191.9 198.9 209.1 214 213.4 214.3 196.3 182.3 175.6 173.8 167.4 171.9 178.7 180.6 181.1 180.2 180.4 177.1 175.7 172.2 168.3 167.5 164.3 161.7 165.2 169.5 172.6 175.7 178.6 180 183.8 190.4 192.1 191.6 195.9 202 207.3 203 198.7 196 191.3 189.5 190.5 174.7 169.1 167.5 175.4 176.5 168.2 152.8 142.9 146 139.7 130.8 132.7 131.8 129.5 129.1 127.7 124.3 124.3 124.6 123.1 124.7 114.5 111.8 110.7 109.9 108.7 119.2 122.6 119.8 115.3 108.1 112.5 110.2 111.7 110.3 101.7 104.5 93.6
-1.5 -1.5 -1.5 -1.5 -1.5 -1.5 -1.5 -1.5 -1.5 -1.5 -1.5 -1.5 -1.5 -1.5 2 6.1 10.8 8.3 7.4 8.8 10.5 17.6 29.3 40.5 47.4 52.4 74.9 77.6 75.9 73.7 64.1 66.1 70.3 64.6 52.8 58.2 59.9 49.8 52.3 61.5 63.5 67 65.5 65.7 61.2 50.9 47.8 41.1 35.1 27.9 20.3 21.8 21.7 12.9 12.3 15.8 19.8 7.8 3.5 6.2 12.6 20.6 20 20.9 20.4 22.5 39.7 54.2 60.5 75.8 79.7 92.7 95.1 88.7 85.1 84.1 74.6 75.4 78.5 73.5 63.2 61.8 68.5 75 75.6 78.9 80.8 80.9 99.4 114.4 129.2 147.1 157.3 154.7 163.8 157.6 147.4 143 150.1 151.7 146.2 141.6 139.5 144.3 138.9 135.1 136.1 133.7 130.4 128.1 129.3 141.8 149.8 152.8 164.2 173.6 176.9 178.8 180.8 185.9 190.9 204.4 207.8 212.6 217.1 208.9 196.9 182.5 177 170.1 168.2 171.7 175.5 179.1 179.3 177.1 175.5 174.4 170.7 167.3 165.9 163 161.9 163.3 168.8 173.1 175.8 178.4 180.9 183.7 183.6 186.4 191.8 201.9 208.6 211.1 207.6 202.3 196.7 193.1 188.9 189.7 178.6 169.4 170.1 170.6 180.1 170.6 157.9 150 149.3 132.5 125.4 123.8 129.1 127.5 127.5 124.2 124 120.9 119.9 123.1 121.3 121.5 111 110.4 110.9 111.7 108.3 117.2 116.4 112.8 109.2 108 107.7 109.7 112.2 107.4 107.5 106.2
-1.5 -1.5 -1.5 -1.5 -1.5 -1.5 -1.5 -1.5 -1.5 -1.5 -1.5 -1.5 -1.5 -1.5 0.8 2.5 5.6 6.4 8.9 8.6 10.1 12.7 25.8 38.9 44.1 57.9 59.9 75.4 75.3 72.7 65.4 67.4 73.6 71.6 66.8 54.8 59.5 57.8 52.6 59.6 71.8 71.7 68.7 67.5 66.2 60.3 55.9 45.8 48.2 33.8 23.4 19.9 21.9 15.9 12.8 19.3 25 20.7 8.5 4.3 5.8 13.1 15.3 16 14.9 20.5 34.2 42.1 52.7 70.9 84.2 91.9 96.6 93.9 87.4 82.7 83.3 80.3 77.8 73.7 63.9 63 59.9 66.9 70.6 74.6 69.4 85.2 100.1 113.9 120.2 134.9 142.9 150.2 165.8 168 154.6 146.4 150.1 152.1 145 141.5 139.2 146.2 146.1 141.9 141 142.4 137.6 133.6 134.4 142.3 157.3 157.5 155.8 170.3 175.7 179 178.4 178.5 183.5 192.5 202.4 208.8 213.6 218.1 215.1 190.1 177.1 173.6 168.6 170.2 172.8 174.5 176.7 175.4 173.6 173.1 171.9 168.9 166.9 163.5 165.1 162.3 168.9 172.9 171.6 177.1 180.4 182.1 185.7 187.2 190.3 200.3 213.5 215 209.8 204.4 196.3 192.3 188.2 189.4 189.6 172.5 171.4 166.6 171.8 173.6 162.8 149.3 149.5 142.6 127.8 119.5 125.3 126.6 127.5 125.7 125 120.4 118.8 119 121.3 119.5 112.1 111.1 111.1 113.2 112.6 109.8 112.9 107.7 105.5 102.7 104.9 102.7 103.2 102.2 103.2 99
-1.5 -1.5 -1.5 -1.5 -1.5 -1.5 -1.5 -1.5 -1.5 -1.5 -1.5 -1.5 -1.5 -1.5 -1.5 1.1 3.5 6.2 6.2 8.1 9.2 10.5 15.5 30.8 41.5 54.3 61.9 64.1 70.7 70 60.9 69 74.9 77.2 73.6 65.9 56.7 62.4 58.7 58.1 67.5 72.4 70.9 71.4 66.6 63.1 64.1 49.8 54.9 48 32.4 20.7 21.1 18.7 18.5 17.3 23.5 23.4 20.8 4.5 4.8 5 12.4 17.1 17.6 18.9 26.7 34.6 43.1 58.6 79.4 86.5 88.8 86.4 89.9 84.9 87.4 78.3 76.1 75 73.8 64.4 63.2 58 60.7 64.6 66.7 90.1 97 113.2 113.5 119.2 126 141.4 158.4 168.6 161.5 146.4 147.3 152.1 145.7 142.4 141 144.9 149.4 145.3 146.1 144.2 146.5 142.4 134.6 147.7 157.7 164.2 156.6 165.2 170.1 177.4 177.8 177.5 177.2 185 202.3 208.1 211.7 219.2 215.9 204.3 182.3 174.9 170 169.1 171.4 173.9 175.5 175.3 175.6 173.8 170.6 170.7 166.3 165 166.9 165.6 162.2 169.2 172.7 175.6 180.6 184.2 186.6 186.6 187.5 194.8 211.3 220.7 216.5 210.4 202.6 197.5 192.6 186.5 189.5 181.7 172.3 171 167.6 168.6 164.1 154.7 144.7 142 138.4 130.3 116.5 123.4 126.5 127.5 127.9 124.6 123.1 116.7 122.5 117.8 116.7 111.5 113.8 111.5 110.6 108.1 106.6 102.9 96.3 97.5 101.4 97 98 100.8 102.3 100.4
-1.5 -1.5 -1.5 -1.5 -1.5 -1.5 -1.5 -1.5 -1.5 -1.5 -1.5 -1.5 -1.5 -1.5 -0.7 1.2 2.1 10.3 10.3 6.7 7.9 10.3 14.3 24.7 35.8 45.9 56.2 65.7 63.4 65.4 60.6 72.5 76.4 78.7 80.2 74.2 63.6 60.2 66.4 61 61.7 73.7 73 73.3 69.3 62.9 60.2 53.8 57.8 58.8 42.7 22.7 20.6 23.3 21.3 17.8 20.2 21.1 21.4 12 5.7 5.1 14.8 12.7 12.1 16.6 21.9 28.2 41.4 53.4 65.9 88.9 84.9 83.7 88.6 87.1 82.4 82 77.6 79.7 77 67.1 63.4 57.3 54.3 53 63.9 89.3 93.3 108.2 113.4 111.6 120.9 132.9 142.1 156.7 160.1 155.6 149.1 150.2 151.7 143.5 142.7 143.5 150.6 152 149.7 147.9 149.7 155.1 145.7 149.1 159.7 168.1 167.2 158.5 167 174 177.8 175.5 175.7 180.3 198.9 210.8 208.8 216 217.9 211.4 193 178.6 174.5 169.3 172.2 175.4 175 175.6 175.8 175.5 174.6 168.9 166.4 165.7 166.4 166.9 161.7 166.3 170 175.7 179.8 185.5 185.5 185.1 185.9 189.7 201.9 213.7 218.5 212.2 206.7 202.7 197.6 184 182.6 180.8 173.6 172 161.5 162.8 160.5 156.1 145.2 139.1 132.5 132.6 123 114.4 123.1 127.5 127.1 125.6 121.8 117 112.8 115.3 115.6 116 110.9 109.2 107.9 106.6 100.8 103.6 95.5 92.9 93.8 96.6 96.1 99.2 97.6 97.5
-1.5 -1.5 -1.5 -1.5 -1.5 -1.5 -1.5 -1.5 -1.5 -1.5 -1.5 -1.5 -1.5 -1.5 -0.7 0.7 2 7.7 13 7.4 8.3 9.4 16.4 20.4 30.5 44.1 50.4 59.5 69.4 59 60.4 66.6 73.8 82 84.7 83.9 72.6 62.6 62.5 64.3 62.3 72.3 73.9 73.4 68 69 61.8 59.1 58.2 59.6 47 31.4 25.4 23.4 30.9 21.3 17.8 21.9 23.7 14.4 9.7 11.3 7.4 11.5 12.1 15.4 20.4 28.4 38.2 50.7 59.2 77.4 78.2 79.8 83.7 84.9 81.3 79.8 74.5 79.2 79.7 74.2 63.6 60.1 53.9 54.1 61.6 76.9 89.8 98 112.3 109.7 119.7 132.8 137.8 139.9 149.9 160.1 152.4 148.8 151.1 151.1 142.6 141.9 148.8 153.4 151.8 152.9 149.1 155.3 156.4 154.2 162.8 173.3 174.5 167.9 167.2 169.1 173.8 173.1 172.2 177.8 199.1 209.3 209.9 206.9 214.2 212.9 203.1 186.7 180.1 172.4 173.8 175.6 175 175.3 175.7 175.8 175 169.2 167.1 165.4 165.6 166.6 165.3 161.4 166.5 173.3 178 181.1 184 184.1 182 183.5 191.6 205.1 216.7 208.9 202.3 200.1 198.4 187.2 178.7 176.5 175.5 173.1 164.2 157.2 156.1 152.1 148 141.5 135 123.8 122.2 116.1 113.1 127.2 127 124.2 120.4 115.6 109.7 112.6 117.4 115.9 117.1 109.4 107.6 105.4 101.4 93.1 95.7 97.9 91.8 92.2 94.7 95.8 89.8 91.7
-1.5 -1.5 -1.5 -1.5 -1.5 -1.5 -1.5 -1.5 -1.5 -1.5 -1.5 -1.5 -1.5 -1.5 -1.5 0.3 1.7 5.3 13.7 8.2 7.9 9.3 15 19.1 30.3 38.3 44.2 49.9 53.1 56.1 63.7 64.1 69.2 80.2 84.9 89.7 79.9 73.7 69.3 66.9 69.1 70.3 75.5 74.2 75.9 66 63.7 67.2 57.5 55.8 53.3 41.3 31 26.6 31.1 29.5 18.4 19.4 23.8 15.3 15.9 10.2 6.6 7.5 16.7 15.1 20.4 24.4 33.4 46.5 52.6 60.5 71.5 69.5 83 82.3 79.4 76.2 71.8 67.8 73.5 74.3 64.6 64.5 53.3 53.7 58.7 68.9 80.8 89.8 98.4 104.9 110.5 123.2 132.8 137.8 141.9 160.9 158.2 149 150.9 153.1 149.4 142.9 144.9 150.5 153.7 154.1 156.3 151.3 158.4 154.9 164.1 172.2 175 172.1 169.2 171.4 170.6 170.8 171.9 179.7 194.5 207.1 204.1 202.7 212.4 214 207.4 193.1 188.7 178.6 175 175.5 175.3 175.9 176.3 175.9 175.2 172.4 168.6 166.2 164.9 166.7 167 165.8 162.9 167.9 172 176 180.1 182.5 177.6 179.5 185.7 194.6 199.9 198 196.9 197.4 193.3 187.8 179.7 173 173.6 172.9 164.8 158.3 151.6 148.6 149.8 141.7 137 134.6 116.8 116.8 113.8 112.1 125.2 126.6 125 122.3 109.6 103.9 109.7 112.6 112.2 112.9 108.2 106.7 110.4 99 84.5 89.1 87.4 87.1 88.1 91.4 88.3 82
-1.5 -1.5 -1.5 -1.5 -1.5 -1.5 -1.5 -1.5 -1.5 -1.5 -1.5 -1.5 -1.5 -1.5 -1.5 -1.5 1.7 5.5 11.4 9.4 9.4 9 14.5 17.8 29.1 35.4 38 42.2 46.7 56.2 71.6 69.1 69 69 78.8 88.9 88.4 85.3 74.5 72.8 69.6 64.6 74.2 75.7 76.4 71.1 71.4 70.6 67.9 59.5 52.4 44.3 38.1 33.8 29.2 30.7 23.4 16.7 22.7 17 16.8 9.1 12 8.1 11.1 13.9 19.6 20.3 29 37.8 48.2 51.8 50.8 58.9 69.8 81.1 81.8 74.3 70.1 64.5 72.2 67.7 67.5 58.4 52.2 53.4 55.5 63.7 74.2 76.9 79.9 93.4 105.6 116.5 132.1 135.1 137.7 152.7 169.8 154.4 150.2 154.6 156.2 146.8 144.7 148.2 150.4 153.1 160.3 155.7 156.9 159.8 158.9 169.3 171.6 176.5 175.8 175.3 172.5 171.5 173.2 178.2 189.1 201.5 197.5 194 205.8 212.2 211.9 206.9 195.2 183.8 177.9 175.7 176.4 177.3 177.2 176.4 176.9 172.9 168.6 165.6 166.6 167.8 168.6 168.6 163.1 163.6 167.1 169 172.6 180.6 175 173.3 178.9 185.4 190.4 191.6 187.8 192.4 192 187.3 178.6 172.5 171 173.4 168.1 156.7 152.7 146.7 146.2 140.4 138.5 135.7 122.3 115.1 110.9 111.4 110.3 121 127.2 125.7 122.4 105.3 101.8 113 113 109 109.5 107.6 109.7 98.7 83.4 80.1 80.8 78.7 81.9 85.6 85.5 82.9
-1.5 -1.5 -1.5 -1.5 -1.5 -1.5 -1.5 -1.5 -1.5 -1.5 -1.5 -1.5 -1.5 -1.5 -1.5 -1.5 1.8 6.4 11.6 9.7 14.5 11.3 9.8 16.8 22.9 38.8 38.5 38.6 37.9 56.9 75.3 73.7 71.1 80 70 76.2 81.2 86.2 84.9 73.2 69.8 68.8 71.8 75.7 76.2 76.5 75.3 75.2 72 65.8 60.1 49.6 47.3 44.7 38.1 35.9 33.1 21.1 21.1 16.6 13.4 8.4 13.1 12.2 8.3 12.1 15.8 14.7 20 31.7 45.5 48.8 43.9 44.7 59.6 73.2 79.5 78.2 65.1 67.4 60.9 67.4 66.1 49.6 52.4 53.3 54.4 57.7 62.7 63.5 67.2 83.8 100.5 111.5 129.5 132.9 136.1 145.4 170 170.8 151.8 152.6 158.9 151.1 149.5 147.8 151 151.9 156.4 158.5 160.6 168.2 162.9 161.2 169.1 172.1 174.6 175.1 176.4 172.2 172.5 176.6 181.9 185.5 190.1 191.4 204.7 212.6 219.5 221.8 199.3 190.7 182.5 177.7 177.6 177.4 175.6 175.2 175.4 178.7 169.5 165 167.5 168.4 168.8 167.5 166.2 160.5 163 165.8 167.5 172.1 169.8 169.9 173 177.9 180.3 185.3 189.1 190 190.8 188.2 179 172.1 169.8 172.9 172.5 160.6 151.6 146.7 143.6 140.2 138.7 136.9 127.6 113.6 108.9 109.7 110.1 110.6 112.5 120.8 123.5 120.4 103.2 104.9 110 109.4 102.5 113.2 107 93.5 86.4 74.5 78.2 76.4 74.8 78 82.4 74.3
-1.5 -1.5 -1.5 -1.5 -1.5 -1.5 -1.5 -1.5 -1.5 -1.5 -1.5 -1.5 -1.5 -1.5 -1.5 -1.5 1 2.5 9.4 10.1 11 14.5 12.8 10.1 21.4 28.2 38.6 37.9 39.3 55.7 80.1 83.4 83.3 77.9 79.2 72.2 78.4 83.1 86.7 82.5 70.5 70.2 65.5 70.5 75.2 76.7 80.4 78.9 75.6 71.6 65.8 54.1 57.2 56.7 47.9 42.1 34.2 28.5 18.7 16.4 10.4 15.3 19.4 16.7 13.3 11.1 11.1 12.3 17.4 31.8 44.6 46 32.5 36 51.9 62.5 68 69.7 63.7 64.9 61.7 56.3 58.7 48.4 49.3 53 53.7 54.1 55.4 59.6 65.2 76.9 94.7 109.9 127 136.1 137.6 151.5 166.5 181.7 163.2 154.3 159.6 159.7 151.3 148.8 151.1 152.2 155.9 164.8 163.8 169.2 171.4 165.5 169 171.5 173.7 175.8 175.9 176.8 176.3 177.4 177 181.5 187.2 190.5 205.4 212.9 225.6 224.8 212 193.8 188.2 179 176.4 176.2 175.4 175.1 173.9 177.9 171.9 167.1 167.5 168.9 169.6 168.2 166.1 162.3 161.4 163.8 165.5 164.7 166.9 169.3 171.9 171.5 173.7 176.6 182.9 185.6 194 191.5 180.3 173.2 170 170.6 171.5 171.4 158.1 147.6 141.9 139.7 137.6 135.4 133.6 116.6 107 104.6 108.7 108.9 110.7 111.1 112.3 111.8 114.4 98.1 101.7 105.4 100.7 100.6 105.6 104.6 86.5 80.8 75.1 74.2 74.4 73.9 75.6 72.8
-1.5 -1.5 -1.5 -1.5 -1.5 -1.5 -1.5 -1.5 -1.5 -1.5 -1.5 -1.5 -1.5 -1.5 -1.5 -1.5 0.3 2.3 7.7 9.2 8.2 9.2 9.3 11.9 13.1 17.8 32.8 37.1 38.9 52.2 80.3 90.5 88.1 80.4 81 82.4 73.3 78.4 84.6 84.3 80.2 69.4 67.8 65.2 67.3 79.7 91.9 91.1 80.4 75.8 72 67.8 62.4 64.4 60.2 52.3 43 37.4 27.4 15.7 13.4 21.3 23.9 19.3 13.4 12.2 12.9 12.4 13.9 24.9 30.8 29.7 28 28.4 38.4 50.2 64.6 64.3 61.2 57.3 54.6 50.3 46.8 47.3 47.2 51.9 52.2 53.4 54.1 57.7 61 70.4 89.6 109.2 129.2 135 148.4 151.9 161.1 189 175.9 161.3 163.7 165.1 159.1 154.6 151.6 153.9 154.6 167.1 168.8 172 174.5 171.8 168.7 176.5 176 177.7 187.6 184.3 184.3 179.8 178.8 180.9 186.6 193.7 198.3 211.7 222.6 227.7 218.9 198.1 189.4 183 176 174.5 173.5 172.7 172.4 172.6 171.9 169.8 167.9 169 170.3 169.3 167.2 165.5 162.8 160.5 163.7 163.4 163.1 169.2 170.8 170.3 170.9 173.7 175.1 179.7 181.2 178.9 176.7 173.3 169.3 168.8 169.4 164.6 164.9 153.9 142.6 140.3 136.9 137.4 136.8 122.9 110.1 105.4 103.5 104.3 105.9 108.4 110.2 117 117.6 105.1 97.1 94.3 95.1 93.8 89.2 88.5 84.8 81.2 74.3 71.5 73.7 73.2 73.9 71.9
-1.5 -1.5 -1.5 -1.5 -1.5 -1.5 -1.5 -1.5 -1.5 -1.5 -1.5 -1.5 -1.5 -1.5 -1.5 -0.1 1.3 2.3 7.5 9 7.6 7.6 8 11.1 11.4 16.5 23.3 22.8 35.9 49.5 78.5 93.9 98.1 95 82.8 91.7 84.1 73.4 75.6 81.3 82.5 75.3 67 65.8 65.6 74.1 93.4 96.4 86.5 81.5 77.1 80.1 74.5 63.4 64 55.5 53.8 43.1 38 20.6 13.7 21.7 30.9 28.7 18.1 13.9 12.3 11.9 13.5 15.6 28.5 29.3 27.1 35.2 33.7 41.2 54.1 56.4 58.6 56.4 50.2 45.4 45.2 47.2 46.4 49.3 52.2 52.8 52 53.6 58.8 66.2 83.2 103.2 121.2 134.7 147.7 146.9 151.9 171 178.6 172.6 163.4 169.1 171 157.4 156.4 156.1 158.8 168.1 175.9 177.9 177.3 180.9 173 175 178.3 178.9 191 190.3 187.8 184.8 183 186.7 188.4 189.3 194.3 198.6 220.4 222.8 222.9 204.8 194.3 183 177.1 174.5 172.8 173 172.5 171.3 170.4 169.4 168.5 170.6 171.1 171 169.3 167.3 164.8 160.6 162.4 162.3 162 166.4 169.3 170.5 170 172 172.6 175.1 176.2 175.6 174 169.9 166.2 166.3 165.1 161.8 157.4 156.7 146.5 140.3 139.4 137.6 136.9 134 114.8 106.8 104.6 103 107.7 105.2 105.1 111.4 119.1 114.7 100.3 101.4 93.5 94.2 92.4 90.6 91.3 91.5 90.6 77.6 71.6 75.5 70.6 75.3
-1.5 -1.5 -1.5 -1.5 -1.5 -1.5 -1.5 -1.5 -1.5 -1.5 -1.5 -1.5 -1.5 -1.5 -0.1 1.5 3.3 2.2 4.7 5.5 8.7 9.5 8.2 8.2 10.1 11.5 13.1 16.1 28.1 45.6 67 90.2 96.3 103.3 95.2 91.3 92.5 81.9 74.7 75.7 82.7 83.1 74.7 65.9 65.8 75.7 86.5 97.2 90.1 87.5 86.8 88.3 77.6 76.1 63.9 59.5 56.3 46.3 38.2 22.4 16 19.9 24.7 35.1 26.6 16.5 11.8 13.6 14.2 17.8 26.2 32.6 31.2 48.9 45.6 34.7 41.2 43.9 55.3 55.1 45.6 44.2 43.9 44.3 45.3 46.9 48.7 50.6 51.9 53.4 55.4 62.7 76 97.1 116.1 134.1 136.6 138.6 146.2 160.9 178.4 174.8 169.1 165.6 169.8 164.7 159.9 159.9 160.5 163.9 176.3 178.7 185.1 188 181.8 174.7 176.4 179.4 187.4 192.9 188.1 187.2 186.5 190 188.8 188.7 189.3 193.5 206.9 222.5 223.4 213 197.8 185.9 177.4 175.2 172.5 172.9 172.3 171.5 170.3 170.3 168.4 170.9 171.8 170.6 169.4 168.4 163.6 161 161 161.3 161.7 162.5 167.5 167.1 167.4 168.8 171.4 171.3 174.5 175.8 172.8 167.7 165.5 165 164.8 163.1 156 154.5 150.8 145.8 142.2 141.1 138.5 135.3 129.2 115 108.9 104.6 102.7 106.3 102.7 106.4 114.2 108.8 97.5 89.8 94 96.8 96 94.5 92.9 93.4 89.5 84.2 72.6 71.6 72.5 70
-1.5 -1.5 -1.5 -1.5 -1.5 -1.5 -1.5 -1.5 -1.5 -1.5 -1.5 -1.5 -1.5 -1.5 -1.5 1.8 4.3 2.5 2.2 3.6 6 8.4 8.9 8.3 8.4 10.2 10.2 13.8 20.9 37.7 56.8 81.5 96.4 98 102.2 96.1 93.9 90.6 81.1 79.3 78.9 84.7 80.5 70.1 71.9 82 84.8 93.1 93.5 89.3 98.7 93.3 78.6 73.1 68.3 65.6 58.7 50.1 40.8 26.3 16.5 17.2 17.4 29.5 34.4 22.1 13.4 13.2 15 17.6 24.6 31.5 31.7 45.8 50.8 49.5 37.1 38.6 52.8 53.8 41.5 43.5 45.5 44.2 45.2 46.5 47.7 48.7 51.7 55.8 54.8 56.8 69.2 88 107.5 124.2 131.5 132.1 143 153.4 179.4 176.9 179.1 170.3 170.5 169.1 160.2 162.5 167.9 165.2 174.4 183.8 185.4 191 191.7 188.1 175.7 179.5 181.4 191.3 188.2 187.3 188.3 196.3 197.1 190.2 188.6 190.4 202.3 214.7 216.9 215.1 204.8 196.1 176.6 174.3 173.2 173.2 172.6 171.7 171.3 170.8 168.5 170.6 172.1 172 170.1 167.4 164 161.8 160.3 161 161.1 162.6 166.2 167.1 166.4 167.3 169.9 169.2 170.9 175.6 176.5 169.2 162.7 164.8 163.8 162.1 159 154.5 151.7 149.1 144.7 141.3 139.1 133.4 129.2 117 115.6 111 104.6 102.4 106.9 101.5 101.4 101.3 94.9 89.2 89.2 98.2 102.3 96.5 92.8 92.3 88.8 86.8 82.3 68.3 67.8 65.2
-1.5 -1.5 -1.5 -1.5 -1.5 -1.5 -1.5 -1.5 -1.5 -1.5 -1.5 -1.5 -1.5 -1.5 -1.5 2.2 6 6.1 3.5 3.8 7.9 8.8 9.4 9.2 8.2 8.5 9 11.6 16.8 30.9 45.8 80.3 93.8 98.3 98.2 100.3 100.8 99.1 89.5 82.9 80.9 79.8 83.2 77.1 79.2 89.1 89.9 91.2 99.7 98.3 102.7 99.4 82.7 75.6 70.2 65.4 62 57 41.8 24.7 24 17.1 14.3 16.3 27.7 27.4 17.2 12.9 15 18.4 24.7 35.5 33.1 43.6 52.7 51.4 37.9 35.6 44.8 56.2 40.8 41.8 44.6 44.7 45.3 46.2 47.2 48.2 53.4 57.8 59.6 56.2 61.5 77.6 100.3 119.1 131 128.7 133 148.5 181.1 177.7 182.5 181.6 168.5 169.3 162.2 167.3 168.5 168.3 171.7 181.8 187.8 189.2 193.2 191.7 182.1 178.9 180.6 181.8 184.7 185.3 186.5 202.5 201.4 195.4 190.9 188.6 194.5 201.7 210.7 207.2 205.6 196.8 185 173.4 172.5 172.1 172.7 171.6 171.5 171.4 170.5 171.8 172.9 173.1 171.6 168.4 164.5 162.2 160 161 160.5 165.5 161.2 165.8 166.3 165.5 164.5 167.1 169.1 170.1 177.3 172.3 168 161.4 161.3 162.5 160.8 160.1 151.1 150.6 147 143.3 137 136.1 132 123.3 116.3 115.1 110.4 108.2 101.9 101.5 99 100.1 95.5 88.1 86.7 92.7 97 100 96.5 92.7 88.9 82.2 80.2 76.5 61.4 62.9
-1.5 -1.5 -1.5 -1.5 -1.5 -1.5 -1.5 -1.5 -1.5 -1.5 -1.5 -1.5 -1.5 -1.5 -1.5 2.4 6.8 7.6 6.5 5.9 6.4 8.7 9.1 8.8 8.7 8.8 8.6 13.8 15 26.1 38.4 68.8 94.5 101 100 100 100.4 98.6 93 91.8 88.9 85.2 77.1 84 88.8 89.1 94.5 93.3 98.5 106 107.8 98.9 93 79 77.2 68.8 61.7 55.7 39.9 32.4 38.5 27.5 24.8 17.3 15.2 22.1 18 15.2 16 19.3 30.3 44.2 42.4 43.1 53.4 56.8 55.7 36.3 37.9 53 40.4 43.1 46.6 46.2 45.7 46.6 47.1 48.4 53.6 61.1 63.5 63.9 59.2 70 88.3 108.4 121.3 124.5 129.1 143.6 168 179.1 177.9 179.8 175.1 168.5 168.4 164.9 170 175.1 172.1 181 190.4 191.6 192.2 193.5 185.8 178.6 179 179.9 190.3 186.8 186.3 197.3 201.5 197.7 192 189.4 189.1 195 200.5 202.6 203.1 199.4 192.8 177.3 172.3 172.2 171.9 171.6 171.5 171.5 170.7 171.1 173.5 173.4 172.7 170.2 165.8 163.2 160.9 158.9 159.7 163.4 165.6 162.6 164.9 166.3 162.1 165.1 165.2 166.1 168.3 170.2 169.1 164.3 160.4 159.8 161.6 160.4 153.4 150.2 148.6 142.8 137.8 137.1 132.9 133.3 131.2 126.4 117.7 109.6 106.2 99.8 99.6 94.9 93.7 91.6 87.8 85.9 91.5 95 95.2 93.9 90.9 84.2 78.2 75.7 66.9 57.3
-1.5 -1.5 -1.5 -1.5 -1.5 -1.5 -1.5 -1.5 -1.5 -1.5 -1.5 -1.5 -1.5 -1.5 -1.5 2.3 5.2 7.9 8.4 6.3 8.4 10.6 9.9 9.3 9.8 9.7 8.9 11.7 16.1 23.5 35.5 53.8 83.9 95.4 100.8 100.1 100.2 102.6 110.2 101.3 96.5 95 85.6 90.1 97.6 87.1 97.1 98.1 101.4 110.6 111.6 104.4 93.6 86.9 84.3 78.9 57.9 50.5 36.3 38.2 42.4 37.5 34.1 29.4 23.6 20 17.1 12.9 25 27.7 37.1 39 41.7 45.2 51 58.2 58.9 42.5 35.9 49.4 40.1 41.7 51.6 53.4 49.5 47.9 47.5 50.8 53.6 62.6 61.7 73.5 63.2 64.1 80 100.7 112.6 123.1 127.9 139 163 180.7 178.7 178.6 177.6 175.9 168.7 167.1 168.5 180.2 181.5 177.6 188.7 195 193.6 193 193 183.3 180.6 181.6 191.6 191.6 187.2 194.6 199.9 199.3 193.8 193.1 189.9 193.7 194.9 200 200.9 198.2 195.3 182.6 174.4 172.7 172.3 172.9 171.5 171.5 170.8 170.9 173.9 173.7 173 171.9 167.4 164.6 161.4 159.8 158.9 164.4 166.7 161.8 161.6 164.4 161.6 162.6 163.2 164.7 165.6 163.4 162.9 163.4 160.8 159.1 160.3 160 154.7 146.3 145.3 141.6 138.8 133.9 130 135.7 135.9 134.2 119.2 112.4 107 102.2 96.8 95.7 92.6 92 91.1 86.3 85.4 88.7 88.2 90.3 90.9 87.6 83.4 76.9 66.1 57.4
-1.5 -1.5 -1.5 -1.5 -1.5 -1.5 -1.5 -1.5 -1.5 -1.5 -1.5 -1.5 -1.5 -1.5 -1.5 -1.5 1.7 6 9.2 8.5 10.1 11.4 11.6 10.5 10 9.4 8.8 11.2 15.5 21.7 30.7 44.7 74.1 93.1 100 100.3 103.6 102.6 113.8 121.8 104.4 98.8 103.4 97.3 97.5 95.7 93.5 97.7 105.1 112.6 116.2 114.9 99.7 93.8 92.1 82.1 67.5 51.2 35.2 34.7 44.3 57.6 43.7 41.5 30.2 24.8 20.2 13.8 24.2 33.4 36.5 44.3 43.7 50.3 54.1 62 59.4 54.8 43.6 40 40.6 43 50.7 58.1 59.9 53 48.7 54.9 58.8 63.7 67 69.1 70.2 60.4 74.3 95.2 106.4 113.8 122.5 136.6 156.3 182.1 181.7 178.7 183 177.9 175.9 168 167.2 182.7 192.4 184.4 180.6 196.8 194.1 194.9 197.4 194.2 181.9 182.8 191.8 192.2 189.5 195.7 205.7 205.3 203.7 197.6 190.3 199.5 199.1 193.8 198.5 197.7 196.7 184.8 179.6 173.3 173.6 172.9 171.5 171.3 171.1 170.6 173 173.7 173.6 173.1 169.5 166.9 163 160.1 158.2 159.8 164.5 163.4 157.5 156.5 156 153.6 161.1 162.8 162.2 161.9 161.1 160.6 162.7 153.4 158.4 157.2 152.4 146.6 143.2 140.8 141.1 136.3 133.9 128.8 132.8 135.6 129.6 118.1 115.3 106.2 100.6 93 92.6 89.7 90.6 90 82.9 83.2 85.3 89.9 91.4 87.9 85.8 77.8 69.2 57.6
-1.5 -1.5 -1.5 -1.5 -1.5 -1.5 -1.5 -1.5 -1.5 -1.5 -1.5 -1.5 -1.5 -1.5 -1.5 -1.5 0 2.2 8.1 10.5 10.8 11.3 12.5 12 11.5 10.7 10.1 11.3 16 21.1 26.5 41.4 64 91.7 98 100.2 99.7 99.1 111.7 124.2 118.3 107 108.4 110.7 102 104.7 94.2 98.1 113.8 118 113 108.7 106 97.7 90.4 81.1 72.3 52.9 34.8 35.4 46.3 57.2 53.1 48.6 40.7 33.4 26.4 16.2 18.4 30.7 43.3 41.9 47.8 48.1 52.5 60.2 61.1 58.9 56.3 46.7 40.7 44.2 50.9 62.4 69 66.4 65 57.5 62.2 70 71.1 65.7 72.7 67.5 69.8 88.5 102.9 109.8 115.9 128.6 147.3 179.1 180.7 181.7 174.2 178.2 183.7 178.3 170.9 181.1 194.6 194.6 184.4 188 195 193.4 199.7 200 191.2 189.9 189.6 192.1 189.9 194.9 216.3 214.3 209.3 203.8 194.1 196.5 205.6 198.2 195.4 196.8 196.7 187.5 181.9 174.6 172.4 170.8 172.3 174.5 171.2 171 172.4 172.3 172.8 173.4 173.3 169.8 168.3 162.7 160.7 158.1 161.6 164.2 163.7 154.8 152.4 150.4 157.2 158.9 158.8 159.3 161.2 157.7 158.6 151.7 152.8 155.5 148.8 145.3 139.4 140.4 142.3 136.1 128.9 123.1 125.9 124.5 123.6 116 118.6 110.4 96.8 88.3 89.9 88 90 88.3 82.3 82.4 84.6 86.4 88.5 86.2 84.7 78.6 67.2 59.7
-1.5 -1.5 -1.5 -1.5 -1.5 -1.5 -1.5 -1.5 -1.5 -1.5 -1.5 -1.5 -1.5 -1.5 -1.5 -1.5 0.3 2.3 7 9.4 11.2 12.2 12 15.3 13.9 11.2 11.2 14.2 17.5 23.1 27.5 37.1 53.9 81.1 95 99.5 98 98.1 105.3 112.2 120.2 112.7 115.2 114.8 114.3 106.1 99.3 97.7 111.7 121.4 119.7 107.6 107.9 98.9 91.2 83 74.1 59.7 43.5 37 47.2 56.2 63.4 59.1 50.5 42.5 34.3 21.9 14.3 23.8 33.9 42.1 48.2 54.7 48.7 57.1 60.2 60.7 58.1 53.8 46.5 49.4 52.5 63.6 72.3 78.2 76.8 72.5 67.2 73.8 76.2 69.2 74.6 70.9 65.3 82.1 97.9 109 114.3 120.8 143 160.3 165.9 169.8 170 177.6 184.4 188.3 184.3 181 192.1 197.7 196.2 186.3 190.5 191.9 194.7 201.5 198.2 188.8 193.7 195.6 198.2 193.7 215.8 221.9 216.1 208.7 202.9 194 201 205.3 202.7 197.1 197.5 191.2 180.8 177.1 175.5 172.9 171.1 170.3 170.3 171.4 173.3 172.9 172.3 172.5 174.6 173.7 170.5 165.8 162.2 159.4 156 161.4 162.5 154.7 150.1 150 153.9 158.8 158.4 159.3 161 155.6 149.5 147.4 147.2 150.3 147.9 144.5 137.6 138.7 141.2 138.2 130.3 127.6 121.7 118.2 122.2 117.2 115.2 110.6 95.3 89.2 84.8 86 87.2 86.4 82.4 81.1 87.3 87.1 87.3 85.6 81 82 74.4 61.2
-1.5 -1.5 -1.5 -1.5 -1.5 -1.5 -1.5 -1.5 -1.5 -1.5 -1.5 -1.5 -1.5 -1.5 -1.5 -1.5 1.7 2.2 3.4 8.5 11.1 11.1 12.6 15.2 19.3 12.7 11.9 18.5 20.9 24.3 34.3 36.7 43.5 68.5 90 94 91.7 95.4 98 98.4 101.8 103.2 115.9 122.1 119.7 118.6 106.1 97.9 107 114.9 116.7 110.2 102.2 100.8 97 87.5 77.2 55.9 51 42.8 45.3 59.2 66.2 65.4 55 51.8 39 27.5 14.5 16.1 42.2 43 48.7 52.1 51.7 49.4 58.6 60.6 55.4 60.4 51.6 53.2 59.4 61.7 75.7 88.6 90.1 84.4 75.6 74.1 75.5 76 74 80.4 71.6 75 92.6 103.8 112.8 117.2 128.2 148.9 155.8 173.5 176.8 170.3 177.9 186.5 186.9 179.6 193.9 196.8 198.7 199.4 187.5 189.9 195.3 201.7 200.7 197.1 195.7 202.5 205 201.4 207.9 218.3 221.6 215.3 209 200.5 195.8 205.6 213 203.6 195.5 193.2 180.4 176.8 179.9 174.1 171.7 171.1 170.2 170.7 172.5 173.6 172.7 172.3 173.7 173.8 171 169.1 165.3 160.2 157.6 159.2 160.7 157.4 151.7 148.1 150 154.4 157.2 154.6 156 151.3 150.1 147.6 142.7 147.7 147.3 141 136.1 134.1 135.7 135.6 128.3 120.6 118 113.8 109.7 108 102.8 100.1 95.8 95.1 94.5 82.3 82.7 86.3 81.6 80.5 81.9 85.5 83.3 83.9 80.6 78.2 75.2 61.2
-1.5 -1.5 -1.5 -1.5 -1.5 -1.5 -1.5 -1.5 -1.5 -1.5 -1.5 -1.5 -1.5 -1.5 -1.5 -1.5 1.7 2.2 3.1 5.1 10 11.5 11.6 15.6 18.8 13.4 13.7 18.3 22.3 23.9 33.6 39 43.8 55 79.3 89.5 87.5 88.1 91 93.6 85.2 97.5 121.8 122.4 125.6 124.8 115.7 106 101.5 110.6 118.3 114.5 104.3 98.9 98.7 93.2 77.5 60.6 53.8 47.1 44.1 63.9 67.1 70.8 64.3 55.2 45.5 31.1 16.7 14.4 30.8 40.6 48.5 48.5 53.9 51.8 52.2 59 67 69.5 58.4 55.2 62.5 63 75 89.9 100 90.8 85.7 77.2 77.7 81.3 76.5 83.1 82.7 68.5 83 99.4 107.7 116.8 122.6 133.3 150.1 163.8 165.7 164.5 174.4 180 187.6 191.1 190.8 199.1 199.4 203 192.9 190.7 192.7 201.5 202.8 201.3 197 204.7 207.9 211.5 207.8 218.9 223.4 221.5 212.1 211.1 201 204.4 210 206.3 204.1 192.4 181.9 178 181.9 183.7 173.9 172 170.7 171 173.3 174.6 174.4 172.4 172.3 172.4 172.2 171.2 169 164.3 157.5 155.4 161.2 160 151 147.6 147.2 149.7 152.7 154.2 149.9 147.2 148.8 144.4 143.4 141.2 144.9 136.9 133.1 131.2 131.2 133.8 126.4 121.6 119.3 115.9 108.4 99.9 96.4 94.1 93.1 94.8 91.3 85.1 81.7 81.5 80.4 80.4 80 79.8 80.2 81.2 80.4 77.4 74.6 65.5
-1.5 -1.5 -1.5 -1.5 -1.5 -1.5 -1.5 -1.5 -1.5 -1.5 -1.5 -1.5 -1.5 -1.5 -1.5 -1.5 -0.5 1.5 2.6 4 5.5 9.9 17.3 14.8 19.8 14.4 18.7 18.3 20.9 26.1 33.6 43.7 49 52.8 63.4 78.5 77.7 81.7 80 75.3 80.1 97.6 118.2 123.5 127 130.2 122.5 113 108 104.5 109 109.7 108.7 100.4 98.9 91.6 76 59 55.1 50.1 42.7 55.4 69 69.7 69.3 60.2 51.2 36.9 23 15 22.9 35.6 47.3 48.2 50.4 51 50.5 57 68.2 68.8 65.4 61.3 65.1 65.7 73.1 88.2 97.5 98.1 89.6 82.4 84.7 84.9 79.5 81.5 89.2 75.6 75.4 90.3 103.3 107.6 116.5 124.3 139.3 159.1 161.6 162.1 170 179.7 189.2 193.9 190.3 201.1 200.9 204.7 198.8 195.5 192.6 202.5 207 204.3 200.8 206.3 209.8 218.3 207.3 215.9 222.7 223.2 216.1 214.8 216 207.5 206.7 204.5 203.6 196.6 187.8 180.1 180.8 185.7 183.8 172.8 170.1 170.7 174.1 175 174.6 173.5 172.3 173.3 172 170.7 169.8 168.3 160.5 155.2 159.1 158 155.2 147.9 145 146.3 146.3 146.3 145 145.9 146.2 142.2 138.3 132.5 141.6 135.2 131.1 129.9 129.3 130.3 133.6 121.3 119.9 112.7 107.7 100.5 91.7 89.6 89.7 91.1 86.7 87.9 87.2 81.7 79.9 80 79.6 79.7 80.1 81.1 81.2 81.7 76.8 71.6
-1.5 -1.5 -1.5 -1.5 -1.5 -1.5 -1.5 -1.5 -1.5 -1.5 -1.5 -1.5 -1.5 -1.5 -1.5 -1.5 -1.5 0.1 2.2 3 4.9 5.4 15.8 14.4 13.4 12.3 15.4 17.3 21 25.5 34.8 42.4 50.2 53.8 53.9 63.6 71.4 73.3 70.4 63.2 76.8 95.5 105.9 121.2 123.6 133.7 126.4 114.9 116.7 111.3 106.8 103.2 104.5 101.4 100.8 88.1 76.4 58.6 56.3 49.4 45.8 53.8 66.1 72.2 73 72.1 62.7 45 27.6 14.8 21.5 34.3 47.7 46.6 52.4 52.6 51 56.8 67.7 70.8 74 63 70.2 71.7 73 87.1 99.3 105.6 96.7 89.4 90.4 91.9 91.4 91 94.4 85.5 74.2 86 92.6 101 105.9 120.8 130.6 146.8 155.6 158.9 166.2 178.3 186.4 191.3 195.9 198.8 204.5 203.3 204.8 201.2 194.9 193.7 208.4 209.7 211 206.5 213.1 217.2 209.9 213.8 222.2 225.3 223.5 218.5 215.6 211.3 213.3 209.5 201 201.7 192.4 179.2 179.8 185.9 192.8 181.4 171.3 171.1 172.9 175.5 174 172.9 172.7 173 171.8 168.5 167.8 166.7 163.1 156.3 153.2 156.4 147.1 145.6 146.2 144 141.6 143 141.6 141.5 145.4 144.2 140.9 131.8 135.2 130.7 129 130.1 128.8 129.2 123.2 122.6 116.8 108.5 105 104.1 90.7 87.2 88.2 86.9 84.4 88.1 88.1 85.7 79.5 79.3 80.1 79.6 80 78.8 80.2 85.3 83.6 72.2
-1.5 -1.5 -1.5 -1.5 -1.5 -1.5 -1.5 -1.5 -1.5 -1.5 -1.5 -1.5 -1.5 -1.5 -1.5 -1.5 -1.5 -1.5 2.2 2.3 5 5.5 12.1 13.3 11.5 13.8 14.8 15.8 21.4 25.4 35.1 42.6 50.9 51 55.6 53.9 61.7 59.1 50.1 60.8 73.6 89.9 102.8 113.5 121.3 123.8 124.7 118.7 116.7 112.1 108.6 102.2 97 100 100.1 88 76.8 57.5 58.6 50 48.3 51.8 65.5 71.8 83.2 79.6 63.1 48.9 35.1 20.3 19.1 27.6 40.7 47.4 51.1 53.7 51.4 57.4 63.9 68.1 73 67.5 74.4 73.7 72.9 84 102.5 109 109.5 92.1 92.1 96.6 98.9 101.5 91.7 94.6 78.1 86 86.5 95.7 100.7 111.1 122 132.8 145 152.6 164.7 174.1 184 197.8 195.2 194.2 210.9 205.1 206 205.6 197.4 194.3 202.1 214.6 214.9 211.1 219.2 224.6 215.7 219.5 222.7 227.4 229.4 225.5 222.8 216 212.4 213.4 206.4 205.2 197.3 181.6 179.4 186.7 192 195.1 180.6 174.8 170.1 171.2 174.3 173.7 173.2 172.9 172.7 170.1 168.3 166.8 164.3 158 153.6 153 152.7 150.4 150.6 149.5 143.2 140.5 139.7 139.8 134.1 140.6 140.5 132.5 125.4 125.9 126 127.3 127.2 124.8 119.2 116.8 117.1 105.6 102.6 101.3 91.8 86.8 85.8 85.6 84.9 84.4 84.2 83.3 81.4 79.5 81.6 80.6 79.7 79.3 80.3 82.8 82.7 72.7
-1.5 -1.5 -1.5 -1.5 -1.5 -1.5 -1.5 -1.5 -1.5 -1.5 -1.5 -1.5 -1.5 -1.5 -1.5 -1.5 -1.5 -1.5 2.2 2.2 6.2 7.2 10.8 12.1 11.9 12.6 14.8 15.8 16.9 20.3 27.8 39.7 48.8 49 47.7 44.9 47.6 47.3 47.4 54 68.2 80.1 99.1 105.2 112.2 119.2 122 118.1 108.4 106.6 111 109.3 94.7 96.3 93.3 86 74.6 60.5 59.2 49.5 52.5 49.7 69.7 71.2 83.9 84.4 67 54.5 41.4 29.3 18.3 23.9 35.3 45.6 49.9 48.4 60.4 67.2 65.1 67.5 75 69.7 71.5 72.7 75.7 81.5 97 106.7 109.1 100.5 93.8 97 117.6 106.3 98.6 102.4 87.2 94.2 94.3 90 97.9 101.1 119 125.1 145 148.2 164.2 184.2 196.3 197.6 195.8 195 204.4 213.2 207.3 206.1 202.7 199.6 200.8 215.1 221.3 219.4 223.3 230 226.1 216.6 225.1 221.4 229.7 232.5 223.7 219.7 214.8 208.5 206.6 208.8 204.5 187.8 179.5 180 186.3 193.5 193.7 187.4 174.5 171.9 171 172.7 173.8 173.4 173.5 173.3 170.4 169.4 167.4 160 156.2 153.8 153.6 153 152.5 152.5 151.8 142.9 140.7 138.2 138 136 135.2 129.9 125.1 120.5 120.9 121.6 121.1 118 118.1 112.9 108.2 104.8 96.3 93.4 89.2 85.9 84.9 87.6 87.2 83.2 82 80.4 80.5 79.6 81.7 81.6 80.6 78.9 83.9 83.2 83.5 79.2
-1.5 -1.5 -1.5 -1.5 -1 -1.5 -1.5 -1.5 -1.5 -1.5 -1.5 -1.5 -1.5 -1.5 -1.5 -1.5 -1.5 -1.5 -1.5 2.3 2.2 8.2 13.6 12 11.5 13 14.8 15.4 15.7 17.4 20.9 31.9 44.4 46.8 46.4 38 41 44.6 46.5 56.2 58.4 69.8 90.3 103 104.3 108.6 110.9 110.6 104.6 105.1 108.4 108.8 101.4 94.7 90.7 85.1 75 61 61.4 51.5 56.5 50.1 65.9 70.1 79.9 82.1 71.9 61.4 50.1 38.1 20.1 19.3 32.1 39.3 45.1 44.2 65.6 72.1 73.2 68.2 76.5 70.6 68.7 72.6 74.8 78.3 89.6 107.1 109.1 105.4 94.1 96.8 115.4 111.7 106.6 103.2 95 94.7 97.4 96.9 94.7 98.9 105.1 119.8 132.2 149 163.9 186.3 198.1 199.4 196.8 197.9 194.9 212.6 213.1 207.3 206.5 204.6 207.7 215.1 227.3 222.8 233 233.5 238.6 224 225.5 224.7 226 229.4 224.9 219.1 222.3 208.3 206.2 208 203.4 192.9 180.9 179.4 186.3 190.6 198.3 197.8 186.2 175.4 173.1 173.2 175.4 174.2 174.8 177.2 173.2 172.6 174.1 161.8 157.1 154.2 154.2 153.6 155 154.6 152.7 149 145.9 144.4 142.2 139.6 139.3 129.8 124.5 124 121.3 118.7 118.5 118.3 116.4 111.2 108.2 101.1 93.5 90 86 85 84.9 89.4 94.4 89.2 87.1 85.3 81.4 80.6 80.8 84.1 83.3 81.2 82 81.8 78.9 77.1
-1.5 -1.5 -1.5 -1.5 -1.5 1.5 -1.5 -1.5 -1.5 -1.5 -1.5 -1.5 -1.5 -1.5 -1.5 -1.5 -1.5 -1.5 -1.5 2.2 2.3 3.8 13.7 13.3 11.8 11.9 14 14.1 14.8 15.5 20.5 23.9 35.2 42.9 43.2 38.1 34.4 37.6 43.9 47.9 54.5 62.9 77.7 92.9 95.6 95.9 94.6 103.2 104.1 107.2 106.4 104.6 102.9 99.5 84.7 80.5 77.5 62.6 62.8 56.4 57 51 53.5 63.4 80.6 87 77.4 63.5 50.6 46.2 29 17.8 27.4 33.9 34.8 42.1 59.7 75.4 75.9 75.7 78.7 74.2 72.6 73.7 74.9 77.4 84 94.5 106.5 108.3 98.5 105.9 106.6 113.6 106.1 100.5 102 101.2 100.4 101 98.7 98.7 100.3 116 126.7 143.8 165.8 182.2 196 198.1 198 200.1 200 201.8 215.5 208.7 208.7 209.1 211.8 215.5 225.6 224.7 232.3 235 233 226.6 220.6 226.1 226.4 234 229.7 221 214.1 211.9 207.1 207.6 203.4 197.4 187.9 179.9 187.4 201 199.5 199.2 197.3 185.3 178.2 175 177.4 179 176.9 177.4 174.2 173.4 173.8 165.8 161.1 157.1 154.8 157.3 159.8 158.6 155.6 153.1 149.1 148.2 147.1 147.3 140.7 138.3 133.7 130.2 126.3 124.3 120.8 121.9 121.4 119.6 117.2 111.1 103.1 94.3 89.6 87.9 87.9 87.3 97.1 95.4 90.8 90.4 88.2 81.4 81 83.6 89 83.3 79.7 80 78 75.8
-1.5 -1.5 -1.5 -1.5 -1.5 7.6 -1.5 -1.5 -1.5 -1.5 -1.5 -1.5 -1.5 -1.5 -1.5 -1.5 -1.5 -1.5 -1.5 -1.5 -1.5 3.5 9.8 11.9 10.6 10.5 11.7 11.4 13.1 13.8 15.7 20.4 27.3 37.6 38.2 38.1 33.9 36.3 41.9 42.5 48 55.3 68.7 78.3 88.7 92.3 87.2 102.8 104.3 105.4 106 104.5 103.1 100.4 92.8 78.1 77.4 64.9 59.9 54.4 59.7 53.1 53 60.2 74.1 80 82.4 67.1 56.3 51.2 39.4 18.6 21 25.1 26.8 40.9 54.7 69.2 74.1 78.1 79.9 78.1 78.2 78.4 79.7 78.6 78.2 83.6 93.2 107.9 106.9 102.8 107.2 111.1 103.7 103 102.6 108.3 100.4 102.6 101.8 100.6 101.8 107.8 119.7 134.8 161.2 175.8 193.5 196.6 199.1 202.9 205.3 200.5 214.1 215.7 210 212.3 210 216.1 225.6 226.4 227.7 230.2 227.7 221.4 220.1 225.7 228.8 232.5 233.6 226.1 218.8 212.3 208 211.2 202.7 197.5 191.1 188.7 195.3 206.1 210.9 207.1 202.7 193.9 188.5 188.8 182.1 179.5 180.9 178 176.3 175.4 173.9 169.1 162.4 157.5 157.3 159.8 163.4 163.1 160.3 158.4 156.3 151.2 148 146.8 143.4 140.6 139.3 133.7 132.2 130.7 127.6 121 124.3 121.3 119.6 116.2 112.1 105.6 92.3 94.6 91.3 89.7 87.3 92.4 92.6 92.2 91.8 89.3 88.4 82.4 89.4 89.3 81.3 82.1 86.3 81.6
9.2 5.5 -1.5 -1.5 -1.5 -1.5 -1.5 -1.5 1.5 -1.5 -1.5 -1.5 -1.5 -1.5 -1.5 -1.5 -1.5 -1.5 -1.5 -1.5 -1.5 2.3 8.2 9.6 9.3 9.1 9.3 10.3 9.7 11.1 13.7 17.2 21.5 31.3 38.1 41.3 33.8 36.2 39.2 38.7 49.7 49.9 58.2 67.9 74.6 84.6 84.1 93.6 102.8 103.6 104.2 104.3 102.7 99.1 93.8 82.5 70.4 65.6 55.9 56.6 61.3 57.4 55.9 60.2 71.9 78.9 84.4 79.2 61.5 56.6 42.5 25.1 19.9 25.1 32.2 37.6 52.9 66.6 72.6 78.2 81.3 78.2 78 80.9 86.9 89.3 87 83.6 92.2 93.3 107.9 100.8 101.1 107.5 106.7 102 100.9 112.7 108.7 108.9 109.8 108.6 108.3 103.5 117.4 124.6 151.9 165.5 179.5 196.1 199.8 206.4 212.3 214.4 214.4 222.3 222.2 214.1 211.6 210.1 217.1 224.2 227.5 224.3 221.2 221.8 219.1 223.3 226.7 233.4 235.2 230.2 224.6 219.5 210.5 211.8 203.1 197.4 197.2 207.3 214.2 219.6 220.3 213.5 210.4 202.8 195.3 195.7 190.9 182.7 183.9 179.9 178.6 176.2 172.9 170.1 164.5 162.2 160.1 160.1 162 164.1 164.6 163.9 162.6 159.3 152.5 149.5 146.1 141.7 139.1 136 133.3 131.2 130.8 123.9 123.9 127.5 123.5 119.7 115.2 112.7 107.5 106.1 102.3 96.3 88.9 88.1 87.8 91.3 90.4 89.7 87.5 85.4 82.9 90 89.4 84.1 88.5 86.4
5.7 5.8 2.2 -1.5 -1.5 -1.5 -1.5 2.3 2.6 -1.5 -1.5 -1.5 -1.5 -1.5 -1.5 -1.5 -1.5 -1.5 -1.5 -1.5 -1.5 -1.5 3.2 7.4 8.8 10.3 9.9 10.1 9.9 8.9 11.4 15 19.3 28.8 31.4 31.5 32.5 35.8 35.7 36.7 47.6 50 50.5 58.6 70.6 69.1 82.5 87.7 98.1 101.9 103.3 108.5 101.5 98.3 94.3 86.7 74.4 63 59.8 57.2 61.3 63.7 58.6 60.4 63.3 79.8 86.7 80.7 67.5 53.5 47.8 32.2 20.3 24.9 40.6 41.1 54.9 68.9 68.9 75.4 83.2 81 76.1 82.2 102.1 101 95.2 93.9 92.4 106.7 96.9 95.4 98.6 106.7 108.8 98.5 100.1 107.7 113.5 110.2 122.9 114.9 113.4 112.5 110.9 116.1 135.3 154.9 167.2 183.9 197.2 205.1 213.1 215.5 218.2 217.3 227.7 223.7 212 210.7 213.1 216.7 225 222.2 217.6 221.2 217.2 222.7 225.6 233.9 235.8 232.4 230.1 231 214.7 213.2 207.6 198.2 204.3 238.6 239.3 249.4 242.6 225.1 218.5 212.4 206 205.4 202.3 192.1 181.9 181 180.3 177.8 175.9 171.1 169.2 164 163.6 163.3 162.3 164.8 169.3 165.7 165.1 164.6 159.5 154 149.7 148.5 140.7 136.8 134 132.1 129.5 124.3 126.4 126.2 129.1 122.6 122.8 122.4 121.7 120.3 117.6 109.8 102.7 97.2 92.2 89.5 89.6 88.2 85.9 84 82.1 86.1 90.2 89.5 91.4 88.5
5.4 2.6 2.2 -1.5 -1.5 -1.5 1.7 2.3 1.8 -1.5 -1.5 -1.5 -1.5 -1.5 -1.5 -1.5 -1.5 -1.5 -1.5 -1.5 -1.5 -1.5 1.2 5 6.7 9.1 11.1 9.5 9.3 8.7 9.6 16.2 17.7 24.7 30.2 30.7 32.9 38.2 37 36 42.3 45.3 49.3 50.6 56.2 67.4 82.6 87.2 96.4 101.9 101.6 110.7 104.7 98.8 100.7 95.5 87.4 68.4 60.4 56.7 58.2 64.3 61.3 63.8 63.9 74.7 92.2 82.9 73.7 59.5 49 37.9 24.2 25.3 38.2 42.3 56.3 72.8 71.2 76.6 85.4 82.9 81.1 81.2 97.5 104 98.8 104.8 93.7 105.6 106.6 96.8 95.6 103.3 106 102 99.8 102 109.7 112.4 126.9 122.2 116.1 115.5 119.1 113.4 123.9 136.6 156.4 168.4 196 198.5 207 216.1 224.9 214.9 226.8 231.1 222 211.5 212.6 212.6 216.7 221.2 220.3 212.9 214.1 212 222.8 226.4 232.9 234.1 232 230.4 223.9 214.9 210.6 200.8 211.5 247 250.1 257.2 262 247.9 228.4 222.7 216.3 215.5 208.5 207.4 190.5 180.7 180.4 179.8 176.4 173.1 171.7 167.1 164.9 166.5 163.7 165.4 167.5 167.1 166.5 165.8 165.3 158.8 152.8 148.6 144.2 139.3 133.8 131.4 129.1 128 130.5 127.7 129 125.4 122.8 127.1 126 125.6 126.6 124.2 117.2 113.5 107.4 97.8 94.7 99.4 98.1 96.2 90.2 84.1 87 88.8 94.7 94.2
3.6 9 5.5 -1.5 -1.5 -1.5 5.7 2.4 3.3 -1.5 -1.5 -1.5 -1.5 -1.5 -1.5 -1.5 -1.5 -1.5 -1.5 5.4 -1.5 -1.5 -1.5 -1.5 4.6 6.7 9.4 10.4 8.6 7.9 8.8 12.9 15.8 20.1 28.2 27.6 41.3 46 39.3 39.6 37.9 43 50.4 52.5 53.5 68.4 82 86.6 90.3 97.4 96.6 107.5 105.1 100.4 102 100.4 96.7 79.8 64.1 57.7 56.2 65.5 60.4 74.1 65.8 76.2 89.4 87.3 76.3 63.7 52.4 42.6 26.7 23.4 32.7 41.6 61.8 72.5 75.4 78.1 81 83.3 79.4 79.5 95.9 105.6 105.7 103.4 104.7 94.1 104.8 98.2 92.4 94.9 103.6 100.8 96.9 99.4 108.6 113 117.7 126.6 121 116.8 117.5 113.3 117.2 127.7 140.6 158.4 178.2 195.4 203.9 222.4 224.5 225.9 222.8 231.2 229.4 220.2 213.3 213 212.9 217 214.4 208.2 206.6 209.3 211.7 220.2 222.8 232.6 232.2 231.7 227.7 220 213.9 209.2 221.6 255.4 259.1 262.5 274.4 273.1 245 226.5 223.1 222.3 219.5 211.9 202.8 187.8 182.1 181.8 178.2 175.5 171.8 169.5 169.7 170.1 169.6 170.3 168.4 167 166.2 164.2 162.3 161.2 155.7 150.8 147.2 141.7 136.7 132.2 130.3 132.7 132.7 130.9 132 131 127.4 128.8 129.5 128.8 128.8 127 123.9 119.7 115.6 111.3 106 97.5 103.1 102.1 102.3 98 89.6 87.4 90.6 92
6.5 5.6 5.9 -1.5 -1.5 5.3 5.8 5.1 2.4 -1.5 -1.5 -1.5 -1.5 -1.5 -1.5 -1.5 -1.5 -1.5 -1.5 -1.5 10.2 -1.5 -1.5 -1.5 -1.5 4.7 7 9.9 8.6 7.3 8.9 11.2 15.4 18.6 23 24.8 35.7 49.3 46.9 45.9 45.9 38.8 49.8 54.7 60.9 60.7 79.8 87.7 90.5 97.3 95.3 98.3 109.7 108.2 106.2 104.9 100.3 90.2 67.9 59.9 55.7 59.3 62.6 71.7 69.3 74.7 85.3 90.9 78.3 69.6 59.1 50.3 32.6 23.1 31.5 39.4 52.2 73.2 83.2 78.9 84.5 85.8 80.5 78.9 86.7 98.5 106.7 105.8 106.6 94.5 106 92.6 92 92.1 103.1 95.9 95.4 99.1 107.5 108.8 111.8 118.7 122.3 114.3 112.4 113.9 112.8 120 129.5 151.1 165.2 194.7 200.6 216.5 224.8 226.3 223.7 227.9 231 231.5 215 213.4 212.9 213.2 211.6 208.8 200.9 197.9 207.5 210.6 215 224.1 231.9 231.2 230.6 227.5 218.9 215.8 221.2 260.5 263.5 268.9 280.8 280.8 271.6 243.1 227 222.5 227.2 218.7 209.6 200 188 183.5 180.2 177.9 175.6 172.7 169.6 171.6 171.3 176.1 179.6 173.4 167.7 163.3 161 159.5 159 154.5 149.9 145.3 142.5 138.2 132.8 132.6 134.6 135.7 137.3 133.7 130.1 132.2 131.8 131.2 130.8 128.9 127.5 123.4 121 117.1 112.7 107.1 103.9 101.9 107.6 103.5 97.7 90.4 88 89.1
10.9 10 6.8 -1.5 -1.5 4.1 9 5.8 3.3 -1.5 -1.5 -1.5 -1.5 -1.5 -1.5 -1.5 -1.5 -1.5 -1.5 -1.5 -1.5 7.2 2.4 -1.5 -1.5 -1.5 5.5 9.3 8.8 7.7 5.3 8.7 11.4 16.5 16.6 24.9 33.2 42.1 50.3 50.1 51 49.8 41.5 52 66.3 69.9 70 85.4 89.9 98.1 95.2 96.6 109.7 113.4 112.6 106.2 104 94.2 77.7 61.3 55.8 58.4 66.2 71.2 68.7 74.2 83.1 87 83.9 75.9 65.6 55.7 39.1 29.1 24.2 32.1 42.2 67.6 75.3 82.4 83.5 84.1 81.8 79.7 78.3 88 99 106.4 107.6 104.6 102.2 92 91.8 92.8 92.9 94.5 96.1 97.5 102.3 107 108.4 117.7 116.6 112.5 113.8 117.3 113.5 114.4 122 136.7 158 178.9 195.1 202.7 212.3 222 228.7 225.4 228.6 231.1 225.7 213.6 212.7 210.6 206.6 203.7 201.1 194.7 199.4 206.6 213.9 217.8 227.4 231.1 231.4 231.1 225.2 223.9 225.2 252.2 275.1 276 286.5 288 275.3 260.1 238.4 229.1 230.4 227.8 213.8 207 195.5 186.1 182.7 181 182.7 180.1 173.1 172.8 176.3 181.5 178.8 177.8 171.6 163.4 162.2 160.4 159.2 157.6 151.5 148 145.8 141.2 135.8 132.7 136.7 137.3 137.5 138.2 132.1 132.4 133.5 132.7 131.3 130.5 128.6 125.7 125.9 118.6 115.1 115.1 112.4 104.5 104.2 104.5 99.9 87.7 88.5 87.7
13.8 13.7 10.8 5.9 -1.5 -1.5 10.7 5.6 2.4 -1.5 -1.5 -1.5 -1.5 -1.5 -1.5 -1.5 -1.5 -1.5 -1.5 4.3 5.8 6.8 2.2 1.3 -1.5 -1.5 2 6.9 6.8 6.1 4.6 8.2 10 11.6 13.9 25.1 35.9 49.5 52.9 52.5 53.7 51.7 51.4 46.2 68.2 78.3 81.7 74.7 86.6 91 92.1 92.8 101.8 114.3 117.8 105 100.4 93.7 83.6 67.5 57.2 57.8 76.9 81.7 73.9 75.7 82.1 87.1 85.6 80.5 69.6 67.2 46.3 32.2 34.9 25.3 33.4 50.9 68.5 79.3 84.1 83.6 83.4 80.8 78.2 80.6 89.9 104.9 106.6 107.3 93.4 92.1 96.1 95.2 104 108.6 108 98 98.8 102.6 105.2 110.3 115 112.2 105.4 108 116.4 115.6 117.8 128 150.7 166.3 190.6 194.5 200.9 215.2 226.9 225.6 227.1 227.3 224.8 216.1 211.9 208.4 205 200.6 200.6 196.6 192.1 200.2 207.1 215.6 218.7 228 230.9 233.9 231.3 231.8 228.8 236.7 269.3 279 283.7 289.1 280.6 270.7 247.3 236.5 238.9 229.9 220.5 211.2 203.9 193.7 186.7 183.8 182.2 180.7 179.2 177.2 178.9 183.2 182.4 178.1 177.1 168.1 161.8 160.1 158.3 158.8 158 152.6 148.5 145.8 140.2 134.5 138.4 139.2 138.1 137.8 136.1 133.4 134.3 133.9 133.3 132.9 132 129.7 126.3 122.6 117.2 117.8 116.8 110.5 105.3 99.2 97.1 95.2 90 93.1
20.9 18.3 14.4 7.9 1.7 -1.5 9.9 6.5 2.2 2.2 -1.5 -1.5 -1.5 -1.5 -1.5 -1.5 -1.5 3.4 5.1 2.2 9.1 6.4 2.2 6.8 -1.5 -1.5 -1.5 -1.5 6.4 7.1 5 8.8 12.1 12.8 13.8 20.5 31 50.6 52.8 54.3 51.6 53.9 53 44.4 61.7 83.8 85.3 85.1 82.7 90.1 93.6 96.2 100.9 110.3 118 107.6 102.2 100.8 91.3 81.7 59.5 65.2 78.7 84.1 76.5 81.8 81.9 87.7 87.6 83.8 78.8 65.8 59.3 38.1 34.8 33.3 30.9 36.9 57.7 74.5 83.8 85.2 83.5 80.2 77.7 78.8 83.2 91.4 105.4 108 100.1 89 97 95.5 103.9 109.5 109.4 102.1 99.3 100 102.6 104.7 106.9 107.2 109.1 104.7 112.7 114.7 115.5 117 144.5 153.9 167.1 182.2 192.9 208.1 218.8 227.5 228.8 225.2 223.5 221.2 212.6 206.8 202.9 196.2 199.9 195.4 191.9 195.8 204.5 209.7 213.3 222.8 225 231.5 235.3 233.8 232.4 243.9 262.9 279.2 279.8 264.4 279.4 275.4 266 240.8 241.6 240.1 229.2 220.9 210.7 207.2 196.6 188.4 184.1 183.7 186.6 185.4 182.6 183.9 184.8 177.2 177.1 173.8 163.9 159.2 154.7 156.8 154.2 157.4 150.3 143.1 139.6 136.2 137.1 139.9 138.4 137.6 136.9 134.1 134.4 135.9 136.4 134.5 135.6 134.9 129.5 126.9 124.5 120.9 117.1 111.5 108.2 104.9 100 101.3 97 98.6
32 27 15.6 11.5 6.7 -1.5 2.7 2.3 4.3 2.2 1.6 -1.5 -1.5 -1.5 -1.5 -1.5 -1.5 -1.5 5.3 4.9 6.2 8.9 3.3 4.1 -1.5 -1.5 -1.5 -1.5 2.1 3.8 2.9 9 12.7 12.1 15.1 29.5 30.1 43.5 49.1 53.7 54.7 52.4 56.3 56.5 51.7 67.8 83.5 88.3 91.8 90.2 95.3 103.9 104.2 112.7 115.1 119.8 107.8 107 96.8 84.3 67.4 72.9 87.6 87.4 85.3 85.4 84.9 88.8 89.3 87.4 88.2 72.8 66.8 53.2 43.7 37.7 29.1 32.9 44 66.9 76.7 85.6 83.7 80.6 78.2 73.8 75.2 85.8 100.1 105.2 106.1 87.2 87.4 94.5 93.1 104.5 110.2 109.7 99.8 100.9 102.8 104.1 104.3 104.3 105.4 103.9 103.9 113.7 109.7 113.7 128.5 146.3 151.4 160 173.5 193.9 211 220 223.1 222.2 219.4 221.8 211.6 204.2 200.7 195.6 197.9 194.4 191.8 192.2 199.8 202.7 206.3 215.6 221.3 225.8 231.4 233.9 234.4 247.8 263.6 280.5 280.3 262 262 281.6 274.5 251.2 241.8 244.3 233.1 228.7 220.4 212.5 205.7 195.7 187.3 187.1 183.3 185.8 187.7 183.3 185.4 178.5 172.3 172 165.8 156.6 154.2 153.8 154.3 154.7 149.6 141.4 139.2 136.3 138.4 141.4 140.1 138.1 138 135.4 134.4 138.2 138.1 138.9 138.6 136.8 135.9 133.3 130.2 125.7 122.1 115.6 112.8 108.1 105.4 100.1 97.6 98.7
35.5 30.9 18.1 13.9 9.1 2.2 2.2 2.2 3 4.2 1.7 1.2 -1.5 -1.5 -1.5 -1.5 -1.5 -1.5 -1.5 6.1 5.2 6.3 5.9 4.8 3.4 10.2 -1.5 -1.5 0.6 2.2 2.2 4.8 9.1 10.2 14.3 29.4 35.2 30.9 47.7 50.9 52.9 51.5 62.1 64.2 60.2 53.9 75 87.3 89.9 95.8 93.4 105.1 114.1 112.5 114.9 120 108.1 104.7 96.1 84.8 74.2 78.2 91.2 97.7 98.9 87.3 87.7 96.7 96.3 93.4 86.2 82.4 68.1 59.9 48.2 48.3 33.8 29.1 35.3 55.9 72 82.4 82.5 80.2 78.3 73.1 68.8 80.1 100.3 100.8 101.2 88 81.3 84.2 86.5 94.8 109.8 110.4 104.9 100.4 100.5 103.5 103.8 104.3 103.2 103.1 102.6 103.4 105.3 111.3 115.2 131.5 144.6 145 153.3 178.3 198.8 204.8 214.9 212.2 213.9 215.9 209.3 201.1 196.7 191.7 191.4 196.6 191.4 191.7 195.3 200 201.2 205.4 215.7 223 228.1 231.7 234.2 254.3 269.7 279.3 276.1 262 262 278.7 275.6 269.3 247.6 240.6 237.2 229.4 224.6 221.3 211.3 205.1 194.6 188.9 182.6 180.1 188.3 182.2 181.9 181 174.5 169.7 165.4 159.6 153.8 151.3 151.2 151.5 146.8 146.1 139 136.7 138 140 142 140.9 138.8 135.5 134.3 138.9 142.2 142.1 141.3 145.8 143.7 140.6 136 131.1 127.1 124.1 121.3 113.8 112.9 107.3 99.3 97
37.9 37.6 26 13.9 12.1 2.2 2.2 2.2 2.3 6.7 5.5 5 5.8 1.7 -1.5 -1.5 -1.5 -1.5 -1.5 -1.5 7.1 8.8 11.7 6.1 4.7 12.2 5 -1.5 1.2 6.7 2.2 2.2 4 8.5 19.2 28.7 37 38.2 39.4 51.9 52.5 51.1 54.7 65.5 63.6 59.2 63.1 80.9 87.8 100.1 102.3 103.4 118.1 125.9 120.2 121.3 116.6 101.7 96.2 85.9 77.6 83.3 96.4 106.1 103.6 102.8 90.6 98.5 102.3 102.2 91.2 82.8 69.6 68.2 52.8 53.8 36.2 29.2 30.9 45.6 69.2 75.9 77.3 77.2 76.1 73.1 68.2 74 96.8 98.6 91.5 88.4 80.8 83 91.4 94.6 101.8 109.7 110.8 99.5 97.8 103.5 103.3 102.7 103.2 103.8 103 103.2 106.4 112.6 111.4 121.1 126.4 130.6 141.4 159.7 189.1 194.8 203.2 209.2 205.3 206.7 205.7 199.8 193.6 189.8 189.4 190.2 190.5 192 193.7 198.3 199.8 203.3 212.2 224.5 232.3 232.8 235.9 250.7 282.6 286.2 271 262 262 279.1 276.5 273.8 254.2 245.1 242.5 238.5 232.2 224.4 217.8 210.1 202.5 194.6 186.6 179.3 179.7 183 181.9 178.6 177.4 172.3 167.8 161.1 151.9 147.8 148.8 146.9 142.9 144.8 139.1 136.3 137.8 140.8 143.8 145 141.9 139.8 138.4 137.9 140.4 142.1 149.9 148.4 146.8 145.1 143.1 140.3 136.8 127.9 122.6 121.3 115.1 111.3 108.4 101.8
40.6 41.9 36 16.1 12.7 2.2 2.2 2.2 3.7 7.7 7.2 7.9 6.3 6.2 2.4 -1.5 -1.5 -1.5 -1.5 -1.5 2.8 10.7 13.4 15 6.4 11.9 10.3 5.4 6.8 7.3 7.8 2.2 6.2 8.9 15.8 29.8 34.6 41.8 41.5 47.6 48.6 51.7 52.6 62.4 64.9 65.5 68 70.6 84.5 98.9 113.1 111 115.6 126.5 125.8 129 120.4 102.9 94.6 85.7 75.7 81.1 95.3 108.8 109.3 112.9 102.7 98.9 107 103.8 96.5 85.9 72.3 72.4 59.1 50.6 40 30.7 28.6 36.1 57.7 67.3 67.3 65.4 65.7 67.8 67 67.4 77.6 86.8 95.2 81.8 79.3 80.5 85.9 93.8 98.1 105.8 110.2 100.6 96.2 96.8 105.8 101.2 103 101.8 103.2 101.9 104.5 106.1 109.9 109.5 116.4 125 133.8 150.6 178.7 192.9 197.3 206.2 194.8 199.4 198.7 197.2 188.7 189.3 189.4 189.7 190.2 192.5 194.6 197.3 201.6 206 211.9 220.9 232.7 237.1 235.5 250.1 285.4 291.4 270.2 262 262 277 277.3 271.5 256.1 249 242.4 242.2 244 234.5 224.8 220.1 211.7 204.3 191.7 180.3 177 178.2 181.3 179.1 176.7 172.7 167.5 158.5 149.6 146.5 146.1 144.7 142.2 140.9 138.4 136.2 138.1 140.7 146.2 151.6 146.8 144.7 142.2 139 137.8 142.5 147.6 151.3 149.2 145.5 144.9 141.4 137.4 133.6 125.3 122 117.5 114.9 113 109.3
39.1 40.2 39.5 30.5 16 2.2 2.2 2.8 5.1 10.1 11.4 11.3 5.7 5.6 2.2 2.2 -1.5 -1.5 -1.5 -1.5 -1.5 3 16.7 16.8 9 11 10.7 9.5 11.6 14.3 9.9 6.9 6 7 11.2 28.3 34.2 40.2 48 42.6 46.4 51.1 51.8 58.9 64.1 66.7 67.5 74.1 77.7 90 106.6 115.9 124.2 127.4 126.7 132.4 134 113.7 98.3 93.7 76.9 79.6 95.5 107 115.3 113.2 111.4 104.2 109.1 105.4 99.6 95 77 73.8 66.9 52.8 38.4 31.3 29.3 31.8 44.7 54.4 57.8 57.3 57.6 60.3 59.7 65.8 73.1 76.9 81.2 81 78 77.2 82.7 88.4 95 99.9 109.8 110 94.3 90.9 99.3 98.4 101.1 101.2 101.6 103.2 104 102.6 103.2 106.1 107.4 115.5 127.2 145.6 172.9 189.6 194.2 205.8 198.1 187.9 188.6 188.7 187.7 190.4 190.9 189.9 190.3 191.5 193 194.9 205 211.9 219.6 227.1 234.8 240.6 235.1 242.5 279.6 289.2 270.6 262 262 267.9 265.8 263.7 257.3 253.4 244 240.8 246.9 245.3 231.7 223.6 220.7 213.5 198.2 185.7 178.6 175.2 179.3 174.4 171.7 170.7 164.5 153.6 149.2 146.8 145.9 141.4 141.4 138.9 137.4 136.7 138.8 140.9 147.6 151.9 151.9 150.6 144.4 141.5 140.6 141.6 144.3 152.6 153.2 149.4 146.7 143.3 139.5 135.5 132.5 130.6 124.6 121.9 119.9 115.9
43.7 38.6 35.7 34 14.7 2.5 2.2 2.5 6 11.6 15.1 18.4 11.4 2.5 2.2 1.5 -1.5 -1.5 -1.5 -1.5 -1.5 0.8 11 16.3 11 7.8 6.7 14.7 17.2 16.2 15.5 11.9 5.6 5.1 7.5 17.2 31.5 36.6 39.6 45.8 42.6 48.5 50.1 59.7 63.5 66.3 67.9 72.5 80.5 87.1 96.6 110.8 125 127.4 130.3 134.7 137.3 124.3 104.9 95.3 78.7 80.3 97.1 107.8 112.8 119.8 114.1 108.2 113.4 110 103.4 101.1 88.4 76 74.8 55.6 48.4 32.5 30.7 29.1 34.8 41.8 43.4 44.9 48.2 49.8 52.1 61.9 72.1 74 75.8 77.8 76.1 75.2 88.7 93.1 92.4 95.9 107.9 106.3 91.3 91.4 89.7 95.4 97.8 98.5 100.9 100.6 100.9 101.7 102.8 104.8 106.5 109.6 123.6 142.1 159.4 179.4 193.2 192.9 203.1 185.9 184.9 184.4 186.6 194.3 196.3 193.2 190.3 192.1 192.6 195.1 200.5 218.6 228.1 236.6 237.2 239.1 237.8 235.5 264.2 281.2 273.1 264.7 275.2 266.6 256.7 254 257.5 261.2 254.2 242 242.6 246.8 239 225.4 224.9 217.3 203.9 193.7 183.8 175.8 173.1 172.3 171.8 170 161.9 153.4 147.4 145.9 144 144.4 138.3 139.2 137.2 138.8 139.3 141.6 145.6 153.6 157.5 158.4 157.1 151.6 146.9 144.5 143.7 149.1 156.4 153.7 146.5 141.8 141 141.5 138.1 136 133 127.5 126.3 123
45.9 44.2 38.4 33.7 17.6 5.3 3 3.4 6.2 13 20 27.6 23.9 8.6 2.1 0.4 -1.5 -1.5 -1.5 -1.5 -1.5 -1.5 9.1 13.8 14.8 5.1 8.2 16.2 19 29.2 18.4 14.3 9.3 6.4 8.2 12.8 25 35.4 35.2 36.3 46.5 45.3 44.9 53.3 62.9 70.4 72.7 72.5 83.9 89.9 95.7 102.6 111.9 122.5 125.9 136.3 139.5 136.6 109.5 96.9 81.9 80.1 94.5 104.8 114 119.9 120.2 112.4 116.9 116.4 110.5 103.6 97.9 90.3 78.8 64.4 59.5 39.3 32.6 30.4 31.3 31.4 35 37.1 40.1 40.9 48.4 51.5 61.9 68.7 69.3 72.6 75.6 73.7 87.7 92.1 93.6 93.5 104.6 98.6 89.4 88.5 85 89.4 96.1 97.7 106.2 106.9 102.3 104.9 104.8 104.6 104.8 106.6 117.4 140.6 154.7 175.3 181.5 191.1 189 188.3 183.5 184.1 188.4 193.6 203 200.9 194.3 192.4 194.8 194.2 200.6 215.9 234.2 240 242.9 241.2 237.6 232.8 248 272.9 276.2 274.2 283.2 269.4 245.7 242.9 253.9 263.5 259.3 248.3 245.9 242.1 237.8 229.1 223.5 222.6 215.1 201.3 190.5 185.8 179.4 173.7 168.3 167.8 160.4 149.4 143.6 144.5 148.3 139 138.3 138.3 137.5 137.7 140.9 138.8 141.7 150 158 158.9 162.8 162.5 159.9 153.8 145.6 145.7 150.6 154 151.7 150 147.6 146.3 144.7 139.5 134.7 132 132.2 130.3
47.2 45.7 41.7 35 26.3 6.6 4.1 4.1 7.7 14.4 20.8 30.3 29.1 22.1 5.4 0.8 -1.5 -1.5 -1.5 -1.5 -1.5 -1.5 -1.5 5.3 -1.5 -1.5 -1.5 15.6 19.4 26.6 29.8 18.8 14 12 9.7 11.7 14.6 24.7 29.8 33.2 45.4 45.7 38.9 44.1 54.7 72.5 83.1 80.6 81.6 92.3 96 102 101.3 112.3 121.7 131.9 140.6 138.4 117.7 103.7 85.7 81.4 86.7 96.7 112.6 121 121.7 113.7 116.8 117.5 116.8 107.3 104.1 95.3 86.6 71.2 61.9 55.5 44.1 31.9 31.5 39.7 41.7 39.4 37.4 40.3 47.1 44.4 50.4 60.7 59.2 62.5 71.8 66.6 82.4 90.9 92.2 93.3 95.5 95.4 86.3 83.8 83.2 86.5 93.2 96.5 104.6 108.1 108.2 107.5 106.1 105.6 105.3 109.6 114.5 126.5 144.6 157 171.4 176.4 174.4 187.6 183.9 183.9 185.4 191 199.5 210.1 203.7 191.6 194.9 195.9 204.2 212.6 234.8 240.2 246.9 243.4 235.8 233.3 230.2 243.6 269.8 272.1 278 267 241.1 238.6 249.9 260.2 260.3 251.3 249 246 240.2 233.3 225.2 223.9 219.5 208.1 196.8 189.6 184.1 179.5 171.2 164.6 158.9 149.3 142.6 140.5 138.3 138.3 138.3 138.3 139.1 138.8 137.8 138.5 141 148.5 156.9 165.3 169.1 169.8 172.2 167.5 153.6 146 148.2 151.7 152.2 152.1 153.3 149 148.6 146.2 141.9 138.6 138.6 138.5
