ncols 200
nrows 82
xllcorner 300000
yllcorner 925050
cellsize 50
380.8 373.9 368.5 362.7 361.6 362.5 361.3 362.4 360.7 359.7 355.7 350.9 346.3 340.8 335.8 329.8 325.9 322.9 320.1 315.1 311.4 308.3 304.3 299.2 292.3 283.2 277.8 271.2 265 262.8 260.4 259 257.5 256 254.2 250.6 248.4 247.5 247.3 247.5 247.2 244.7 241.8 239.1 237.9 236.7 236.7 236.2 235.4 234.4 234.1 233.3 232.4 231.4 229.4 228.2 228 227.8 228.3 229.8 229.5 231.7 232 234 236 238.6 242.7 246 248.9 251.9 256.4 258.7 259.7 258.4 256.1 249 252.1 259.1 266.9 274.7 284.6 293.1 302.8 311.9 319.3 326.8 333.2 339.5 345.2 351.3 356.2 361.5 368.2 374.8 381.2 389.3 391.3 389.6 381.6 371.9 361.2 346.8 333.3 321.9 313.7 308.6 304.5 298 291.5 288.1 283.4 278.4 270.1 262 258.1 252.9 243.9 236.5 228.9 222.8 215.8 209 203.4 198.4 198 202.8 205.6 204.5 204.4 201.6 203.7 207.5 207.7 211 213.1 213.3 212.8 212.8 212.5 212.1 210.8 209.5 208.2 206.9 204.3 202.4 200.8 199.8 199.4 198.3 198.5 199.4 199.4 198.8 197.9 197.1 196.7 195.4 194.1 194.4 194.9 195.1 195.7 196.2 197.2 197.4 197.8 199.4 200.3 200.8 198.6 194.1 190.6 188.1 184.7 179.5 175.1 172.2 166.5 158.5 155.7 149.4 139.5 148.7 160.4 170 179.7 194.7 209.1 220.5 229.1 232.8 233 235.7 241.2 246.3 250.9 255.6 258.7 257.9
397.3 387.8 380.2 376.4 374.8 374.5 374.8 375.2 373.7 371.4 368.9 366.3 360.7 353.1 346.3 340.1 334.5 330.7 324.5 320 315.1 309.7 304.2 296.3 288.1 280 274.1 269.5 266 263.2 260.5 259.3 258.7 258.4 256.3 251.9 249.2 248.2 248.2 247.1 247.6 244.6 241.3 239.8 239.8 239.5 240.1 240.9 240.2 241.7 240.9 239.1 236.9 235.2 232.7 232.6 232.7 231.7 232 232.4 233 233.8 235 236.4 241.1 243 248.9 253.1 255.6 258.1 261.6 265.2 264.8 263 260.3 254 257.7 266.3 276.1 284.3 296.3 303.8 310.9 316.8 322.5 328.6 334 340.1 345.4 349.8 354.2 359.5 364.5 371 377.5 384.1 387.2 383.6 374.6 366.5 355.7 342 329.1 317.6 311.3 306.3 302.1 296.4 289.6 283.8 277 270 261.6 254.4 247.5 240.4 233.7 227.9 221.6 214.9 204.5 200.8 199 203.9 208 208.2 208.3 207 208.2 207.6 207.4 209.3 211.6 213.1 214.7 215.8 216.6 217 216.5 216.1 215 213.6 213.1 209 207.5 205.4 203.5 202.8 202.6 202.4 203.3 203.6 203.1 202 202.6 201.7 200.9 200.8 199.1 199.5 199.5 199.4 200.5 201.3 200.8 200.9 202.2 204.8 205.9 205.8 201.3 196.4 192.7 189.8 186.3 181.2 178 175 169.5 162 156.9 145.2 138.6 148.4 156.9 157.5 165.6 177.9 195.1 207.9 220.4 223.5 223.6 225.5 235.7 241.1 243.7 241.6 240.9 244.1
408.2 399 393.1 391.1 391.3 391 390.4 389.7 387.5 387 385.4 382.5 375.1 367.6 359.6 352.9 346.5 338.8 331.8 326.6 319.2 312.9 306.7 297.9 289.1 280.3 273 268.7 265.7 263.7 262 261.8 260.5 258.5 255.4 253.3 250.4 247.8 246.8 245.7 244.3 243.2 243.8 244.5 243.7 242.6 242.7 243.8 247 246.5 246 245.2 243 240.1 238.6 238.2 238 236.9 236.5 236.5 237.3 237.4 238.6 240.4 247.4 251.4 256.4 260.1 263.1 265.4 267 271.1 270 268.9 266 259 262.3 273.5 283.7 294.9 302.1 308.8 314.3 319.5 324.8 330 334.7 339.2 342.7 347.3 351.9 355.6 360 365.1 370.9 377.1 379.8 375.7 368.1 359.9 348.9 335.7 324.2 314.6 307.7 302.2 296.9 288.2 279.9 272.3 265.2 257.6 249.4 242.8 235.8 230.1 225.6 219.3 210.3 203.5 201.6 206.9 208.8 211.1 212.2 211.9 211.7 210.6 211.9 209.5 210.3 211.1 214 216.7 217.6 220.1 220.5 221.1 221.1 220.6 219.3 219.3 219 215.1 213.2 211.7 209 209 208 207.2 207.2 207.4 206.9 206.1 206.1 205.8 204.9 205.9 204.4 205.8 204.7 206 207.1 206.7 205.7 205.5 208.4 209.2 208.8 206.4 202.3 198.8 195.5 192.6 188.8 182.9 178.3 175.4 170.5 167 160.1 144 137.1 142.8 144.8 142.8 148.2 155.3 169.4 186.2 198.1 202.4 209.1 215 224.4 230.9 230.6 219.5 213.2 222.2
411.9 408.7 406.4 405.6 407.2 408.8 409.9 409.6 406 406 403.6 401.1 396.8 390.6 381.9 371.2 362 351.1 341.3 333.1 324.7 317.5 308.9 296.9 287.4 279.2 272.1 268.4 266.3 264 264.1 262.6 259.1 256.8 254.9 254.7 249.7 247.7 248.3 247.1 246.5 245.8 247.6 249 248.2 247 247.7 249.3 252.4 252.1 252.3 252.2 252.3 250.6 248 247 248 248.3 247.2 247 247.5 245.3 244 250 256.4 259.8 262.7 267.5 272 274.6 275.7 277.2 277.1 275.7 271.8 265.7 267.1 281.3 290.6 300.2 305.6 312.1 316.7 321.3 325.2 328.8 333.3 337.2 340.2 344.5 347 350 355.2 358.9 364.2 370 370.4 365.9 359.5 351.5 341.5 330.2 318.4 307.1 300.9 294.2 284.4 274.2 266.6 259.2 252.3 245.5 239.1 233 226.3 219 210.6 207.3 206.2 208.3 209.3 215.1 213.1 214.9 214.1 214.1 214.2 213.9 213.7 210.5 212.2 213.8 216.7 219.6 219.5 222.2 222.9 223.3 224.1 225 225.2 225.2 224.8 223.5 221.1 219 217.2 214.8 214 213.3 211.9 211.2 210.5 209.7 209.3 209.1 208.9 208 207.9 210.2 212.6 213.9 214.1 212.8 211.3 212.6 216.7 216.1 213.2 208.5 205.3 202.3 199.2 196.4 193.3 184.2 181.3 176.6 171.8 168.2 163.4 152.6 136 140.1 139.6 139.3 139 136.8 146.1 158.5 168 180.4 190.8 200.2 206.8 213.2 212.5 196.6 196.1 220.9
422.1 419.8 418.2 421.2 424.3 426.5 429.8 431.5 430.9 429.5 427.8 425.2 419.3 413.2 405.4 394.5 381.2 367.4 356.2 344.3 333.4 321.6 310.4 299 287.7 280 272.4 269.2 266.7 263.2 261.9 259.2 256.5 254.4 253.5 251.9 252.7 253.2 252.1 250.6 249.6 249.4 249.8 252.2 251.5 252.1 253.3 256.2 259.7 262 263.2 263.8 263.9 264.4 263.8 263.6 262.8 262.1 261 260 258.3 255.8 256.6 262.2 265.9 269 271.9 274.7 280 283.3 284.8 285.5 284.7 281.6 276.4 271.8 270.3 288.1 297.1 304.3 309 312.7 316.8 321.1 324.9 328.3 330.6 334 337.4 339.3 341.6 344.4 348.9 352.2 355.5 358.1 359.3 355.5 350.2 343.1 334.1 320.6 309.4 299.7 291.3 281.8 270.7 262.7 255.2 249 241.9 234.7 228.7 218.3 213.4 214.1 214.3 213.3 210.6 216.2 218.9 218.7 218.4 218.7 216.7 216.1 216.6 216.3 215.7 212.5 215.2 217.4 220.1 221.6 223.1 224 224.6 226 227 228.2 229.6 230.8 231.2 231.3 229.7 227.7 224.8 221.9 218.2 216.1 215.2 214.8 215.1 215.4 214.3 212.5 212.4 211.3 211.4 214.7 217.5 220.5 220.4 219.4 218.7 221 224.7 221.4 218.7 214.3 211.9 207.7 202.3 199.9 196.6 189.7 185 179.9 174.3 171.6 169.9 160.2 139.4 135 138.3 137.9 136.2 133.2 131.9 131.5 143.7 157.6 166.4 177 186.2 191.1 192.1 180.9 185.4 201.6
432.4 430.4 433.4 438.9 442.4 447.8 453 457.8 459.5 459.6 459.6 455.4 448 438.7 427.7 414.4 401.5 383.3 367.3 353.1 338.5 325.5 314.1 303.4 291.3 281.7 274.7 269.2 265.6 262.4 259.8 257.8 255.2 257.6 257 256.4 257.5 257.9 255.7 254.2 253.4 253.9 251.9 254.6 254.7 256.2 258.3 265.1 269.9 273.1 275.9 276.1 279.7 284.5 284.7 283.8 282.5 283.1 278.9 274.8 270.7 270 269.4 273.1 276.2 279.6 281.4 282.2 287.6 290.5 291.9 292.9 291.8 289.3 283 276.7 273.4 293.3 301.2 306.3 310.1 313.7 317.4 321.2 324.2 327 328.7 330.7 332.3 333.7 336.1 338.1 340 342.4 346.1 347.4 347.6 345.1 340.6 333.5 323.3 310.1 298.2 288.3 278.4 266.8 259.3 252.5 245.1 239 231.5 222.6 217 221.6 221.3 222.6 220 218.7 216 223.5 222 221.3 220.6 220.4 218.4 219.1 219 218.7 217.7 215.6 219 219.6 221.9 223.6 225.2 225.2 226.5 229.4 230.4 233.3 234.8 236 237.8 237.3 237.4 235.9 232.2 228 223.5 221.8 220.5 220.7 220.7 219.5 217.1 215.8 215.5 215.3 214.6 218.8 222.1 224.9 227.6 229.2 231.7 231.9 231.3 227.9 224.7 221.9 217 212.1 207.2 202 195.1 193.2 188.5 182.1 176.6 173.4 170.7 160.7 154.1 143.2 135.1 139.4 140.3 138.9 137.9 135.7 129.9 139.7 146.3 153.2 159.1 164.8 165.2 163.8 168.6 172.8
440.4 442.8 450.7 457.8 467.9 477.6 483.9 489.5 493.4 492.7 493.1 488.9 484.7 474 459.1 441 421.1 402.6 383.2 366.2 351.8 334.8 318.8 306.5 294.3 284.3 277.6 271.9 268.8 263.8 261.1 258.2 260.2 261.8 261.2 261.3 262.4 261.8 259.3 257.8 257.4 256.5 255.3 255.6 257.7 259.4 264.5 272.7 279.2 285.4 291.2 296.9 305.9 307.5 306.3 306.9 308.7 305.5 295.9 288.2 283.3 283 282.7 285.6 289.3 292.8 293.2 292.2 293.2 296.5 297.9 299.1 298.3 294.3 290.5 284.9 277.7 297.6 303.4 307.9 311.1 314.6 317.7 320.3 323.1 324.7 326.4 326.4 327.4 328.5 329.2 330 331.6 334.2 336.7 337.5 337 334.3 329.6 320.2 310.9 298.5 286.5 278.9 268.8 259 250.4 243.1 235.8 227.4 221.4 223.7 227.6 230.3 228.2 224.8 221.5 218.9 222.3 226.1 224.8 223.5 222.8 220.6 221 221.2 220.8 220.6 220.1 219.7 221.6 222.5 224 226.4 227.8 227.4 229.7 232.3 236.4 238.5 239.6 241 243.3 242.8 244 242.3 238 234 232.5 230.3 227.5 226 224.6 223.1 222.3 222.6 220.9 219.7 217.8 223.5 227.4 230.7 235.1 239.6 240.8 238.3 238.2 236 230.2 226.6 223.1 216.6 211.2 205 199.3 195.3 189.9 182.9 176.2 172.8 168.7 163.4 156.8 149.9 152.9 149.2 145.9 144.6 140.6 137.2 135.4 129.4 133.9 135.6 136.1 138.6 146.5 152.8 151.3 152.6
448.1 456 468.5 483.9 499 510.5 518.8 522.8 526.3 526.6 526.1 523.4 517.7 504.4 487.8 471.3 451.6 427.1 405.7 385.2 366.7 346.7 327.4 310 296.3 286.9 280.9 278.7 274.1 269.2 265 262.1 264.2 265.1 265.6 268 270 268.6 264.7 263.5 263.4 262.7 261 261 264.3 267.6 276.7 284.9 296.4 306.4 313.9 320.5 324.6 328.9 332.4 332.8 329.7 321.8 310.9 303 297.6 296 296.4 300.7 303.9 305.3 304.1 302.8 301.5 304 304.7 305.5 304.7 302.1 298.2 292.8 282.3 299.9 305.6 309.3 312.5 314.9 316.5 319 320.6 322 322.8 322.3 323.3 322.5 321.2 322.2 323.4 325.3 327.6 327.9 327.1 323.7 317.3 307.1 297.9 284.9 277.5 269.5 259.9 252 244.3 236.6 228.6 223.1 226.6 233.3 234.3 232 228.5 224.5 222.1 223.9 224.7 226.8 226.3 224.1 222.9 223.4 223.1 222.9 222.5 222.1 223.2 222.9 224 224.7 226.5 229.3 230.8 231.3 233.3 236.7 240.3 242.5 244 245.7 248.8 250 248.2 243.6 240.1 239.3 237.3 234.8 233.5 232.8 232.6 230.1 229.7 228.6 227.1 225 222.9 228.4 233.7 238.2 240.6 243 243.4 241.9 242.4 240.2 234.8 230.6 223.2 217.1 213.1 207.9 202.2 196.3 191.6 184.3 181.5 176.3 170.2 165.4 164 155.6 160.3 159.2 158 156 150.6 146.7 139.7 131.6 128.1 131 132 131.5 139.9 141.5 141.5 143.8
455.3 470.9 493 515.5 531.9 544.4 552.2 555.8 558.4 560.1 559.2 556.7 548.4 532.6 515.2 497.5 478 457.5 433.3 407.1 383.2 363.1 339.5 318.8 299.6 291.8 287.5 284.7 280.2 274.5 269.6 266.1 268.9 269.4 270.5 275.6 279.3 278 276.5 275 272.9 272.6 271.7 272.6 276.3 283.3 292.4 301.5 313.9 325.2 335.1 343.9 354.1 359.4 361.7 360.6 349.7 339.2 328 320.9 313.2 310.3 314.1 316.7 320.6 321.2 316.1 313.9 312.7 313 314.2 313.6 312 308.7 304.1 298.5 291.6 304.3 307.9 310.7 312.9 315.2 317.2 317.7 318.1 318.3 318.1 317.7 316.7 315.6 315.5 316 316.5 316.5 318.3 318.3 316.9 311.6 305 294.5 284.1 275.8 268.5 261.2 253.9 246 237.2 231.1 226.4 228.1 233.6 236.4 235.3 233.1 228.7 226.8 225.9 228.1 228.8 229.5 227.4 227.3 225.9 226.8 225.8 224.8 224.3 224.9 225.9 224.5 225.8 228.2 230.8 231.7 233.5 235.1 234.9 239.7 244.4 246.1 247.6 250.4 252.9 252.2 249.4 246.7 244.9 242.3 242.3 239.6 237.9 237.9 238.6 237.3 237.3 235.7 233 231.9 227.7 234 238.5 240.6 243.4 245.1 246.6 247.3 247.1 244.8 239.3 234.3 227.8 221.9 218.5 215 211.7 201.5 198 191.5 188.1 183.1 174.7 173 171.4 169.3 171.2 170.5 168.6 166.6 165.5 162.4 157.6 148.3 139.5 130.1 126.4 126.1 125.4 124.5 124.2 123.9
459.4 484.9 514.2 540.1 560 577.8 586.5 589.5 592.9 593.8 594.4 593.5 580.7 561.7 543.1 525.1 505.9 483.3 457.7 432.1 398.6 372 351.4 328.6 311.4 300.1 291.9 286.8 283.5 276.5 273.6 272.1 273.9 276.3 279.1 284.8 290 289.8 285.8 286.9 284.6 284.2 284.8 286.1 292.4 302.3 311.9 320 332.2 344.9 359.1 373.2 386.9 396.3 399.7 390.4 371.5 357.9 344.8 335.6 328.8 326 333.1 336.4 336.5 332.5 327.8 325.1 324.1 322.8 322.1 321.4 317.6 313.9 309.4 302.1 300.4 306.9 311 312.5 313.9 315.1 316.5 316.2 315.6 315.2 314.7 313.6 312.4 311.1 310.4 310 309.7 309.9 309.2 308.6 305.8 300.5 292.3 282.3 275.7 267 260.4 253.1 245.5 238.4 232.1 227.7 231.8 236 237.9 237.7 235.1 233.3 230.2 229.8 228.6 232 232.5 231.7 230.6 230.7 230.6 230.6 231.3 231 228.6 228.2 228.1 227.6 229.4 230.5 231.2 233.4 237.1 239.7 239.4 241.4 247.1 249.7 251.9 253.3 255.6 255.6 255.3 253.5 251.2 250.7 249.2 247.3 246.7 244.7 244 243.2 243.6 243.3 241.3 238.8 232.9 238.6 241.9 244.1 248.1 251.7 253.4 253 252.1 249.8 244.9 240 236.2 232.8 229.2 225.8 220.8 211.6 204.7 199.2 196.2 192.5 186.6 183.5 176.8 178.6 180.1 179 178.5 178.4 175.7 172.2 168.2 162.5 156.3 150.8 141.2 135.9 138.3 137.7 134 130.6
462.7 492.4 521.2 546.4 574 606.9 621.3 625.5 628.2 631.7 630 630.2 611.6 590.6 570.2 553.5 532.2 507.9 481.6 456 426.9 391.9 363.3 342.5 322.2 307.7 296 289.8 282.4 281.5 280.5 279.3 280.3 283 288.5 294.6 301.8 302 300.9 299.3 298.3 299.8 300.8 304.5 313.7 322.3 328.2 338.6 355.9 369.7 383.7 399.4 409.2 417.7 419.5 410.9 394.6 381.1 363.2 353.1 347.4 344.4 352.2 350.4 347.4 339.1 336.2 335.2 334.2 329.6 327.9 326 321.6 317.5 313.3 309.3 300.1 309.4 312.5 313.8 314.6 315 315.7 314.8 314.2 313.5 312.7 311.3 309.9 307 305.9 305.5 305 303.4 300.3 299 295 288.1 280.8 274.3 267.3 259.2 253.8 248 239.8 234.2 230.3 233.5 238.4 240.1 239.5 239 237.6 234.6 233.2 230.9 232.8 234 234.8 234.1 234.8 236.6 237.6 236 236.5 235.7 233.3 232.8 233.2 233 233.4 233.5 235.3 237.5 242.7 245 244.8 243 249.2 252.1 253.3 255 257.7 259 260.9 259.2 259.4 259.1 257.9 259.8 258.2 254.4 252.5 250 249.9 249 246.8 244.6 241.7 244.8 246.6 249.8 255.1 258.3 260.3 261.4 258.4 255 251.2 247.9 245.6 242.1 239 234.5 227.4 218.9 209.1 206 203.3 197.6 192.8 190.5 182.2 187.7 189.5 188.5 189.1 186.9 185.1 179.4 176 168.9 163.5 156.2 149.3 145.5 145.8 144.1 141.1 135.4
463.6 492 519.1 545.4 575.7 606.5 637.3 662.1 665.1 674.5 667.9 663.7 640.9 615.4 602.2 590.2 559.8 532.2 504.2 473.3 445.5 412.6 382.9 357.3 335.9 314.4 298.7 293 290.3 286.6 286.6 285.4 285.5 288.9 294.3 300.3 309.4 311.7 313.2 313 314.1 317.3 322.2 325.6 330.4 335.6 343.3 359.1 374.8 388.1 402 416.2 427.9 431.4 428.8 421.8 411.7 398.6 383.8 372 364.4 360.7 362.4 358.5 353.7 349 343.1 340.8 340.2 335.5 332.6 328.9 325.2 320.6 315.1 312.8 310.4 310.7 312.3 312.9 313.3 314.5 314.8 314.5 313.8 312.5 311.2 308.9 307.2 304.2 301 300.1 298.6 296.9 293.4 289.9 283.4 277.5 272.6 265.7 259.7 254.3 248.4 242.3 236.3 232.4 235.9 240.9 241.4 241.9 241.4 240.3 239.1 239.8 236.8 235.8 236.8 237.4 236.8 237.7 240 241.8 241.4 240.3 240.4 239.5 238.5 237.6 239.1 236.6 238.6 241.3 242.4 243.7 248 249.4 249.3 248.7 250.7 253.9 255.2 258.5 260.7 264.2 266.2 265.9 266.1 267.5 269.6 269.7 266.9 262.7 261.4 258.2 257.6 256.7 253.7 252.1 251.6 250.6 254.8 257.8 263.5 265.8 265.7 264.8 261.2 257.8 255.9 253.4 253 251.2 248.3 244 234.9 224.2 217.1 214.4 211.2 205.5 202.8 197.7 187 196 199.3 197.8 197.3 192.4 193.4 186.9 183 174.4 169.1 163.6 156.4 152.3 150.3 148.1 145.5 138.6
462.2 488.4 513.4 541.7 571.3 601.2 627.9 655.6 684.1 701.1 685.9 675.2 659.2 635.5 627.1 614.1 582 553.6 522.7 490.8 458.2 428.5 399 374.9 345.5 323.9 308 303.6 296.4 294.8 295.6 291.9 289.8 292.4 296.3 304.1 314.5 321.8 326.1 329.4 330.4 335.1 337.6 338.3 341.1 345.1 355.7 372.5 386.6 399.8 414.2 427.5 436.3 438.3 433.1 426.4 417.8 409 397.2 387.8 378.9 374 370 363.8 360.7 355.9 350.5 346.5 343.6 339.5 334.6 330.7 326.8 322.6 317 314.9 311.8 313.3 313.6 314 314.4 314.6 314.4 314 313.3 311.2 309.1 306.5 303.3 301.2 296.7 293.6 292 290.3 286.1 280.6 275.2 270.2 265.8 259.1 255.3 250.3 243.8 239.2 234.2 242 244.6 245 244.6 244.2 243.2 242 242.2 243.4 240.9 241.2 241.2 240.9 239.8 240.9 242 244.4 244 243.4 242.7 242.2 242.3 242.8 242.4 239.5 241.8 245.9 248.6 250.2 252.6 253.8 252.8 252.8 251.2 256.3 260.1 264.3 268.5 271.7 274.5 275.3 276.1 276.2 278.2 277.5 273.9 271.1 268.2 267.7 267.5 264.1 260.7 259.9 258.4 258.6 263.4 267.2 270.7 271.9 270.8 269.9 267.8 264.4 263.4 258.9 260.9 261.4 255.9 248.2 239.5 233.7 231.9 226 223.7 221 216.9 208.5 197 206.1 208.8 207.8 204.8 205.1 199.5 194 188.3 180.9 172 168.5 165.6 161 157.4 152.9 147.5 140.5
457.8 482.9 508.1 536.7 563.1 592.6 620.2 641.9 664.6 677.3 678.2 671.2 662 646.9 639.2 619.6 591.3 565.5 537.5 504.4 470.3 438.4 412 386.8 361.3 334.4 320.7 313.6 305.6 301.9 302.4 295.1 292.5 294 297.5 306.4 316.9 329.3 336.6 341.3 344.3 347.5 349.1 348.5 349.2 353.4 365.3 381.5 395.6 408 424.1 436.4 449 445.7 437.6 430.2 421.3 412.9 403.5 394.3 387.5 383.4 379.5 372.3 365.6 360.4 354.7 348.5 344.4 340.2 335.6 331.9 327.8 323.9 319.6 315.8 315.5 314.5 315.4 315.6 315.7 315.4 315.3 314.9 314.6 313 311.6 309.3 304.9 297.6 290.7 286.4 284.9 282.7 278.1 272.4 268.8 264.3 259.4 254.8 250.4 245.3 240.1 236.4 243.4 248 250.2 248.6 248.2 247.6 246.3 243.5 246.6 246.3 244.1 244.9 245.1 244.1 242.8 243.7 244.3 246.2 246.9 246.2 246.8 247.1 247.7 247.9 245.3 245.7 243.6 248.4 251.6 253.4 257 258 256.4 256.8 257 259.6 265.2 270.3 275.5 279 282.3 283.8 284.3 285 285.6 285.2 283.2 280.6 277.4 276.3 276.2 272.8 269.3 266.8 265.9 267.6 271.1 274.8 277 278.4 277.5 277.3 274 275.8 272.2 265.5 266.6 264.9 260.6 255.5 249.7 244.1 242.2 236.5 236.3 231.4 226 215.1 214.7 214.7 216.7 216.7 212.5 210 205 198.3 189.6 183.5 178.2 176 173.4 171.3 166.9 160.8 151 145.2
450.9 477 499.2 528.6 555.5 583.2 612 634.7 654.3 664.2 665.9 663.2 657.5 652.5 652.6 625.3 600 569.5 543.8 512.6 477.2 446.1 417.7 392.8 368.3 345.1 329.5 319.9 309.1 305.7 300.4 295 293.6 294.1 297.9 306.5 317.9 332.8 341.6 348.7 352.7 355.3 355.9 354.6 354.8 358.5 371.5 387.1 401.9 414.8 427.4 446.6 462.7 447 439.3 432.4 424.4 415.5 406.3 396.9 391.8 387.5 384 379.2 372.1 365 358 350.8 344.3 340.7 336.4 332.7 329.6 325.6 320.8 317.6 317.7 315.5 316.9 317.1 316.7 316.2 316.1 315.8 315.1 313.8 312.1 309.3 304.6 298.2 289.7 283.1 278.6 275.3 271.2 267.6 264.5 260.6 255.7 250.3 244.6 239.5 239.9 246.6 251.2 253.5 254 252.6 251.8 250.7 248.9 245.9 248.9 248.1 246.2 247.1 247 247 246.2 247 249.8 249.8 251 252.6 254.6 255.3 253.1 251.7 248.4 249.5 246.2 250.1 253.9 257.2 259.1 260.1 260.3 261.5 261.6 263 269.2 277.9 283.6 286 289.5 291.5 291.6 292.4 292.8 292.1 291.2 287.6 286.7 287.2 285.6 281.3 277.2 275 274.3 276.7 278.9 281.7 284.6 286 288.8 291.2 286.3 285.8 280.5 273.4 271.5 269.4 264 261.8 258.6 254.1 250.6 246.7 242.2 237.5 230.7 216.2 223.5 224.6 225.9 222.7 222.5 216.8 210.9 202.3 193.6 189.1 186.4 185 182.1 178.3 175.7 172 166.4 157.1
445.8 466.7 491.5 519.3 545.6 572.4 601.6 625.9 644.8 653 654.4 652.7 647.5 640.7 639.5 624.4 599.5 570.1 541.3 514.4 482.1 450.9 421.4 395.8 374.2 348.2 339.8 324 313 307.6 301.1 297.2 293.3 292.4 296.4 305.6 317.8 331.5 341.9 351.2 355.7 357.8 357.6 355.4 357.7 362.8 376.6 391.6 404.5 416.8 430.9 450.4 466.1 447.7 439.5 432.4 425.8 416.8 408.2 401.2 394.9 390.4 385.6 381.4 374 367.3 360.3 351.8 346.7 341.3 337.4 333.7 330.2 327.6 323.2 321.3 319.7 318.6 318.1 318.1 317.6 317.2 316.9 316.3 315.4 314.4 311.8 308.6 303.4 295.6 290.6 285.5 276.4 268.6 266.6 262.7 260.2 256.2 250.4 246.4 241.7 244.4 248.5 252.5 254 256.3 256.9 255.9 254.5 252.7 250.9 247.9 250.4 249.6 248.5 249.4 249.5 249.3 251 253.6 257.1 257.4 259.7 262 263.2 261.1 258.5 256.8 253.7 254 252.4 253.9 257 260.6 262.5 263.1 263.6 265.1 267.2 267.7 274.9 284.8 291.9 294.8 297.4 299 300.3 302.5 302.6 300.4 297.8 296.5 296.3 295.6 293.1 287.6 286.6 284.7 284.1 285.7 289.5 291.1 296.7 302.9 306.2 306.2 296.3 293.1 287.3 280.7 277.4 274.3 270.4 266.7 264.4 258.5 252.5 247.6 244.3 240.2 234.5 231.3 233 235 233.8 231.8 230.3 225.8 219.2 213.3 203.8 200.4 198 195.4 191.7 189.4 187.9 185.4 178.2 172.4
439.6 457.3 483.4 508.2 534.6 560.9 590.2 620.8 632.9 639.6 642.6 642.9 636.1 626.4 618.6 615.4 595.5 568.1 541.6 515.3 482.9 450.4 424.8 397.7 375.2 351.8 342.2 327.7 314.1 309 301.2 296.7 291 289.5 293 303.2 316.5 326.9 337.3 347.4 354.9 357 358 357.6 358.5 367.5 379.9 393 405 416.6 430.6 445.2 456.4 446.3 438.8 432.6 426.3 418.9 410.7 403.8 397.6 391.6 387 382.2 376.6 370.5 364.4 355.9 348.9 343.6 338 334.2 332.8 330.5 327.1 325 323.1 320.4 319.6 319.3 318.9 318.4 317.9 317.1 316.1 314.4 310.3 306.5 301.3 293.5 288.5 283.3 277.8 269.4 266.1 260.9 256.8 252.2 247.5 245.6 246.1 250.2 254.2 256.6 258 257.9 258.4 256.8 255.1 253.9 251.7 250.2 252.5 252.5 251.6 252.4 253.9 257.1 261 264.8 267.9 270.5 268.9 268.7 267.5 266.7 263.6 260.5 262.2 259.6 257 257.6 260.9 264.7 267.5 268 269.6 271.7 273.5 276.2 276.1 288.4 297 300.8 305 307.1 309.1 310.7 310.2 308.4 307.3 307.4 306.1 306.9 304.4 304.4 299.9 296.9 296.7 298.3 302.4 306.9 314.5 320 319.5 311.9 306.8 301.4 294.9 287.2 282.3 278.2 275.1 269.5 264 258.7 251.8 247.3 244.5 242 241.8 241.3 243.4 243.2 240.5 240.5 238.3 233.4 224.7 218.9 214.1 208.6 214.5 210.5 205.7 203.2 198.5 194.4 186.9 176.7
426.6 445.9 471.6 496 521.1 545.6 574.8 602.4 612.7 620.6 625.4 627.1 625.4 614.7 595.1 589.3 578.9 559.3 532.9 503 477 447.8 421.7 398 376.7 358.9 343.7 326.3 313.2 305.8 297.4 291.3 287.8 286.6 289.8 298.8 311.7 323.2 333.6 342.8 350.7 354.8 356.5 357.8 359.9 370.7 380.9 393.1 405.7 416.4 427.8 437.8 446 444.4 438.1 432.8 426.5 420.5 412.9 405.6 399.1 394.9 389.7 385.7 381.4 376.6 369.2 360.9 353.1 347 341.2 337.9 336.8 333.6 330.4 328 325.7 323.1 321.9 321 320.5 320 319.6 318.6 316.3 312.2 308 303.8 297.9 290.1 287.1 280.9 274.8 270.5 266 262.2 257.9 255 251.1 247.5 250.3 254.4 257.6 259.8 259.2 259.1 258.5 257.5 255.7 253.7 253.8 253 254.5 254.2 254.8 257.5 262 266.1 269.6 273.1 275.2 274.4 273.8 275.5 272.5 266.5 265.3 264.7 266.8 264.7 261.9 262.2 265.6 270.5 273.8 274.4 275.1 276.4 279.9 284.1 286 287.5 300.4 306.9 311.8 314.5 316.3 316.8 317.2 315.4 315 317.4 321.2 323.3 317.8 313 311.2 309.9 309.9 313.7 316.3 319 326.2 332.6 327.8 321.6 316.4 309 300 292.2 286.8 282.1 276.9 271.2 265.4 259.2 253.1 250.9 248 245.2 247.9 246.6 247.7 250.2 248.9 248.9 241.7 238.8 232.3 229.1 228.9 226.8 223.8 220.2 216.5 213.2 206.7 197.1 181.4 164.4
416.3 436.4 461.9 482.8 501.7 528.5 552.8 574.7 588.8 601.4 607.3 612.1 611.3 595.6 576.4 556 548.5 533.4 512 486.4 462.4 438.5 415.6 392 371.3 356.2 342.1 319.8 310 300 292.7 287.5 283.6 282.1 285.1 293.8 305 315.8 326.7 337.3 344.4 350.6 354 356.7 360.4 369.5 379.2 390.6 403.4 414.3 425.2 434.8 441.9 441.8 437.5 432.9 426.7 420.8 415.2 408.2 403.3 398.5 393.7 389.8 387.8 384.1 376.8 368.6 361 353 348.5 345.1 340.9 337.4 335.2 331.9 329.2 327.2 325.3 324.6 322.6 321.8 321 319 315.2 310.9 305.9 299.6 290.8 286.1 281.3 277.6 273.4 269.4 265.1 262.5 259.5 254.1 250.2 253.9 255.9 257.8 260.9 262.5 261.7 260.6 259.9 257 254.4 255.6 256.7 255.6 257.9 257.5 257.4 263.6 270.1 274.5 275 275.7 275.9 273.7 274.1 273.6 271.2 272.6 271.5 270.2 270 268.8 267.5 265.8 271.9 276.9 280.1 280.9 281 283.3 287.8 291.7 293.3 295.1 298.9 310.8 316.2 319.8 322.6 323.7 323.3 321.9 324 330.9 338.4 335.4 326.6 324 321.4 321.1 322.5 326.1 328.2 329.6 334.3 338.2 338.6 332.4 324.6 316.2 305.6 297.8 292.1 287.4 281.3 276.2 269.9 262.3 258.8 254.9 252.6 251.9 249.7 250.2 251.2 257 259.1 255.7 251 248.5 247.5 245.9 241.7 237.6 235.4 231.6 226.7 220.3 211.4 188.3 170.9 144.9
403.5 422 448.8 467.5 487.6 506.6 529.6 548 562.4 573.6 581.7 592.7 583.9 568.2 551 530 517.4 505.1 484.7 465.2 448.8 428.6 406.3 385.7 363.8 347 329.7 313.2 304.6 296.7 290.1 284.4 282.4 278.2 282.1 288.4 298.7 307.6 318.6 329.8 336.9 343.3 348.2 352.2 357.6 366.5 375.4 386.1 399 411.1 422.1 431.7 439.3 440.1 437.4 432.9 426.6 423.1 418.2 414.3 408.5 402.7 398.5 396.9 394.5 391.5 386 378.8 371 362.4 358 352.6 348.4 344.6 340.3 337.2 334.5 330.7 328.7 326.9 324.9 323.8 321.8 318.2 314.1 307.9 301.9 293.9 286.2 283.1 279.2 276 270.9 268.5 265.1 262.9 258 253.6 255.2 257 260.3 261.9 262.6 265 264.6 263.5 260.5 257.9 259.6 258.6 260.9 262 260.8 263.4 265.5 265 270.4 272.9 276.3 276.9 277.1 275.2 275.5 275.2 277.5 277.9 276.4 274 273.5 273.6 274.4 269.9 277.1 282.8 286.1 287.4 288.1 290.5 296 300 302.6 304.4 305.4 310.4 319 326.2 329.2 330.3 330 332.5 339.4 346 348.6 341.1 334.6 335.2 333.2 332.8 333.1 336.9 340 340.7 342.4 342.7 343.6 339.6 332.4 322.1 312.9 304.6 299.6 294.3 288.5 283.2 276.5 272.1 268.9 261.3 256.3 256 254.8 255.5 266.6 272.7 274.8 273.2 268.9 267.4 266.3 261.4 253.5 250 245.2 242.6 233.9 225 202.3 181.8 155.8 138.8
393.3 410.1 433.3 453.4 470.2 487.9 504.1 519.8 534.1 544.6 553.9 561.1 551.7 537.9 524 504.7 487.9 476.4 462.2 447.5 431.9 414.2 392.4 374.6 353.8 337.4 317.8 305.5 296.2 289.4 284.3 281.2 278.3 277.5 278.4 283.3 290.7 299.9 308.6 318.5 326.5 333.3 339.8 346.9 353.3 362.2 372.5 380.9 395.3 406.6 418.9 427.7 436 438.6 436.5 432.8 427.8 424.8 422.8 420.6 415.9 410 404.8 403.6 403.1 400.9 394.9 390.8 383 373.3 366.2 359.8 356 352 347.5 342.5 338.8 335 332.1 329.3 327.2 323.7 320.9 316.8 311.5 304.2 298.4 290.4 284.8 279.5 276.6 274.5 272.2 269.2 266 260.3 257.3 260.2 259.7 260.6 264.5 266.2 266 267.8 267.6 266.1 263.7 262 263.5 262.8 264.9 266.3 265 268.6 269 269.3 271.7 272.7 275.8 278 279.7 279.7 280.7 280.7 280.4 280.7 281.3 280.7 278.9 279.1 281.2 275.6 280.1 288.1 292.1 293.8 297.6 300.5 304.2 307.7 309.9 313.4 313.9 312.7 322 330.3 335 337.6 343.1 350.1 355.3 356.9 356.7 350.4 347.4 346.2 344.9 346 346.9 348.9 350.1 349.7 349.9 349.5 348 344.6 337.8 330.2 320.3 314.1 308.3 301.6 297.2 289.2 284.4 280.2 278.9 269.3 267.1 266.7 266 275.8 284.4 290.5 292.4 289.7 285.6 284.2 280.8 276.1 269.3 262.1 258.8 253.2 237.6 223.5 203.1 175.6 151.3 136.4
383.4 397.5 417.1 435 452.6 465.9 478 490.6 503.2 514.4 522.6 526.6 522.7 509.1 495.6 481.7 465.3 451.8 440.3 427.2 410.8 396.6 376 360.1 343 327.1 310.8 299.4 288.9 281.6 278.7 274.9 272.4 271.9 274.5 279.8 285.8 292 301.2 309 316.7 322.1 330 340.5 348.9 357.9 368.8 377.3 390.7 403.5 415.3 425.1 431.9 436.4 436.4 434.2 431.8 430.1 431.8 430.3 425.9 419 412.6 411.6 413 410.1 409.6 409.8 398.5 386.2 373.3 366.7 362.2 358.5 354.3 348.5 343.1 339.2 335.4 331.8 327.6 323.9 319.1 314.5 308.3 299.9 292.4 286.9 280.7 278.6 274.3 271 269.9 266 262.3 260.8 263.6 265.2 265 267.8 269.6 269.4 268.4 269 270.2 268.5 269.1 266.7 267.6 266.9 269 270.3 271.3 273.9 273.3 272.4 274.8 277.3 280.4 284.3 284.5 284.7 285.3 284.2 283.8 284.7 286.2 286.9 285.7 286.1 287.2 283.4 284.1 292.3 298.6 301.5 305.4 309.5 312.2 315.5 318.6 321.3 322.3 322.9 322.8 332.3 340.6 346.5 353.1 360.9 364.3 366.5 363.9 358.1 358.3 356.8 357.7 359.1 359 358.5 358.7 356.9 356.2 354.9 352.1 349.5 344.3 336.8 329.9 325.5 320.3 314.5 309.3 303.7 299.2 298.1 289.9 286.7 285.1 284.1 287.9 295 298.9 304.6 308.7 308.9 308.6 304.6 297.3 289.1 283.8 276.1 268.8 259.5 241.1 226.2 200 173.3 149.1 136
370.9 383.7 396.4 413.8 428.6 443.3 455.6 466.3 474.8 485.7 491.1 492.9 488.9 480.4 469.3 458.7 444 430.3 421.8 407.7 393.6 377.4 362.8 348.2 334 318.5 303.8 292.8 284.2 279.6 274.7 270.4 268.6 266.8 270.8 273.7 280.6 286 292.4 300.2 308.1 312.2 319.8 333.6 343.3 354.7 366.7 375.7 387.4 400.7 413.6 423.6 431.6 436.8 439 438 436.4 437.5 443.1 440.2 436.5 430.6 423.5 421.7 424.2 423.5 428.9 435.9 421.7 398 381.5 371.8 366.4 363.8 359.3 353.7 348.4 343.1 337.8 333 327.6 323 317.1 310.8 303 296.9 290.4 284 280.5 277.7 274.5 269.5 265.9 263.2 264.3 266.1 269 271.3 271.2 271.8 272.8 271.2 270.7 270.6 272.1 272.4 274.2 272.3 273.8 274.3 275.6 277.8 278 276.8 279 278.4 285.1 288.5 288.8 289.2 287.5 288.4 287.6 286.9 287.4 289.4 290.9 291.6 292.8 292.9 293.6 291.1 289.9 298.5 305.2 308.2 313.3 317.6 320.4 323.1 326 328.6 329.2 330.8 329.5 337.9 345.4 357.1 362.8 365.4 367.4 369 368.5 367.4 366.9 367.6 368.2 368.7 367.8 367 366.5 364.8 362.9 361.1 359.2 356.8 354.5 350.9 344.8 341.5 340.8 336.2 329.5 327.4 323.4 319.6 312.8 309.3 309.6 307.9 308.7 313.9 316.2 320.6 323.7 327.4 328.1 323.8 316.4 307.5 297.2 288.2 279.6 267.6 251.9 232.8 207.7 180.4 153.5 133.7
361.7 368.9 379.7 393.4 405.8 418.4 431 443.3 451.9 456.6 461 462.3 455.6 449.6 441.4 432.9 421.5 413.3 400.8 390.3 378.3 366.2 351.5 338.2 324.1 308.8 295.7 285.1 280.5 273.5 269.7 267.2 266.2 264.1 266.9 271 276.9 281.8 285.3 291.3 297.9 304.6 315.1 327.1 338.5 353.4 365.6 373.6 387.1 398.8 412.3 423.1 432.6 439.2 442.4 441.3 441.8 446.1 450.3 449.1 445.7 441.1 437.6 441.1 440.3 438.8 446.5 453.8 449.2 412.3 391.8 379.6 372.3 368.5 363.2 356.7 350.6 344.8 338.9 333.5 327.2 321.8 315.5 308.9 298.5 292.9 288.3 284.2 280.2 276.1 271.6 266.9 268.6 269.5 268.9 271.8 274 275.4 276.4 275.8 275.5 275.2 275.2 276 276.2 279 279.5 280.3 282.2 284 283.2 284.7 282.4 281.8 286.5 284.7 291 293.2 294.6 294.7 292 291.9 291.3 293.3 294.9 296.5 296.2 295.7 297.9 299.7 301.3 300 293.2 303.9 312.2 317.3 321.4 325.7 328.6 331.5 334.6 336 338.2 339.5 340.7 339.8 351.9 362.5 368.9 370.6 374.2 374.6 375.3 375.9 376.2 377.6 378 377.1 376 375 374.8 373.8 372.8 372.1 371.1 371.4 368.8 372.8 369.4 369.1 360 355.2 344.8 347.1 342.4 338.3 336.5 333.1 330.7 331 331.6 332.8 334.8 337.9 341.8 346 346.2 338.6 330.7 320.4 310.4 299.5 293.8 283.3 262.7 240.9 213.8 186.4 163.8 143.3
352.4 357.9 365.5 377 386.3 396.2 405.8 417.1 426.4 429.7 430.3 430.5 426.1 421.5 415.8 409.9 401.8 392.9 383.9 375.7 365.5 355.1 341.3 329.6 314.5 301 287.9 279.5 275.3 269.8 266.8 263.7 262.9 262.7 265.4 268.1 272.8 277.4 280.8 284.3 290.5 298.6 312.6 324.6 339.2 352.7 363.8 372.6 385.2 398.4 412.6 423.4 433.5 444.1 446.8 446 448.8 452 453.5 453.6 452.2 450.5 449.1 450.2 453.1 453.4 456.8 458.6 453.8 422.4 403.3 390.3 379.9 373.8 367 359.5 352.5 346.7 340.8 333.3 325.9 320.1 313.9 306.8 298 293.2 288 283.2 280.1 273.8 270.2 271.8 273.5 274.6 274.4 277.1 279.3 280.6 281 279.9 280.4 281 282 282.1 283.2 286.4 286.4 288.1 289.6 290.7 290.7 289.2 288.9 296.6 291.7 291.8 295.3 297.6 299.8 302.4 301.1 303.8 303.5 307.8 305.7 308.9 307 304.9 304.2 307.7 310.6 305.1 299.4 309.8 319.3 325.4 330.5 333.4 338 340.5 343.3 345.4 346.8 347.2 349 346.7 354 364.8 372.6 378.5 382.9 383.4 382.5 385.1 385.8 385.9 384.8 384.2 384 384.3 385.2 386.6 386.2 385.4 388.4 390.3 393.5 394.7 393 389 379.5 370.3 365 362.6 360.3 357.8 356.6 354.9 353.8 353.9 352.3 351.8 352.8 357.2 361.5 363.9 359.7 350.9 340.3 330.7 321.5 316.1 308.1 295.7 271.2 239.5 216.4 196.8 177.3 154.1
345.3 350.2 355.4 362.6 370.8 377.2 386.1 393.4 400.4 403 405.7 404.9 404.7 400.6 395.3 389.8 383.3 375.6 369.9 363.4 354.7 344 333.7 319.8 304.9 293.3 282.3 275.4 271.4 268.1 264.9 263.9 261.9 261.4 263.3 266.8 270.3 273.4 277.2 281.7 286.7 295.3 309.7 324.6 341.2 352.4 362.1 372.5 386.2 399.4 410.8 422.9 434.9 446.9 451.1 451.3 453.9 454.8 454.1 456.1 456.4 455.3 454.8 457.3 461.3 463.5 470.7 461.8 453.5 428.1 409.5 397 387.2 379.2 370.3 362.1 354.7 347.4 339.9 332.5 324.8 319.2 313.6 305.4 298.4 293.6 289.8 285 278.3 272.8 276.2 277.4 279 279.4 279.2 281.8 284.2 285.3 285 284 284.1 286 287.7 287.9 288.5 292.6 292.8 294.9 292.7 299 297.1 298.9 302.4 300.9 298.5 300.6 304.7 307.2 309.6 310.2 311.1 312.4 313 316 317.1 320.3 321.2 323.7 323.4 319.9 318.5 308.9 306.2 317.5 325.9 334.3 340.8 345.4 347.8 351.6 353.5 355.9 358 358.4 357.2 354.1 355.4 366.2 374.6 381.8 387.4 388.6 388.6 392.1 394.8 395.3 394.7 395.5 396.6 398 399.8 401 401.7 405.7 410.1 412.5 412.3 409.5 407.6 402.3 393.2 380.7 380.2 376.6 375.2 375.4 375.8 375.6 372.9 371.9 372.5 370.2 372.3 372.6 374.9 374.4 370.4 361.4 349.9 340.3 332.6 331.6 324.2 303.6 277.2 245.8 222.6 200.9 180.7 162.4
337.5 341.1 347.2 352.4 358.2 364.7 372.1 374.5 378.5 383 385 385.2 384.2 382.5 378.4 375.1 369.4 363.5 358.6 352.5 344.8 335.8 323.6 312.1 298.4 287.2 278 272.4 268.4 266.2 264.9 263.8 263.1 259.8 260.3 262.9 266.2 270.7 274.9 280.4 286 296.9 310.7 327.1 343.3 353.4 363.2 374.6 384.8 398 409 420.2 437 449.8 462.6 456.9 455.8 455.4 455.8 457.8 457.7 458.1 459.2 462 467.9 470.8 477.9 472.1 456.3 434.3 414.9 402.6 391.5 381.6 372.2 363.2 354.2 345.9 338.6 331.5 324 319.1 314.2 305.3 297.8 292.2 288.4 282.7 278.9 278.2 280.5 281.3 283.2 283.7 284.7 286.7 288.3 289.7 289.9 289.3 288.9 290.4 292.3 295.8 298.8 299.3 299.8 297.3 302.9 307.4 310.8 308 309.2 308.8 307.5 309.3 314.9 318.5 321.7 321.2 321.9 322.6 322.8 324.5 327.3 332.3 337.8 340 338.9 333.8 329.9 315.2 318.5 326.8 336.3 346.5 351.3 354.7 357 359.5 361 363.7 367 367.7 364.6 360.9 360 365.4 374 381.4 387.8 391.3 393 397.1 400.9 403.5 405.4 408.4 411.5 412.2 415.8 417.9 423.9 429.9 433.9 434.9 433 428.2 419.6 412.7 404.8 398.9 399.2 398 397.1 397 394.2 388.5 387.1 387.5 386.4 387.5 387.7 387.5 385.6 383.7 380.7 370 358.8 348.1 343.8 344.6 330 304.5 276.5 248.7 224.8 203.4 183.5 166.3
330.6 335.3 338.7 343.4 348.9 353.2 356.5 359.4 364 368.1 369.9 371.4 370.9 368.6 366.4 363.9 358.4 353.2 348.2 342.2 336.5 326.8 315.4 303.4 291.8 283.3 276.9 271.4 267 262.9 262.4 261.5 260.5 258.4 255.3 258.4 261.7 268 274.2 280.8 286.7 298.6 311.5 330.6 345.3 354 364.4 374.4 382.2 392.5 403.7 416.9 436.2 452.8 463.8 457.9 457.4 454.4 454.8 455.5 456.2 457.4 462.4 468.6 474.2 480.5 488.7 477.3 459.8 439 423.4 408.5 394.6 383.9 373.2 363.2 353.7 345 337 328.8 324.4 319.6 314.3 304.3 298.9 294.2 290 286.9 281.5 281.5 283.4 285 285.4 289.1 290.2 291.5 294.3 295 294.2 293.9 296.8 299.1 302.2 307.1 308.6 307.2 307.9 309.9 316 320.4 316.8 317 317.1 317.5 317.8 320.7 327.1 329.5 330.4 332.3 333 336.4 338.2 340.2 346.7 352.6 353.7 353.9 350.8 344.7 334.9 320.6 328.3 334.8 344.2 352.6 357.7 361.2 363.8 366.3 369.9 371.5 372.4 373 372.1 369.2 366 371.7 379 385.5 391.2 395 399 403.2 409.7 414.7 420.8 427.2 430.9 436.3 441.6 444 450.4 453.2 453.7 454.9 451.9 444 434.9 424.3 413.5 414.8 413.5 412.3 413.5 415.2 414 406.5 402.2 402.1 401 401.6 401 399.7 398.2 392.8 386.8 376.9 364.7 354.9 351 347.4 327.8 301 274.8 250.4 226.9 203.7 182.2 166.5
324.1 328.2 331.5 334.8 339.9 342.1 344.7 348.4 352.4 355.2 356.9 358.7 358.9 357.5 356.2 354.2 350.2 345.5 339.8 333.1 328.1 320.5 309.2 297 285.6 277.2 275.2 271.3 265.9 261.9 258.8 256.7 254.9 253.1 249.8 253 259.7 266.4 272.7 281.3 289.6 300.7 315.9 334.8 347.3 354.6 364 372.3 379.7 387.2 397.3 413.3 428.4 441.6 449.3 459.6 455.7 451 449.5 450.7 451.4 455.4 462.1 470.4 479.8 487.5 492.2 483 463.1 444.9 429.6 412.5 398.1 385.3 373.6 362.1 353.2 344.3 334.7 327.6 321.8 318.5 311.6 304.2 299.3 295.7 291.8 288.3 284 287.1 288.5 288.6 289.6 293.3 295.4 297.2 299.8 301.2 300.7 303.9 306.6 310.9 315.4 317.4 319.4 321.7 326.5 327.1 330.4 330.3 329.7 331.9 331.8 332.5 331.8 334.6 340.9 342.9 348.7 351.8 356.5 361.4 359.8 357.9 364.3 368 368 365.8 360 353.7 345.3 328.9 336.7 344.8 351.1 357.4 362.5 366.9 369.4 370.6 374 375.9 376.7 377.5 378.9 378.1 376.2 384.7 391.1 395 399.2 404.5 408.9 418.1 423 428.8 438 446.9 454.8 462.6 465.4 470.2 472.7 474.8 477.3 473.1 466.1 457.9 445.8 434.2 429.7 427.7 425.9 425.7 429.1 427.2 424.1 419.1 413.7 413 413.9 415 414.6 413 409.9 402.4 392.8 380.7 369.1 358.8 354.7 346.8 327.6 302 274.4 249.8 225.2 208.7 194.8 177.6
316.4 320.3 324.2 327.6 331.3 332.2 334.4 339 343.3 345 347.7 350.8 350.8 351 348.7 344.6 339.5 334.5 329.5 323.1 318.3 309.3 298.4 288.5 279.4 271.1 266 263 259.4 257 253.5 252.1 248.6 246.9 246.6 250.1 258.2 266.5 272.3 282.9 293.6 306.6 326.3 341.8 350 354.8 360.3 368.1 375.1 382.5 390.9 403.2 417.7 427 433.7 448.4 448.4 441 441.1 442 445.7 450 457.4 470.2 492.2 493.6 494.8 491.7 470.8 449.9 435 418.3 401.6 386.8 374.1 362.1 351.6 341.7 334.1 327.1 321.6 317.7 307.8 302.8 299.1 296.7 292.9 289.3 287.9 289.9 291.3 292.5 294.8 297.8 301.1 303.8 306.9 307.5 308.9 313.1 317 321 325.9 331.1 336.4 343.8 347.3 346 355.4 353.4 358 355.9 353.5 352.1 348.9 347.3 355.5 365.5 373 375 375.9 378.2 376.2 375.2 379.1 380.5 378.5 373.4 365.8 358.6 349.2 340.7 348.1 353.9 357.9 362.9 366.9 370.4 374.3 376.5 378.6 384.2 387 389.8 391.6 392.2 388.7 397.9 404.9 409.6 415.7 419.1 423.2 436.4 441.7 446.2 456.3 467.3 476.3 482.3 487.8 492.2 491.6 489.6 491 488.2 480.6 471.9 456.5 446.9 444.6 442.8 440.3 442.1 442.7 444.2 438.3 431.1 426.2 426.1 428.8 428.8 428.1 425.6 419.7 409.4 399 384.6 371.9 362.4 355 344.5 320.4 298.5 277.1 251.5 244.3 229 208.8 192.7
308.5 312.7 316.8 319.4 321.2 322.7 325.8 329.8 334.2 338.7 341.6 343.4 343.6 343 340.4 337.3 332.7 326.3 320.5 313.5 308.4 298.7 287.8 277.9 270.5 263.1 260.3 259 256.1 253.2 251.2 247.1 244.3 242.9 245 249.2 256.8 265.2 274.6 288.4 301.2 321.3 341.4 346.3 349.3 352.6 357.5 363.6 369.4 375.9 384.2 394.8 403.3 414 419.8 428.1 426.8 423.4 427 430.4 435.9 443.7 454.1 466.7 484.9 496.3 493.1 489.5 466.2 452.5 438 420.9 404.6 388 375.2 362.2 350.1 340.4 333.6 326.2 318.7 314.2 306.4 302.7 299 297.7 293.5 289.6 289.9 292.3 294.1 296.3 300.3 303.5 305.5 310.6 310.8 314.4 317.9 322.7 326.2 335.6 342.8 355.4 363.5 367.4 368.3 371.5 373.2 378 379.4 374.8 368.2 364.4 364.4 361.3 377.3 385.6 391.7 393.7 392.9 391.4 388.9 386.5 385.8 387.3 383.1 377.5 369.2 361.7 348.1 350.5 355.6 362.6 364.6 367.7 371.8 376.6 380.3 384.7 391.3 398.7 403.2 406.1 407.4 406.8 405.9 409 419.3 428.7 433 438.8 447.9 456.6 462.1 467 474.5 483.4 491.3 501.8 508.6 509 508.9 510.3 509.8 504.8 495.1 483.6 466.2 468.3 465.4 459.9 458.7 458.7 459 456.8 452.9 444 438.4 437.7 439.2 438.4 436.4 431.1 423 412.4 400.8 386.5 372.3 362.7 349.8 328 313 296 280.8 271 261.9 245.8 229 209.5
301 304.4 307.2 310.4 313.2 316.4 320.1 323.9 327.8 330.2 334.1 335.5 335.4 334.8 332 329 324.5 318.5 311.5 303.7 296.2 287.6 279.2 270.7 262.9 255.7 255.6 253.7 250.8 249.1 247.2 243 240.3 240.6 244.9 248.8 257.3 266.6 279.5 293.4 308.9 327 340.2 343.8 344.9 347.6 351.7 356.7 362.6 366.8 375.3 385.2 392.6 399.1 406.2 409.4 411.1 410.2 411.5 416.9 426 437.6 451.1 462 479.8 489.3 487.2 478.5 466.6 453.4 437.6 421.7 406.4 389.3 376.2 363.4 349.3 338.1 330.9 323.4 317 310 306.7 302.5 299.3 298.6 294.6 292.2 293.6 293.7 297.1 300.5 304.4 308.3 312.1 315.2 322.8 327.3 336.8 345.6 349 356.1 364.3 375.9 386.2 392.5 394.2 395.6 398.4 404.6 399.4 395.4 388.7 379.3 377.2 372.3 386.4 396.2 402.6 404.3 403.3 400.7 397 393.1 390 386.9 382.4 373.3 367 358.5 358.3 359.4 362.8 366.4 369.9 373.6 377.5 383.1 389.7 399.1 408.9 417.1 421.6 423.5 423.9 423.4 421.5 420.5 431.9 442.1 452.2 462.3 474 479.3 481.4 486.1 490.8 499.2 509.4 515.4 521.9 526.3 531 531 525.8 519.5 507.9 494.1 482.9 484.9 481.2 481.8 481.4 480 477.5 470.2 464 453.8 446.7 444.6 442.4 441.5 439.2 431.9 422.1 410.6 399 384.1 369.6 354.5 333.7 322.2 308.5 299.5 295.1 288.7 276.5 262.2 247.3 230.9
297.2 299 301.4 303.7 306.7 309.9 312 315.1 318.9 322.6 325 326.6 326.9 326.5 323.9 320.2 313.7 307.8 301.4 292.6 285.7 278.1 271 262.6 256 251 250.9 248.8 247.1 244.9 242.9 239.8 237.2 240.3 244.7 248.7 257.3 271.3 285.8 297.1 311.4 323.9 331.6 337.3 338.8 341.5 345 349 353.4 356.9 362.7 372.9 380.7 387.5 392.7 395.1 396.7 396.4 398.6 407.5 416.3 429.7 445.6 458.6 469.8 482.4 480.6 472.7 464.9 454.3 440.9 423.9 408.9 391.7 378.6 363.4 348.4 335 327.9 318.9 313.6 308.7 304.3 303.9 301.8 299.1 295 295.7 294.9 297.6 301 304.6 308.6 314.5 319.9 333 345 358.7 368.1 374.6 377.3 383.9 391.2 401.8 408.9 413.3 416.3 419.8 421.2 420.4 412.7 405.4 396.2 389.8 388.1 384.6 391.6 401.8 406.9 409.4 408 405.7 401.7 396.2 391.4 387.1 381.3 375.6 371.2 369.4 368.6 368.5 370.6 374.1 376.9 381.2 385.6 391.4 399.6 411.4 425.7 434.5 439.1 440.1 437.3 434.1 433.7 434.6 443.8 457.6 469 479.2 495.2 501.9 505 508.6 513.3 520.8 528 536.2 543.4 548.1 548.5 546.9 540.4 531.3 518.4 504.2 498.9 499.7 500 500.6 499.6 496.4 493 482 468.2 460.6 453.4 445.4 439.1 433.9 428.4 418.5 409.2 398.4 385.6 369.5 356.8 341 329.6 317.6 315.4 314.1 313.2 306.5 295.5 282.9 268.1 242.6
290.7 293.2 295.7 298 300.6 303.6 305.8 307.5 311 313.3 317.3 319 319.7 318.4 315.5 310.5 303.1 295.1 288.8 282.2 275.3 269.7 262 256.4 250.5 246.1 246.1 244.7 242.3 240.8 238.6 238 235.9 238.5 241.2 248.2 259.1 273.5 286.3 297.5 308.6 319.6 326.6 330.6 333.2 333.5 337.2 339.6 344.7 349.3 353.4 357.8 366.5 372.2 376.8 379.9 382.4 383.2 387.4 397.9 407.2 422.1 435.1 449.5 463.8 469.9 472.4 469.6 464.4 455.5 443.2 427.2 409.6 394.3 379.2 362.6 346.8 334.1 326 318.4 313.2 308.6 306.3 303.9 300.6 298 294.8 297.8 298.3 300.9 303.8 307.9 313.8 324.5 340.4 355.8 370.9 383.4 391.9 398 404.5 409 414.6 423.1 429.2 432.1 436.3 438.6 435.2 426.5 415.8 410.7 402.9 397 394.9 393.8 398.6 404.5 408.1 410.6 410.4 408.2 404.1 399.6 394.3 390.3 386.1 383.8 381.6 378.6 378 378.4 380.3 383.6 385.5 390.1 398 408.4 413.3 423.9 439 448.8 453 451.6 449.8 449.5 446.6 447.9 455.3 471.3 483 495.8 508.6 516 525.5 529.5 531.3 537.5 546.4 556.4 562.5 567.1 564.8 559.7 550.5 540.8 526.2 513 512.8 511.4 513.4 513.2 509.7 506.5 499.9 487 472.7 460.4 450.8 439.9 424.9 411.4 406.2 396.4 387.7 379.7 367.1 355.5 345.8 339.2 332.4 327 328.2 330 328.3 323.6 312.7 301.9 287.3 262.6
285 287.3 289.9 292.3 294.9 296.6 299.6 301.1 302.9 306.2 311 314.7 314.5 312 305.4 298.1 291.1 284.7 279.8 272.8 266.7 261.5 255.1 251.2 245.7 242.5 241.1 239.9 239.6 238.4 236.5 235.8 234.6 235.9 240.6 248.7 261.1 272.7 283.9 293.9 304.6 314.5 320.2 324 326.5 326.8 329.8 332.3 333.5 332.5 336.2 341.8 351.2 358.6 363.5 366.4 368.3 369.4 376.7 389.4 398.5 411.6 427.5 441.7 455.4 463.6 466.5 466.2 464.2 456.2 444.2 428 410.3 393.4 377.1 362.2 342.7 332.9 323.7 317.8 311 307.6 305.3 303 299.6 297.6 298.1 299.3 300.8 304.1 306.7 312.8 329.1 346.8 361.9 377.7 388.5 399.5 409.8 416.2 422.5 427.3 431.3 436.7 439.7 441.3 442.7 441.7 437.5 428.7 420.4 416.4 410.8 404.4 401.7 400.9 404.4 407.7 409.5 411.1 412.2 409.7 406.6 402 397.8 394.2 391.6 389.7 388.8 389.8 391.2 392 391.8 399.3 402.3 408.3 417.4 428.5 436.5 437.4 445.5 458.9 461.6 461.6 463.5 461.6 457.8 461.3 469.3 483.7 498.1 510.9 525 533.5 544 548.9 550 555.2 565.9 573 576.8 575.5 575.8 568.4 558.1 546.6 533.1 523 520.5 520.7 522 519.2 514 509.3 499.2 482.1 468.7 452.8 437.2 419.1 403.1 393.2 384.6 375.8 369.2 361.8 354.3 348.6 344 339.8 337.5 337.3 340.4 343.9 342.1 338.8 329.2 317.1 305.2 290
279.6 282 284.2 286.2 288 291.7 293.4 295 296.9 302.8 307.7 312.3 312.2 306.1 296.8 289.5 282.1 276.8 272.1 265.6 260.3 255.4 248.8 244.3 241.5 239.5 238 237.6 237.2 236.3 235.1 233.1 233 236.3 241.8 250.9 262.2 272.5 281.8 291.3 300.6 308.7 313.9 317.2 318.9 320.9 323.3 325.6 325.1 326.3 327.6 331.7 337.4 342.9 348.2 351.9 354.6 359 366.6 378.6 390.1 401.5 413.8 428.4 443.2 449.4 454.9 457.4 458.8 454.3 442.7 427.1 409.6 391.5 374 356.1 341.1 328.7 320.1 314 310 307 304.5 302.4 301.2 299 299.1 300.9 303.6 307.6 311.8 329.5 344.6 360.8 376.8 389.2 400 411.4 418.7 427.4 433.7 439.6 442.8 446.9 448.7 450.5 452 447.6 442.3 433.3 427.2 422.1 417.2 411.8 408.6 407.5 408.6 411.3 413.1 415.6 414.7 412.5 409.4 406.5 403.4 400.8 398.6 399.6 400.1 403.2 405.4 409 411.5 417.9 424.2 429.7 438.7 450.3 457.8 460.7 456.2 466.1 473 475.8 474.3 472 468.2 472.4 484 496.3 507.7 524.9 539.8 552.5 558.6 559.7 564.3 570.6 577.2 580.8 584.3 587.8 583.5 575.6 564.9 549.4 537.7 530.9 528.8 524.2 520.8 516.6 505 493.6 478.3 464.7 450.1 433.3 416.1 398.4 385.1 376.3 367.6 362.5 356.8 350.2 345.4 342.5 340.2 339.9 340.8 342.9 349.6 355.3 358 352.3 343.5 330.5 319.4 306.8
273 275.5 276.6 278.3 281.1 284.9 287.2 288.9 292.4 297 304.3 309.4 316.2 303.3 290.9 283.6 276.6 270.6 265.4 258.3 252.5 246.9 243.2 242.2 240.1 237.5 235.6 235.2 234.9 234 233.8 231.1 232.1 236.1 242.6 251.4 262.4 272.9 281.5 289.8 297.5 304.3 307.8 310.9 311.6 313.6 316.1 317.9 318.1 320.1 321.3 324.7 327.9 332.9 337.6 341.7 345.1 350.5 358.1 370 380.4 389.8 402.8 413.6 425.4 434.1 440.7 446.5 449.4 447.3 438.4 423.7 404.8 387.5 366.2 350 336.2 323.6 316 310.2 307.9 305.9 303.8 302.1 300.5 299 297.5 301.9 307 311.9 328.5 343.4 359.1 374.4 386.9 398.1 409.3 419.2 428.3 435.6 441.6 446.2 449 451.6 453.9 455.6 455.7 452 446.2 438.3 431.2 425.4 420.4 415.9 412.5 411.4 413.9 416.1 416.5 418.8 417.9 416.6 414.3 412.6 410.2 410.1 410.1 412.2 415.2 420.5 423.5 426.5 432.7 440.3 446.9 452.6 461.8 472.9 480 480.9 477.6 478.3 485.4 487 485.4 480.1 476.8 483.7 495.8 506.9 518.1 533.9 550 561.9 566.7 569.4 573.9 580.9 586.2 588.7 590.2 590.9 585.7 577.5 564.7 548.6 537 531 525.9 516.7 512.7 503.4 490.7 475.2 459.4 446.1 430.5 412.6 397.6 379.9 369.5 361.4 354.1 348.9 345.7 340.2 337.5 335.7 335.7 337.3 341.4 346 355.8 363.6 367 366.1 356 345.7 334.7 324.2
266.7 267.1 267.8 269.7 273.8 277.8 280.8 282.5 285.8 291.2 297.6 302.1 302.5 296.7 286.5 279.3 272 265.6 260.6 254.6 247.7 242 239 238.9 238.6 236.2 233.4 232.2 232.4 231.8 231.7 230.2 234.1 238.5 242.7 250.5 260.8 270.8 278.9 286.9 293.8 298.7 301.9 304.3 305.3 306.1 308.9 310.6 310.1 312.4 316.3 318.2 319.4 323.8 327.5 331.6 336.6 343.7 351.1 361.5 369.8 379.2 389.9 402 411.5 419.8 428.3 435.4 439.8 439.5 432.5 418.2 399.4 381.4 360.2 344.4 333.4 325.5 317.5 310.7 306.7 303.5 302.4 300.9 300.4 299.1 300.1 304.8 310.5 318.3 332.6 349.3 367.3 380.1 392.9 404.4 415.4 423.9 434.2 439.9 444.3 447.3 449.5 452.2 455.7 458.1 457.3 454.5 448.7 438.1 433 428.5 423.9 420 416.7 415.6 417.9 420.6 422.1 423.2 423.1 422.2 423 420.8 421.9 423.3 424 429.1 435.1 439.8 444.3 449.4 455.9 464.1 468.7 475.7 487.5 497.1 500 498.5 495.8 494.4 496.1 495.9 492.1 487.8 486.7 497.3 511.4 522.1 533.6 543 557.3 566.7 571.7 576.4 581.5 585.9 588.1 590.4 589.9 588.4 579.6 567.1 553.9 537.5 526.8 517.4 506.9 500 490.6 481.5 467.4 451.9 437.9 424.2 411.4 395.8 379.5 366.2 357 349.1 342.2 337.9 335 332.7 330.5 329.5 330.9 335.3 340.3 347.4 358.5 368.1 373.2 376.4 365.2 357.2 350.8 341.4
259.1 259.2 259.6 262.1 266.9 270.4 273.7 277.3 279.4 284 289.6 293.3 290.5 285.8 281.4 274.3 267.1 260 255.6 251.4 245.8 241.9 240.6 239.8 238.4 237.1 235.3 233.7 229.8 228.1 228.3 228.8 233.3 237.7 241.9 248.4 257.2 266.7 274.3 282.3 288.5 292.3 295.6 297.2 298.9 300.1 301.7 303.7 304 307.2 310.7 311.9 313.9 317.8 321.1 325.1 330.6 336.9 343.2 351 361.6 371 380 391.5 399.5 407.5 414.8 423.9 429.5 429.6 423.4 408.7 393 370.1 355.1 340.9 331.3 321.9 315.5 310.4 305.2 302.4 298 298.8 299.9 300.7 304.9 310.8 322.3 333.1 343.4 360.6 373 384.4 396 406.9 415.8 424.6 431.3 437.2 441.1 444.7 449.1 452.1 458.3 461.3 461.6 457.7 451.5 442.4 436.4 432.2 428 424.5 422.1 422 422.4 425.3 427.5 428.7 432.9 433.3 433.5 435.8 438.7 440.2 443.3 449.8 453 461.1 467.9 474.5 481.6 484.5 492.4 503.1 515.6 523.3 519.2 515.2 510.1 508.6 506.1 504.5 502.6 495.4 501.7 515.8 526.2 535.7 545.3 551.2 557.8 564.8 569.8 575.1 574.8 573.2 576 578.2 578 572.6 560.4 547.5 534.2 515.3 500.6 488.4 480.5 475.2 468.4 458.6 443.3 429.6 417 403.8 390.9 378.4 365.7 353.4 344.6 337.6 330.6 329.1 326.8 325.3 322.2 322.8 324.6 330.9 338.7 346.6 358.5 368.4 375.5 381.7 374.5 368.7 363.9 358.7
253.9 253.9 255 257.9 260.9 263.8 267.5 270.4 272.8 275.8 281.3 283.4 280.3 277.9 274.8 266.4 259.2 253.6 251.2 247.8 243.4 241.4 240 238.5 237.6 236.4 234.9 233 229.8 227.3 227.7 228.6 231.6 236 240.5 246.4 254.4 262.5 269.7 276.3 280.9 284.2 287.3 289.8 290.6 293.3 296 296.3 297.8 302.2 304.6 305.5 309.2 311.4 314.2 318.7 324.4 329.7 335.8 343.6 351.5 361.3 370.8 380.4 389.5 397.8 405.3 410.7 415.5 414.5 407.1 396.3 380 362.8 346.1 336.6 324.8 317.1 312.7 309.3 303.4 299.5 295 295 299.7 303.2 313 325.1 338.3 347.2 356.4 367.5 377.7 388.7 398.7 407.7 413.8 421.6 426.9 431.8 437 442.2 448.4 454.5 463.6 469.6 471.8 468.4 461.7 448.8 442.7 436.3 433.1 428.5 427.5 427.8 428.8 432.4 435.4 438.6 442.6 443.7 445.4 446.4 452.1 458.5 465.5 470.4 473.5 483.2 490.4 498 505.8 511.1 517.3 528.3 535.3 537 537.4 534.6 528 523.5 521.4 517.1 510.3 501.4 512.4 524.5 532.5 543.1 545.9 547.4 546.8 546 546.5 548.2 547.3 549.6 551.9 553.3 552.3 545.6 536.2 524.6 511 492.6 477.6 464.3 457.4 449.7 442.7 434.9 423.6 410.9 399 385.7 373.9 359.9 350.6 342.4 333.2 325.2 318.3 318.7 318.5 316.1 311.8 311.7 317.9 326.3 334.9 345 356.3 368.8 378.4 387.1 383.8 379.1 376.3 371.6
248.9 248.9 249.8 253.4 255.7 258.3 261.9 264.6 266.8 268.2 272.3 273.4 269.8 266.5 263.4 258.9 254.9 250.8 248.3 245.6 242.6 240 237.5 235.6 235 233.8 232.6 231.1 229 227 226 227.9 230.7 234.9 239.5 244.6 250.1 256.4 262.7 268 272.8 276 279.2 281.1 282.2 285.2 286.4 288.9 291.3 295.1 298.2 299.9 302.8 305.9 307 311.2 316.7 321.8 327 334.9 340.3 349.1 359 367.8 377.5 385.4 391.6 395 395.1 392.1 385.9 377.5 365.6 352.9 338.6 328.7 319.9 312.3 309 303.5 297 294.4 295.4 297.8 303.5 309.5 321.8 333.9 346 354 363.1 370.4 378.3 386.3 394.3 402.6 409.8 417 423.1 429.1 434.7 443.6 449.4 457.1 468.8 481.7 484.6 480.4 474.8 465.8 454.8 446.7 439.1 434.9 433.5 433.6 436.3 441.3 446.6 449.4 454.5 457.8 460.8 467.4 473.4 481.6 486.7 492.6 500 508.5 513.8 519.7 529.5 537.8 546.4 553.9 556.7 555.5 553.9 549 540 537.4 531.4 524.9 519.1 513.2 517.8 525.2 529.2 530.1 526.7 523 518.1 516.7 518.5 519.5 521.9 523.3 524.5 525.1 521.8 517.2 509.1 498.9 487 472.1 456.9 442.2 435.2 429 422.8 413 405.9 393.9 381.4 368.1 353.8 344.9 336.3 328.9 323.2 314.6 306.8 308 308.9 306.4 301.7 303.6 313.4 322.7 330.5 340.9 355 367.5 381 391 390.6 386.4 384.2 381
244 244.1 245.8 248.3 250.1 253.6 256.4 258.6 260 261.4 263.4 263.8 261.2 258.9 255.9 254.5 251.9 248.5 246.6 244.7 241.9 238.9 235.9 233.3 232.2 231.3 229.4 227.9 228.2 227.2 225.9 227.9 229.7 232.9 237 240.7 245.6 251.4 256.1 259.6 265.1 268 271.2 272.3 274.3 277.3 280.8 282.8 284.9 287.5 291 295.4 296.3 298.5 300.1 304.5 309.1 314.3 318.4 325.3 332 338.9 347.2 355.7 361.6 367.3 370.1 372.1 371.7 369.4 365.2 360.3 352.7 343.9 334.5 323.5 315.7 306.3 300.7 295.3 293.4 297.2 298.9 303.4 309.1 315.2 327.3 337.4 346.9 355.3 363 369.6 374.9 381.7 388.9 397 405.5 412.2 420 427.4 436.4 444.2 453.1 467.2 480.1 493 500.5 499.7 494.9 488 470.4 458.6 448.2 443.9 441.8 443.6 447.9 453.4 459.1 462.1 468.8 476.4 485.1 490.6 496.2 506.3 511.8 516.1 523.4 530 535.2 543.1 553.3 564.2 570 572.6 573 570.1 565.9 556.9 550.4 546.1 539.4 535.5 528.1 519.5 512.4 508.5 505.8 503.8 499.4 492.5 486.6 489.9 490.9 492 494.4 494 494.1 493.5 492.7 488.9 480.8 471.8 463 451.8 434.2 422.7 413.7 410.3 404.7 397.1 388.4 377 363.6 348.6 338.1 327.5 320.7 317.2 311.1 305.1 298.2 298 299.9 297.6 293 295.9 307.7 317.9 326.7 336.8 352.7 364.8 379.8 389.7 393.6 392.3 390.1 387.1
238.8 239.1 241 242.9 245.1 247.1 250 252.4 254 255.4 256.7 256.1 255.5 252.8 251.5 249.9 248.1 246.3 244.7 243.2 239.8 237.9 234.8 232.2 230.3 228.3 228.2 226.6 227.3 226.6 226.4 228.3 229.7 231 234.9 237.7 240.7 245.2 250.8 254.4 257.4 260.7 262.7 265.2 269.6 275.5 277.2 278.5 280 281.8 285.8 287.5 289.7 290.7 294.6 298.7 302.7 306.4 310.5 315.1 321.8 328.7 336.2 343.3 349 352.6 354.4 355.9 356 354.7 352.6 349 342.1 334.3 325.3 315.6 302.6 297.8 294.3 291.3 292.7 296.8 299.4 302.3 309.2 315.6 324.6 334.3 342.1 349.7 358.9 364 370.9 377.8 383.9 391.8 400.2 407.5 416.4 426.1 436.4 448.3 463 478 491.5 501.9 509.3 513 512.2 507.6 486.6 469.6 463.1 454.1 452.7 455.1 461.4 467 472.3 477.3 484.6 495.3 506.1 515.4 526 534.3 538.6 540.3 546.8 555.5 564.6 573.3 580.6 586.3 587.7 587.4 584.1 578.7 571.4 562.9 555.4 552.2 547.7 539.7 529 509.9 489 482.8 479 475.4 466.1 461.8 458.5 459.2 460.4 461.7 463.6 464 463 463 464.2 461.9 453.2 443.4 437 428.4 416.6 407.3 399 394.2 388.7 381.8 373.1 360.2 344.6 334.5 324.3 315.6 310.2 305.8 301.4 296.2 289.8 287.5 290.3 288.9 282.5 288 300.8 313.6 322.9 332.2 344.6 360.7 373.5 386 390.5 393.2 393.5 391.8
232.8 234 235.4 237 238.7 240.1 243.2 245.6 247.8 249.8 251.1 250.3 249.6 248.4 247.4 245.7 243.9 243.3 242.3 239.8 237.5 235.7 233.8 231.1 229.2 228 225.7 225 225.4 225.9 226.8 227.9 229.7 230.9 234.1 236.4 238.9 241.3 243.5 248.8 252.3 256.1 258.3 261.3 265.8 271.1 273.5 275.6 278.5 278.8 279.9 283.2 284.1 287.4 290.5 295.7 298.4 302.3 306.3 310.5 314.7 318.7 323.4 328.5 333.6 338 339.5 342 343.4 344 342.9 340.1 335.6 326.9 315.2 302.5 298.7 294.3 290.9 289.1 290.9 294.4 296.9 300.6 307.3 315.9 322.5 329.3 337.1 344.5 352.4 358.5 363.8 371.7 378.7 385.5 394 404 413.9 425.4 441.4 457.3 471.8 484.3 494.7 505.1 514.6 521 524.9 517 498.8 484.1 475.8 471.1 467 468.4 473 479.3 486.5 494.3 511.7 520.7 529.6 544 553.7 557.4 558.7 566.2 575.1 583.2 590.8 598.4 600.5 601.4 600.2 597.1 592.3 583.7 573.4 566.2 559.8 557.3 546 534.1 516.6 494.6 471.5 454.7 446.2 441.1 432 430.1 427.4 427.3 427.6 430.4 432.9 433.1 432 432.6 436.3 435.7 424.4 416.3 416.6 411 400.5 392.8 384.6 378.4 372.1 365.7 355.9 343.8 333.1 323.4 314.8 305.8 298.3 292.4 290.5 288.3 281.7 276.3 279.7 278.8 272.6 280.9 293.8 308.8 318.4 326.2 337.5 352.2 364.9 378.4 386.1 392.2 396.3 393.6
233.3 230.4 232.1 232.5 234.9 235.5 237.1 239.1 241.3 243.5 245.5 246 245.5 244.6 243.4 242.5 242.1 241.5 240.7 239.2 237.3 234.8 232.4 230 229.5 226.6 226.8 226.8 225.9 225.5 226 228 229.4 230.7 233 235.4 237.8 240 242 245.1 249.4 252.4 255.6 260 263.9 266.7 269.9 273.7 274.8 277.9 277 280.1 280.8 285 288.2 291.6 294.8 298.7 302.4 306.6 310.6 314.5 318.1 321.9 325.8 329.2 331.2 333.3 335 335.3 333.2 330.4 327.7 322 310.5 298 294.4 292.4 289.4 286.2 286.9 292.3 296.7 300.1 309.2 316.7 321.4 326.8 334 340.1 346.1 352 358.3 365.3 372.2 379.3 390.9 401.8 414.4 429.4 446.8 466.1 479.1 491.9 504 514.7 524.1 529 530.4 527 515.1 502 495.6 491.2 488.4 485.7 488.4 496.4 505.9 519 536 545.7 554.2 565.6 575.1 581.5 583.2 588.2 600.4 608.1 615.6 618 616.4 613 607.2 602.1 596.1 585.5 574.4 566.5 556.3 543.1 527.8 511.7 493.1 472.7 451.1 431.1 417.4 407.9 402.6 402.2 400.8 399.7 400 401.7 405.8 407.3 408.6 407.7 411.8 413.5 405.2 399.3 399.6 392.4 384.4 375.8 369.5 363.2 357.3 349.7 341.2 333.1 323.9 315.3 308.3 299.4 289.5 282.2 280.4 279.2 275 263.6 267.4 265.7 252.9 276.5 290.4 303 311.3 319.2 328.4 339.8 353.7 369.4 379.8 389.5 395.4 390.9
240 234.9 228.6 228.1 231.3 231.6 233.5 234.6 236.5 238.5 239.9 241.4 241.9 241.3 241.1 240.9 241.1 240.5 239.8 239 237.2 234.6 232.5 231.6 230.9 229.8 228.6 227.3 226.1 224.5 226.7 227.9 228.8 230 231.5 233.7 236.1 237.4 240.3 243.3 246.5 251.5 255.4 258.3 259.6 262.8 267.1 269.3 272 275.3 275.1 275.6 278.6 281.4 284.4 287.1 290.5 294.3 298.6 302.6 306 309.2 313.4 317.4 320.3 322.3 324.3 326.4 327.6 327.7 326.4 322.7 321.3 316.8 305.4 297.9 294.4 289 286.6 284.4 287.8 293 296.4 303.4 308 311.3 316.9 323.4 329.4 335.1 340.1 346.9 353.5 360.4 367.2 374.8 384.7 396.6 414 430.5 450 472.2 487.7 503.1 516 526.2 548.7 557.7 552.2 547.9 538.4 524.9 519.2 514.3 511.5 508.1 510.5 520.4 530.4 538.8 552.7 562.1 569 582.1 589.2 592.4 596.9 605.5 613.8 618.4 623.2 624.9 624.2 622 616.6 608.7 597.1 582.8 562.6 542 526.5 516 502.7 487.8 467.3 450.9 428.6 410 394.6 381.4 379.9 378.6 382 380 377.7 383 386.4 389.8 391.4 388.9 392.2 391.4 389.1 386.1 382.3 375.5 367.5 359.3 352.5 346.4 341.7 337.4 331.8 324.1 316.9 309.6 301.5 292.8 283.8 274.4 269 270.4 265.7 259 254.1 251 254.8 271.2 285.4 296 302.5 308.1 314.5 327 341.5 355 369.3 378.7 383.4 378.2
241.8 237.2 232.2 227.8 225.1 225.4 229.8 231.2 233 234.8 236 237.2 238.5 238.9 239.2 239.3 239.9 239.5 238.8 238.1 237.2 235 233.1 232.5 231.6 230.7 229.6 228.4 226.4 225.2 224.1 225.8 226.3 228 228.9 230.7 233.2 236.7 240.1 243.6 247.2 251.1 254.3 256 257.5 261 264 265.3 268 270.9 272.6 273.6 274.7 277.7 280.7 283.8 286.9 289.8 293.6 297.9 300.8 303.2 306.1 309.8 313.4 315.7 317.8 319.7 320.4 320.6 319.3 317.2 315.6 311 304.8 299.2 291.2 284.6 284.5 280.5 284.9 288.9 295.8 300.7 302.8 305.9 312.2 318.3 323.1 328.9 333 340.9 348 355.3 362.1 373 383.6 398.8 416.2 433 450.7 471.5 492.2 510.2 523.4 541.4 562.5 574.8 580.8 576.4 566.4 551.2 543.8 535.2 532.6 528.9 528.3 532.6 538.9 545.4 554.6 560 571.2 579.9 585.5 591.4 597.7 607 615 620.6 625.3 626.4 624.5 617.3 609.1 599.8 586.5 565.3 541.9 521.5 502.4 490 477.9 465.1 447.6 425.8 405 388.7 375 366 361.4 362.1 364.7 364 362.4 364.7 367.7 370.1 373.4 371.6 374.8 373.2 372 370.1 365.3 357.8 350.4 342.8 336.7 333.6 329.9 325.5 321.3 315.9 309.7 303.2 294.8 286.7 279 269.7 257.5 258.3 256 252 242.2 236 250.7 265 277.9 286.5 291.2 296.9 303.4 314.2 329 344.7 355.7 366 369.3 367.2
245.2 239.8 233.8 231.1 227.3 222.9 225 227.6 230.4 231.4 232.6 233.8 235.2 236.8 237.3 237.8 238.5 239 238.5 237.9 237.2 235 233.7 233 232.1 231.1 230.2 229.2 228.3 227.4 225.8 223.9 223.6 225.7 227.4 231.6 235.4 237.7 241.1 243.1 246 249.6 251.6 254.8 257.2 258.9 259.9 260.8 264.1 265.5 268.5 270.3 272.7 274.5 277.3 281.1 284 286.2 289 292.6 295.3 298.3 301.2 303.6 306.3 308.7 311.2 312.8 314.2 315.3 315.3 313.2 309.8 306.5 301.5 295 287.9 284.7 282 279 281.1 283.6 289.8 295.8 298.3 302.6 306.9 311 317.7 322.6 327.3 334.6 341.8 349.3 359.4 372.7 385.2 401.8 420.8 436.6 454.6 474.9 497.3 516 537.2 557.9 576.3 588.8 594.2 594.4 585.5 573 561.5 549.8 541.3 532.8 529.5 531 536.4 542.6 549.8 557.4 563.7 572 577.4 582.3 590.5 600.6 608.7 614.1 616.8 615.3 608.5 596.6 583.4 573 561.7 544.3 522.1 501.3 482.8 466.5 457.1 442.1 422 398.2 384.3 371.6 360.8 354.3 348.4 347.2 348.5 346.1 343.7 343.7 346 351.4 356.3 357.3 358.5 360 359.2 355.2 348.8 341.4 333.5 330.3 325.5 322 318.6 314.4 310.8 307.2 302.4 297.2 289.3 281.3 273 263.7 254.2 243.8 244.3 240.8 237.6 228 245 259.4 270.1 276 279.8 281.6 288.2 302.7 319.7 335 344.3 351.7 355.5 354.4
248.2 241.2 235.8 232.4 228.1 222.4 221.2 222.6 225.6 228.1 229.3 231.1 233 234.7 235.6 236.5 237.4 238.5 238.3 237.7 237.1 235.3 234.2 233.6 232.7 231.8 230.9 230 229 227.6 227.1 227.4 224 224.2 227.8 230.6 234.3 238.7 242.3 245.5 248.7 250.5 252.5 254.8 256.2 256.5 257.2 258 259.3 262.1 264.7 267.1 269.5 270.5 274.1 277.4 279.9 282.6 285.5 288.3 291 293.9 296.7 299.4 302.1 304.8 307.2 308.8 310.1 311.5 311.6 309.1 306.5 301.3 298 291.1 284.8 281.9 281.6 280.4 277.3 280.9 283.1 288.4 293.5 297.8 301.1 304.9 311.2 316.6 321.8 328.6 337.3 346.9 359.5 373.9 386.2 403.3 420.8 441.6 462.1 481.4 504.2 524.5 543.4 567.5 583.6 599.2 603.1 602 595.3 582.3 568.1 550.1 535.4 524.2 515.1 517.3 524.1 530.3 538.8 545.5 553 556.1 560.7 566.3 574.2 585 593.4 597.9 597.7 593.4 584.3 569.5 553.6 544.6 536.4 521.6 501.7 480.8 462.9 445.9 431.3 416.8 398.5 381.6 369.5 359 351.4 342.6 336.1 332.1 331.4 328.4 324.8 325.2 328.7 335.6 339.3 340.7 342.8 344.6 342.4 336.9 332.6 325.6 323.1 319.8 314.8 310.6 307.3 303.7 299.6 296 292.4 287.5 280.9 273.3 264.6 255.5 246.9 239.4 231.2 229.6 230.3 220.2 235.6 248.9 256.5 260.3 263.5 265.5 277.6 293.2 310.1 326.6 336.6 341.3 343.7 341.4
252.3 245.4 239.9 233.3 228.7 224.4 221.1 220 223.3 224.5 226.9 228.8 230.7 232.5 234 235.1 236.3 237.5 238.1 237.5 236.9 235.9 234.7 234.7 233.6 232.7 231.8 231 229.7 228.4 228.8 228.3 226.5 225.2 229.1 233 236.4 239.2 242.4 245.8 248.6 251 252.9 254.3 254.2 254.6 254.9 255.2 256.2 257.4 262.1 264 265.4 267.6 270.5 273.4 276.4 279.5 282.5 285.2 287.4 290.2 292.7 295.2 297.9 300.7 303.4 305.6 307.6 309.4 310.1 307.9 305.1 302.2 297.8 289.8 283.3 281.2 278.9 279.5 278.2 277.8 278.7 281.9 285.9 290.6 295.3 300 304.7 310.2 316.3 324.3 334.9 345.7 358 373.2 386.8 406.4 427.1 448.4 470.4 490.7 511.8 531.3 549.7 575.1 591.3 602.5 608.4 607.8 599.8 584.3 562.8 540.7 521.2 503.3 493.8 493.4 500.9 513.2 517.7 526.9 534 537.7 540.1 546.7 556.2 567.2 572.8 576.1 574.7 568.1 557.9 544.3 526.2 514.1 508.7 496.5 479.5 459.8 444.5 428.4 408 391 378.3 368.9 358.4 347.2 337.7 328.9 321.1 315.5 315.8 314.1 311.2 312.2 315.5 322.7 326.6 327.6 328.1 330 327.8 322.7 317.5 316.2 313.8 309.7 305.1 300.7 297.9 294.3 290.1 286.6 281.9 276.7 270.3 264.6 257.4 249.2 240.5 233.9 226.8 220.1 219.5 217 226.4 235.9 243.4 247.8 249 258.3 271.5 285.2 299.3 314.9 328 334 333.8 331.8
260.6 252.6 244.2 237.2 231.7 227.7 222.9 218.6 219.9 221.2 224.4 226.2 227.8 230.1 231.7 234.3 235.9 237.1 237.8 237.5 238.2 237.8 236.8 235.8 234.6 233.5 232.7 231.7 230.5 230.2 229.4 228.6 225 225.7 230.6 234.1 237.4 239.6 242.7 245.7 247.9 249.7 251.6 250.8 250.8 251.4 251.8 252.7 253.5 254.5 257.3 260.3 261.6 265.1 267.8 270.7 273.6 276.4 279.5 282 283.7 286.2 288.9 291.7 294.6 297.5 301.1 304.4 306.5 308.6 311.3 309.3 306.8 302.8 297.5 289.8 285.1 283 280.5 279.6 278 278.2 274.4 278.5 281 285.7 290.5 294.9 299.8 304.9 313.8 324.1 334.8 347.5 359.7 375.7 395.6 414.9 436.6 459 480.9 500.7 523.5 542.8 564.5 584.1 597.5 603.9 606.9 604.5 593.9 576.2 550.8 526.4 504.7 483.8 467.8 467.3 476.4 484.7 494.5 501.7 508.1 511.3 516.9 527.7 539.1 549.4 552.8 552.4 547.9 540.8 531.2 520.5 501.7 483.7 478.2 468.8 453.9 440 421.3 406.2 390 373.9 364.1 353.2 344.3 334.4 327.1 317.7 310.4 303.8 302.2 301.2 299.5 301.7 305.1 311 315.7 316.1 315.7 315.3 312.9 311.7 309.7 307 303.9 298.7 293.3 291.2 290 286.6 282.7 277 274.3 269.7 264.3 259.7 251.7 243.9 236 229.6 224.3 218.9 213.1 211.9 218.8 226.1 230.7 235 239 251.3 262.3 277.4 290.1 305.3 316.5 324.2 325.9 323.5
262.4 255.1 248.3 240.3 232.3 230.1 227.6 222.9 218.8 216.8 221 223 226 228.7 231.2 233 235.4 236.8 237.4 239 239.9 240 240.5 238.9 236.8 234.7 233.7 232.5 231.4 230.9 229.1 227.3 221.3 225.8 230.5 234.5 238 241.2 242.9 245.2 246.5 246.5 248 247.3 248.4 249.6 250.1 250.3 250 251.1 254.3 255.6 258 262.3 265.4 268.5 271.2 273.5 276.5 279.2 280.7 282.9 286 290.2 292.6 295.2 299.1 302.3 305.9 309.2 312 310.6 309 304.8 297 293.9 289.6 286 282.5 281.1 279.8 279.3 275.7 273.4 276.2 279.2 283.5 290.4 298.2 308.9 317.6 327.6 339.2 353.5 368.1 381.5 403.7 424.6 445.9 469 490.4 515.4 538.2 558.4 576.1 587.2 593.4 598.9 598.2 594.1 581.8 563.8 541.6 516.9 493.1 468 445 442.1 449.2 459.1 469.9 478.5 482.5 487.1 492.2 509.3 519.6 526.5 530 527.5 521.7 513.2 504.7 493.3 477.5 459.9 448.2 440.9 426.4 413.1 397.2 385.3 375.7 361.4 347.4 338.1 330.3 324.2 319.8 312.3 301.7 296.7 292.5 291.6 290.1 293.8 298.1 301.2 304.8 305.8 305.4 303.5 302.5 301.6 300 297 294 290.3 282.8 280.5 279.9 279.3 276.6 272.2 266.9 263.2 258.4 252.8 247.5 240 232.6 226.8 223.5 217.7 211.4 203.3 211.9 217 221.4 224.6 232.5 244.2 257.2 270.1 282.8 295.1 306.1 313.3 316.2 315.6
262.2 256.7 248.2 237.2 233.4 231.8 228.5 225 221.3 215.8 217.5 220.8 223.2 226.3 230 232.3 234.3 236.7 237.6 239.3 240.7 242 243.1 241.6 239.9 238.2 234.3 233.4 232.4 230.2 227.6 225.6 219.6 225.5 230.2 234.8 238.4 240.7 242.2 244.5 244.9 244 245 246.2 246.8 247.5 248.2 248.1 247.5 247.6 251.3 252.7 256.6 259.4 263.1 265.1 266.9 269.8 273.2 276.5 278.4 281.9 285 288.1 290 292.8 296.8 301.4 306.5 310.5 312.9 312.7 310.8 306.4 301.6 300 296.6 293.5 287.2 285.1 282.6 279.5 273.4 268.1 270.2 275.1 283.9 293.8 303.6 313.6 324.6 335 347.7 363.7 380.4 396 415.9 439.2 460.2 480.5 503.2 529.2 549.4 564.8 578.4 585 589.8 589.2 585.6 576.7 565.9 553 532.5 507.8 483.8 457.3 431.7 419.7 426.1 437 445.8 454.2 459.7 460.8 472.3 486.9 497.5 502.6 503.5 500.8 494.2 487.2 476 467.9 457.7 441.4 421.3 414.2 401.2 388 375.2 366.1 358.3 346.6 337.4 324.7 319.9 317.1 312.8 304.1 297.7 291.2 285.5 283 283.5 286.4 291.5 294 295.6 295.5 294.5 291.6 292.9 291.8 290 285.7 282.3 278.3 274.1 271.8 272.1 272.8 270.4 266.3 261.9 256.5 252.2 247.3 241.5 236.3 230 225.8 222.3 214.9 208.4 203.6 205 208.8 213.2 213.7 226.6 238.2 250.6 261.8 275.4 286.4 295 301.7 306.6 305.9
261.3 254.5 248.1 239.2 234.8 232.3 228.7 225.7 222.4 217.6 213.3 215.7 219.8 223.8 227.8 231.6 232.1 234.4 235.2 237.3 238.8 239.4 240.9 242.1 239.9 236.1 233.7 233.9 231 227.8 226.1 224.6 213.7 224.5 229.7 234.4 237.6 239.6 240.4 241.2 241.8 240.9 242.6 243.5 243.1 243 243.4 244.5 244.1 245.9 246.5 248.9 253.1 255.1 258.1 261 262.7 265.3 268.7 272.6 276.2 279.4 282.9 288.1 290.8 295.5 300 304.3 307.8 312 314.5 315.5 315 312 313.1 312 307.3 303 298 294.2 286.6 277.2 265.8 263.6 269.6 274.9 285 298 311.5 323.4 336.3 345.7 362.1 379.1 394.3 411 430.1 451.2 472.4 493.8 514.8 537.3 554.3 567.9 578 584.2 578.2 572.7 566 559.2 549.9 536.5 518.4 499.2 475.1 448 424.7 402.1 403.7 415 424.8 431.7 435.8 431 448.4 462.3 470.6 474.2 474.5 471.9 464.6 458.1 450.2 442.8 434.6 418.3 402.4 388.6 380.6 362.9 355.3 347.1 342 333.4 323.6 314.2 308.1 306 301.3 297.4 293.5 290.2 285.2 280.2 275.4 279.3 282.2 285.1 285.6 285.2 283.6 282.2 282.7 282 278.7 274 269.7 267.3 264.5 264.1 264.5 267 265.7 261.1 257.1 252.4 248 243.7 239 233.3 228.4 223.9 219.7 214.7 210.3 205.4 193.9 201.7 204.7 208.7 220.9 231.6 243.8 253.3 266.1 275.9 284.8 291.1 294.1 292.3
261.6 254.6 247 241.7 236.7 232.8 229.9 227.7 223.9 218.3 212.4 212.3 216.2 220 223.5 227.1 229.2 231.9 233.5 235.9 238 235.2 237 238.9 236.6 234.9 231.2 230.1 226.3 223.3 222.4 222.5 211.6 223.3 228.7 232.3 234.4 235.4 238 238.1 237.9 238.3 240.2 241 240.2 239 238 239.9 239 241.7 243.1 246.9 249 251 253.3 256 260.5 264.3 268.9 272.7 277.3 281.4 284.5 290.3 294.4 299.2 303.2 307.3 311 313.9 318.6 321.4 322.1 320.6 326 326.4 326.8 320.4 313.7 303.7 289.6 275.5 264.3 261.9 264.3 274.3 292.4 308.2 324.7 340.8 354.8 368.6 382.6 397.5 411.7 427.3 444.2 462.2 482.5 504.2 525.2 540.8 551.6 560.3 573.6 574.2 559.7 546.2 537.5 533.4 526.5 515.6 502.1 485.5 465 442.2 418.8 393.3 380.9 393.5 403.5 406.7 409.2 409.6 424.7 434.5 441.4 443.9 445.7 443.9 437.9 429.3 424.8 416.4 410.4 397.4 386.6 371.2 359.1 347.4 334.3 328.1 321.3 311.6 304.8 302.5 300 297.7 296.5 294.1 291.2 287.9 283 277.8 272.5 270.6 273.6 275.9 277 277.7 275.1 273.2 270.8 267.4 264.8 261.7 258.3 255.5 255.4 255 257.7 260.3 259.9 257.4 254 248.8 244.7 241.5 236.7 232.5 228 224.1 219.7 215.3 209.9 207.3 204.3 188 192.3 202.6 214.1 224.1 235.5 243.2 254.9 266.6 274 279.5 281.5 277.1
260.3 253.4 248.8 246.5 241.4 236.7 232.6 228 224.7 217.5 215.8 210.6 212.1 214.6 218.5 221.7 226.6 229.4 231.7 233.9 234.9 230.3 230.6 231.8 231.9 230.6 228.6 223.2 222.3 219.9 220.4 219.8 207.8 222.7 227.4 228.8 230.4 231.6 233.1 235.3 235 235.7 236.2 235.5 234.6 234.4 233.3 235.3 237.2 239.3 240.7 242.5 246 248.7 250 255.6 258.9 265 270 273.5 277.6 281.9 286.4 291.8 298.1 303.1 307.9 312.2 315.8 320.1 325.7 330.5 335.9 340.8 343.5 341 338.4 334.7 324.9 313.3 296.3 277.5 264.6 258 264.2 280.6 302.1 324.2 343.8 362.1 376.5 390.7 403.9 418.4 432.8 448 463.4 477.9 494 509.1 521.4 534.7 544.2 552.3 555 549 534.8 517.3 506.9 503.6 500.6 491.7 481.1 466.6 448.5 430.3 406.7 384.5 365.8 370.7 378.9 383.2 384.9 390.5 398.4 407.1 412.6 413.7 416 415.7 410.5 405.9 399.5 394.4 389.7 381.2 371 358.6 344.8 333.6 319.7 312.6 307.7 298.4 294.9 294.7 293.6 294.3 292.7 291.1 287.7 284.1 279.3 273.7 269.4 264.6 264 267 269.4 269.2 266.8 264.7 261.6 256.8 252.4 250.7 250.2 249.1 248.1 248.2 251.8 254.6 254.4 253.6 250.2 245.8 241.7 238.1 235.9 232 227.4 224.4 221.6 217.4 212.6 209.9 206.1 198.8 176.6 193.6 207 217 227.8 234.1 241.9 250.4 257.5 262.6 264.9 263.2
256.8 252.8 250.6 248.5 243.9 240 232.2 229.2 223.6 219.3 216.5 212.4 207.9 209.9 212.8 216.5 223 225.2 228.5 230.1 227.1 222.8 225 227.7 229.7 230.2 224.4 218.7 218.2 217 215.2 212.1 204.7 218.1 224.2 226.3 228.6 230 230.4 231.3 233.3 233.6 232.4 230.8 229.5 229.6 228.3 231 234.4 237.1 238.5 237.8 239.9 247.8 253.1 258.4 263.1 267 271.8 276.8 282.7 288.2 291.7 297 303.7 309.9 314.8 318.9 323 328.5 336.6 343.9 354.4 356.3 356.5 357.4 355.7 345.5 335.5 320.7 300.6 276.9 263 254.1 266.1 280.8 308.3 335.1 357.4 378.7 398 411.9 425.4 440.4 454.4 464.1 472.5 482.7 492.5 500.5 512.8 522.6 532.1 536.9 536.9 527.4 514 495.2 475.5 474.9 471.9 463.8 452 437.7 422.9 405.6 391.2 378.5 361.2 352.5 357.2 361.8 365.6 372.4 379.4 381.5 385.1 385.7 387.2 388.2 388.6 383.3 379.9 376.4 371.5 365.9 353.8 339.8 327.2 319.3 309.9 304 298.7 292.4 290.3 289 289.1 290.3 289.8 287.5 283.7 280.3 275.6 271.5 267 263 259.2 260.9 264.1 264.7 262.9 258.7 253.1 248.9 245.1 242.5 242.6 241.7 240.2 240.8 245.4 249.3 249.8 248.8 246.4 242.9 239.4 235.2 233.2 230.6 226.3 222.9 219.4 215.4 211.6 208.9 204.9 198.4 192.8 182.6 198.6 209.5 221.3 229.9 234.6 242.3 248.5 250 249.5 250.5
255.1 250.2 248.1 245.5 240.8 240.4 232 226.4 222.8 219.4 216.9 212.5 207.6 207.2 205 206.6 214.2 217.9 219.1 216.5 213.3 212.7 217.4 222.4 223.9 222.6 219.3 214.8 211.9 211.6 210.2 203.1 205.7 214.8 220.4 224.6 227.3 228.2 228.3 228.5 230.3 230.8 229 226.7 226.5 225.6 225.2 228.3 231.5 230.7 236.8 241.4 245.1 249.4 254.3 260.2 266.9 272.3 278.1 282.5 289 295.4 301.8 308.4 314.5 319.9 324.2 330.1 336.3 342.6 350.9 362.4 369.1 371.6 371.8 372 369.3 358.7 347.4 329.3 300.4 281.4 264.1 251.9 257.8 277.2 306.8 336.2 365.1 390.7 412.7 430.1 444.7 457.6 465 469.3 472 474.8 478.2 488.4 498.7 509.5 515.7 516.7 512.4 505.3 489 470.8 449.5 443.9 442.8 434.4 424.6 412.5 399.2 383.3 375.2 365.7 353.3 341.8 339.4 343.8 349.9 356.8 358.7 359.1 360 364.2 366.8 369.6 369 365.6 361.5 357.6 352.8 348.3 337.9 326.7 319 310.9 304.3 298.3 293.8 289.3 287.3 284.4 285.2 286.6 286.5 284 280.8 277.4 273.6 270 266.4 261.4 259.6 254.2 257.9 260.4 259.6 256 249 241.9 235.7 234 232.5 232.2 232.5 234.9 239.9 242.7 244.3 243.4 242 238.4 236.2 232.7 229.9 227.6 224 220.3 217.3 213.6 209.7 207.1 202.1 197.4 192.7 168.8 189.8 199.5 212.7 222.7 229.8 234.8 235.7 237.6 239.3 238.9
252.6 247.9 245.4 241.4 239.8 237.1 232 227.2 223.8 220.4 217.1 212.7 208.9 205.4 205.1 204.1 202.7 201.1 203.3 204.6 204.2 204.2 204.7 210.1 211.2 214.4 208.6 208.7 208.9 204.3 199.8 197.4 203.9 210.1 216.9 222.3 224.9 225.6 226.1 225.2 226 225.6 222.9 222.7 223.3 222.7 224.6 225.2 230.9 235.5 240.1 243.5 249.2 253.8 258.8 264.6 272.6 277.6 282.8 290 297.3 306.1 313.1 320.5 328.1 330.8 335.8 342.8 350.3 356.2 366.5 378.9 384.7 388.2 386.6 385.1 380.3 369.8 354.8 335.5 309 289.6 264.2 251.8 250.1 270.3 301.1 332.7 364.2 393 419.6 443.5 459.6 466.2 467.7 463.2 456.9 455.9 460.5 467.8 479.2 487.5 491.8 493 484.2 472.5 459.1 442.7 426.1 410.3 410.6 406 397.6 387.7 375.4 366.1 357.9 355.5 343.9 336 327.8 331.5 337 342.2 342.3 340.1 339.1 342.3 346.4 349.3 348.5 345.9 343.3 340.7 338 330.9 324.7 319.2 314.6 307.9 301.4 297.1 293.8 289.2 283.8 278.9 279.4 282.4 282.1 280 277.9 275.1 272.3 269.1 265.7 261.2 257.2 252.4 251.2 254.6 255.8 253 246.2 237.4 230 225.9 226.1 224.5 223.1 227.1 233.5 235.1 236 236.3 235.8 235 232.9 229.5 225.6 222.4 220.2 216.5 213.8 211.6 207.6 203.1 198.6 193.9 190.7 172.2 173.9 189.6 203 216.3 223.8 228.4 231.1 235.2 233.1 231.3
246.1 243 241.5 238.2 235.7 233.8 231.1 228.2 227.5 223.2 220.1 214.5 212.9 208.3 205.3 205.3 204 205.2 201 201.8 200.6 197.5 195.7 196.9 198.1 200.6 200.1 205.7 204.2 200.7 194.6 195.9 201.9 208.8 214 219.6 222.7 222.2 220.9 220.2 219.8 219.2 218.7 219.1 219.7 219.9 222.5 228.2 232.2 237 241.8 248 253.1 257.4 264.3 270.5 278.8 284.3 291.8 300 309.3 318.4 327.5 337.7 343.5 347.4 351.1 357.7 365.4 375.2 385.6 393.1 396.7 399.2 396.6 394.6 391.8 381 360.1 338.6 315.5 294.1 263.5 250 246.4 262.9 291.9 324.3 356.3 386.3 416.6 443.4 458.5 459.9 455.9 446 435.6 430.9 437.6 445.8 452.9 459.1 461.5 459.2 453 440.3 426.7 415.5 404.8 387 379 375.2 372.1 363.8 356.6 350.8 348.4 340.7 333.8 327.4 319.9 319.3 321.6 324.4 323.2 323.9 324.3 325.2 328.1 330.5 330.7 330.9 330.9 330.7 329.5 325.5 321.5 317.3 311.5 305 300.2 296.3 291.6 286.8 283.1 279.2 274.2 277.2 277.4 277.1 276.3 274.7 272.2 269 265.1 262.7 259 254.1 249.4 246.5 248.5 247.7 243.2 234.2 226 222.5 219.4 218.3 215.6 214.7 216.7 221.4 224.3 225.1 226 228.1 227.3 223 219.8 216.7 213.8 212.3 209.6 206.5 203.2 198.9 194.6 190.6 188.3 178.2 167.2 182.9 196.6 210.2 219.8 223.9 227.4 230.8 229.5 225.9
242.1 239 236.9 234.6 232.6 231.2 229.3 227.8 227.1 223.3 221.6 215.6 209.3 207.1 210.3 214.9 209.3 206.9 202.2 199.3 198.2 200.2 198 196.3 193.8 191.4 190.1 191.2 194.9 197.2 194.9 191.7 197.1 203.9 207.3 212.6 213.8 213.5 214.2 214.5 214.7 214.8 214.5 215.4 215.1 218 222.7 228.6 235.1 241.4 247.3 252.3 258 262.5 269.4 278.1 286.1 294.8 304 313.3 322.9 333.8 344.5 354.8 360.1 363 367.2 375 387.2 396.6 400.1 405.5 408.3 406.9 403.6 399.8 395.9 377.7 353.4 331.9 309.9 282.6 262.7 249.1 240.3 257 284.9 317.6 346.4 375.3 403.4 430.6 444.8 446.7 440.5 429.9 418 410.5 420.8 424.4 427.5 431.9 429.9 426.8 419 409.8 396.8 385.7 378.1 365.7 354.3 351 348.3 348.1 346.7 342.7 336 329.9 323.1 317.8 312 308.5 308.5 308.3 308.8 310.5 311.9 313.9 316.3 319.5 322.1 324.8 325.1 324.2 322.8 320.3 317.5 313.8 307.4 301.7 297.4 292.7 287.2 283.5 279.9 276.1 272.5 273.8 274.4 275 274.9 274.7 273.7 271.8 268 264 259.5 254.6 250.1 245.7 243.5 237.1 233.8 229.4 228.3 225 224.5 224.6 224 224.7 223.5 219.2 206.2 205.3 212.1 215.3 216 214 212.2 209.7 206.8 205.7 204.6 201.9 199.2 196.2 191.8 187.8 185.1 175.9 159.7 172.9 190.4 203.8 212.1 219.6 222.6 225.4 224.1 220.5
239.2 235.6 232 229 226.8 227.1 226 224.3 222 220 219.4 210.5 209.3 216.3 220.4 216.2 212.1 210.6 213.1 211.4 209.6 208.7 210.8 208.1 206.2 202.6 199.3 193.5 190 189.1 189.7 188.6 191.4 198.9 201.6 203.2 206.3 206.7 209.7 210.2 211.3 211.1 210.7 211 214.6 218.9 224.3 233.1 240.7 246.8 251.7 256.7 263 271 276.9 284.1 296.4 308.5 317.7 327.2 338.2 352.8 362.9 369.7 376.5 383.1 390.1 396.8 401.9 404.3 405.8 409.1 410.6 406.6 402.1 394.3 383.8 367.6 345.2 324.7 300.7 279.6 261.6 247.2 235.2 249.1 274.1 302.4 331.9 365 393.4 413.7 425.8 427.4 420.7 409.8 397.3 392.8 401.3 402 402.2 402.4 403 395 385 377.5 368.5 357.7 349.4 345.9 339 334.6 335.6 334.9 333.7 330.3 325.8 322.1 317.8 313.1 305.3 299.3 298.1 297.7 299 301.3 303.9 307.5 312.1 315.9 318.2 319.5 319.1 317.5 315.7 315.2 314.1 310.7 303.4 298.4 293.3 288.1 283.3 278.9 275.3 272.5 270.6 270.2 272.7 273.5 274.3 274.2 273.8 271.8 267.3 263.9 260 254.8 251 248.7 246.7 243.4 239.7 235.1 231.6 230.8 229.7 231.5 235.6 238.6 237.5 230.9 224.2 215 200.4 199.6 203.1 203.7 203.3 201.9 200.6 199.6 198.8 197 195.4 192.6 189.5 185.5 182 175.6 149.9 173.8 186.7 200 207.6 214.1 217.1 217.1 216.5 213.5
233.4 230.4 226.9 225 223.1 222.9 222.6 218.7 215.4 212.2 212.2 211.2 217.6 223.1 224.5 221.6 220.8 221 220.6 221.1 221.6 224.4 223.2 220.5 216.3 211.7 208 200.8 197.1 190.4 188.5 187.1 188.1 194.7 195.1 196.7 199.1 198.9 204.6 204.8 207.3 211.4 214 217.3 221.6 227.6 234.4 241.1 246.4 252.1 256.4 261.4 269.1 278 285.4 294.8 305.2 319 328.7 339.6 353.9 369.8 383.5 389.7 393.9 398.2 401.5 402.2 402.7 404.7 404.1 402.3 398.1 391.6 380.5 367 356.8 349.1 337.8 314.2 290.6 272.9 256.2 243.9 232 242.6 264.1 292.3 324.2 353.4 377.7 393.5 398.9 397.5 392.3 385 375.1 372.7 374.2 375.6 373.1 370.6 373.5 366.1 356 349.9 346.3 340.8 334.3 331.4 327.1 323.6 323.1 324.9 326.4 323.6 321.6 318.6 314.4 308.2 300 295.6 294 292.3 293.8 296 299.3 304.5 308.9 311.7 312.9 313.6 312.4 310.1 308.6 308.6 308.3 307.4 301.2 295.4 289.8 284.4 279.8 275.2 272 270.5 268.9 268.8 270.7 271.5 272.3 273.3 272.4 269.8 265.7 261.8 258.1 254.7 251.4 249.4 247.9 246.3 242.7 240.4 238.2 235.2 238.4 241.8 249.3 248.5 246.2 241.7 232.8 221.6 212.2 203.9 194 193.1 193.9 193.8 193.9 193.1 192.4 191.6 191.8 189.3 186.4 182.7 178.6 171.8 147.3 170.7 182.3 195 201.5 205.7 210.6 211.9 208.6 208.1
227.6 224.9 221.2 220.2 218 218 216.9 213.6 214.3 217.6 218.4 221.5 223.6 227.9 225.8 228.3 229.7 230.6 233.7 234.5 235.2 236.9 237.6 234.2 230.1 223.5 216.2 211.2 205.4 199.1 193.1 188.1 186.2 186.6 188.3 201.1 208.1 216.2 223.1 224.4 221 223.1 224.8 229 232.4 237.5 241.4 246.9 251.8 257.1 264.1 270 276.5 286.3 295.9 306.6 322.7 334.1 345.3 358.4 374.1 383.6 390.6 396.8 397.8 399.2 400 397.3 396.1 394 389.8 382.3 374.3 363 351.4 340.9 331.6 323.5 315.4 298 283 269.5 250.5 238 230.7 237.4 253.8 284.8 314.4 339.2 358.4 365.6 367.5 366.5 363.9 359 352.2 348.1 349.4 349.7 347.1 343.2 343.1 340.3 336.9 332.8 328.8 325.9 324.4 319.6 318 315.9 315.6 316.7 318.7 318.8 317.9 314.6 308.8 303.2 296.2 292.9 288.5 290 290.2 291.6 297.4 302.4 304.4 306.9 306.6 306 306.6 304.1 303.4 303.6 303.5 301.7 297.3 292.7 287.7 281.9 277.2 272.9 269.5 268.4 265.4 265.9 267.4 269 270.1 270.7 269.4 267.3 265 261.5 257.5 254 250.7 249.2 248.1 247.1 245.8 245.2 247.1 247.5 248.7 253.5 256.6 255.3 252.3 244 235.2 226.4 216.6 207.1 199.6 188.5 180.4 184.4 185.8 185.4 185.5 187.1 189.3 187.4 184.7 180 173.7 167.2 139.1 166.2 177.3 188 194.8 198 203.1 205 205 201.5
221 219.6 219.6 217.8 216.6 217 218.4 222.2 225.5 228.1 228.4 229.4 230.1 230.5 229.9 235.1 239.2 244.9 250.3 252.7 252.2 249.7 244.9 239.7 235 226.8 225.2 216.8 210.9 205 194.5 188.9 185.7 184.8 197.5 206.8 216.9 220 220.3 224.6 224.6 227.4 231.8 236.4 239.4 242.8 247.4 254 259.7 265.1 271.5 277 282.9 294.4 307.6 319.3 333 344.8 357.8 367.3 377.4 385.9 389.1 389.6 390 388.7 384.6 376.7 372 368.8 360.8 351.8 343.5 335.3 327.6 321 311.2 297.5 288 280.4 264.2 257.8 246.6 234.2 224.3 231.4 243.1 271.5 294.8 315 328.9 333.8 335.3 337 338.3 336.4 332.6 327.5 328.3 329.4 330.8 328.3 321.9 322.3 323.2 322.3 322.4 323.7 321.2 316.3 313.2 308.7 309.7 310 310.9 311.4 309.6 306.5 301.7 296.7 292 288.6 285.6 284 283.4 288.6 293.2 296.5 300.8 302.1 302 301.4 302.2 301.8 301.6 300.7 299.3 297.4 295.3 290.7 286.1 280.3 276.5 271.5 266.6 264.1 262 261.6 263.4 264.9 265.3 265 265.3 263.7 262.6 261 257 253.1 249.9 249.5 248.5 248.8 251.9 253.1 253.3 255.1 260.7 262.5 260.6 257.8 251.8 246.3 239.2 230.3 222.8 214.1 206.3 197.4 188.9 171.4 172.5 172.2 178.3 180.4 182.7 183.2 182 177.4 170.7 163.9 138.8 159.9 174.4 183.3 188.9 191.9 194.9 197.7 198.4 199.4
220.9 219.8 220.4 221.8 223.5 225.8 226.9 229.9 229.2 231.9 232.5 233.1 232.9 233.3 236.3 244.4 249.2 255.1 257.9 259.1 257.7 255.4 246.1 242.4 237.1 231 225.1 219 212.3 205.5 194.2 189.2 185.5 184 196 203.4 209 216.4 221.3 222.3 224.3 229.1 233.8 240.5 245.4 249.2 254.3 261.1 266.6 275.2 278.2 280.3 288.2 301.6 312.6 320.6 330.3 338.6 349.5 359.9 365.7 369.4 372.1 371.4 370 368.9 361.2 350.2 344.2 340.1 333.2 323.9 314.2 307.8 299.5 292.8 285.2 275.8 269.8 262.2 251 247.6 240.1 232.5 222.2 225.3 233.5 252.4 271.5 286.2 297.4 307.1 311.7 313.2 313.9 314.8 313.8 311.6 313.5 318.9 319.7 318 314.1 314.5 316.3 318 317.2 315.9 313.6 311.5 306.6 303.7 302.5 303.5 304.9 305.7 304.5 301.8 296.7 291.9 287.2 284.9 284.9 282.4 281.9 284.7 289.3 292.7 295.9 297.2 297.1 296.9 297.1 297.5 297.6 297.4 297 296.2 293.8 290.9 286.8 281.5 277.8 274.9 271.6 267.5 264.3 258.9 257.9 259 259.1 259.4 260.2 260.8 259.6 256.5 253.3 250.1 248.8 249.1 249.4 250.9 253.4 255.4 258.5 262 263 262.8 261.1 258.6 254.7 249.4 243.3 236.2 227.9 218.8 209.4 198.4 191.3 185.4 174.1 163.9 164.5 171 171.9 173.6 177.7 174.7 169.4 162.4 136.3 152.7 170.2 179.4 183.9 186.6 189.2 191.8 193.6 195.3
226.9 226.3 228.3 229.4 228.2 230.5 232.5 233.2 234.2 235.3 236.2 236.9 237.3 241.5 244.9 252.3 256.9 260.3 262 262.4 260.7 256.3 253.9 250.2 245.3 238.9 230 218.4 208.4 197.8 193.9 190.1 185.9 182.7 193.3 200.2 204.5 208.4 215.4 219.6 223.3 229.1 237.3 244.7 248.7 251.3 253.5 260.2 268.2 274 278.1 279.7 286.9 296.4 302.5 307.5 311.7 318.3 329.8 338.8 344.9 347.7 346.3 345 340.8 339 333.4 323.9 317.5 312.2 308.3 302.3 293.9 292.8 283.3 276.3 266.2 259.6 253.8 250.1 242.8 236.7 231.4 226.8 220.6 218.9 223.7 236.2 252.7 266.6 282.1 292.9 298.9 303 300.4 303.5 301.3 298.8 301.2 306.6 307.9 304.9 303 304.7 309.2 311.6 313.4 310.7 308.9 306.6 303.6 297.8 296.5 297.6 299.6 301.8 300.6 298.5 295.6 289.7 286.5 285.2 282.6 280.7 277.8 281.3 284.6 286.3 289 291.7 293.3 292.9 293.8 294.6 294 293.3 292.9 292.8 292.2 290 287.1 283.4 281.1 277.5 273.4 269.7 265 260.2 254.1 253.4 253.3 254.7 254.9 256.3 255.3 253.1 250.7 247.7 247.6 247.7 248.1 250.8 252.8 254.9 257.7 260.5 262.6 262.6 261.6 259.3 256.7 252.8 246 240.1 231.9 222.8 212.7 207.8 198.1 192.1 185 179.8 167.7 159.7 156.3 162.1 168.9 170.6 167.1 161 138.6 142.7 159.7 174.5 182.3 182.3 184.7 187.2 189.3 191
232.8 232.7 233.7 234.3 234.3 235.5 236.2 236.1 237.5 238.1 239.2 239.9 242.9 246.8 251.7 256.3 259.1 263.1 264.5 265.5 264.3 262.3 258 253.8 250.1 241.4 225.4 214.7 203.8 198.2 194 189.8 185.5 182.4 189.3 197.8 202 205.6 211 216.3 222.5 229.8 238.9 245.8 249.9 252.2 253.6 254.3 261.6 269 272.6 275.7 279.5 286.2 290.2 291.9 294.2 296.2 303.8 313 321.2 324 325 322.5 318.9 313 305.5 300.2 294.9 291.5 289.6 283.5 274.9 268.6 263.8 257.5 251.2 247.1 245 245 237.1 230.3 225.4 222.4 219.2 217.5 218.7 226.5 237.9 254.4 267.8 272.8 277.7 281.2 281.4 286.7 288 288.2 290.1 293.6 295.7 295.1 294.8 297.6 303.6 308.2 305.9 305.1 302.8 299.8 297.3 293.4 290.7 293.1 293.7 295.6 295.7 295.5 292.5 288.6 285.8 283.6 281.7 279.4 276 278.6 280 282.2 283.8 285.8 289.1 290.8 291.9 292.8 293.5 292.7 289.2 288.7 288.1 287.8 285.6 282.5 279.7 275.5 271.3 267.5 263.8 259.4 254.7 249.1 247.6 250.2 250 251.5 250.5 250.3 248.2 246.2 246.2 246.2 246.1 247.3 249.8 252.6 255.4 258.2 261.1 262.2 261.1 259.7 258.4 255.7 250.8 243 233 226.6 223.5 215 204.7 196.6 190.1 183.8 179.1 174 165.5 146.3 153.9 162.2 162.2 159.1 153.5 120.2 147.8 164.1 175.9 179.8 180.3 182.7 184.8 186.6
237.9 238 237.2 239.1 240.4 241.2 241.7 241.4 241.9 241 242.4 245.5 249.1 252.4 254.9 258.8 262.5 265.9 268.2 268.4 267.9 265.2 261 256.9 247 237.1 226.2 219 210.8 202.5 194.3 190.2 185.8 181.8 185.2 193.4 198.8 203 209.5 216.4 222.8 230.4 237.8 243.7 247.7 249.8 252.3 253.7 259 263.9 267.3 270.7 272.7 275.6 278.2 280.1 282.2 284 292.2 297.5 303.1 307.7 306.8 303.2 296.8 292.6 289.6 284.4 281.9 278.1 273.2 269.9 264.5 259.6 254.7 250.4 244.2 239.8 236.6 236.4 230.7 227.2 221.7 218.2 216.6 216 216.4 220.7 228.3 242.8 254 261.5 267 271.7 276.8 280.3 281.8 284.1 286.1 290.2 290.5 290.1 292.2 293.8 299.5 300.6 301.2 301 299.8 298 295.6 292.4 288.3 288.9 289.9 291.4 292.7 292.1 290.3 287.1 284.3 281.5 279.2 276.9 274.8 275.7 278.6 279.2 280.7 282.4 286.7 287.5 288.3 289.5 291.2 290.9 288.9 286.6 285.3 284.8 282 279.3 275.3 272.8 268 264.2 260.5 256.9 252.3 247 243.3 243.4 245.7 245 245.4 246.5 244.5 243.7 242.4 241.5 242.8 244.9 247.5 250.3 253.1 256 258.7 260.8 260.7 259.3 259 256.1 252.3 246.9 240.7 234 228.3 221 212 203.1 194.7 188.8 182.2 177 168.6 153.1 152 142.3 142.9 135.9 147.4 119.5 143 163.3 172.6 175.7 177.2 178.9 180.6 182.9
240 240.2 241.6 242.8 244.1 245.3 247.2 247.7 248 248 249.7 252.6 255 257.4 258.8 262.3 265.9 267.9 269.8 270.5 269.9 267.4 263.2 255.4 248.2 240.2 228.6 220.2 211.6 203 195.1 189.8 186.1 181.6 182.1 188.3 195.4 202.5 210.4 221.2 227.8 234.3 239.7 244.2 247.3 250 252.5 255.7 261.3 267 268.8 269.2 269.2 269.4 270.6 273.6 274.6 278.3 283.6 287.9 292 293.2 290.3 284.6 281.2 277.6 275.8 273.7 270.6 265 263.9 263.9 258.7 254.4 251.5 246.3 240.3 236.6 233.4 229.9 226.2 223.4 220.5 217.4 214.6 214.3 215.1 217.1 223.7 230.5 242 250.7 257.9 262.4 267.8 272.4 277.8 280.5 285.4 288.5 289.8 291.6 291 290.2 293.7 294.6 296.2 296.8 295.9 295.4 292.8 290.5 286.1 285.7 286.3 286.7 287.6 286.8 286.6 282.9 280.2 278.2 275.5 273.4 272 272 275.6 276.3 278.1 279.6 282.8 283.5 284.6 286.9 288 286.8 286.1 284.9 282.3 280.9 278.6 276.1 272.5 265.9 264.3 261.2 256.8 253.9 251 248.3 245.2 241 240.1 241.3 241.7 241.1 240.9 241 239.8 239.2 240.1 243.4 245.7 248 250.8 253.5 256.2 258.9 259.7 259.1 259.4 258.6 257 252.6 247.8 239.3 232.4 226.7 218.1 207.4 199.8 192.9 184.8 177.7 169.5 170.1 166.2 158.2 150.8 147.9 126.8 121.4 148.5 161.1 167.5 172.9 175.3 177.8 178.7 180
242 243.3 245.8 247.3 249.7 251.7 252.7 253.1 253.6 254 254.9 257.1 259.6 262.1 263.6 265.9 269 271 272 271.9 271.6 269.4 266 258.1 247.9 237.7 226.7 218.2 208.1 199.6 194 189.2 184.3 180.7 180.5 186.4 193.5 200.6 210.2 221.9 227.4 233.5 239.1 243.6 247.6 250.2 253.1 257.1 261.9 265.4 266.9 267.5 265.9 265 267.5 269 269.7 270.1 273.9 277.7 279.1 279.3 274.4 269.5 267 265.6 263 259.4 258.6 255.8 256.8 254.4 250.3 246 243.5 241.9 238.3 233.5 230.9 227.6 224.7 222.5 220.6 218 215.1 212.2 213.4 215 218.8 225.1 232.2 238.3 243.3 247.8 258.2 267.5 279.6 282.6 286.4 289.7 292.2 289.5 288.3 287 287.4 288.5 291.1 292.3 292.5 289.8 287.4 284.5 281.6 281.2 280.8 282.1 282.9 282.4 282.1 278.9 276 273.4 271.9 270.3 268.2 270.5 273.3 274.1 275.7 277 278 280.3 282.6 284.1 284.5 283 281.8 280.3 277.8 276.9 276.2 274.7 272.4 267.9 265.4 262.8 259 257 252.8 249.4 245.5 241.9 238.7 237.7 237.6 237.5 237.2 238.2 237.6 236.9 238.1 241 244.6 246.9 248.5 250.9 253.6 256.5 257.9 258.8 258.9 259.1 259.7 256.9 252 244.8 236.9 231.8 223.1 213.3 202.9 193.6 189.8 182.7 180.9 176.8 172 164.9 154.9 134.8 115.5 130.1 152.7 158.9 163.5 166.6 171.1 175.7 175.8 179.8
245.1 247.8 250.6 252.9 255.2 257.3 257.8 257.6 257.4 258.3 259.2 261.5 263.9 266.4 268.6 269.7 272.1 273.8 273.6 273.2 272.1 270.8 268.1 259.7 248.9 237 228.2 219.8 211.2 201.6 194.7 190.9 184.1 179.3 179.9 182 191.2 199.9 211.5 220.3 224.9 232 236.9 242.4 246.8 251.6 256 260.1 261.2 260.9 261.9 261.7 261.2 260.2 259 262.2 264.1 264.2 263 262.9 263 260.9 258.1 256.4 253.1 251.2 249.3 249.9 249.2 247.5 243.9 242.4 240.4 236.9 235.4 232.7 230.8 228.4 226.9 225.2 223.4 221.8 220.2 218.7 216.4 213 213 214.2 216.2 220.7 226.2 235.3 242.7 252.2 262.5 271 276.4 280.9 284.9 286.6 286.9 285.7 284.5 282 281.7 282.6 285.4 286.8 286.2 283.8 282.5 279.8 276.3 276 275.9 278.1 280.1 279.5 277.9 275.2 272.1 270.9 269.2 266.7 262 268 270.9 272.4 273.6 275 276.7 278.4 280.8 281.4 281.9 280 277.8 275.6 273.5 272.2 272.6 273.1 270.8 268.8 266.8 263 258.3 255.2 252 248.5 244.8 241.2 237.9 235.4 233.2 233.7 232.9 233.2 233 233.4 234.1 236.5 240.9 246.5 247.3 248.1 251.1 254.1 256.6 258.2 258.1 258.8 259.1 257.9 253.7 247 240.2 233.2 226.3 218.6 211 201.6 194.9 191 186.8 181.3 176.4 171.1 163.2 149.5 117.7 122 148.5 155.1 159.8 163 165.3 169.9 173 177.1
250.2 252.2 254.8 257.9 260.2 261.3 261.2 261.5 261.8 262.6 263.5 265.4 267.3 269.5 271.8 274.1 275.2 274.8 273.7 272.5 271.4 270.2 267.8 263.3 255.7 245.6 238 230.3 221.9 213.3 201.5 195.7 189.9 178.8 178 178.6 187.3 195.4 208 218.4 224.6 228.8 232.3 238.4 245.2 250.9 255.9 258.4 258.9 257.2 256.5 257.3 256.4 254.8 253.8 255.4 256.1 256.6 254.1 252.9 250.4 246.7 245.5 244.7 243.9 243.1 241.4 237.9 236.1 234.5 233.4 231.9 231.2 231.3 230.8 228.9 227.2 225.5 223.6 222.8 221.1 219.5 217.9 216.7 215.1 212.4 209.7 215.1 218.4 225.5 231.5 237.1 244.3 252.7 260.8 267.8 271.8 275.7 280.2 282 282.3 281.2 278.9 276.9 275.4 274.7 276.2 278.4 280.1 278.8 277.5 275.8 273.2 271.2 272.4 275 277 276.2 273.9 270.5 268.9 267 265.9 263 260.7 265.3 268.9 271.1 272.5 274.1 276.4 277.3 278.3 279 279.3 277.4 275.2 272.8 269.9 269.9 270 270.1 269.4 267.6 264.2 259.6 255.9 252.9 249.8 246.2 242 238.4 235.3 233.1 230.8 230 229.3 228.7 229.2 229.6 230.4 232.4 235.5 241.3 245.2 245.9 248 250.6 253.3 256.3 257.3 257.3 257.4 255.9 251.6 245.6 240.4 236.3 229.9 222.9 213.2 204.6 199.2 197.3 193 187.1 180.4 174.7 168.5 155.2 126.6 110.4 133.5 148.4 152.9 156.3 159.3 163.9 169.6 172.9
254.3 257.9 260.8 262.5 264.4 265.4 265.5 265.6 265.3 265.7 266.3 267.9 269.8 271.9 274.3 274.7 275.5 273.7 272.7 271.6 270.4 269.3 266.6 263.1 258 250.1 243.1 236.8 229.2 220.7 211.3 203.1 196.2 185.4 179.3 177.3 177.8 190.1 202 215.7 222.9 227.1 230.9 236 241.5 248.6 253.1 254.7 253.2 251.3 250.6 249.2 249.5 249.2 247.7 246.7 247.1 248.5 246.8 243.3 242.1 239.1 237 237.3 236.6 235 234 233.2 230.7 229.8 229.9 229.7 229.4 229.1 228.9 227.3 225.9 224.2 222.2 220.8 218.7 217.1 215.8 214.8 213.2 211.3 211.4 215.5 218.8 224 229.3 236.2 242.1 250.9 259.1 265.5 269.7 273.9 276.9 279.9 280.2 278.6 275.9 273.5 268.9 267.8 270.7 273.7 274.1 273.8 271.4 270.4 268.1 263.8 267.2 268.4 270.1 270.2 269.7 265.8 264 262.2 261.2 258.7 256.2 260.2 265.5 268.7 269.8 270.8 272.1 273.5 274.9 276.5 276.6 274.8 272.7 270.4 268.2 266.8 267.2 267.8 267.9 266.5 262.4 257.3 253.3 250.5 247.6 243.7 239.6 236.4 234.3 232.2 230.1 226.7 225.8 226 224.8 225.1 226.7 230.3 233.2 237.2 240.3 243.2 245.9 248.5 251.3 253.5 255.7 256.6 257 252.8 252.6 250.3 246.9 242.1 235.1 223.8 218 213.4 208.7 202.4 195.5 190.6 185.2 179.3 173.3 163.7 140.8 116.5 106.1 135.9 142.9 147.5 151.5 156.2 163.3 168.4
260.5 262.2 264.6 266.3 267.7 268.9 269.2 269.1 268.4 268.5 269.1 270.7 272.3 274.4 274.8 275 273.8 272.4 271.4 270.4 269.4 268.3 265.9 262.5 258.3 254.5 248 241.2 234.4 226.2 220.1 213.4 199.7 188.2 182.9 179.3 176.2 181 189.4 201 214.2 220.2 225.5 231.3 236.8 242.1 243.5 248.8 242.9 243.2 244.3 242.4 242.8 242.4 239.5 238.7 237.2 237.5 237.9 236.6 233.9 231 230.1 229.2 231.9 230.9 229.6 229.3 228.2 228 228.3 228 227.8 227.5 227.5 226.2 224.6 222.9 221.1 219 216.3 214.9 214.1 212.9 211 207.7 213.7 218 221.2 225.8 230.4 235.3 244.5 252.7 259.9 265.9 270.5 274.3 276.1 276.8 276.5 274.1 271.8 269.4 263.5 261.6 261.1 263.2 267.1 263.5 264.5 264.7 262.2 258 261.6 262 263.7 265 264.4 263 259.3 257.6 256.2 255.1 252.1 256.2 261 262.9 263.5 265.6 267.1 269.7 272 274.2 273.6 271.7 270 267.4 264.6 263.8 264.3 264.7 265.2 264.3 261.1 256.7 251.9 246.7 242.4 239.3 236.9 235 232.7 230.3 228.4 226.1 223.6 222.9 222.4 222.6 225.2 228.5 231.2 235.2 238.2 241.6 243.9 247 249.8 252 254.6 255.9 256.7 255.3 254.3 253 249.6 243.8 237.9 232.2 224.8 220 215.6 208.5 198.8 194 188 182.6 177.2 169.5 159.5 139.8 111.8 118.8 131.7 136.7 142.2 144.5 151.1 159.8
262.8 265.9 268 269.5 270.8 271.8 272.3 272.1 271.3 271.3 271.8 272.8 274.4 275.1 275.1 275.3 272.1 271.1 270.1 269.1 268 267 264.7 262.8 260.7 257.8 254.2 249.7 242.6 237.4 230.5 219.7 205.2 191.9 184.3 181 179.3 175.3 183.5 192 202.6 211.1 217.6 223.8 231.6 235.1 236.7 236.7 233.6 231.2 231.4 228.3 227.8 227.8 226.8 226.8 228.8 227.1 228.1 226 224.3 222.4 222.5 225.2 227.1 226.4 224.2 224.3 225.8 226.1 226.7 226.4 226.4 226.4 226.4 225.6 224.3 222.2 219.9 217.4 215.2 213.2 212.3 210.6 208.3 207 214.1 219.8 226.5 230.1 233.8 239.5 247.1 255.1 262.3 268.5 273.2 275.8 277.2 275.1 272 268.8 266.5 264.2 260.4 254.8 253.7 252.5 254.2 254.7 255.4 255.2 252.2 249.8 251.7 254.9 257.2 259.9 259.7 258.7 255.7 253 251.2 249.8 246.5 253 256.6 257.9 257.2 260.4 262.9 265 268.7 269.4 270.2 269.2 267.1 264.3 261.3 259.4 259.7 260.4 261.2 260.5 258.1 254.2 249.1 244.8 240.8 236.5 233.7 231.6 229.4 227.8 226.1 223.7 221.9 219.1 219.1 222.5 224.2 227.1 229.8 233.1 238.2 240.2 242.1 245.5 248.2 250.7 253.7 255.7 256.3 257 256 254.9 252.3 248.1 243.7 238.5 232 225.5 220.5 212.8 203.2 198.5 191.4 187.2 181.2 174.9 166.3 154.1 125.9 96.9 103.1 104.8 118.9 127.4 138.9 147.5
265.7 269.2 271.4 272.8 273.7 274.4 274.9 274.6 274.3 273.8 274.3 274.5 275.6 276.2 275.7 274.8 270.8 269.8 268.7 267.6 266.5 265.9 263.8 262.9 261.2 258.7 256.3 252.7 247.7 242 236.1 228.1 210.2 193.2 185.7 183.1 179.6 176.4 175.7 187.2 195.9 205.2 214 220.6 223 229.5 231.7 231.9 228.3 224.3 221.9 219.8 218 217.6 218.5 218.6 221.9 220 219.5 216.7 214.2 213.2 213.9 216 216.3 219.5 218.2 218.8 220.1 223.3 224.7 225.2 225.3 225.4 225.5 225.1 224.1 222.7 221.2 218.5 216.2 212 210.2 206.6 205.2 210.9 220.5 227.9 231.4 236.4 240.2 244.9 248.2 255.3 261.8 268.8 273 275.6 276.9 275.9 270.1 264.3 259.7 257 253.5 248 246.2 244.7 244.5 244.3 245.1 244.4 242.6 243.3 243.9 247.2 254.2 258.8 256.5 253.8 251.8 248.3 247.4 243.6 238.3 246.4 250.7 252.3 253.8 256.5 259.6 262.7 264.8 265.6 266.8 266.4 264 261.4 259.7 257.9 256.5 256.9 257.1 256 252.8 249.3 246.2 243.2 239.4 236.3 232.5 230.4 228 226.7 224.5 223.8 222.8 221.2 217.3 220.2 223.2 226 228.7 233.6 236.7 238.6 240.8 244.1 246.9 249.6 252.9 255.9 256.8 257.8 258.1 257.1 254.6 251.1 247 242.8 236 230.5 225 218.1 210.7 204.3 198.6 191.9 184.5 179.3 173 164.7 150.3 132.5 118.5 106.7 87.9 102.8 120.4 133.3
270.9 273.8 275.2 275.9 276.3 277 277.6 277.4 277.4 276.8 276.8 277 277.3 277.3 276.2 273 269.5 268.3 267.2 266.1 265 264.5 263.9 263 260.8 258.6 256.9 254.5 250.7 245.8 240 230.4 210.2 199.3 189.6 183.7 181.1 181.9 177.9 180.7 189.7 199.3 209.6 214.1 218.7 220.5 225.7 223.7 222.4 222.7 222 217.8 213.4 210.6 209.4 210.4 213.2 214 213.6 210.8 206.7 205.8 204.9 204.9 206.7 209.5 210.9 215.3 217.4 220.7 222.8 224.4 224.6 225 225.7 224.8 223.6 222.3 220.5 218.3 215.1 212.3 209.7 205.9 205.7 214.5 223.9 230.5 234.6 237.8 240.9 243.8 247.7 252.9 260.3 266.7 270.2 272 271.3 268.1 263.4 258.7 254.6 250.2 245.5 241.2 239.1 238.4 238.1 237.5 236.6 236.1 235.6 237 236.3 240.5 244.1 251 249.7 247.5 246.3 244.2 243.3 240.1 234.1 239.6 243.9 248.2 250 250.1 254.8 257.7 260.1 260.4 260.4 260.3 258.6 257.6 256 255.2 254.2 254.9 255.2 253.9 251 247 243.1 240.1 236.1 233 231.6 231.3 231.1 229.1 227.4 226.2 225 223.6 220.4 214.2 222.6 226.1 228.2 231.4 234.5 236.8 239.5 242.7 245.5 249 252.5 255.7 257.3 258.4 259.1 258.3 256.3 254.1 250.1 244.4 239 233.3 227.5 221.4 214.3 207.4 200.9 194.2 187.4 182 176.1 170 161.1 150.9 139.9 127.2 106.1 86.8 92.2 110.8
276.4 278.6 280.4 281.6 281.6 281.6 280.9 280.6 280.5 279.9 278.6 277.6 276.9 276.2 274.8 271.4 268.7 267.3 266 264.7 263.5 262.6 262.2 261.6 259.5 257.2 256.5 254.3 249.8 246.5 238.9 230.7 211.9 198.5 189.9 184 179.7 177.7 176.9 175.1 184.4 193.6 202.2 205.7 214 216.6 217.7 215.8 216.5 215.8 216.5 215.5 209.3 206.2 202.9 201.1 205.2 206.7 207.4 203.4 201.9 200.2 197.7 197.7 198 200.7 204 208.9 213.5 217.5 220.2 222.9 223.3 223.8 225 224.5 223.2 221.8 219.9 217.8 214 210.6 207.3 203.3 207.7 218.9 225.4 231.2 235.4 237.3 239.8 241.5 244 248.4 252.9 260.8 264 264.2 264 260.7 256.6 251.6 248.2 244.1 240 236.3 233.9 233 233 232.6 231.2 230.9 230.3 229.3 229.5 234.8 237.2 241.7 243.5 242.5 241.2 239 237.6 236.3 227.5 234.6 236 241.7 242.9 245.7 247.9 251.6 254.2 255.1 256.1 254.4 254.1 253.6 252.9 251.9 252 253 253.8 253 252.4 251 247.7 243.8 238.7 238.2 236.4 235.1 233.4 231.2 228.7 226.9 225.6 222.5 221.2 212.4 224.2 225 227 229.8 232.7 235.5 238.1 241.1 245 248.4 252 255.5 257.1 258.7 259.4 259.5 257.7 256 252.8 247.3 241.7 236 228.9 221.6 215.4 207.7 201.4 196.2 190.1 184.6 178.9 171.5 164.1 156.1 147 137.6 126.7 108.2 88.7 85
282 283.3 284.5 285.5 286.1 285.2 284.1 283.4 281.2 279.8 278.6 277.5 276.5 275.5 273 270.9 268.9 266.7 265.4 263.9 262 260.4 259.6 258.2 256.6 256 255.3 253.6 249.5 242.8 238.4 224.6 212.5 202.3 194.8 187.6 180.9 177.6 174.8 170.5 181 185.5 190.6 195.9 200.6 207.9 208.7 208.7 209.4 211.2 209.2 206.9 200.2 200.4 197.3 193.5 194 196.3 196.3 196.8 197.2 194.3 191.6 190 188.9 188.4 193.7 200.1 205.2 209.4 211.8 218.2 219.3 219.4 221.2 221.8 221.8 221.2 219.3 217.2 213.6 210 206.1 200.9 212.1 219.5 225.1 230 233.8 235.8 236.9 238.4 240.3 243.6 247.3 253.6 259.6 260.6 260.2 258.3 254.2 249.5 246.5 242.3 238.1 234.8 231.6 228.3 228.4 228.7 227.9 227.4 225.2 224.5 223.4 226.3 228 233.2 235.8 236.1 235.9 233.9 233.4 232.9 224.7 230.4 235.4 237.2 239.2 242.6 244.5 247.1 249.9 251.2 252.3 251.5 251.7 251.7 250.4 251 251.7 252.6 253.5 253.8 254.1 253.3 251.6 246.9 244.5 241.9 239.3 237.5 235.3 232.9 230.5 228 226.3 223.6 219.6 217.1 223.6 224.2 225 227.8 230.7 233.1 235.5 238.7 242.6 247.2 251.2 254.7 257.8 259 259.7 261.1 259.8 258.2 255.1 249.3 244.1 238.4 231.6 223.4 216.4 208.6 202.5 196.5 191 185.4 178.7 171.3 164.6 157.9 150 141.1 132.2 124.4 104.4 77.5
286.5 287.4 288.2 287.8 287.7 287 285.6 284.1 282.2 279.7 278.6 277.5 276.4 275.3 272.7 271.5 269.7 267.6 264.7 262.8 261 259.2 257.5 255.9 253.9 253.6 253.2 251.5 248.4 238.2 232.6 225.3 212.8 201.9 196.6 190 183 179.2 176.5 170.7 176.5 181.2 184.6 188.1 191.8 196.4 196.6 197.1 203.8 201 200 196.7 191.5 193.1 188.6 188.3 186.3 187.2 185.8 185.6 188.4 188.7 187.4 185.7 181.6 183 187.3 193.2 195.8 200.2 205.4 211.8 213.2 214.9 215.5 217.7 218.1 218.1 217.5 215.9 213 209.4 204.7 201.1 212.3 215.3 219.2 224.4 227.3 230.8 231.9 234.3 237.2 240.6 244.9 249.3 253.8 257.6 258.2 256.6 254.1 248.4 244.6 240.5 236.9 233.7 230.7 227.5 225.2 226 225.3 224.4 222.4 220.2 219.2 218.3 221.4 225.1 227.8 232 231.9 230.3 228 227.5 219.2 230.5 233.9 234.8 238 239.6 241 243.5 245.4 247.4 248.8 249.6 249.8 249.5 248.5 251.3 252.1 253 253.6 254.2 254.6 254.7 252.9 249.6 247.1 244.5 241.9 239.2 236.7 234.2 231.8 229.4 227 223.7 220.3 208.3 222.6 222.9 223.5 225.8 228.4 230.7 233.3 236.6 240.4 245.5 250.2 253.7 256.6 259.9 262.1 263.2 262.1 260.3 257.1 251.3 246.6 241.3 234.4 225.7 216.1 211 204.5 198.2 191 184.9 178.8 172.7 166.7 160.9 155.4 149.6 140 129 112 87.1
289.6 290.4 289.2 288.8 288.7 286.3 285.3 283.9 281.2 279.7 279.1 278.1 276.8 275.5 272.9 272.2 269.9 267.4 264.6 261.9 259.9 258.1 254.7 251.7 251.4 250.8 250 247.8 242.8 235.4 229.4 223.3 216 205.1 196.4 190.7 184.5 180.6 175.6 170.9 171.2 175 178.5 183.2 187.9 191.7 195.6 192.8 192 187.7 184.6 185.2 184.8 184.2 181.7 180.5 178 178.6 178.4 179.2 179.5 176.7 176.2 174 172.8 177.9 181.6 188.8 192.4 195.5 203.4 211.4 211.5 209.7 210.4 211 210.5 212.3 212.5 212.4 210.9 208.7 205.1 201 208.3 212.7 216 219.5 223.5 226.5 228.5 231.1 234.8 238.5 244.1 246.7 249.6 252.5 254.5 252.6 250.6 247.3 242.8 238.8 235.7 232.4 228.7 225.6 223.5 223 222.8 221.6 220.2 215.2 214.6 214 214 216.2 220.5 225.6 225.7 224.6 222.8 220.1 221.3 226.2 231.3 236.2 237.8 237.7 236.9 239.1 240.9 242.4 244.5 246.9 247.6 247.2 247.7 250.3 252.2 253 253 253.2 253.3 252.1 250.3 249.4 248.3 245.8 243.3 240.5 237.1 234.7 232.3 229.8 228 223.7 218.8 204.8 217.8 218.7 221.2 223.4 226.3 229.2 232.2 235.3 239 244.1 249.2 251.9 255.1 258.8 261.7 263.8 262.9 260.6 257.5 252.6 248.9 244.1 237.7 227.2 217.7 211.1 204.6 199.3 193.7 185.8 180.1 174.7 169.1 164.3 160.7 154.4 144 133.1 121.7 97.1
