ncols 200
nrows 82
xllcorner 300000
yllcorner 931250
cellsize 50
206.1 203.7 202.1 200.4 197 200.1 204.8 203.5 202.1 200.5 201.2 206.2 208.5 210.1 211.5 212.5 214.4 217.6 220.8 224 224 223.2 218.8 217.2 219.9 225.9 230.5 230.8 231 227.7 232.9 237 240.4 241.7 245.8 248.6 253.4 257.9 265.6 273.2 279.7 283.7 286.1 286.5 283.6 277.5 271.3 263.9 257.3 251.6 246.3 242.7 239.5 235.5 232.3 229.8 226.8 223.5 219.7 220.1 219.7 219.2 218.3 216.4 220 221.5 224.5 225.8 226.6 226.8 227.1 226.5 226 225.3 225.6 226.1 225.8 224.3 223.9 223.6 224.8 226.8 228.1 227.9 228.5 229.4 229.2 229.4 229.4 229.7 230 230.3 230.5 229.7 229.3 228.6 227.3 225.1 222.5 218.6 214 210.4 206.6 202.4 199.9 197.4 195.6 193.7 193 192.1 189.9 190.9 190.5 190.3 192.1 192.7 192.8 190.9 191.2 191.6 192.3 193.7 194 194.4 197.2 200.4 203.2 206.3 211.8 212.4 212.7 212 211.5 211.7 212.1 209 205.8 202.7 200.7 196.4 193.1 191.3 189.5 188.3 186.2 181.6 177 174.1 171.2 169.3 165.5 164.6 164.2 164.1 163.7 164.6 165.1 165.5 165.9 165.5 162.6 163.6 166.6 171.3 173.6 172.6 171.9 169.6 166.9 164.5 163.1 162.2 162.1 162.7 162.6 162.2 157.8 155 153.6 151.3 147.6 146.2 148 151.4 154 155.5 156.4 157.4 158.4 159 158.4 158 160.2 160.4 160.6 161.3 163.1 164.3 168 171.5
207.4 204.7 202.9 200.7 197 203.3 206.6 207.1 206.1 204.1 200.9 206.8 209.1 210.7 212.3 213.9 216.4 219.5 222.5 225.1 225.8 225.6 222.3 222.2 226 232.1 233.5 236.9 236.4 236 232.9 237.9 242.1 244 245.7 248.3 253.4 258.8 265.9 274.6 279.4 283.6 286.8 288.7 287.1 281 274.8 267.5 261 255.5 250.4 246.3 241.4 236.3 233 230.4 226.9 222.2 220.1 216.4 217.7 217.9 216.2 218.5 220.2 221.8 224.2 225.4 226.1 226.4 226.4 225.5 224 224.5 223.8 223.6 223.3 221.8 221.3 220.7 221.8 223.2 224.6 226.2 227.8 227.9 227.2 226.9 227 227 227.3 227.6 228.7 228.6 228.1 226.7 225.1 222.6 220.2 216.5 212.8 209.8 205.8 201.7 198.6 197 195.1 193.2 192.2 192.5 189.7 192 192.3 191.7 192.1 191.8 191.4 191 191.7 192.2 193.2 194.3 194.4 196.8 198.3 199.7 203.1 207.8 211.8 212.1 212.3 211.6 210.6 209.9 210 208.1 205.7 201.6 198.5 194.2 190.9 189.2 187.6 185.9 184.6 180.6 178.2 175.8 173.3 170.4 167.6 165.9 165.6 165 164.8 165.9 166.4 166.5 166.6 165.9 164.6 163.3 162.1 164.6 167.4 169 170.2 168.3 165.6 163.5 162.4 161.8 161.8 161.8 161.8 161.1 156.8 154 152.4 150.1 148.7 144.9 146.5 149.3 152.3 153.9 154.6 156.4 157.4 157.7 157.2 156.8 159.1 159.4 159.8 160.2 161.9 163.8 167.3 170.7
209.6 206.3 204.3 201.7 201.2 206.8 208.7 210.1 209.2 208.3 206.8 206.4 207 211.4 212.7 214.5 216.9 220.5 223.7 226.1 228 227.7 226.5 226.4 233.1 237 238.3 240.2 241.3 241.9 236.5 238.4 241.6 245.1 246.3 248.6 253.4 259.3 266.8 274.3 279.5 283.3 286.5 288.8 287.7 283.2 277.3 271.1 265.4 261.1 255 247.9 242.2 237.7 233.9 231.3 227.8 223.3 220.7 218.7 216.8 215.8 217.7 219.2 219.8 221.7 224.1 224.2 224.8 225.5 225.3 224 222.7 223.1 222.4 221.2 220.1 219.2 219.1 219 218.3 218.3 219.6 223.8 225.5 225 224.9 224.2 224.2 224.2 224.2 224.5 225.7 226 225.4 223.7 221.8 220.8 218.6 215.3 211.8 208.2 204.3 200.9 198.7 197.4 195.1 192.7 190.6 191.3 191.4 189.8 191.4 189.5 189.7 190.9 191.5 192.3 193.8 193.4 194.2 195.2 196.2 197.8 199.1 200.6 204.2 211.5 211.4 211.7 212 211.2 210.2 209 208 207.5 205.3 201.3 198.6 194.7 191.6 188.9 186.8 185.3 182.8 179.7 178.3 176.2 174 171.2 168.5 166.9 166.4 165.8 165.8 166.7 166.7 166.7 166.8 166.1 165.2 164.4 163.9 163.3 165.3 167.3 168.4 167 165.5 163.8 162.6 161.8 161.2 161.2 160.9 158.9 155.7 152.9 151.7 148.8 148.1 144.8 145.9 148.5 150.1 152.5 153.2 155.5 156.6 156.4 155.7 155.7 157.2 158.3 158.6 159.3 160.7 163.4 166.5 169.8
211.6 207.9 206.1 200.9 207 210.7 211.8 212.5 212.3 211.6 209.6 208.9 210.1 212 213.5 215.5 218 221.5 225 227 229.3 229.6 229.2 234.3 237.7 240.5 241.7 241.7 243.5 245.3 242.7 238.8 242.3 246.1 247.8 249.2 252.6 258.9 266.6 272.9 278 282.3 285.1 286.1 285.3 282.1 277.7 274.2 269.3 264.6 256.9 249.1 243.8 239.5 235.8 231.4 227.3 223.3 220.8 219.3 217.9 214.6 217.4 219.1 219.7 220 222 222.4 223 223.7 223.6 222.5 221.6 221.6 221.2 219.9 219.2 218.7 218.4 218.4 217.6 216.6 218.8 222.9 223.3 223.1 222.4 221.5 221.4 221.4 221.3 221.6 222 223.1 223.5 222 221.4 219.7 217.2 213.9 210.2 207.7 204.4 201.7 198.5 198.3 196.6 194.1 193.2 193.1 192.9 192.2 192.2 192.6 192 191.6 192.3 194.2 195 195 195.3 196.2 197.5 198.8 200 202.3 206.6 209.4 210.7 210.8 211.1 211.2 210.5 208.3 207.2 206.2 203.9 198.5 195.9 193.1 190.1 188.3 186.5 184.8 182 179.8 178.3 176.2 174.2 171.5 168.8 167.4 167.1 166.6 166.9 167 167.1 167.1 167.1 166.5 165.7 164.9 164.2 162 163.7 165.6 167.6 167.2 166.4 164.1 163 162.3 161.5 161 160.5 156.9 152.9 151.4 149.3 147.9 147.6 146.7 143.3 146.8 149.3 151.5 153.4 154.7 155.8 155.2 154.3 154.6 155.6 156.3 157.9 159.5 160.5 163.6 167.1 170.5
213.1 209.6 207.9 205.2 210.6 215 216.1 215.3 215.4 214.5 213 211.8 212.2 213.6 214.7 217.4 219.8 223.3 227.5 230 231.4 232.9 233.3 238.2 240.5 242.5 243 243.6 245 246.5 247.7 244.9 243.8 247.7 249.4 250.6 253 258 264.5 270.4 275.3 279.7 281.2 282.4 282 280.7 278.7 275.5 270.3 263.7 256.3 249 244.6 240.2 235.7 231.2 226.7 223.4 221.2 219.8 218.4 216.6 217.3 218.2 218.2 217.7 218.3 218.8 219.2 220.6 220.2 220.1 220 220 220 219.5 219 218.5 218 217.7 217.1 215.2 218.8 220.3 221.1 220.7 219.7 218.7 218.3 218.5 218.9 219.8 220.9 222 222.4 221.5 220.7 218.9 216.8 214.1 210.5 207.8 204.6 202.6 201.6 199.2 199 195.9 194.5 194.1 193.7 192.9 193.2 192.6 191.1 192.3 192.9 193.5 195.4 195.9 196.5 198 199.5 200.9 202.1 205.1 206.4 207.9 209.4 210.5 210.3 210 208.6 206.1 205.6 201.6 201.5 200.9 195.2 192.4 189.3 187.1 185.1 184.8 181.8 179.5 178.3 176.2 173.5 170.8 168.9 167.9 167.6 167.3 167.3 167.4 167.4 167.5 167.4 167 166.3 165.5 164.8 162 163.7 165.3 168.3 167.6 166.6 165.8 164.6 163 161.9 161 159.3 155.7 152.2 148.3 147.2 146.4 146.8 145 142.7 145.2 148.4 150.5 152.4 154 154.8 154 153.4 154.1 154.9 156.1 158.2 158.9 160.9 162.9 166.7 170.6
214.3 210.7 208.2 209.4 215.6 220 220.5 219.7 219.8 217 216.3 216.4 215.7 217.3 217 219 222.1 226 230.4 234 234.5 236.1 237 239.3 241.6 244 245.1 246.3 247.3 248.7 250.6 250.9 248.5 248.7 250.2 251.2 252.9 255.3 262 267.9 272.6 275.4 277.1 278.5 280 279.5 276.6 272.9 266.5 261.4 254 248 243.6 239.3 235 230.1 225.3 223.4 221.4 219.3 217.3 214.3 216.6 215.6 216.4 215.9 215.7 216.2 216.1 216.5 218.2 218.4 218.9 220 218.3 218.4 218.7 218.2 217.7 217.2 216.6 215.4 216.7 217.1 218.1 218.4 218.3 217.7 217.2 217.1 217.5 218.9 219.9 221 221.4 221 220.2 218.7 216.8 214.1 210.8 208.4 204.9 203.8 201.9 199 197.3 195.6 194.5 194.2 193.9 193.5 192.3 191.7 190.2 190.5 193.4 194.3 195.7 196.7 198.3 199.9 201.3 202.5 202.4 204.8 206.3 208.4 209.1 209.6 209.8 208 205.7 202.3 199.3 197.4 195.7 194.8 192.5 190 187.3 185.6 184.1 182.9 182.4 179.1 177.3 175.5 172.8 169.6 168.4 167.7 167.3 167.1 167.1 167.4 167.7 167.9 168.2 167.9 167.2 166.4 165.6 163.8 162.6 164.4 165.3 166.4 167.8 168.2 167.4 165.3 164.2 161.3 159.2 156.7 153.6 149.4 147.3 145.3 144.9 142.9 141.9 143.8 145.9 148.6 150.7 152.6 153.9 152.7 153.6 154.4 155 155.7 157.2 159.4 161.3 163 166 170
215.3 210.7 210.3 213.1 221.6 225 225.4 224.8 223.6 221.4 220.2 221.1 219.3 221.4 221.3 220.9 225 228.8 233 237.1 239.5 239.4 240.3 242 243.5 244.8 246.9 250.8 251 251.6 253.2 253.7 252.8 250.6 250.7 251.3 252.5 253.7 259.6 265.3 268.8 272 274 275.7 276.9 276.3 272.8 268.2 263.2 258.7 251.7 247 242.5 238.1 233.8 227.6 224.2 222.8 221.7 220.1 218.5 217.2 216.1 215.2 212.4 211.3 213 213.7 214.2 213.7 215.5 217 217.5 217.9 216.6 216.4 216.8 216.8 216.5 216 216 215.6 215 216.3 216.8 217.8 216.9 215.7 215.4 215.9 216 217.9 219 220 220.7 220.3 219.5 218.2 216.7 214 211.1 209.1 206.2 204.5 202 199.6 197.5 196.1 195 194 193.7 193.3 190.8 189.8 190.8 191.7 193.6 195.7 197.3 199.6 202 203.3 203.3 204.4 204.3 206.4 207.8 208.4 208.9 209.2 209.4 210 207.5 203.5 203.2 197.2 193.3 190.8 190.4 186.3 186.2 183.4 182.9 180.8 179.9 177.7 175.8 174.5 171.4 169.1 168 167.5 166.9 166.3 165.9 166.6 166.8 167.2 169.4 169 167.9 167 166 165 162.5 163 163.5 167.5 169.2 169.7 170.1 167.5 166.3 163.7 160.4 157.5 154.3 150 146.1 144.2 142.3 141.4 144.2 143.8 146.7 146.6 148.7 150.8 152.3 152.9 154.1 154.9 155.8 156.3 157 159.7 161.8 163.4 165.3 169.1
216 211.2 212 219.2 227.5 230.6 231.3 230.1 228.8 227.1 224.7 226 225.6 224.8 226.9 223.3 228.4 231.7 234.9 238.9 241.8 242.5 243 243.7 244.9 246.2 248.5 252.8 253.4 253.5 254.5 255.2 255.3 253 252.4 252.3 253 254.3 258.1 262.9 266.2 269.3 271.2 272.1 272.3 270.7 267.1 263.5 259.2 255.7 249.8 244.4 240.7 236.6 231.8 226.2 223 221.8 220.7 220.1 218.9 217.9 216.6 215.1 214.7 213.5 213.2 209.6 209.3 211.7 212 212.9 213.4 212.9 213.6 214.4 214.7 214.9 214.5 214.4 214.7 214.7 214 215.2 215.5 214.2 213.6 213.2 213 213.2 213.2 215.9 217.6 218.3 219 218.9 218.9 217.6 216.2 213.8 211.2 209.7 208.1 205.3 202.6 199.6 198.1 196.8 195.5 194.5 193.5 192.7 189.4 192.2 192.6 193.2 194.3 195.8 200.9 204 205.6 207 207.8 208 208.5 208.4 208.6 208.6 207.9 208.9 208.6 208.1 206.7 204.4 202.6 199.2 197.2 194.5 192 190.4 186.9 185.5 181.8 179.9 177.8 173.9 171.4 170.8 169.5 168.5 166.5 165.1 165.5 164.8 163.8 165.5 166.1 166.8 167.4 167.5 168.1 167.3 166.3 165.3 164.3 163 161.9 164.6 169.5 171.1 172.4 169.2 167.8 166.4 162.9 159.9 155.8 151.3 146.9 144.9 142.1 141.5 144.8 145.2 147 147.5 148.4 149.8 152.4 153.4 154.2 155 155.7 156 156.5 158.5 162 163.6 165.3 167.9
216.4 214.1 216.8 226.4 233 235.5 236.1 234.9 232.6 232.1 231.3 230.8 229 228.5 229.3 227.8 229.6 233.1 236.2 240.1 243.7 244.2 244.7 245.3 246.6 248.8 252.4 253.7 254.3 254.9 255.8 256.5 256.7 257.1 254.8 253.6 254.1 254.5 256.1 259.5 262.6 265.7 266.5 266.4 266.1 264.5 261.5 258.3 253.9 249.6 245.3 239.8 236 232.2 225.2 223 220.8 220 218.6 218.4 218.3 217.9 216.4 214.8 214.1 214.1 213.5 213.8 212.9 209.2 210.2 210.2 210.1 210 210.4 211.1 211.3 213.1 213 212.9 213.1 212.9 211 212.6 211 210.7 210.5 210.6 210.5 210.3 208.9 211.7 214.7 216.4 217.2 217.2 218.2 217.1 215.9 213.4 210.5 209 207.6 206 202.7 200 198.1 197.5 195.4 193.8 192.3 191.3 192 192.5 193 193.9 195 196.3 200.7 205.5 208.5 209.8 210.4 210.6 210 209.1 208.1 207.4 206.6 206.1 205.6 205.1 203.9 202 200 198.7 195.9 194.3 192.5 189.9 188.4 188.1 185.6 181.9 178.6 176.5 174.5 172.8 170.8 169.9 168.1 165.3 164.6 163.9 163.3 163.5 164.8 165.2 165.7 166.9 167.7 167.1 166.5 165.5 164.4 162.6 161.8 163.7 169.1 171.2 171.3 170.5 168.6 166.6 164.9 161.6 157.3 153.2 148.5 144.4 141.3 142.4 144.5 144.3 146.7 147.4 148.5 150 151.7 153.5 154.3 155.1 155.5 155.8 156.2 158.1 161 163.6 165.3 168
218.8 216 224.2 230.9 236 238.9 239.9 239.3 237.3 235.3 234.4 233.3 232.4 232.4 232.5 232.6 228.3 234.1 237.7 241.3 243.7 245 246.1 247 248.4 252 255 256 256 256.6 257.4 257.9 258.3 258.6 257.1 255.5 254.8 255 255.2 256.1 259.3 261.9 263 262.7 260.7 258.4 255.3 252 246.5 241.3 236.7 231.7 226.3 223.9 219.6 217.4 217.2 217 217.1 216.8 216.4 216.1 215.3 214.4 213.5 212.9 212.4 211.8 210.7 206 208.5 208.5 208.2 207.9 208.1 208.6 208.3 209.8 211.5 211.4 211 210.5 209.2 208.9 208 207.5 206.9 206.8 207.2 207.5 206.4 208.6 211.4 213.2 215 216.4 217.4 216.7 215.5 213 210.2 208.6 207.4 206.2 203.1 200.5 198.5 196.8 195.4 194.4 192.9 188.6 191.2 192.8 193.4 194.3 195.3 197 200.4 206.5 209.9 210.7 211.3 211.4 209.9 208.4 207.1 206.4 205.8 205.4 204.9 203.2 201.9 200.2 198.3 196.6 195.1 192.6 190.5 189.7 187.3 184.8 183 181.4 179.3 177.7 176.2 175.1 173.4 171.1 169 167.1 166.2 165.4 164.6 164.1 163.2 164.1 165.3 166.5 167.2 166.6 166.1 165.5 164.4 162.5 160.8 160.9 165.7 170.2 172 170.9 168.6 166.5 165 163.3 158.8 154.8 150.1 144.8 142 139.7 142.4 142.5 144.8 146.3 148.4 150 151.4 153.5 154.3 155 155.3 155.6 156 158 160.7 163.3 165.4 168.1
221.4 219.2 228.4 234.7 239.8 241.8 243.7 243.3 243.1 240.1 237.6 236.6 235.7 235.2 235.4 235.1 234.8 232.3 238.3 240.9 242.9 244.5 246.2 248.1 249.5 253.9 257.4 258.1 258.7 258.4 259.3 260.5 260.8 260.9 259.5 257.9 255.1 255.3 255.1 254.2 255.9 257.9 259.4 259.3 257.3 254.1 249.9 244.9 239.9 234.8 230 225.1 220.9 218.7 215.5 214.8 215.5 215.3 215.8 215.6 215.2 214.8 214.5 213.6 212.4 212.1 211.5 210.9 209.9 206.9 203.6 206 206 205.9 206.1 207.3 206.6 206.1 206.9 208.2 207.4 207.2 205.9 206 206.1 205.7 205.3 204.7 204.3 204.4 204.5 206.4 209.1 210.8 213 214.9 216.6 215.9 214.2 212.5 210.1 208.1 207.2 206.3 204.5 202.3 198.8 197 195.8 195.7 193.6 191.5 190.9 192.9 193.7 194.7 195.6 196.8 201 207.2 210.5 211.6 212.1 210.9 209.2 207.8 206.3 205.4 205.1 204.7 204.3 202.7 200.5 198.7 196.8 194.8 192.6 190.2 188.4 186.8 185.5 182.8 182 181.1 179.1 177.4 175.4 174.4 174 172.1 170 168.1 166.8 166 165.3 164.7 163.6 163.7 164.9 166 166.7 166.2 165.6 165.5 165.2 163.7 160.8 160.8 163.9 168 171.4 170 168.9 167.9 166.3 164.1 160.6 156.4 151.5 146 142.5 140.6 140.6 141.3 141.7 143.9 147.1 148.7 151 153.4 154.4 154.7 155.1 155.6 156 157.2 160.4 162.9 165.5 168.4
219.9 224.3 230.1 238.1 245.1 247.4 249 248.1 247.6 246.4 241.5 238.8 237.9 236.6 237.1 237.3 237.4 236.8 235.3 240.1 242.7 244.6 247.1 249.1 250.8 255.6 259.3 260.3 260.9 260.5 261.4 262.7 263.5 263.2 262.1 260 257 255.5 255 254 253.8 254.2 255.5 255.2 253.3 250.2 246.3 242.3 237.5 231.6 227.4 223.7 220.2 217.5 214.7 213.6 213.8 213.5 214 214.4 213.4 213.9 213.8 212.9 211.3 211.3 210.7 210.1 209.8 206.8 204.6 203.3 202.5 203 203.6 204.9 203.6 202.5 202.4 204.2 205.3 205.2 203.4 204.1 204.5 204.2 203.8 203.2 202.1 202.1 201.5 203.3 205.4 208.2 209.2 212.8 214.2 214.2 212 209.9 207.4 205.4 204.7 205.1 204.9 201.7 199.4 196.7 194.8 194.2 194.1 191.7 187.5 192.1 193 193.8 194.7 197.1 202.5 207.8 209.8 211.5 211.5 210.4 208.7 207.1 205.7 204.8 204.1 203.9 203.5 202.3 200.3 198.7 197.2 194.4 191.8 188.1 184.6 183.8 183.8 181.1 180.6 180.3 178.4 176.6 175.2 173.5 173.2 173 171.2 169.3 167.8 166.5 165.8 164.7 163.5 163.4 164.3 165.5 166.3 165.7 165.8 166.1 165.6 164.8 163 160.8 162.2 164.8 165.8 167.3 170.2 170.1 168 164.6 161 157.1 151.9 146.9 142.9 140.1 140.3 140.3 142.2 143.3 145.7 147.6 151.2 152.8 154.1 154.8 155.3 155.7 156.3 156.8 159.3 162.6 165.4 169
223.5 225.7 235 244.8 251.3 254.4 254.4 253.9 252.5 250.3 245.9 241.8 238.8 237.8 239.4 240.1 240 239.8 236.4 240.8 241.9 244.4 247.2 249.9 252 257.1 260.3 261.7 262.8 263.2 263.5 264.9 265.8 265.4 264.3 262 259 255.5 255.1 253.9 251.9 251.5 251.8 251.7 249.8 247.2 243.8 240.4 236.4 231.2 227.9 224.1 220 218.1 215.3 214.1 213.4 213.1 212 211.4 211.7 213 212.9 212 210.2 210.1 209.8 209.4 207.6 204.1 206.1 205.1 202.6 201 200.6 198.7 199 199.7 198.2 201.3 202.7 203.4 203.2 202.3 202.8 202.6 202.3 201.7 200.4 199.9 199.2 199.2 201.3 203.1 205.3 207.7 208.3 207.4 205.3 203.8 202.1 202.4 202.9 203.2 202.8 199.5 197.5 194.3 192.7 191.9 191.8 189.9 186.3 191.1 192 192.9 193.9 196.7 200.4 205.2 207.6 210 209.8 208.9 207.5 206.1 205.5 204.7 203.8 202.9 202 201.3 200.2 198.5 196.9 194.4 189.5 189 187.4 184.4 183.1 182.1 181.3 179.9 179 176.9 175.1 173.3 172.1 172.6 172.3 170.5 168.9 166.7 165.8 164.7 163.6 162.8 162.8 164.5 165.9 166.2 166.4 166.7 166 164.8 162.4 161.8 161.2 163.9 165.1 165.7 167.8 169.3 168.8 165.9 162.3 158.4 152.9 146.9 142.8 139.7 139.5 139.5 139.6 141.5 144.7 148.8 151 152.8 153.7 154.5 155.3 155.8 156.3 156.8 158.2 161.4 165.4 168.3
225.8 230 239.3 250.7 256.5 259.4 259.1 257.7 256.4 254.2 250 245.9 242.5 239.9 241.2 242.8 242.9 241.3 239.3 239.4 241.6 244.2 247 250.4 253.8 257.1 260.3 262.8 264.1 265.4 265.8 267 267.8 267.2 266.1 264.2 260.5 255.8 256.2 254.8 251.7 249.1 249.1 248.8 247.1 244.9 242 237.9 231 227 225.1 223 219.8 217.5 215.6 215.7 214.8 214.4 214.3 213.7 213 212.2 210.3 210 208.6 207.1 208 209.3 211.8 211.3 211 209.2 208.9 207.1 200.3 206.3 203.8 201.2 200.5 195.8 199.3 201 201.2 200.8 201.5 201.2 200.8 200.3 199 197.6 198 197.6 197.2 198.4 200.2 202.7 202.9 202 199.5 198.7 198.7 198.6 200.3 199.9 199.5 198.1 193.9 191.2 190.4 189.6 189.3 189 184.7 190.3 191.5 192.8 194.2 195.8 199.1 201.9 204.7 207.5 208.1 207.4 205.9 204.4 205 204.1 203.2 202.4 201.8 200.4 199.6 198.8 197.9 196.1 191.9 190.7 189.6 186.3 184.7 183.5 182.5 181.2 179.9 176.9 175.6 173.7 171 171.5 171.8 168.6 167.2 166.3 165.6 164.8 163.8 163.8 163.2 164.1 165.5 166.4 167 167.1 166.2 164.2 163.8 163.4 161.8 161.9 164.4 165 165.6 166.2 166.5 166.6 164.8 158.6 154.1 148.4 143.4 140 139 139 138.9 140 142.7 147.5 151.1 152.4 153 154.2 155.2 155.4 156 156.5 157.3 160.1 164 167
230.2 235.5 240.4 253.8 260.2 263 262.2 261.5 260 257.5 253.6 249.7 245.4 243 244.4 244.7 244.6 243.3 242.5 241.2 241.3 244.3 248 251.1 254 257.4 260.9 263.7 265.2 266.6 268 268.9 269.6 268.9 267.9 265.9 262.6 255.9 254.9 253.8 251 248.7 246.7 246.2 244.8 244.5 241.5 238.9 234.9 230.2 226.3 222.8 221.4 218.7 217.2 215.2 214.8 214.8 213.6 213.8 212.4 211.2 210.1 210.2 209.1 210.2 213 213.8 215.2 214.5 212.6 210.3 209.6 208.9 207.1 206.1 205.3 203.4 200.5 199.3 194.6 197.7 198 199.5 200.7 199.9 198.9 198.3 197.2 196.5 195.5 195.2 195.2 195 195.7 197.2 196.8 196.4 194.6 193.2 194.5 196 197.1 195.2 195.5 193.3 191.6 187.2 185.9 186.5 186.8 186.4 186.4 190.2 191.7 193.1 194.4 195.8 197.8 199 201.7 203.9 204.3 204.2 203.5 202.9 203.8 203.6 202.7 201.8 201.5 200.2 199.9 199.2 198.3 196.2 193.4 191.8 190.2 187.4 185.4 184.5 183.7 182.6 180.9 178.5 175.6 173 171.8 170.3 170.3 168 165.7 164.9 164.2 163.8 164 163.8 163.2 163.7 164.2 165.3 166.7 167.4 166.1 165.7 165.1 164.5 163.8 161.5 163.9 164.7 165.2 165.4 166.3 166.4 165 158.9 153.6 148.4 143.5 140.6 139.5 139.4 139.4 139.4 143.1 147.8 151.1 151.3 152.6 154.5 155.2 155.2 155.6 156.2 157.1 158.4 161.7 166.2
235.4 240.1 245.3 255.4 262 265.9 266.4 265.7 264.3 260.9 257.1 252.4 250.3 248 249.1 248.7 247.5 246.3 245.2 243.5 240.5 243.9 249 251.7 255 258.3 261.6 264.6 266 267.5 268.8 270.1 270.9 271 269.8 268 264.5 260.5 255.3 253.2 250 248.7 247 246.5 245.7 246 245.2 242.3 237.8 233 228.9 224.8 222.4 220.3 218.6 217.1 216.1 214.1 214.1 213.8 211.4 212.4 213 212.2 212.3 213 214.8 215 215.3 216.6 214.1 211.1 209.5 208 207.1 206.2 205.2 202.5 200.5 197.9 195 195.3 194.1 196.4 197.3 196.7 196.1 195.3 194.6 194.3 194.1 194.1 194.1 193.6 193.6 193.3 192.9 192.9 190.9 190.7 191.8 192.3 192.3 190.1 188.5 187 184.1 183.6 183.2 182 182.5 181.4 184.7 188.5 191.6 193 194.1 194.5 196.3 196.6 196.7 198 200.7 200.9 201.1 201.4 202.3 203 202.2 201.5 201.3 200.3 200.1 199.5 198.8 197.1 194.7 192.3 190.7 188.2 185.6 184.7 184.2 182.4 181.9 179.2 176.6 174.3 172.3 171.8 170.3 168 166 165.1 164.2 162.8 162 161.7 159.8 162.2 162.5 164.8 165.4 165.2 166.8 166.3 166.4 165.7 163.8 163.2 163.2 163.7 163.5 163.4 164.2 164.7 163.1 159.6 154.3 150.3 145.3 140.5 138.7 139.8 139.5 139.3 142.1 145.6 149.1 150.9 152.9 154.7 155.2 155.2 155.3 156 156.1 157 159.5 163.6
240.3 246 250.9 256.4 262.4 267.5 268.8 269.3 266.9 264.1 260.5 256.9 255.1 252.3 251.8 250.9 249.6 248.3 247 245.4 240.9 244.3 249.1 252.7 256.1 259.4 262.7 265.4 266.7 268 269.3 270.5 271.9 272.3 271.4 269.5 266 262 257.7 253.4 250.3 248.7 247.6 247.4 247.4 248.3 247.1 245.3 237.8 234.1 230.1 224.5 221 220 218.8 217.7 216.2 215.2 213.2 213.2 212.4 213.3 214.2 213.8 214.3 215.5 216.3 216.5 215.9 215.7 213.9 211.8 210.2 209.3 207.2 205.9 204.5 201.6 199.7 197.9 197.8 193 192.2 191.8 193.9 194 193.9 193.8 193.4 193.5 193.2 193.1 193 192.4 192.3 192.2 191.6 191 188.6 184.8 188.5 188.6 187 186.1 184.2 183.2 181.7 181.7 181.3 180 180.3 182.7 183.6 186.6 189.4 191.6 191.9 192.6 193.4 193.8 194.2 194.3 196.4 198 198.6 199.9 200.8 201.9 201.6 201.3 201.1 200.5 200.3 199.8 199.2 198.1 195.1 193.1 191.1 189.5 186.2 184.9 183.5 181.1 179.9 177.4 175.2 172.9 171.3 171.3 169 167.7 166.5 164.6 163.2 162.1 160.4 160.6 158.5 160.4 162.2 164.7 162.6 165 166.5 167.2 166.1 165.5 164.4 161.2 162.5 162.6 160.1 160.6 161 162.9 162.7 160.3 154.5 151.4 146.1 140.9 140.3 139.8 138.7 141 143.6 144.9 147 150.9 153.2 154.7 155.2 155.2 155.2 155.1 155.2 155.9 157.5 161.2
244.2 249.7 253.9 257.9 262.6 267.8 269.4 270.6 268.3 265.5 262.6 259.4 259.1 256.7 253.8 252.9 251.5 250 248.6 246 243.8 247.1 249.6 253.4 256.9 260.3 263 265.2 267.2 268.4 269.6 271.1 272.6 273.3 272.2 269.9 266.7 263.1 258.2 253.4 250.2 248.9 247.9 247.2 249.1 250.7 250.6 247.2 239.8 236 227.8 222.8 222.5 223.5 222.3 220.8 217.6 216.1 216.4 217.4 217.2 216.7 216.2 216.4 217.4 218.4 218.8 217.7 216.9 215.7 215 212.8 210 208.7 208.3 206.9 204.9 204 202.6 201.2 200.1 198.9 196.2 193.6 190.6 191.8 191.7 191.3 192.4 192.6 192.4 192.1 191.8 191.1 191.9 191.9 190.7 190.2 185.2 185.1 183.6 183 182.4 182.8 181.8 182.1 181 180.4 180.5 181.5 182.6 183.2 183.8 185.6 188.4 189.8 190.6 191.3 191.7 192.1 192.4 192.4 192.9 194.8 194.8 197.5 199 200 201 200.7 200.5 200.5 200.3 200.2 199.7 198.2 195.9 194 192 189.9 187.5 184.1 181.9 179.6 177.6 175.7 173.8 170.7 168.8 168.3 166 164.1 162.3 161.4 161 160 158.5 157.2 156.3 158.6 159.9 160 161.2 164.8 166.1 167 167.3 166.3 165.7 165.7 166.2 166.9 166.2 164.2 160 156.4 158.6 158.1 153 150 145.1 141.7 139.9 138.9 138.6 138.9 141.1 144.7 147.5 149.6 152.8 154.7 155.1 155.1 155 154.7 154.5 155.4 156.8 158.8
246.4 250 256.4 260.3 264.2 268.2 269.8 270 269 267 264.8 262.2 262.2 260 257.2 254.8 253.5 252.1 250 247 244.3 248.4 250 253.5 257 260.3 263.5 265.7 267.4 268.8 269.9 270.9 271.9 273.2 272.8 270.3 266.9 263 258 252.7 248.4 246.9 246 245.9 248.3 249.8 250 249.8 247.5 242.5 234.2 230.9 229.3 227.5 225.3 221.4 219 215.9 220.5 220.2 220.1 219.8 219.3 219.5 220.4 221.4 222.4 221.5 220.1 218.7 217.4 216.6 213.4 212.1 209.5 207.8 205.6 204.3 205.5 203.8 201.8 200.8 199.9 197 192.7 192.3 189.6 190.5 189 190.6 191.1 191.1 190.3 190.7 189.5 190.9 192.4 186.1 188.8 189 188.4 184.9 183 181.1 180.3 179.6 181.5 178.4 180 181.8 182.5 183.1 183.7 187.2 187.5 188.3 189.8 190.4 190.7 190.7 190.8 190.7 190.5 190.5 191.8 194.1 195.4 196.5 198.3 198.6 198.7 199.2 199.6 200 200.4 199 196.3 194.3 192.4 190.5 188 184 180.6 178.4 176.4 173 170.4 166.6 166.4 165.1 162.7 161 158.2 157.4 156.8 157 156.6 153.1 156.3 157.7 158.6 159.3 160 162.2 165.8 167.2 167.7 167.6 168.2 169.1 168.3 168.5 168.7 167.1 165.7 163.8 161 157.4 150.2 146.1 145.6 142.1 140.3 138.8 138.5 138.2 141.3 143.8 147.2 149.4 152.6 154.4 154.9 154.9 154.9 154.5 154 155.3 155.9 157.6
248.8 251.5 259 265.2 268.3 270.1 271.5 271.6 271.6 269.7 267.4 266.4 264.5 262.2 259.9 257.6 255.6 253.6 251.5 248.6 246.8 249.1 251.2 253.6 256.9 260.2 263.5 266.1 267.6 267.4 268.4 269.4 271 273.1 272.8 271.2 267.2 262.9 258 253.1 247.3 245.7 244.1 244.5 246.9 248.5 248.8 248.5 248.1 243.9 238 235.8 233.4 230.7 228.4 224.2 222.1 217.8 222.7 222.8 222.7 222.8 223.2 223.5 224 225 225 224.4 223 221.7 220.2 218.5 216.6 214.2 211.4 208.7 207.8 207.7 206.9 204.8 202.9 202 201.1 198.7 195.6 194.4 194 191.9 188.7 188.6 190.5 188.2 188.9 187 189.8 190.3 186.4 190.5 191.9 189.3 185.2 184.3 183.2 181.4 180.5 178.9 180.8 178.8 181 182 182.4 182.8 183.2 184.1 184.9 186.4 187.5 188.1 189 189.1 189 189.1 189.5 189.1 189.5 192.4 194.2 195.1 195.9 196.7 197.1 197.5 199.1 200.3 200.3 199.4 196.7 194.7 192.8 190.3 187.5 183.9 180.1 177.2 174.2 169.5 166.9 164 162.4 160.3 158.3 155.9 154.3 153.4 152.7 152.8 152.7 153.5 154.4 155.3 156.8 157.9 158.6 161.5 164.6 168.6 168.3 168.4 170.2 170.2 171.5 172.4 170.3 168.3 166.7 164.2 161.6 159.6 157.3 152.3 151 144.4 140.9 139.2 138.9 138.6 139 142.6 146.5 149.4 152.3 154.2 154.7 154.7 154.7 154.3 153.7 153.8 154.9 156.7
251.7 257.1 263.1 268 271 272.2 273.3 273.5 273.7 272.7 270.7 269.1 266.8 263.7 261.1 258.6 257 255 253.2 251.6 249.7 248.7 250.9 253.3 256.5 260.3 263 266.1 266.8 266.5 267.5 268.9 270.5 272.9 273.6 272.1 269 264.7 259.8 253.2 248.1 244.8 242.8 242.6 243.2 245.1 247.2 246.9 247.3 244.5 239.4 238.3 236.7 234 231.4 227.9 226.7 219.1 224.8 225.3 225.9 226.6 227 227.5 227.8 228 227.4 226.8 226 224.5 223 221.2 218.7 216.2 213.4 210.8 210.1 208.9 207.6 205.6 203.9 202.8 201.6 200.9 198.8 197.5 194.5 191.7 191.5 188.1 187.6 189 188.1 189.4 187.1 189.5 192.1 192.9 191.8 189.5 183.9 182.3 181.6 180.9 179.6 179.1 178.3 178.1 180 181.9 182.4 182.7 182.9 182.9 183.5 183.7 185 185.9 187 187.7 188.1 188.4 188.3 188 187.8 190 191.8 192.6 193.3 193.2 194.4 195.8 198 199.8 200.4 198.9 197.2 195.2 193.3 190 187 183.7 179.9 176.1 172.2 168.2 163.9 160.1 158.7 154.7 153.9 152.4 151.4 150.5 151.1 150.6 149.8 151.5 152.6 153.7 154.8 156.3 158.2 161.1 162.7 166.3 169.5 171.2 170.9 172 173.1 173.6 171.7 169.6 167 164.6 162.7 161.7 160.6 157.3 153 149.7 143.7 139.6 138.1 137.8 138.4 141 144.1 147.9 150.7 153.3 154 153.9 153.9 153.7 153.1 152.6 153.9 154.9
259.2 261 266.2 271.1 273.1 274.4 275.2 275.4 275.6 275.6 273.7 271.1 269.6 266.9 262.1 259.6 258 256.3 255.5 254.3 252 249.1 251.7 254.2 257.3 260.3 263.8 265.8 267 266.1 267.6 269.1 270.6 272.5 273.5 272.3 269.4 265.9 261.7 255.3 248.7 244.4 242.5 241 241.3 242 244.6 245.3 244.8 242 239.3 238.4 237.2 235.6 233.8 231.2 227.4 219.5 227.1 228.3 228.9 229 229.3 229.8 230.3 230.5 229.9 229.2 228.5 226.9 225.3 223.2 220.7 217.8 214.5 212.3 210.7 209.4 208.2 206.2 205.3 203.7 202.1 201.4 200.6 198.2 194.9 193.4 192.6 190.8 189.8 188.7 190.5 190.2 189.7 192 192.3 191.1 186.9 185.5 183.4 184.7 183.6 182.4 181.4 181.9 181.5 178.6 179.4 181 182 182.2 182.4 182.4 182.3 180.6 182.5 183.1 185.2 186.9 187.4 187.6 187.9 186.9 186.9 186.9 188.8 190.1 190.4 191.1 192.5 194 196.5 198.5 199.4 199.4 197.7 195.3 193.9 191.1 187.5 184.5 181.5 178.5 174 168.9 163.8 158.9 154.2 152.1 150.7 149.7 148.7 148.8 149.6 149.5 150 150.8 151.8 152.9 154 154.9 156.7 159.2 162.3 166.4 169 171.4 172.7 173.3 174.1 173.7 172.4 170.1 167.1 165.1 164.1 163.1 159.9 157.8 153.1 151.2 147.3 141.1 138.6 138.4 139.7 141.6 143.1 145.2 149.2 151.9 152.8 152.7 153.1 153 152.4 152 152.6 153.6
263.1 266.1 270.1 272.6 274.8 276.3 278.3 278.4 278.4 278 275.6 272.9 271.3 268.9 265.1 260.9 259.3 258.5 257.8 256.5 254.7 253 253.6 255.7 258 260.5 263.6 265.9 267.2 266.5 267.6 269.1 270.7 272.2 272.4 271.6 269.9 266.3 262.2 256.8 250.6 244.2 242.3 240.8 239.4 240 242.4 243.4 243 240.8 239.4 238.3 237.3 235.7 234.5 232.3 226.4 225.8 230 231.1 231.7 231.3 231.6 232.1 232.6 233 232.3 231.6 230.7 228.6 226.6 224.4 222.3 219.3 215.9 213.5 212.1 210.2 208.7 207.4 206.6 204.8 203 202.2 201.4 200.5 197.6 194.9 194.1 192.6 190.4 189.5 191.1 191.5 191.7 192 189.9 186.3 184.3 184.3 184.9 185.5 184.6 183.5 183.7 183.8 183.2 181.1 178 179.7 180.9 181.5 181.6 180.7 181 180.6 179.3 180.7 181.3 183.2 186.4 187.6 186.5 185.5 186 185.2 184.4 185.1 186.4 187.3 189.9 191.8 193.7 195.6 197.6 198.7 197.8 195.5 194.4 192.3 188.8 185.9 183.4 180.9 176.5 171.6 167.3 162.2 158.4 154 151.8 150.4 148.9 148.2 148 149.4 149.9 150.3 151 151.9 152.8 153.8 155.5 158 161.9 165.4 168.5 171.2 172.9 174.2 174 173.8 172.5 170.5 167.4 166 164.6 163.2 160.8 156.9 154.3 151.3 148.4 144.9 139.5 138.6 138.9 141.7 144.4 145.7 147.5 149.1 150.9 151.6 152.4 152.4 151.9 151.5 151.1 151.8
265.5 269.9 273.4 275.1 276.8 279.4 281.9 281.7 280.9 279.5 277.3 274.7 272.3 269.6 266.2 262.7 260.1 261.2 260 258.9 257.4 256.4 254.4 256.7 258.8 261.2 263.7 265.8 266.6 267.7 267.7 269.2 270.7 270.6 271.3 270.4 269 266 262 256.7 251 245.2 242.2 240.7 238.9 237.3 238.2 239.1 238.9 238.9 238.8 238.1 237.2 235.9 234.7 233.5 222.5 230.9 233.1 233.9 234 233.6 233.9 234.4 234.8 235 234.5 233.9 232.6 230.9 227.6 225.8 224.1 220.7 217.5 214.9 213.3 211.9 209.5 208.3 207.3 205.4 203.8 203 202.2 201.1 199.3 197.6 195.5 194.1 192.9 191.6 192.3 192.5 192.3 191.4 187.4 185.6 186.6 188.3 188.2 188.6 186.9 187.8 187.2 186.4 184.3 182.6 177.3 178.6 179.1 180.1 178.6 177.6 177.1 177.8 176.5 176.8 178.7 178.4 181.8 183.2 182.3 181.3 179.8 181.3 182 181.3 181.6 184 187.1 189.2 190.9 192.7 194.4 196.4 197.2 196.2 195 193.4 190.2 187.3 185.2 183.2 179.9 176.2 171.5 166.2 161.4 157.5 154 152.4 150.8 148.8 146.8 149 148.4 149.4 149.8 150.6 151.6 152.7 154.4 156.5 159.9 162.5 166.3 170.6 173.8 174.9 175.5 175.2 173.9 171.2 168 166.5 164.9 163.3 160.7 156.4 153.7 152 149.6 146.3 140.7 138.7 137.5 138.1 143 144.9 145.9 149.1 150.2 150.7 151.9 151.8 151.5 151.1 151 151.4
270.2 272.1 275.6 277.3 278.9 281.2 283.9 283.8 282.7 280.9 279 276.4 274 271.2 268.5 266 265 263.2 261.7 260.6 258.4 259 258.7 258.2 260.2 261.8 264 264.7 265.9 267.1 268.2 269.2 269.4 269.9 269.8 268.8 267.6 264.7 261 256.4 250.2 244.7 241 238.8 236.4 235.3 236 236.3 235.9 235.5 237.8 237.5 236.8 235.9 234.8 229.8 229.3 232.8 234.6 235.8 236 235.9 236.2 236.5 236.8 236.9 236.5 236 235.1 234 231.9 228.9 226.8 223.9 220.5 217.3 214.9 212.8 210.1 208.3 207.5 205.3 204.3 203.8 203 201.7 199.9 198.2 196.8 195.7 194.7 192.9 192.7 192.9 192.2 191.7 187.9 189 189.5 190.3 190.5 191.7 192 191.5 190 189 187 184.1 181.6 181.5 180.8 177.3 177.2 178.7 178.9 177.9 178.5 177.4 177.2 174.9 175.8 174.7 175.3 175.8 175.7 174.9 174.4 174.9 175.7 177.5 181.1 186.5 188.7 190.8 192 193.2 194 194.2 195.4 195.8 193.7 190.4 188.3 184.8 183.1 179.8 175.3 170.6 165.8 161.4 157.1 154.5 153.1 150.5 148.4 147.2 147.1 148.1 148.6 149.4 150.5 151.6 153.2 155 157.1 159.6 163.3 167.3 174.4 175.1 175.9 176.4 175.2 172.7 169.7 166.7 165.7 162 158.9 156.4 154.5 152.9 150.8 146.4 142.3 139.2 137.7 137 140.7 143.5 145.1 147.2 150.6 151.3 151.5 151.3 151 150.6 149.3 150.8
272.6 274.1 277.4 279 280.6 282.6 285.6 284.9 284 282.2 279.8 276.9 274.5 272.6 271 269.3 267.3 265.2 263.1 261.9 260.8 261 261 261.3 262.1 262.7 263.7 265.1 266.3 267.5 268.3 269.6 269.5 269.2 268.2 267.3 265.5 263.2 259.6 255.3 249.2 244.8 240.6 237.6 234.6 233.2 234.3 233.2 233.2 233.3 234.9 237 235.5 234.6 233.3 226.3 232.5 234.8 236.3 237 237.2 237.4 238.1 238.6 238.9 238.9 238.3 238 237.1 235.7 233.8 231.7 230.3 227.1 223.8 220.2 216.4 213.3 210.5 208 206.6 205.4 204.7 204.1 203.3 202.3 200.8 199.4 197.9 196.3 195 193.3 194.2 193.5 191.9 189.3 188.6 190.2 190.7 191.6 192.6 194.3 193.6 192.2 190.8 189.4 187.1 184.4 183.7 183.1 182.3 178.7 180.3 181.2 181.4 181.3 181.1 180.5 179.1 178.1 177 175.3 175.4 172.8 171.7 172 172.5 171.1 170 171.3 173.6 180.5 184.2 186.4 186.9 188.9 189.7 191.1 193.6 194.7 194.6 192.6 189.9 185.9 182.8 179.8 175.8 171.7 167.4 163 159.4 156.3 154.5 151.6 150.1 147.4 147.3 148.1 146.2 148.8 149.6 150.5 151.8 153.6 154.7 156.5 159.9 163 166 168.6 172.6 175.7 176 174.1 171.4 168.3 164.4 161.6 157.8 155.9 155.5 154.4 152.2 150.2 146.6 140.4 137 135.7 137.3 142.2 144.7 148.2 151.5 153.2 152.5 151 150.5 149.8 148.3 148.5
275.7 276.2 278.1 280.1 281.6 283.6 285.1 285.1 285.1 282.5 279.7 277.1 275.6 274.1 272.6 270.5 268.8 266.7 264.6 262.9 262.3 262.2 262.7 263.4 264 264.7 265.6 266.6 267.6 268 268.4 269.1 268.5 268.2 267.2 266 264.1 261.6 257.5 253.6 248.5 244 240.4 236.7 233.4 232.4 232.1 231.2 231 229.5 231.7 232.9 233.2 232.1 228.9 228.7 233.4 236.2 237.5 237.8 238.1 238.3 239.4 240 240.7 240.4 239.6 239.6 238.4 237 235.4 233.5 231.3 228.5 225.5 221.9 218 213.7 210.8 208 206.6 205.7 205 204.1 203.2 201.9 200.7 199.3 197.8 197 196.7 195.9 194.2 193 191.3 188.1 191 192.3 193.3 193.6 193.1 194 194.6 193.2 192 189.5 187.2 186.2 185.4 184 183.1 180.8 183.5 185.6 186.8 187.6 186.9 186.2 184.9 182.4 179.7 178.1 176.9 176.5 175.4 170.9 170.9 171.2 170.2 169.1 168.8 171.3 176.7 180.2 182.5 184.5 187 189.9 190.8 191.9 192.7 192.1 187.6 185.5 182.5 179.5 175.4 171.1 167 163.5 160.1 157.2 154.9 152.6 151 149.9 149.9 149.5 147.8 147.1 148.9 149.2 151.1 152.1 153.2 153.6 157.4 159.7 162 164 168.5 171.8 173.1 173.5 172.2 167 163.7 160.2 156.7 155.1 153.7 153.1 152.7 150.1 148.4 143.6 138 136.5 136.3 141 145 148.7 151.6 154.2 152.9 151.4 150.2 149.2 148.8 148.2
276.5 277.2 278 281.1 282.7 284.1 284.6 285.1 284.1 282 279.6 277.5 276.1 274.9 272.6 270.3 268.7 267.2 265.6 264 263.8 263.5 263.9 265.2 265.9 266.6 267.2 267.2 267.5 268 268.6 268.5 267.8 267.2 266 264.7 262.8 260 256.4 252.8 248.3 244.6 241.1 237.5 234 230.6 230.8 229.9 229 229.4 228.8 230.9 228.9 228.2 227.7 232.9 236 237.5 238.3 238.6 239 239.2 240.3 241.3 241.5 241.2 240.9 240 238.9 237.7 236.1 234.4 231.9 228.6 225.4 222.2 218.1 214.4 211.2 208.1 206.9 205.8 204.6 203.8 202.6 201.4 200.2 199.5 199 198.5 197.9 196.9 194.7 189.8 189.2 191.9 192.6 194.6 196.7 197 196.5 195.9 195.4 194.7 193.1 190 188.5 187.9 186.5 185.2 183.9 180.5 185.4 189.8 189.1 189.6 189.5 188.8 187.2 185.2 180.7 179.3 178.2 177.3 175.9 174.4 173.7 172.2 173.3 174.2 174.5 167.9 172.1 177 179 182.5 185.2 186.4 187.8 189.8 191 190.5 188.9 185.8 182.8 179.2 174.9 170.6 167.5 164.4 161.2 157.8 155.2 153.5 151.9 150.7 150.2 149.8 149.3 146.5 146.5 148.7 150.9 151.4 151.9 152.5 154 156.2 158.5 160.6 162.4 164.7 168.8 170.9 170.7 166 162.3 159.7 156.1 154 152.8 152.1 151.2 150.1 148.1 145.3 139.5 136.3 135 136.8 143.5 149.1 151.2 153.5 153.3 150.3 149 147.2 146.2 146.8
276.8 277.9 279 280.5 282.8 283.4 284.6 284.8 283.5 281.4 279.4 278 276.6 274.1 271.7 270 268.5 266.9 265.4 263.9 264.4 264.5 265.7 267 267.3 267.7 267.9 267.3 267.2 267.7 268.1 267.3 266.7 265 263.4 262.1 261.1 257.8 255.1 251 247.1 244.1 240.6 236.5 235 231.7 230.9 230.3 231 231.5 231.1 227.8 230.9 232.3 233.9 235.7 237.2 238.7 239.1 239.4 239.8 240.1 241 242.5 242.1 241.7 241.2 240.5 239.4 238.3 237.2 235 231.6 228.3 225.2 221.5 217.4 213.7 210.4 207.4 206 204.8 204 203.6 202.9 202.7 202.1 201.3 200.4 199.6 198.7 197.1 192.5 191.2 192.4 193.4 194.7 197.8 200.1 200.4 200 199.6 198.9 196.4 194.3 192.1 190.2 189.1 187.7 186.3 184.8 182.9 186.1 189.4 190.2 191.4 190.9 189.8 188.6 186.5 183.7 180.6 179.3 178.4 176.9 176.7 176.7 174.1 174.5 174.6 174.8 172.1 167.5 173 176.3 180.2 182.8 183.8 185 186.6 187.7 188.3 187.1 184.2 181.2 178.6 175.1 171.8 169.2 166.3 162.4 158.9 156.3 153.8 152.4 151.3 150.7 150.3 149.3 148.6 145.9 148.2 150.4 151.1 151.5 151.9 152.1 153.4 155.7 157.6 159 161.3 163.9 168.2 168.3 163.9 161.2 158.6 155.7 153.4 152.1 151.1 150.4 149.6 147 143.8 140.4 137 134.5 135.2 141.1 147.1 148.7 153.2 152.8 150.8 149 146.4 144.6 144.9
276.6 277.7 278.6 279.8 281 282.4 284.3 284.3 283.1 281.2 279.4 277.9 275.8 273.4 271.7 269.9 268.3 266.8 265.2 263.7 264.7 265.4 267.4 268.3 268.8 268.7 268 267.4 266.8 267.3 266.9 266.1 264.5 262.7 261.1 259.5 258.5 255.3 253 249.8 245 241.1 238.2 235.9 234.8 232.8 232.1 231.3 229.7 232.2 232.7 233.2 234.3 235.2 236.1 237.6 238.7 240.3 240.1 240.3 240.6 240.9 241.8 242.6 242.3 242 241.6 240.8 239.9 238.9 237.6 235.2 231.8 227.8 224.3 220.5 216.6 213 209.6 206.8 205.5 206.2 205.9 205.3 204.7 203.6 202.8 201.9 201 200.1 198.9 197.6 191.1 193.2 193.8 195.4 197.6 201 202.7 203.3 203.6 203.4 201.8 198.6 196.1 193.9 191.3 189.4 188.1 186.7 185.2 183.7 187.3 190.1 192.1 193.1 192.5 190.4 189.3 187.2 186 183.9 182.7 181.1 180.7 181.8 180.7 177.4 175.4 174.9 174.6 173.8 170.6 164.9 171.9 176 179.3 181.3 182.2 184.1 185.1 185.6 184.9 185 182.9 179.6 176.1 173.4 170.3 167.6 164.2 160.5 158.2 155.5 153.3 152.2 151.2 150.8 149.2 148.1 146.7 147.3 149.8 150.7 151.1 151.3 151.3 152 152.9 154.8 155.6 158.2 160.9 165.3 164.6 162.2 158.6 156 154.6 153 152 151.2 150.4 149.4 147.6 144.4 140.5 137.4 134.8 135.7 138.6 143.7 146 150.3 152.2 149.8 147.4 145.1 144.2 143.7
276 277 278 279.4 280.6 282 284.2 284.1 283.2 281.3 279.4 277.3 275.1 273.3 272 269.8 268.2 266.7 265.1 263.5 264.5 265.5 266.7 267.7 268.3 268.2 268.2 267.6 266.9 266.6 265.6 264.5 262.4 260.4 258.9 257.7 256.4 253.2 251 248.8 244.8 242.6 239.6 236.9 235.2 235.1 233.9 232.4 230.4 233.3 233.9 235.4 236.7 237.7 239.5 240.6 242.1 242.5 242.2 242 242 242.2 242.9 242.6 242.3 242.1 241.6 240.9 240 239.1 237.8 235.4 232 226.8 222.5 219.3 216.7 213.3 211 209.4 207.4 207.3 207.1 206.4 205.1 204.1 203.3 202.2 201 200.1 199.3 196.5 192.5 194 196.3 198.5 200.7 203.8 204.5 205 205.5 205.2 202.9 199.5 197.4 194.8 192.2 189.8 188 186.7 183.7 186.1 189.1 192.3 193 193.1 192.3 190.9 188.9 188.2 187.1 186.1 185.7 185.1 186.8 186.9 184.9 181.8 179.2 177.3 172.7 171.6 170.6 167.3 166.8 170.9 174.7 177.6 178.8 181.5 182.3 182.5 182.4 184.2 182.5 179.6 176.9 173.7 170.5 168.5 165.9 163 160.1 157.2 154.8 153.2 152 150.8 149.4 147.1 145.9 148.5 149.2 150.2 150.5 150.5 150.5 151.1 151.9 152.9 154.5 156.8 158.7 160.8 160.8 158.3 156 153.5 152.4 152.3 152 151.2 150.5 149.2 147.7 144.5 140.9 138 134.7 134.4 137 140.7 144.6 147.5 148.4 148.2 146.9 143.8 141.5 143.1
273.1 276 277.7 279 280.4 282 284 284.5 283.6 281.8 279.4 276.8 274.9 273.6 272 269.7 268.1 266.6 264.9 263.3 264 264.9 266.1 266.9 267.1 267.1 267 266 265.3 264.8 263.7 263.4 261.9 260.2 258.6 257.3 255.9 252.4 251.2 249.7 248.1 245.8 243.1 241.2 238.5 237.6 236.1 234.8 231 234.5 235.7 237.5 238.4 238.8 240.6 242.7 243.9 244.6 244.4 244.2 243.9 243.9 243 242.7 242.5 241.9 240.8 240.4 239.8 238.9 237.9 235.6 232.2 231.1 229.6 226.3 224.2 220.3 216.7 213.2 211.8 208.9 208.2 206.8 205.3 204.5 203.6 202.6 200.8 199.3 198.5 194.1 195.5 195.9 198.3 200.8 203.4 205.9 206.3 206.6 207 206 203 200.3 197.8 195.4 193 190.5 188.5 186.6 184.5 188.1 190.9 193.2 193.2 193.2 192.1 190.9 190.5 190.6 192 192.3 190.8 190 191.5 191.1 188.8 186.1 183.6 180.5 176.5 169.6 168.8 168.1 163.7 167.1 168.9 171.2 174 176.4 178 178.8 179.9 181.3 178.8 176.8 176.3 174 171.3 169.3 166.9 164.1 161.7 158.8 156.4 154.4 153.1 152 150.5 148.3 147.8 148.6 148.9 149.3 149.5 149.7 149.7 150.1 150.6 152 153.3 154.8 156.2 156.4 156.8 155.5 153.3 151 150.6 150.8 151 150.9 150.1 148.8 147.4 145.2 141.3 137 134.4 133 135.2 136.6 139.3 144.1 146.2 146.6 145.2 142.2 139.3 139.2
271.5 274 277.4 278.9 280.5 282 283.1 284.5 284 282.1 279.7 276.3 274.9 273.8 272 269.6 268 266.4 264.7 263.3 262.9 264.2 265 264.3 264.5 264.7 264.2 263.5 262.9 263 261.9 261.8 260.7 259.2 258.4 257.1 256.2 255.2 253.1 252 249.6 247 244.8 241.8 239.3 238.5 237.4 236 232.8 235.3 236.8 238.6 239.6 239.9 242.2 244 244.9 245.7 245.5 245.3 244.9 243.8 243.4 242.9 242.1 241.1 240.1 239.7 239.3 238.7 237 234.2 234.9 234.5 233.2 230.6 226.8 223.8 219.6 215.4 213.3 210.7 208.7 207.1 205.8 204.9 203.9 202.9 201.4 199.4 197.5 194 197.2 198.4 200 202.5 205.5 207.7 208.2 208.1 208.4 206.8 203.7 200.9 198 195.6 193.4 191.2 189.4 187.1 186.5 189.3 191.6 193.6 193.5 193.2 192.7 192.4 192.7 194.8 197 197.8 197 195.2 194.1 191.7 189.3 187.3 185.1 182 177.5 173.1 169.4 166.7 165.3 163.7 165.3 166.2 168.3 169.5 171.8 172.6 176.2 177.2 175.8 174.6 175.4 174.2 171.9 169.3 167.6 164.9 162.6 160.4 158 155.6 153.9 152.5 151.1 148.8 146.3 146.4 145.7 147.1 148.2 148.5 148.8 149 149.7 151.2 151.8 152.9 154.3 154.3 153.3 150.9 149.8 148.7 148.6 149 149.4 148.9 149 147.3 145.1 145 141.3 137.7 134.7 132.1 132.4 132.9 135.2 140.6 141.4 142.1 142.4 139.9 137.5 136.1
275 276.5 277.6 279.6 281.3 283.3 284.5 285.6 284.4 282.5 278.7 275.6 274.6 273.1 271.3 269.4 267.8 266.1 264.5 263.2 262 263.5 262.8 262.8 263 262.6 262.5 262.3 261.2 261.2 260 260 259.6 259 258.5 257.5 256.9 256 254.6 252.8 250.5 248.1 245.6 242.5 239.9 239 238.2 237 234.1 236.6 237.9 239.5 240.3 242.2 244.1 244.7 246.3 246.7 246.6 245.8 244.8 243.7 242.9 242.3 241.3 240.2 239.6 239.4 239.1 238.8 238.3 237.6 236.9 236.2 234.7 232.8 229.2 226.2 222 217.7 214.7 212.1 210 208.1 206.5 205.2 204.3 203.2 201.8 199.9 197.4 195.3 198.7 200.2 201.9 205.1 208.1 209.4 210.3 210.3 209.8 207.8 205.2 202.4 199 195.4 193.2 191 188.4 186.2 187.6 189.9 192.4 194 193.9 194 194.1 194.4 196.4 200.1 202.4 201.1 199.5 197.9 196.2 193.4 190.3 187.4 185.3 181.5 177.7 173.5 169.8 167.2 164.7 163.2 163.2 162.8 162.7 162.8 164.6 168.5 172.1 174.8 173.6 173 173.8 173.5 170.3 168.9 167.6 165.6 163.2 160.7 158.8 156.1 154.2 153.2 151.7 150.2 148.8 148.5 148.5 147.8 145.8 147.7 147.6 147.1 147.7 149.5 148.9 148.8 152.1 152.2 150.1 148.6 146.9 147 146.3 146.2 146.6 146.3 146.4 144.8 141.6 138 137.4 134.5 133.1 131.1 130.1 129.5 130.4 134.4 137.5 138.4 136.9 136.8 135.1 133.9
277.3 278.3 278.2 280.4 282.2 284.2 285.9 286.2 284.9 282.3 278.2 275.1 273.7 272.4 271.1 269.1 267.5 265.9 264.3 263.1 262.4 262.4 261.8 261.5 262 261.8 261.2 261.2 259.6 258.4 257.8 258.1 258.8 259 258.8 258 257.1 256.2 254.7 252.7 250.6 248.2 245.9 243.1 240.5 239.6 238.8 237.3 235 237.9 240.7 242.1 244 246.1 245.7 246.1 247.7 247.8 246.8 245.7 244.8 243.8 242.8 241.6 240.3 240.3 239.7 239.5 239.2 238.8 238.9 239 238.5 237.9 236.4 234.9 231.7 228.2 223.9 219.7 216.4 213.9 211.7 209.5 207.7 206.1 204.6 203.6 202.2 199.6 197.9 197.9 200.4 202.1 204 207.2 210.4 211 211.5 212.3 211.8 208.8 205.3 202.7 199.5 195.5 192.9 190.4 187.9 189.7 190.5 193.6 195.2 196 195.3 196.3 196.6 198.2 202.8 205.9 205.9 204.6 202.1 200.6 198 195.3 192.3 189.2 185.3 180.6 178.3 172.2 168.9 166.2 164.7 162.4 160.1 161 160.6 160.5 161.8 165.7 168.3 171 171.3 171.1 171.4 170.3 169.3 168.1 166.8 166.2 162.9 160.9 159.5 156.5 154.4 153.5 152.5 151 149.7 149.2 148.1 146.7 147.1 143.7 143.2 142.7 143 142.3 142.5 143.8 144.3 144.9 144.2 143.7 142.3 142.5 142 141.5 142.3 141.1 139.7 138.3 137 136 135.6 134.7 133.3 131.7 129.8 130.2 128.7 128.6 132.1 131.8 133.7 131.7 128.4 126.8
279.4 280.4 280.1 282.4 284.3 286 287.3 286.8 285.1 282 278.3 274.7 273.5 272.2 271 268.5 267.1 265.5 264.5 263.8 263.1 262.5 262.2 261.9 261.1 262.3 262 260.9 259.9 259.3 258.9 258.2 257.5 257.8 258 257.4 256.5 255.5 253.6 251.7 249.7 247.7 245.4 243.2 240.8 240.1 239.1 237.1 236.8 239.1 242.1 245.4 247.2 249 249.8 249.4 248.8 248 247 246.1 245.1 244.2 243.2 242.2 241.2 240.5 239.9 239.6 239.2 239.3 239.5 239.7 239.3 238.5 237.3 235.8 233.2 228.8 224.5 220.8 217.6 214.4 211.4 210.2 208.7 207.2 205.6 204 202.9 201.6 197.1 199.5 202.7 204.6 205.4 208.5 210.9 211.6 212.2 212.8 211.5 208.7 204.9 201.8 199.3 195.6 192.4 188.6 190.9 191.3 195.5 198.2 198.9 199.9 199.2 199.9 200.9 205.5 209.5 210.8 209.9 207.6 205.1 202.6 200 197.5 193.6 189.7 185.9 180.9 179.4 175.6 169.8 169.5 168.8 166.2 162.3 159.6 158.5 159.2 158.7 160.4 162.5 165.5 166 168 168.4 168 167.1 166.3 165.2 164 162.2 160.2 158.5 157 154.5 153.7 152.7 150.8 149.8 149.4 148.6 145.7 144.6 144.1 143.3 143.8 143.9 143.3 143.1 145.6 141.2 139.7 138.6 139.4 140 139.1 137.5 136.4 137.7 138.1 137.4 137.2 136.6 135.2 135 134.4 133.2 132 130.7 132.3 130.9 128.2 128.4 127.6 127 126.5 126.5 125.4
281.8 283.1 283.3 285.3 287.3 288.1 288.4 287.5 285.9 283 278.4 275.8 273.8 272.3 270.8 267.6 266.7 265.6 264.5 263.9 263.2 262.5 262 262.4 262.9 262.7 262.4 261.2 259.9 259.5 259.1 258.4 257.5 256.7 256.7 256.1 255.1 254.1 252.5 250.6 248.6 246.5 244.4 242.2 240.5 239.7 238.8 234.8 238.3 240.5 243.4 247 248.2 249.4 250.7 249.8 248.9 248.1 247.3 246.4 245.5 244.5 243.5 242.5 241.6 240.7 240 239.7 239.6 239.8 239.5 239.1 238.8 237.6 236.1 234.4 231.4 227.2 223.4 219.6 216.4 213.6 212.5 211.3 209.8 208.2 206.4 204.6 203.3 202.2 196.8 200.4 204 206.4 207.5 208.8 210.1 211.4 212.4 212.7 212 209.5 205.2 202.1 199.2 195 192.1 193.5 195.1 199.8 202.3 202.6 202.7 203.1 203.4 205.1 209.4 212.5 214.2 214.2 212.3 210.1 207.1 204.1 202.5 199.8 195.6 190.9 187.6 183.8 182.1 177.9 175.7 173.4 171.9 170.3 167.3 163.8 158.3 157.5 156.5 158.6 158.7 159.3 160.5 161 162.6 163.3 162.7 161.5 161.6 161.3 159.8 157.3 156.1 155.2 154.6 152.4 151.8 150 148.9 149.1 148.1 145.1 144.5 144.7 144.1 144.2 144.8 144.2 144 145 144 143.8 146.4 144 141.2 141.1 139.3 137.1 136.9 135.9 135.9 136 135.4 134.2 133.9 133.2 132.7 132.5 131.5 132.5 131.8 132.7 131.4 126.8 125.9 125.8 129.4 131.4
284.2 285.7 286.2 286.1 288.5 289.5 289.8 288.9 287.3 284.3 280.4 277.2 274.6 272.9 271.6 269.4 267.5 265.7 264.6 263.9 263.2 262.5 262.5 263 263.4 263.2 262.6 261.2 259.8 259.4 258.8 257.5 256.3 255.1 255 253.5 252.1 250.8 249.5 247.8 244.9 243.4 241.8 240.2 237.5 236.6 235.7 238.2 239.9 241.2 243.3 246.5 248.1 249.7 250.4 249.8 249 248.2 247.4 246.6 245.7 244.9 243.9 242.9 242 241.1 240.2 240 239.6 239.3 238.9 238.6 237.8 236.3 234.7 232 228.4 225.8 222.3 219.2 216.2 214.7 213.6 212.4 210.8 208.9 207.1 205.3 204.1 202.1 199.1 203.6 206.2 207.3 208.1 208.5 209.6 210.9 212.1 212.3 211.5 207.5 203.7 200.4 197.7 193 195.8 199.2 202.5 205.2 206.4 206.3 205.5 206.2 206.4 211.3 217.9 218.1 217.6 215.3 212.4 210.4 208.1 205.5 202.7 199.5 195 191.5 188.8 186.7 185.4 183.3 180.7 181.2 178.6 174.8 171 167.9 164.7 158 156 156.1 156.7 157.3 156.9 157 157 157.2 152.5 151.8 151.1 151.1 149.8 154.4 153.6 152.4 151.6 150.6 149.7 147.7 147 146.3 146.5 144.8 145.4 146.9 148.1 147.3 146.9 146.9 147.1 147.1 145.5 145 143.8 145.6 146.4 139.6 138.6 140.8 141.5 139.7 139.9 136.6 135.4 135.8 137.2 139.6 138.4 136 134.2 133.3 133.8 134 134.7 134.1 132.8 133.7 135.9 136.8
286 287.5 288.5 287.6 289.4 290.7 291.5 290.7 288.9 286.3 282.7 280.5 277.1 275 273.2 270.3 267.5 266 264.5 263.9 263.2 262.5 263 263.5 264 263.7 262.7 261.2 259.8 259.3 258.1 256.6 255.4 254.8 252.6 250.9 250.2 248.9 247.5 245.3 242.9 240.4 242 239.8 241.5 241 240.1 239.1 240.6 241.7 243.5 245.9 247.7 249.4 250.1 249.5 248.7 248 247.7 246.9 246.1 245.6 244.8 242.9 241.3 240.4 239.6 239 238.8 238.4 238.1 237.6 236.4 234.9 233.3 229.6 227 224.4 222 219.8 217.8 216.1 214.7 213.3 211.4 209.6 207.9 206.1 205.2 204.3 203.4 204.2 206.7 208.1 208.4 208.7 209.3 210.5 211.3 211.8 209.8 205.8 202.4 199.7 196.1 194.5 199.7 203.7 206.4 207.6 208 207.9 207.6 208.2 209 216.1 220.7 220.2 218.6 216.7 212.6 210.9 208.6 206.5 201.9 197.4 195.1 192.7 192 190.9 190.5 190 186.9 184.5 182.8 179.4 176.5 173.1 168.7 163.3 156.5 154.9 154.7 154.1 154.3 154.4 154.1 152.7 151.4 152.8 153.4 152.4 153.4 152 151.6 149.4 148.1 148.1 147.7 146.9 146 146.1 146.9 150.8 151.4 151.4 150.8 150.6 151.6 152.6 152.3 152.4 150.8 149.8 146.1 142.9 141.8 143.2 149 150.1 150.9 150.7 149.1 149.2 148.5 146.8 146.6 145.8 144.7 142.6 139.5 138.7 138.4 137.4 137.6 138.2 140.5 141.2 140.1 138.8
287.1 288.9 290.6 290.4 290.2 291.8 291.8 291.4 290.3 287.8 285 282.8 280.4 278.2 275.4 271.2 267.7 266.4 264.7 263.6 263.2 263 263.6 264.1 264.6 264.1 263 261.4 259.9 258.6 257.3 255.8 254.7 253.7 251.2 248.9 247.5 247.3 243.9 241.4 243.1 244.4 242.9 243.7 243.7 242.8 241.5 240.5 241.6 242.5 243.2 245.2 247.3 248.8 249.3 249.1 248.1 247.1 246.8 246.4 245.9 245.6 243.9 241.8 240.2 239.3 238.5 237.7 237.6 237.5 237.2 236 234.7 233.5 232 228.8 226.2 224.6 223 221.3 219.1 217 215.6 213.9 211.8 210.4 208.7 207 206.3 205.5 204.3 201.6 206.7 207.9 208.5 209 209.3 210.1 210.2 209.3 207.3 204.7 202 199.2 196.1 198.5 203.7 207.7 210 210.2 210.2 210.2 210.2 210.8 211.7 218.5 224.1 224.3 222.5 218.3 214.4 211.2 209.2 204.3 199.9 197.2 195.9 196.2 196 194.4 192.4 191.5 189.8 186.8 183.1 179.5 176.6 173.7 170 165.2 157.5 158 155.5 154.6 154.2 152.9 154.1 155.1 156.9 157.1 156.3 153 153.9 154.3 153.7 152.5 152.2 153.6 152.2 150 151.8 151.3 152.1 153.1 153.8 153.7 154.6 156.7 157.6 157.4 157 156.8 156.3 155.4 153.9 153.6 152 151.8 152.1 152.8 154.1 153.9 153 153.2 152.5 152.8 152.3 151.2 149.2 147.3 145.4 141.8 142 141 139.9 139.3 141.1 141.5 141.7 140
289.5 291 292.5 292.8 292.8 292.6 292.1 291.7 291.3 289.2 287.2 284.8 282.4 279.6 276.5 271.7 268.4 266.7 265 263.3 262.9 263.2 263.8 264.3 264.8 264.3 263.2 261.6 259.7 257.8 256.1 253.3 252.1 250.7 249.7 246.6 247.9 249 249.7 249 248.2 247 244.2 245.9 245.1 244.2 243.3 242.5 242.9 243.3 244 244.7 246.6 248.1 248.4 247.9 247.3 246.6 245.7 245.5 244.7 243.8 242.4 240.6 239.2 238.3 237.5 236.6 236.2 236.3 235.8 234.5 233.2 232 230.6 227.8 225.3 224.5 223.2 221.8 219.3 217.6 216.1 214 211.9 210.4 209.1 207.9 207.2 206.5 204.8 201.2 206.5 207.6 208.4 208.9 209.4 209.8 209.5 207.5 205.8 203.5 201.2 199.4 196.8 201.9 206.4 210.2 212.4 213 213.1 213 213.3 214 215.1 222.8 226.5 226.2 223 219.9 215.4 210.9 207.3 202.5 200 198.2 198.2 197.9 197.4 196.6 194.4 193.4 189.4 186.8 183.4 179.7 176.7 173.9 170.9 164.7 163 162 159.5 157.8 157.7 154.7 155.8 158.1 158.5 157.5 155.5 156.6 158.8 159.4 159 158.6 158.5 158.7 158.1 154.8 156.7 156.1 155.7 156.9 156.7 157.3 160.5 162.5 161.8 162.2 161.4 159.8 159.1 159.4 159.3 156.4 156.6 155.6 156.2 155.6 156.5 156.8 156.2 155.7 154.8 155.6 155 154 151.5 149.7 148.1 146.6 144.9 143.3 141.1 140.1 140 140.3 140 138.9
292.3 293.9 294.7 294.3 293.7 293.1 292.7 292.2 291.7 290.7 288.6 286.4 284 280.4 276.5 273.3 269.8 267 265.3 263.7 262.6 262.9 262.9 263 262.8 262.2 261.4 260.7 258.6 256.5 253.4 252.8 251 252 253.1 252.1 252.9 253 253.5 252.3 250.9 249 247.9 247.4 246.7 246.1 245.5 244.4 244.3 244.3 244.6 245.3 245.8 247.2 247.3 246.7 246 245.3 244.5 243.2 243.4 242.1 240.7 239.1 238.4 237.8 236.9 236 235.4 235.5 234.9 233.4 232.1 230.8 229.2 226.6 225.1 224.3 223.4 222 220.2 217.6 215.4 214 211.4 210.1 209.1 207.8 206.8 206 204.5 203.8 206.4 207.3 208.4 208.9 209 208.8 208.3 206.3 204.2 203.1 202.3 200.8 199.8 204.4 209.2 212.4 215.1 215.4 215.6 216.2 216.9 217 219.6 225 226.3 225.6 222.3 218.7 213.2 208.7 205.5 202.2 200.2 200 199.5 199.2 199.1 197.1 195.7 193.2 189 186.5 183.2 180 176.7 173.5 170 163.1 164.6 164.4 162.8 160.9 159.9 158.4 155.8 158 157 155.7 157.6 158 159.6 160.2 160.9 161.3 161.6 160.9 155.8 159.1 159.8 158.9 160.3 160.6 160 161.9 164.8 165.9 165.8 165.7 163.9 162.6 162.1 161.9 160.8 159.4 158.8 157.8 158.1 158.8 158.8 157.5 158.8 157.8 157.8 158 157.6 156.6 152.8 150.9 150.5 150 147.2 145.4 142.3 140.8 140.2 140 139.6 138.4
295.4 295.8 294.9 294.7 294.3 293.7 293.2 292.8 292.9 291.6 289.9 288 285.3 281.7 277.3 273.3 270.5 267.8 265.8 263.7 263.3 262.7 262.8 262 261.4 260.1 259.1 259 256.8 253.5 255.3 256.5 256.7 256.2 255.5 255.7 256.1 255.7 255.9 254.6 252.8 249.5 250.6 250.5 249.4 248.3 247.6 246.3 245.7 245.7 245.6 245.9 245.9 245.9 246.1 245.3 244.3 243.3 242 240.2 241 240 238.8 237.9 237.5 237 236.4 235.7 235.1 234.7 234 232.3 230.9 229.4 227.9 225.5 224.8 224 222 221.4 219.9 217.2 214.4 212.9 210.8 209.3 208.9 207.8 206.3 203.8 202 205 206.6 207.4 208.3 208.3 208.5 207.8 206.9 205.6 204.4 203.2 201.9 200.9 201.8 207.2 211.9 215.1 218.3 220.3 221.4 221.9 222.2 223.3 223.6 224.8 225.4 223.9 221.2 217.8 212 208.5 205.8 202.8 203 203.8 202.5 200.6 199.9 197.5 193.5 190.8 187.9 185.5 182.2 178.7 175.8 172.8 168.2 167.1 165.8 165.3 163.8 161.5 160.3 157.5 158.8 159.3 158.9 157.9 155.8 156.5 157.4 159 160.2 161 161.4 160.1 159.3 160.7 161.5 161.7 162.6 163.1 163.5 165.9 168.2 169.7 169.2 168 166.5 164.5 163.5 162.7 160.9 160.8 160.6 159.8 159.3 159.8 160.8 160.4 160.8 161.1 161 160.7 160 158.5 156.8 155.6 154.2 154.1 151.9 149 145.8 143.1 140.3 139.6 139.3 137.7
297.9 297.5 296.4 295.1 294.7 295.1 294.5 294.3 294.1 292.6 291.1 289 286.2 282.9 278.7 274.3 270.3 267.6 265 262.7 262.3 262 261.4 260.2 259.8 259 258.3 257.4 254.9 255.4 257.1 258.2 258.8 256.6 258.7 259.2 259.2 258.6 258.1 257.3 255.4 252.5 254 254 252.8 251.6 249.8 248.4 247.1 247 246.7 245.8 245.5 245.4 244.7 243.2 242.1 241 239.6 238.5 238.9 237.2 235.9 235 235.7 235.5 235.2 234.9 234.5 234.1 233.2 231.9 230.5 229 227 225.2 224.5 223.7 220.8 218.4 216.6 214.6 212.8 211.5 208.8 208.6 208.5 207.7 206.6 204.2 206.1 205.1 206.3 207.3 208.3 208.1 207.9 206.7 206.1 206 205 203.1 202.1 199.8 204.1 208.5 213.4 217.1 220.6 223.7 225.1 225.6 225 224.9 225.2 224.6 224.7 223.2 220.3 215.7 210.9 208.2 207.5 206.7 206.3 204.7 203.2 201.3 198.2 194.9 192.3 189.5 186.7 183.6 180.7 177.8 174.6 171 169.8 169.7 168.6 166.3 164.6 161.4 160.5 159.6 160.7 160.8 160.5 159.5 159.3 159 157.2 157.3 159.4 160.5 161.3 160.3 160.7 161.7 162.4 163.3 164.4 164.9 166.3 168.6 170.9 172.3 171.3 170.1 168.9 166.4 164.7 164 162.5 161.9 161.8 161.6 160.9 160.7 161.4 161.5 162.4 163.6 165.3 165.3 163.1 162 159.7 157.9 157.3 157.2 156.2 153.1 149.9 146 144.5 142.4 140.3 140
300.7 299.4 297.4 295.9 296.5 297.1 296.2 295.6 295.4 293.9 291.7 289.5 286.3 283 280 275.9 271.1 267.4 264.9 263.2 261.8 260.6 260.3 258.9 258.3 258.1 257.5 255.6 256.1 257.4 258.7 259.9 260.3 261 261.2 261.8 261.8 261.3 260.5 259.5 257.6 256 257.4 256.7 255.6 253.8 251 249.8 248.6 247.3 246.3 245.3 244.8 244.5 243.8 242.4 241 239.4 238.4 237.6 236.5 234.2 232.9 232.2 232.8 233.7 233.7 233.7 233.3 232.8 232 231 230.2 228.9 227.5 226.2 224.5 223.1 221.7 219.4 216.6 214.7 212.8 211.7 209.9 207.7 206.3 205.4 205.5 205.5 206.9 206.3 206.6 207.3 208.3 208.3 206.6 207.8 207.4 206.6 205.8 203.9 202.4 202.1 205.1 209 213.9 218.4 222.1 225.1 226.5 226.6 226.3 226.2 225.6 224.4 223.8 221.9 217.8 213.3 210.3 209.8 209.7 208.3 206.3 204.6 202.6 199.5 196 193.3 191 188.3 185.4 182.4 179.8 177.6 173.6 171.3 173.2 172.5 171.5 169.3 164.9 164.3 164 163.3 162.6 162.4 162.1 161.6 161 160.3 160.2 159.4 158.1 159.7 160.2 159.9 158.4 161.6 163.1 164.3 165.6 166.6 168.1 170.8 172.8 173.9 172.7 171.1 169.9 167.6 166.5 165.2 164.1 163.4 163 162.7 162.4 163.1 164.9 166 166.9 167.5 168.6 168.5 168 166.2 163.8 162.6 160.4 160.4 158.6 157 154.2 149.5 148.3 146.4 144.6 142.7
303 301.6 299.4 299 299.2 299.2 298.2 297.3 295.6 293.6 291.5 289.1 286.4 283.2 280.2 277.2 273.1 267.2 265.4 263.8 262.3 260.6 259.2 260.1 258.3 257.3 256.2 254.9 258.2 259.3 260.5 261.5 262.4 263.2 263.8 264.1 264.3 263.8 262.3 260.8 259.4 258.7 258.8 258.3 256.9 255.2 251.6 250.4 249.2 247 244.6 244.9 244.4 243.8 242.9 241.6 240.2 238.9 237.7 236.2 234.2 231.5 229.8 229.4 230 231.3 232.3 232.2 232 231.3 230.5 229.7 228.1 227 225.9 224 222.8 222.3 221.3 219.9 216.8 215 212.4 210.1 206.8 206.1 207 205.1 206.3 206.1 207.6 206.9 207.7 208.1 208.6 208.3 208 208.5 207.7 207 206.2 204.7 202.8 203.4 206.4 209.5 214.4 219.3 223.4 225.3 226.9 227.2 227.3 226.7 225.6 224.3 223.1 220.2 216.4 212.5 211 210.3 209.2 207.8 205.8 203 200.2 197.1 194.1 191.9 189.7 186.4 182.2 181.5 178.5 178.7 175.8 175.4 176.3 175.4 174.4 172 167.8 169.1 167.9 166.5 166.1 165.3 164 163.2 162.6 162 161.6 160.3 159.3 159.4 159.6 160.4 161.7 161.2 163.8 165.1 166.5 167.8 169.7 172.1 173.4 174.5 173.6 171.9 169.6 168.6 167 166.4 165.7 165 164.3 163.7 164.7 166.4 167.8 168.2 169.7 170.2 169.9 170 170.4 169.2 167.6 167.4 165.4 164 162.4 159.5 157.8 153.7 151.4 149.9 147.9 145.5
305.1 302.9 301.7 302 301.5 301 298.6 296.3 293.4 291.3 289.5 288.3 286.2 283.1 279.9 276.6 272.8 267.3 264.2 262.3 260.3 260.5 262.5 261.8 260.3 259.2 258.4 256.7 259.2 260.3 262.3 263.5 264.4 263.5 264.8 265.1 265 264.2 263.2 262 260.8 260.8 260.5 259.8 258.2 256.4 253.7 251.8 249.9 247.6 244.7 243.6 242.2 241.1 241.6 240.5 238.1 236.4 235.3 233.9 231.3 229.1 227.4 227.2 226 226.9 229.5 229.6 229.6 229 227.5 227.4 225.3 223 223.9 222.6 219.7 219.5 218.3 216.7 214.7 213 211.5 207.7 206.2 209.3 209 208.8 209.6 208.5 208.9 208.3 208.7 209.1 209.4 209.1 208.9 209.5 208.4 207.4 206.5 205.5 205.2 203 206.8 209.4 214 219.3 222.8 224.8 225.6 226.4 226.4 226.2 225.5 224.6 224 220.6 217 214.9 213.7 211.2 209.5 207.7 205.4 202 198.2 196.4 193.4 192 189.7 187.9 186.9 185.3 183.4 180.8 178.2 178.6 179.5 178.8 177.7 174 173.1 173.7 172.4 171.4 170.3 169.2 167.8 166.4 164.9 163.8 163.9 162.3 162 162.8 162.4 161.8 162.7 163.7 162.7 164.2 165.7 167.4 171.1 172.9 174.3 175 174.2 172.3 171.2 169.4 168.2 166.9 166.4 165.4 167.1 167.4 168.4 169.3 171.6 172 172.5 172.9 172.8 172 171.7 171.5 171.6 172 172.3 171.8 169 165.9 161.5 157.8 154.7 152.8 149.9 148.2
306.9 304 303.5 304.5 304 301.5 298.6 295.5 291.6 289.2 287.4 286.8 284.6 282 278.8 275.1 270.6 267.5 262.8 264 263.6 263.9 263.7 262.8 261.4 260 259.6 259.4 260.2 262.6 264.1 265.1 265.7 264.5 265.6 265.8 265.6 264.6 263.7 262.7 261.8 262.4 261.7 261.1 259.2 256.8 253.8 252 250.2 247.9 245.1 243.1 241.7 240.6 239.7 239 235.8 233.9 232.7 230.9 226.9 226.1 224.6 223.5 222.7 222.4 222.9 224 224.6 224.4 224.2 221.6 219.8 219.6 218.2 218.5 217.6 214.8 213.1 211.9 210.4 209.5 209.1 209.9 211.8 211.9 212.7 212.5 212.3 209.9 209.9 209.9 210 210 210.3 209.9 209.6 210 210.2 209.1 208.1 207.9 206.7 206.1 205.8 208.8 210.9 216.4 220 222.3 223.6 224.4 225.4 225.2 225.6 225.3 225 222 220.6 219.2 217.5 214.7 211.2 207.3 204.9 202.3 198.2 196.7 196.4 195.5 193.1 192.5 190.8 188.7 186.6 184.1 182 181.1 181.9 182.1 179.3 176 177.4 176.8 176 174.8 173.5 171.8 170.4 169 167.6 166.4 165.3 165.5 164.7 165.1 164.7 164.3 163.4 165.3 165.3 166.1 167.4 168.7 171.1 173.6 174.7 175.4 174.6 173.4 171.9 170.3 170.9 168.7 168.6 168.4 169.6 171.7 172.4 172.1 172.7 173.9 173.7 175.1 175.7 174.9 175.7 176.4 176.5 175.3 174.9 174.6 173.8 170.6 166 163 159.9 155.2 152.4 150.3
308.9 307.3 306.6 306.8 304.6 301.6 297.6 290 288 287 285.9 284.7 282.8 280.8 277.4 273.7 268.5 265.1 266.7 267.7 266.8 267.4 265.7 265.7 264.2 262.6 261.5 262.1 262.8 264.8 265.6 266.3 266.4 266.3 267 266.7 266.1 264.9 263.9 261.2 263.8 263.9 262.6 261.6 259.7 258 256.1 253.2 250.3 248.1 246.2 244.5 242.9 241.6 239.2 237.3 233.9 231.2 229.6 228 224.3 222.4 222.3 222.4 221.6 221.6 221 221.2 221.3 221.1 220.3 218.5 216.7 215.8 218 217.9 219.8 221.1 218.5 216.8 215.5 213.5 211 213.7 213.9 214.6 215 215.5 214.7 213.4 212.3 211.7 211.8 211.8 211.8 211.1 210.5 210.6 210.8 210.9 210.2 209.3 209.2 207.7 205.6 208.4 210 212.4 216.2 218.8 220.7 222.5 223.8 225.3 226.5 227.2 227.5 227.2 225.9 223.3 220.6 217 213.9 211.1 207.1 202.5 202.3 201.7 201.1 198.8 197.6 196 193.5 191.6 188.7 187 184.6 182.7 184.1 183.1 180.1 179.2 180.1 180 178.9 177.5 175.6 173.9 172.6 171.2 170 168.8 167.4 166.7 166.5 166.8 166.2 165.9 164.1 166.6 167.7 168.9 170.2 171.5 172.6 173.5 174.4 175.8 176 174.4 174.5 174.1 174.9 172.6 171.3 171.6 171.6 172.7 174 174.6 174.5 175.3 175.7 177.8 179.3 180 181.1 181.6 181.2 181.1 180.4 179.9 178.2 173.8 170.3 167.2 163.5 159.3 156.1 152.3
310.6 310.5 309.5 308.3 305.4 301.9 296.6 290 287.6 286.5 284.9 283.3 280.8 277.4 274.9 270.7 267.9 270.7 270.7 271.4 270.3 269.4 268.6 268.5 266.9 265.2 263.6 263.3 264.4 266.2 266.9 267.5 266.6 267.2 267.5 267.3 266.5 265.2 263.7 264.3 264.3 265.4 264.1 262.9 262.2 261.3 258.5 254.7 253.2 250.8 247.9 245.8 243.7 241 238.2 236.1 232.9 228.2 225.8 224.4 222.9 221.6 220.8 220.9 220.5 220.7 219.6 219.7 219.7 219.7 218.9 216.3 217.7 218.2 220.7 222.6 223.4 222.5 221 218.8 215.8 214 212.7 215.2 216 216.9 218 217.6 216.4 215 213.9 213.6 213.6 213.4 213.3 212.6 212 211.3 211.8 211.9 210.3 210.9 210.2 208.3 209.7 206.5 208.1 210.4 212.9 215.1 217.7 220.8 223.6 225.1 226.3 227.4 228.6 229.7 228.2 226 223 219.2 216.3 213.8 209.5 208.6 208.5 208.2 206.5 204.4 200.8 198.8 196 193.3 190.9 189.4 185.8 184.9 185.6 184.2 181.8 182.4 182.2 182.2 181.2 179.6 177.5 176 174.8 173.7 172.6 171.2 169.8 168.5 168.6 169.6 167.8 167 167.7 169.5 170.6 171.7 173 174.1 175 176.2 175.9 177.7 178.7 178 179.5 179.9 179.1 177 177.4 176.4 173.5 175.7 175.6 176.5 176.5 178.7 179.2 182.2 184.3 186.4 187.7 187.1 186.5 184.9 184 182.4 182 177.8 174.6 171 166.8 162.5 159.7 155.6
312.5 311.7 310.9 308.5 305.3 302 297.7 290.9 287.3 285.9 285.2 283.8 282.5 279.8 275.6 273.8 270 273.2 274.4 275.1 275.5 273.3 272 272.7 270.9 269 267.3 266.7 266 266.3 267.8 268.3 267.7 267.4 266.6 267.5 265.1 263.6 264.1 266.2 266.4 266.4 265.6 264.2 263.7 263.2 261.4 257.2 254.5 251.9 249.8 248.8 245.8 241.2 238 234.1 231.4 229.7 227.2 222.3 221.5 221.4 220.8 220 219.5 219.9 218.6 218 218.1 217.3 217.4 215.6 218.7 220.7 223.7 224.7 224.3 223.2 222.3 218.7 217.4 217.1 216.5 218.2 219.4 219.8 219.9 219.7 218 216.4 214.5 215.3 215.1 215 214.8 214.1 213.4 212.8 212.2 211.9 212.1 211.8 210.6 210.5 211.7 210.6 208.8 209.5 209.4 213.1 216.1 219.5 222.9 224.9 226 227.2 228.6 230.1 229.6 227 225 222.2 219.3 216.7 213.3 213.1 213 212.4 211 208.1 205.2 202.6 200.3 197.1 194.3 192.5 189.5 187.4 187.8 186.9 185.9 186.6 185.5 184 184.5 183.4 181.1 179.7 178 176.1 175 173.6 172.2 171.3 171.1 171.2 170 170.3 170.7 172.5 173.7 174.6 175.7 176.6 177.6 178.6 178 180.3 181.2 181 180.9 181 180.1 179.4 179.5 178 176.2 178.2 179 179.3 180.1 181.9 184.9 187.9 190.4 192.5 193.9 195.1 194.2 191 189.5 186.2 184.1 181.2 177.5 173.3 169.3 166.3 162.6 158.7
313.1 312.3 310.8 308.4 305.3 302 297.2 291.9 288 286.2 285.9 285 283.4 280.3 274.8 273.4 274.9 276.4 278.2 280.3 280.4 279.2 277.6 277.4 276.8 275.3 272 269.2 268.6 268.2 269.2 269.2 268.6 268 267.2 267.6 266.4 266.4 267.4 266.9 266.8 266.4 265.9 265.8 265.7 265 263.1 259.5 255.8 253.2 251.5 247.8 247.3 243.7 240.6 236.4 234.3 231.6 228.5 224.5 221.8 220.5 220.7 219.7 218.1 218.2 217.2 217.2 216.1 218.3 217.7 221.3 223.6 226 227.5 227.9 227.9 225.9 223.7 220.6 221.1 220.8 219.1 219.9 220.8 221.5 221.6 221.3 219.4 217.2 217.3 215.8 215.4 216.2 216.3 215.6 214.9 214.3 214 214.2 212.9 212.5 213 213.1 213.5 212.7 212.4 213.2 213.8 212.4 216 218.9 221.7 224.3 225.7 227.3 229.2 231.1 230.4 228.4 226.8 225.1 222.1 219.2 216.5 214.6 214.9 214.6 213.8 213 211.7 208.7 204.7 201 198.4 196 192.8 190 190.2 189.7 189.9 190.7 189.1 188.2 187.9 188.2 187.4 185.4 184.2 182.6 180.2 179 178.3 176.6 175.2 174.3 173.7 174.7 174.9 175.5 176.8 178.3 179.3 180.6 181.3 181.8 181.2 183.3 184.1 183.8 183.5 182 181.7 181.1 180.7 179.8 179 180.3 181.1 182.3 184 186.8 190.5 193.8 196.3 198.3 199.7 200.5 200.4 198.2 195.2 190.9 188.5 186.2 183 179.5 174.2 170.1 166.7 162.6
313.7 312.2 310.1 307.7 305.2 302.1 297.4 292.8 289.6 287.5 286.2 284.9 280.5 276.3 276.9 280.7 283.6 285.5 285.5 285.5 284.7 284.7 284.2 283.4 281.9 279.1 276 273.1 271.2 269.9 271 270.3 269.9 269.3 267.7 268.2 266.7 268.3 268.4 268 267.6 267.3 267.4 267.3 267.1 266.4 264.5 260.9 257.3 254.9 250.6 251.3 250 246.6 242.6 237.9 235 232.5 229 224.6 221.5 221.5 220.3 218.4 218.9 218.7 219.1 219.3 220.4 221.8 223.4 229 230.6 230.8 231.3 231.6 230.9 227.3 224.2 223.1 223.1 222.4 220.6 220.5 222.1 223 223.4 223.3 222.4 220.3 219.9 218 218 219.3 217.9 217.1 216.5 216.4 216.1 215.7 215.5 215.8 215.3 216.2 217 216.9 216.7 216.8 216.5 216.4 214.3 216.9 220.4 223.1 225.9 228.6 230.5 232 231.8 230.4 229.1 227.2 225.2 222.4 220.3 218.3 218.7 219.5 217.8 217.2 215.5 212.9 208.5 204.7 201.3 196.7 195.3 194.7 195.1 194.2 193.7 194.6 194.6 195.5 196.5 195.5 194 192.6 191.1 188.6 185.9 184 181.6 180.2 178 177.7 176.6 177.4 178.2 179.2 180.7 182.2 183.6 185.5 184.7 186.2 185.5 186.6 187.1 187.8 186.3 184.9 183.7 183.7 183.2 181.9 182.5 184 185.6 187.1 189.3 192.5 196.5 200.7 204.1 206.1 207.5 208.5 207.6 205.2 201 196.8 193.4 191.2 187.6 183.6 179 175.5 171.2 167.1
313.2 311.7 309.4 306.9 304.4 302.2 299.2 295.1 291.4 288.9 286.4 282.5 277.9 277.1 281.9 286.6 288.8 289.4 289.5 288.3 288.4 288 287.5 286.8 285.4 282.6 279.3 276.7 274.7 274.3 273.9 271.5 271 268.7 270 268.2 269.3 270 269.5 269.1 268.3 268.1 268.2 268.2 268.2 267.4 265.7 262.3 258.7 255.3 254.6 254.3 252.1 249.9 245 240.4 236 233.3 229.5 224.8 224.8 223.6 221.2 220.5 220.5 221.4 222.5 222.4 225 227.7 229.5 232.5 233.3 234 234.3 233.9 233 228.2 224.8 224.6 223.9 223.2 221.7 221.2 223.4 224.8 227 229.2 225.5 224.1 222 220.8 220.9 222.1 222.1 220.7 220.6 221.9 220.2 219.9 219.7 221.3 222.9 222.5 221.7 221.1 220.6 219.3 218.8 218.2 218.9 217.6 220.1 222.8 225.6 228.5 231.3 233.7 234.4 233.1 230.8 229 227.2 226 223.3 223.9 225.2 225.1 223.4 221.1 219.3 216.2 212.2 209.1 204.7 202.3 201.1 198.6 198.9 198.6 197.4 198.6 199.6 200.9 201.7 199.7 198 196.4 194.4 191.9 188.6 186.4 184.8 183.6 181.4 181.3 180.2 181 181.8 183.2 184.7 186.5 188.3 188.9 190.3 190.8 190.6 192.2 190.9 191.5 190.5 189.5 188.6 188.4 188 187.1 187.4 188.6 190.6 193.1 195.1 199.5 203.7 208.2 210.5 213.7 216.9 217.4 217 213.4 207.9 203.2 199.3 196.3 192.4 187.9 183.4 179.4 174.9 170.4
312.4 310.8 308 305.4 303.3 301.6 299.7 295.5 290.6 287.6 285.3 281 277.1 282.6 288.2 290.9 292.1 292.3 291.4 291.2 291.2 290.7 290 289.2 287.8 285.8 282.6 280 278.4 278.5 277.6 275.8 273.1 271.6 273 272.2 271.6 271.7 270.8 270.3 268.9 268.9 269 268.8 268.5 267.6 265.7 263.5 259.9 254.2 257.4 256.5 254.4 251.8 248.1 243.4 237.9 234.3 230.7 229.6 226.6 224.9 223.8 221.9 224 224.3 226 227.5 228.7 232.2 234 235.1 236.1 236.4 235.8 234 232.6 227.2 225.6 225.8 225.3 224.6 221.4 223.4 228.8 233 233.7 233.9 231.9 230.4 228 226.4 225.8 225.8 228.2 227.2 228.2 230.5 229.5 227.7 228.4 229.4 228.6 227.4 225.8 224.8 223.7 222.3 221.4 220.7 220.5 219.3 220.7 223.1 225.9 228.7 231.7 234.4 235.5 234 232.2 230.9 231 229.9 230.8 230.5 230.3 230.3 228.4 227.6 223.7 218.9 215.2 213.2 208.4 206.6 204 201.3 201.3 201.1 200.7 204 206.5 207.9 207.5 205 202.7 200.3 197.8 196.9 193.5 191.9 189.4 187.6 186.5 185.1 184.9 185.8 186.3 186.7 188.9 191.6 193.6 193.8 195.6 195.1 195.2 197.2 195.9 196.5 195.3 194.3 193.6 193.4 193 193 193.2 193.8 197.4 199.9 202.8 206.5 211.3 214.6 217 221 224.6 226.5 225.7 221.5 216.1 210.3 204.7 200.3 197.1 192.8 188 183 179.2 174.8
311.5 309.6 306.5 304.3 302.7 301 298.5 294.6 290.2 287.1 284.1 279 283 289.9 292.6 294.5 294.9 294.3 293.3 292.9 292.7 292.2 291.4 290.5 289.5 288.1 284.9 281.9 279 279.7 279.1 278.9 277.7 276.6 275.8 275 274.2 273.4 272.3 271.6 269.7 269.6 269.3 269.1 268.6 267.5 266 263.8 259.5 257.4 259.5 258.6 256.8 253.5 249.8 245.5 240.5 235.1 234.9 233.1 230.2 227.1 227.3 226.2 226.4 227.2 228.8 230.9 232.9 236.9 238.6 238.3 238.5 237.9 237.3 235.1 231.3 229 231.2 230.3 228.5 228.5 230.9 231.7 235.2 238 238.2 238.5 239.6 239.8 237.7 234.9 233.7 236.2 238.1 238.8 237.9 237.1 236.4 236.3 237.2 236 234.9 233.1 230 228.3 226.9 225.4 224.2 223 222.1 219.9 220.3 223.6 226.1 229.2 232.5 234.6 236.5 235.9 234.9 234.3 234.9 235 234.6 233.7 232.5 232.6 231.9 229.5 226.5 222.1 219.9 217 212.4 211 208.3 205.7 205.9 205.9 209.7 212.4 214 214.2 214.2 212.4 210.1 207.5 204.8 202.8 200.8 197 195.2 194.1 190.7 190.4 189.2 190.8 191.5 192 194.7 196.9 197.5 198.8 200.5 200.4 199.5 201.8 200.8 201 200 198.6 200 199.9 199.4 199.3 198.9 201 206.9 210 213.1 217.3 219.3 223.7 225.7 227.7 232.1 232.6 231.7 227.2 222 216.2 210 203.9 199.6 196.4 191.7 186 182.1 178.2
310.6 308.5 305.1 303.7 302.1 300.8 296.6 294.7 292.4 289.2 282 281.3 289.7 293.7 296 296.4 296.6 296.4 295.4 295.5 295 293.7 292.7 291.5 290.3 288.3 285.1 281.6 281.9 281.2 280.3 279.4 278.1 279.3 278.5 277.7 278.6 277.5 274.9 272.5 271.8 269.9 269.7 269.5 268.4 267.2 266 264.1 261 262.1 261.9 260.8 258.6 255.3 251 246.3 241 235.6 237.2 234.7 232.4 231.1 229.6 228.9 230 231 232 234.6 237.4 240.9 242.8 242.7 241.9 241.5 239.5 237.1 235.4 238.4 238.8 238 238.4 238.1 239.3 240.2 242.2 243.1 243 243.5 244.4 244.4 241.9 239.9 241.1 243.2 244.9 244.1 243.1 242.2 242.4 242.1 241.5 240.3 238.3 236.3 233.6 231 228.6 227.1 225 223.7 222.5 220.9 220.6 224.1 226.6 230 232.7 234.7 236.6 237.3 236.6 237 237 236.8 237.3 236.2 235.2 234.3 233.4 232 229.5 226.5 224.4 222.2 217.3 215.4 213.7 213.4 213.8 214.7 217.9 219.9 220.3 219.9 219.2 218.3 215.6 214.3 212.2 209.4 205.7 201.7 200.7 197.8 196 195.3 194.3 195.2 195.9 197.3 199.5 201.7 203.6 204.2 205.3 206 206.2 207.8 206.7 206.7 206.9 206.3 205.3 207.2 208.1 208.5 209.4 210.8 216 219.6 222.3 226.1 228.9 232.3 233.9 235.1 237.7 237.4 235.9 232.4 226.9 220.9 214.4 207.4 202.8 197.8 193.6 189.8 185 181.3
309.6 306.3 303.1 301.9 301.6 300.5 298.7 296.4 293.1 289.5 282 287.7 292.4 295.9 298 298.1 298.2 298.3 297.8 298.4 297.3 295.4 293.6 291.9 290.7 288.4 285 282.7 283.4 282 280.8 280 279 280.7 280.6 281.9 282.2 280.9 277.3 276.4 274.6 272.8 271.1 269.5 268.4 267.2 266.1 264.7 265.1 264.6 264.5 263.1 260.5 255.8 250.8 245.7 240.7 238.6 238.1 235.9 236.2 235 233.3 234.3 233 234.7 236.9 239.5 242 244.9 246.3 246 246.2 246.3 244.8 243.8 243.7 243.9 245 246 245.2 244.9 245.4 245.6 246.5 246.8 247.2 247.6 248.1 248.1 245.8 244.8 246.9 247.7 247.9 247.1 246.1 245.2 244.7 244.6 245 243.7 240.9 237.5 235.3 232.9 230.3 227.5 226 224 222.7 219.8 220.5 224.1 227.5 230.8 232.8 234.6 236.1 237.5 237.5 237.8 238.8 238.2 239.6 238.6 237.8 237.7 237.3 237.1 234.8 231.7 229.1 226.4 223.8 222.7 219.8 220.9 220.6 222.7 223.8 225.4 224.2 223.1 222.6 223.1 220.5 218.2 215.9 213 210.6 207.2 205.3 202.5 201.6 199.5 199.4 201.3 202.2 203.3 204.4 206.5 207.6 209.4 211.1 212.3 213.1 213.8 214.3 214.7 215.1 214.2 213.5 214.2 215.1 216.5 218 219.6 223.8 227.9 230.8 234.4 237.6 240.4 241.9 243 243 242.3 239.3 236.1 231.6 225.1 218.1 211.5 205.9 200.9 195.7 191.5 187.4 184.8
307.8 303.9 300.7 299.3 299.4 299.9 298.4 296.4 292.9 288.4 286.9 291.7 294.9 297.3 299.2 299.5 299.8 299.8 299.8 300 299.6 297.4 295.3 293.6 291.6 290.8 289.5 285.9 284.8 283.5 282.4 282.4 280.5 282.6 283.1 283.6 284.2 283.4 279.6 278.9 277.4 275.5 272.9 271.2 269.7 268.6 267.4 266 267.1 266.6 265.4 264.1 260.4 255.4 252.8 247.2 244.5 241 239.9 241.1 242 242 239.2 240 236.6 238.3 240.7 243.8 245.9 248.1 248.7 249 250 250.7 250.8 250.4 250.1 250.5 250.9 251.5 251.6 251.1 250.9 251.3 251.4 251.5 251.6 251.7 251 251 249.7 248.4 249.6 249.2 249.5 249.1 248 246.9 246.5 246.4 246.1 244.9 242.8 239.7 236.4 233.7 229.9 226.9 225.5 224.1 222.8 221.9 223.4 224.7 227.9 230.7 232.6 234.1 235.6 237.1 238.1 238.2 239.4 240.1 241.8 241.1 240.6 240 240.2 240 239.1 236.9 234 229.9 229.3 227.2 225.7 226.8 226 228 228.7 229.4 229.5 227.5 229 227.3 225.9 222 219 217.5 213.3 211.1 210.3 207.5 204.8 204.2 204.9 205.9 206.9 206.8 209.2 210 212.2 213.9 215.7 216.8 217.7 217.8 217.2 218.3 219.2 218.1 219.5 220.8 221.7 224 225.3 227.6 231.2 235.6 239.3 243.1 247.2 249 248.2 248.4 247.9 245.5 242.1 238.8 233.5 227.3 220.6 214.6 208.7 203.7 198.4 193.1 189.4 187.4
305.7 302.1 299 296.9 298 298.1 296.4 293.7 290.1 285.9 289.6 294.1 296.1 298 299.1 299.7 300.6 300.9 301 301.1 299.8 298.6 296.9 295.1 293.1 293.2 292.1 289 286.1 284.9 284.7 284.1 282.2 284 284.7 285.3 285.1 284.2 283.1 281.8 279.9 276.5 274.6 273.1 271.5 270 268.2 268 268.7 267.7 266.4 265.3 262.6 259.1 255.8 253.8 249.7 246 244.7 246.1 247.9 247.8 245.4 242.4 239.6 243.5 247.3 249.8 251.7 252.1 251.3 252.7 253 253.1 253.2 253.9 253.6 253.9 254.5 256.3 256.8 257.1 257 256.2 255.3 255.7 256 255.8 253.9 253 252.3 251.7 251.6 251.3 251.2 250.5 249.3 248.1 247.1 246.8 246.5 245.9 243 240.5 237.5 233.2 230.5 228 225.9 224 223.5 221.3 224.1 224.5 227.6 230.6 232.1 233.6 235.1 236.6 237.8 239 241 241.5 243.2 243.2 242.2 242.1 242.5 242.7 241.6 239.7 237.2 234.9 233.2 231.4 231.1 231.9 231.6 231.5 231.8 233.2 233.7 232.9 231.4 230.3 229.2 227 223.2 221.6 217.5 215.5 214.6 212.1 211.1 209.8 209.9 210.9 212.1 212.1 213.8 216.4 218 218.7 220.3 221.4 222.4 222.2 222.6 222.8 222.7 224.5 226.3 227.9 229.7 231.6 233.5 235.6 238.3 242.1 246 249.9 252.6 253.9 253.8 253.3 252 249.2 245.1 241 234.9 228 220.8 215.2 209.4 204.6 199.2 194.8 191.9 189.6
303.9 300.7 297.6 295.3 296.6 296.3 293.9 289.7 289.5 291.3 291.6 295.1 296.5 298.2 299 299.8 300.2 300.2 300.3 300.2 300.1 298.8 297.4 296.9 294.8 294.9 293.4 291.1 288.8 286.4 286 284.6 285.2 285.9 286.4 286.2 285.8 284.8 284.7 283.9 281.6 279.2 277.2 275.3 273.7 271.4 271.7 270.7 270.6 270 269 267.6 265.6 263.2 262.1 260 256 253.2 249.9 249 249 248.5 247.1 245.7 247.2 249.7 253.5 255.6 256.3 256.1 255.7 255.2 255.4 255.5 255.6 255.9 257 257.5 259.3 261.2 261.6 261.6 261.3 260.2 259.2 259.2 258.9 258.4 256.4 254.3 253.4 252.2 253 252.8 252.5 251.7 250.5 249.3 248.1 247.4 247.1 246.4 243.9 240.4 237 233.8 231.5 227.7 226.5 225.4 224.6 221.8 224.5 225.3 227.2 230.5 232.1 233.4 234.7 236.1 237.6 239.5 242.6 243.4 244.1 244.7 244.4 244.3 244.5 245 244 242.1 240.1 238.7 237.4 236 235.7 236.7 237.3 236.6 235.9 236.3 236.7 235.7 234.1 233.1 232.5 231.1 229.1 226.5 223.3 222.3 220.2 217.4 215.8 215.2 214.8 214.4 215 217.1 218.1 220.3 221.7 223.3 224.2 225.4 226.1 225.5 226.5 227 226.9 228.9 231.8 233.9 235.7 237.9 240.2 242.2 243.9 247 251.3 254.9 256.3 257.3 257.4 256.5 254.3 251.5 246.9 240.7 233.8 227.2 221 215.4 209.3 204 198.8 195.4 192.5 190.7
302.5 299.4 296.3 295.5 295.7 294.6 291.7 292.1 293.4 294 294.4 295.4 295.7 297.3 298.1 299 299.3 299.3 299.3 299.6 299.4 298.5 297.2 296.9 297.9 297.6 296.2 294 291.7 288.9 287 284.7 286.3 287.4 286.9 286.3 285.6 286.3 286.3 285.7 284.4 282 279.9 277.8 274.6 273.1 274.3 273.7 272.9 272.6 271.6 270 269.3 266.8 266.5 263.7 262.2 259 255.6 251.7 251.3 251.1 250.5 249.9 251.5 255.4 258.5 259.9 259.8 259.4 259.1 258.4 258.3 258.3 258 258.1 259.1 261.6 264.7 265.1 265.2 265.3 264.5 263.3 262.2 261.8 261.1 259.7 257.6 255.1 254.1 253.7 253.3 253.4 252.9 252.1 251.4 250.5 249.3 248.1 247.7 246.9 244.7 242.8 239.2 234.6 232.1 229.7 227.6 226.5 225.2 222.8 225 226 227.3 230.3 232.5 233.8 235.1 236.7 238.3 241.9 243.4 243.7 245.2 245.9 246.4 246.4 246.5 246 245.2 244.1 242.2 241.5 240.6 239.3 238.9 240.1 241.2 240.5 238.7 239.4 239.1 237.7 236.3 236.9 236.2 234.7 232.8 229.9 228.5 227.3 224.5 223 221.5 220.2 219.5 219.4 219.6 220.9 221.5 223 224.5 225.9 228.3 229.2 229.5 229.3 229.4 230.6 230.7 233.2 236.3 239.3 241.6 244.2 246.3 248 248.2 251.8 255.5 257.9 259.2 260 259.4 257.8 254.9 250.5 245.8 239.2 232.1 225.4 219.5 213.4 208.4 203.4 198.6 195.4 193.2 191.6
301.6 298.8 295.8 297.3 297.8 296.6 296.1 296.3 297.7 297.6 297.5 297 296.4 296 297.6 298.7 298.8 299.2 299.6 299.1 298.5 297.6 297.2 298.9 299.3 299.3 298 295.9 293.9 291.2 287.6 284.8 286.7 288.8 287.8 286.6 286.5 287 287.2 287.3 285.8 283.7 280.9 277.9 274.2 275.9 277.3 277.2 276.6 275.4 275 274.9 274.2 272.4 269.6 267.5 266 263.7 260.8 257 255.6 255.4 254.3 252.8 257 259.7 261.1 261.9 262.4 261.9 261.4 260.9 260.4 260.3 260.3 260.3 261.9 264.2 266.2 267.1 267.7 267.4 266.4 265.3 264.1 262.2 261 259.3 256.7 255.6 254.5 253.4 253.3 253.9 253.3 252.6 251.8 251.1 250.3 249.3 248.3 247.3 245.6 243.8 241.2 237.2 233.8 231 228.5 227.2 225.9 223.9 225.4 226.6 228.6 231.2 233.1 234.8 236.4 237.9 239.5 242.2 243.2 244 245 247 247.8 247.6 247.2 246.6 245.7 245 244.6 244 243.1 242.4 241.9 242.4 243.6 242.8 241.8 241.5 241.1 240.1 240.7 240.2 239.6 238.1 237.1 234.7 232.8 231.9 230.3 228.3 227.4 225.1 223.8 223 223.5 223.8 224.5 225.7 227.2 228.9 231.2 231.8 232.4 232.7 233 232.9 232.8 235.2 238.9 243.7 246.8 249.1 250.7 251.3 251.7 255.6 258.8 260.8 261.7 260.5 258.4 256.6 252.1 247.6 243.1 236.9 229.8 223.6 217.8 212 206.7 202.7 198 195.4 193.7 191.5
301.2 298.5 296.1 298.7 299.4 298 298.7 300.4 301.3 301.3 301.3 300.2 299.6 298.6 299.3 299.9 299.8 299.6 298.9 298.3 297.7 297.6 297.6 299.3 299.6 299.9 298.7 296.7 294.8 292.9 288.6 288.6 290 290.3 289.2 288.2 288 287.8 287.4 287.5 286.8 284 281.1 277.5 276.8 278.9 280.5 280.4 279.5 278.2 278.1 277.9 277.4 276.2 274.3 271.4 269.2 266.9 264.8 262.5 262 260.5 259.3 257.2 259.6 261.3 262.3 263.1 263.7 263.9 263.6 263.3 262.8 262.4 262 260.9 262 264.5 266.6 268.1 269 268 267.1 266.1 265 262.9 260.6 258.7 257.1 256 255 254.2 254.8 255.3 254.8 253.9 252.9 251.9 251 250 249.2 248 246 244.1 242.3 238.5 235.1 232.3 229.5 228.1 226.6 224.8 226 227.8 229.8 231.2 233.7 235.5 237.2 239 240.7 241.7 242.7 243.6 244.8 247.3 248.3 248.4 248.6 248.6 247.9 247.4 247 246.5 245.8 245 244.9 245.3 245.4 245.4 244.7 244.1 244.3 244.5 243.4 243.2 242.7 241.7 240.7 239.9 237.8 235.7 234.4 233.2 231.9 230.3 228.2 227.7 226.6 226.8 227.7 228.4 229.9 231.6 232.9 233.5 234.1 234.4 234.6 234.7 234.8 237.7 241.3 245.1 248.1 250.7 252.2 253.3 254.8 257.4 260.5 262 261.4 259.2 256.7 252.6 248.2 243.3 238.5 233.3 227.3 222.2 216.7 211.4 206.1 202 198.5 195.8 193.5 192.7
299.9 298.3 299.3 300.2 300.9 301 301.5 302.7 303.8 304.4 304.4 303.4 302.5 301.5 300.8 301.1 300.4 299.7 299.1 298.5 298.2 297.9 298.6 300.1 300.3 300.4 299.2 297.3 295.3 293 290.5 292.1 292.6 292.7 291.2 290.5 290.7 290.8 290.4 289.7 288.2 285.6 283.1 278.2 280 282 283.7 283.2 282.4 281 279.9 279.1 278.3 277.2 274.2 274 272.2 270.1 268.3 265.5 264.8 263.5 261.3 259.8 260.4 260.8 262.9 263.9 264 263.7 262.3 261.2 260.9 261.9 259.7 259.7 261 263.5 264.8 267.5 268.9 268.7 267.7 266.8 265.3 263.1 260.5 258.8 258 256.6 255.6 255.8 256.3 256.5 256.4 255.4 254.5 253.5 252.6 251.6 250.5 248.9 246.3 243.9 242 239.2 235.8 233.1 230.1 229.3 227.9 226.4 227.6 228.4 229.1 232.2 234.3 236.2 237.9 239.6 241.2 242.3 243.3 244.3 245.7 248.2 249.9 250.6 250.6 250.8 250.4 249.9 249.5 249 248.1 247.2 246.9 247.1 247.1 247.1 247 246.6 246.7 247.4 247.5 246.6 245.8 244.8 244 243.4 241.5 239.4 238 236.6 235.4 234.2 233.2 231.9 230.4 230.8 230.5 230.5 231 232.5 233.7 234.3 234.8 235.2 235.5 235.7 236.4 239.6 242.3 245.1 248.1 250.4 252.6 253.6 254.2 257.2 259 260.3 260.3 257.9 254.7 250 245.8 240.7 235.1 230.8 225.8 221.4 217.4 212.8 207.5 203.8 200.8 197.5 195.2 193.9
299.7 301.1 302.1 303.4 303.3 302.9 302.5 303.8 305.2 305.8 305.8 305 304.2 303.3 302.2 301.3 300.5 299.8 299.4 299.2 298.6 298.1 299.4 299.4 300.3 300.9 299.7 297.8 295.9 293.4 293.5 294.3 294.7 295.1 293.9 293.3 293.4 293.6 293.7 292.5 290.5 288.1 285.6 282.1 285 286 286.9 286.1 285.2 283.5 282.2 281.1 280 277.9 277 275.3 273.7 271.1 268.6 267.7 266.6 265.2 263 261.3 260.8 260.5 262 262.8 263.7 263.3 262.5 260.7 259.7 259.7 259.7 259.7 259.7 261.4 263.3 265.3 267.2 267.8 267.5 265.9 263.1 262.8 260.4 258.6 258 257.3 256.8 257.3 257.8 257.8 257.7 257 256 255 253.9 252.8 251.8 250 247.9 245.5 243.6 240.8 237.8 235.3 233.2 231.7 231.3 230.7 230.8 230.1 229.9 233.1 235 236.8 238.6 240.1 241.7 242.9 243.9 245 249.4 252.4 252.5 252.2 252.1 251.6 251 250.5 250.1 250 250 249.2 248.4 248.2 248 248.1 248.6 248.7 248.4 249.1 249.5 249.8 248.9 248.2 247.5 246.9 245.3 243 241.5 239.9 238.6 236.8 235.2 234.3 233.5 232.7 232.4 232.6 233.1 233.5 234.6 235.1 235.5 236 236.4 236.7 237.9 240.6 243 245.3 248 249.4 250.7 251.2 253.5 254.7 254.1 253.8 253.7 252.7 251 247.5 242.5 237.4 231.7 227.3 222.4 219.1 216.1 213.1 209.2 205.4 202.4 198.5 197 195.5
301 302.5 303.9 304.6 304.4 303.6 303.1 304.7 306.3 306.7 306.3 305.8 305.3 303.9 302.5 301.4 300.7 300.1 300.1 299.8 299 298.3 298.4 299.5 300.6 301.3 299.9 298 296.1 293.4 295.2 296.3 296.8 297.2 296.8 296.1 296.1 296.6 296.6 294.9 292.9 290.6 289 287.3 288.9 289.2 289.5 288.7 287.4 285.5 284.2 283.1 281.4 280.6 278.9 277.3 275.4 273.2 271 269 267.6 266.2 264.5 261.7 260.7 260 261.2 261.8 262.2 262.2 261.7 261.3 259.7 259.7 259.7 259.7 259.7 259.7 260.4 262.3 264.1 264.7 264.6 262.9 261.6 261.4 260.3 258.4 257.8 257.2 257.8 258.4 258.9 259.4 259.3 258.6 257.3 256.2 255.2 254.1 253 251.1 250.3 249.3 247.6 246 243.6 240.6 239.2 238.6 236.9 236.2 235.9 235 233.4 234.5 236.1 238 239.4 240.7 242.2 243.5 245.1 247.4 252.1 253.3 253.5 253.2 252.8 252.1 251.4 250.8 250.7 250.7 250.7 250 249.1 249 248.9 249.1 249.4 250.2 250.5 250.8 251.1 251.4 251 250.4 249.8 249.4 247.3 245.3 243.9 242.3 241.5 239.7 238.2 236.9 236.1 234.8 234.3 234.8 235.2 235.1 235.1 235.6 236 236.5 237 237.6 238.8 240.8 243.1 245.4 247.1 247.9 247.7 247.8 249.2 249.1 247.8 247.5 247.6 248.6 246.9 243.2 240.2 235.9 231.6 227.3 222.4 217.6 213.1 210 207.1 203.7 200.7 199.1 197.4 195.8
302.5 303.7 304.7 304.3 304.7 304.3 303.8 305.3 306.7 307 306.5 305.9 304.8 304 302.8 301.6 300.9 300.2 300 299.7 299 298.8 298.6 300 301.7 301.7 300 298 296.1 296.4 297.1 298.2 298.6 299 298.7 298.3 298.2 299 299.3 298.1 295.1 292.9 290.7 290.3 291 291.5 291.7 291.1 289.4 287.7 286.4 284.9 283.5 282.1 281.2 279.5 277.3 275.1 272.4 269 267.1 266 263.9 262.3 260.5 259.4 260 260.6 261.1 261.1 261.1 260.9 260.5 260.4 259.7 260.2 260.4 260.4 260 260.1 261.2 261.2 261 260.6 260.2 259.9 259.6 258.1 257.5 256.9 257.8 259 259.6 260 260.2 259.6 259.2 258 256.7 255.5 254.3 253.7 254.5 254.5 253.6 253.7 253 250.5 247.4 245.9 243.5 240 239.5 238.1 236.1 237 238.1 239.4 240.9 242.2 243.5 245.6 248 249.8 251.4 253.4 253.7 253.8 253.4 252.6 251.9 251.4 251.4 251.4 250.4 249.9 250 249.8 249.7 250.1 250.2 251 251.8 252.4 253.1 253.7 252.8 253.3 251.7 250.1 248 246.7 245.4 244 243.4 242.7 241.3 239.8 237.6 236.3 235.8 235.7 235.6 235.3 235.3 235.8 236.3 236.9 237.3 238 239.1 240.5 242.8 244.6 245.3 245.4 245 243.1 242.2 242.5 241.5 241.2 242.8 243.7 242 239.8 237.1 235.7 231.4 227.2 223.5 218.2 213.6 209.9 206.3 203.3 200.6 198.8 197.2 195.6
303.8 304 304.4 304 304.8 305 304.6 305.5 306.6 307.2 306.6 305.9 304.3 303.3 302.5 301.7 300.5 299.2 298.3 298 297.3 297.5 298.9 300.4 301.9 302.1 300.2 298.9 297.8 298.6 299.4 300 300.4 300.8 300.5 300.2 300.1 300.2 300.7 299 296 294.3 292.1 292.2 292.9 293.5 293.9 292.7 291.2 289.4 287.4 285.5 284.4 283.3 282.4 281.7 279.1 275.8 272.4 269 266 264.6 263.4 261.4 259.8 258.9 259.3 259.8 260 259.7 259.4 259.1 259.2 259.7 260.1 260.4 259.5 259.5 259.4 259 259.1 259.7 259.1 259.5 259.1 258.7 258.3 257.9 257.3 256.8 257.8 259 260.2 260.4 260.6 260.5 260.2 259.9 258.6 257.3 257 257.1 258 259.3 259.6 259 257.7 255.4 252.9 250.3 248.2 246.1 243.9 241.7 238.4 239.6 240.4 241 242.4 243.9 245.7 247.6 249.4 251 252.1 253.3 253.7 254 254 253.5 252.9 252.1 252.1 251.4 250.8 250.3 250.5 250.7 250.5 251.1 251.2 251.8 252.5 253.2 254.6 255.1 254.7 253.9 252.5 250.9 249.3 248.1 246.8 245.6 244.6 243.7 242.7 240.4 239.2 237.9 236.3 236.2 235.8 235.5 235.5 236 236.5 237.1 237.6 238.3 239.4 240.5 241.7 242.3 242 241.5 239.4 237.4 236.2 234.9 234.9 236.3 238.1 239 238.3 238.1 236.6 234.5 230.6 226.7 223.5 219.1 214.9 211.8 208.2 203.9 200.5 198.5 197 195.5
306 305.3 304.8 304.7 305.5 305 304.9 306.1 307.2 307.2 306.5 305.5 303.8 302.7 301.3 300 299 298 296.9 296.3 296 297.1 298.2 299.9 301.9 302.2 300.8 299.4 299.4 299.5 300.3 300.9 301.3 300.4 300 299.7 300.8 300.8 301 299.2 296.7 295.2 293.5 294.1 294.6 295.2 295.7 294.3 292.4 290.7 288.9 286.7 285.7 284.7 284.3 283.7 280.1 275.8 271.8 268.1 265.1 263.6 262 260.5 259.7 258.9 258.6 259.2 258.4 258.5 258.1 257.7 257.7 258.2 258.6 258.7 258.4 258.4 258.1 257.4 257.9 257.8 258 257.5 258.1 257.7 257.3 257 256.9 256.8 257.8 258.9 259.8 260 260.3 260.5 260.4 260.1 260.4 259.7 259.7 259.7 260.7 261.7 262.1 261.5 260.4 258 255.9 254 252 249.6 247.4 245.1 242.7 242.4 244.8 246.8 248 248.8 250.3 250.7 251.1 252.6 252.8 252.6 253.8 254.2 254.8 254.8 254.6 253.4 252.3 251.8 251.2 250.7 251 251.6 251.4 252.2 252.2 252.5 253.2 253.1 254.1 254.3 254.4 253.6 252.5 251.5 250.1 248.6 247.2 246 245.3 244.8 244 241.9 239.9 238.5 237.1 235.6 235.1 234.7 234.6 235.1 235.6 236.2 236.7 238.5 238.8 239.4 238.5 237.1 236.7 235.4 233.9 233.2 232.3 232.6 233.2 233.5 234.2 234 234.3 234.8 234.8 232.9 229.9 226.4 222.7 217.8 214.5 212 209 204.9 202.3 198.5 197.4 196.3
307.1 306.6 306 305.7 305.5 305 305.3 306.6 307.8 307.3 306.4 305 303 300.8 299.3 298.2 297.2 296.2 295.2 295 294.9 296 297.7 299.4 301.2 302 301 301.1 301.1 301.1 301.2 301.8 301 300 299.4 299.2 300.9 302.4 301.5 299.6 297.4 296.6 295.3 295.4 296 296.2 296 294.9 293.4 291.6 289.1 286.8 285.6 284.8 284.3 283.3 280 275.4 271 267.2 264.1 262.5 261.2 260.3 259.6 258.9 258.1 257.9 257 257.2 256.8 256.2 256.2 256.6 257.1 257.2 257.1 255.8 254.6 254.3 253.6 254.1 254.8 255.6 256 256.2 255.9 254.8 254.3 255.6 256.1 256.7 257.9 259.3 259.9 260.2 260.4 260.3 260.8 260.7 261.4 262 262.1 262.3 262.6 262.9 262.5 260.6 258.5 256.6 254.5 252.5 251.1 248.9 247.2 246.1 250 254.1 254.1 252.4 253.7 253 252.7 251.9 251.8 251.7 253.2 253.8 254.4 255 255.1 253.2 251.2 251.4 251.6 251.1 251.4 252.9 254.8 255.3 254.9 255 254.5 253.9 253.4 253.9 253.2 252.6 252.1 251.4 250.2 248.9 247.6 246.4 245.7 245 243.1 240.9 239 237.6 235.8 234.2 234.2 233.8 233.6 234.1 234.7 235.2 235.8 238.1 237.6 237 235.3 233.5 232.3 231.9 232.2 232 231.1 229.9 229.3 227.6 227.7 228.8 228.9 228.8 228.6 228.1 226.7 224 219.9 216.3 215 212 209.4 204.9 202.1 200 198.7 197.1
307.2 306.9 306.2 305.6 305.5 305.1 305.8 307.1 308.3 308.1 306.4 303.6 301.5 299.3 297.4 296.4 295.3 294.3 293.3 294 293.6 295.2 297.2 298.9 300.6 301.5 302.1 302.2 302.2 302.2 302.3 301.3 300.6 299.7 298.9 299.4 301 301.6 301.1 299.3 298.3 297.7 297.1 296.4 296.5 296.4 295.7 295.1 293.6 291.5 289 286.2 284.7 283.9 282 281.5 278.1 274.2 270 266.4 263.3 262 260.8 259.8 259.1 258.5 257.8 256.8 255.6 255.9 255.2 254.5 254.2 254.6 254.8 254.9 254.3 253.2 251 250 249.5 250.2 251.2 251.8 252.3 252.7 251.2 251.5 249.9 249 249.6 251.6 252.9 255.8 258.3 259.5 259.7 260.4 260.3 260.1 261 261.6 261.3 262 262.2 262.4 261.8 261.6 260.6 258.4 256.7 255.6 254.5 254.3 254.9 253.8 253.6 254.6 254.4 253.6 253.9 253.2 252.4 251.6 250.2 250.5 250 250.5 251.7 252.4 252.5 252.2 249.8 250.1 250.3 250.4 250.9 252.7 255.3 255.7 255.9 255.9 255.5 254.7 253.4 253.3 252 251.1 250.8 250.8 250.3 248.9 247.6 246.3 245.2 244.2 241.5 238.9 237.8 236.3 234.6 232.7 232.3 232.7 232.6 233.2 233.8 234.4 234.8 234.7 234 233.7 232.3 230.8 230.1 229.7 230.1 230.3 230 227.6 226.5 225.3 224.1 224.1 226.1 227.5 227.3 225.9 223.5 220.7 217.4 215 213.7 211.7 208.5 205.5 203 200.8 199.4 198
305.6 306.3 306 305.6 306.7 305.1 306.5 307.5 308.2 308.2 306.5 304 300.8 298.3 296.6 294.9 293.4 292.4 291.4 292.8 292 293 295.2 297.5 299.9 301.3 302.4 302.6 302.6 302.6 302.1 300.7 299.5 299.2 298.3 299.5 300.2 299.7 299.1 298.5 297.1 298.2 296.9 295.4 295.8 295.6 294.8 294.3 293.1 291.4 288.6 285.7 283.8 282 280.6 279.2 276.1 272.7 268.9 265.4 263.1 261.6 260.3 259.4 258.6 257.9 257.3 256.7 255.2 253.8 253.1 252.5 251.6 251.9 251.6 251.9 250.9 249.2 246.6 244.7 245.5 246.5 247.4 248 248.1 248.4 247.9 247 245 244.1 243.8 245 247.3 252 255.4 257 257.9 257.5 256.3 255.1 254.5 254.5 257.9 259.5 261 261.8 261.9 261.9 261.2 260.7 259.6 259.5 262.3 263 261 258.8 256.5 254.6 254.4 253.9 253 251.9 251 250 249.1 248.8 248.2 247 247.2 247.2 247.9 249.6 247.5 247.9 248.4 248.7 250.5 252.4 254.6 255.3 255.9 255.6 255.2 254.9 253.4 251.9 250.6 249.1 248.8 248.9 249 247.9 246.6 245.9 244.8 243.6 240.1 237.4 236.6 234.8 233 231.1 230.5 229.9 229.7 231.7 232.7 233.1 233.2 233.1 232.2 231.2 230.1 228.9 227.9 227.5 227.8 228.1 227.4 226.2 225.6 224.3 223.4 222.5 221.6 220.7 221.4 221.9 220.6 219.5 216.3 214.8 213.6 211.9 209.3 206.9 203.8 200.8 198.1 197.2
304.1 304.8 305.5 304.8 305 306.6 308.2 308.6 308.1 307.6 306.5 304.6 300.9 297.9 296.2 294.4 292.8 291.3 290.2 290.2 290.4 291.3 293.3 296.6 298.9 300.6 302.1 302.9 303 302.8 301.7 300.3 298.8 297.8 297.5 299.1 298.4 297.7 297.1 296.6 295.5 296.1 294.8 293.6 293.9 294 293.9 293.1 291.7 290.4 286.9 283.8 282.2 280.2 279.1 276.6 273.7 271.7 268 264.9 262.8 261.1 259.9 259 258.1 257.4 256.9 256.6 254.7 253.1 250.8 249.7 249.1 249.2 248.4 247.2 246.5 244.8 242.3 241.2 240.5 241.2 242.5 243.5 244 243.9 243.5 243.2 241.5 240.9 239.6 240.7 242.9 246.9 251.3 252.9 253.7 253.5 252.5 251.3 251.3 251.1 253.5 256 258.9 260.2 261.7 262.4 263.2 263.7 264.2 264.8 265.7 265.2 263.8 262.4 259.9 256 254.3 253.1 252.5 251.4 250.8 249.5 248.1 247.1 246.3 244.5 242.6 241 240.4 239.9 241.6 244 246.1 248.1 250.1 252.1 254 254.2 254.3 253.8 253.2 251.4 249.8 247.8 246 244.6 245.3 246.1 246.9 246.9 246.2 245.5 243.9 241.4 238.5 235.8 232.9 230 228.9 227.9 227.1 226.8 226.8 227.8 230.2 231.3 231.5 231.4 230.8 230.1 229.3 228.1 226.8 225.4 225.6 226.8 226 225.2 224.4 223.5 222.2 220.1 219.2 218.7 218.2 217.2 218 216.5 215.8 213.9 212.5 211.5 209.2 205.9 204.3 200.6 198.6 196
303.2 303.6 304 305 304.8 306.3 307.8 308.8 308.5 308 306.9 304.8 301.4 298.2 295.7 293.3 290.3 290.2 289.2 289.3 288.5 289.9 292.1 295.4 297.8 299.9 301.3 303 303.2 302.8 301.5 300.1 298.5 297 296.7 297.6 297.1 296.4 295.6 294.9 294.1 292.7 291.6 290.9 291.3 292.2 292.1 291.8 289.9 286.9 283.5 281.7 280.4 278.9 277 274.9 273.1 270.8 267.3 264.6 262.5 260.6 259.5 258.6 257.7 256.9 256.5 256.1 255.5 254.6 253.2 251.3 248.4 245.9 244.6 243.6 241.7 240.3 238.4 237.3 236.8 236.1 235.5 237.8 237.5 238.7 238.4 238.6 237.8 237.3 236.3 237.2 237.7 238.8 244 246.2 249 249.5 248.6 247.6 248.3 249.2 250.6 253.1 255.9 258.5 260.3 262.9 263.7 266.8 267.8 269.2 270.8 270.4 269.1 267.6 263 257.5 254.2 252.3 250.7 248.9 248.3 247.1 245 240.5 239.7 238.6 237.1 236.9 237.4 237.5 240.9 244 245.2 246.8 248.6 250.4 251.6 252.4 252.7 250.9 248 245.8 243.5 240.9 240.2 240.2 241.5 243 244 245.4 245.6 243.6 241.4 238.8 235.7 233.1 229.5 227.6 226.2 225.2 225.1 225.3 225.3 225.7 225.9 228 229.9 229.7 229.4 229.2 228.4 226.9 225.3 224.2 222.3 223.8 224.6 224 222.5 220.2 219.6 219.1 218.6 218.1 217.6 216.4 215.6 215 213.6 212.8 211.1 209.3 208.2 205.1 202.9 201 198 195.4
302.5 303 303.9 304.4 305.2 305.8 307 308.1 308.5 308.3 307.4 304.8 302 298.9 296.7 294.8 293 289.6 287.9 288.1 287.5 289.3 291.3 294 296.5 299 300.7 302.9 303.4 302.4 301.2 300 298.6 296.2 296.2 295.8 295.8 295.2 294.7 293.9 292.3 290.7 289.3 289 288.6 289.2 288.6 288.7 286.9 284 281.2 279.6 278.2 276.9 276.1 274.3 272.5 270 266.7 264.3 262.2 260.1 259.1 258.2 257.3 256.4 256 255.4 255 254.7 253.8 251.9 249.2 245 242.3 241.1 238.2 235 234.5 234.6 233.4 233.1 232.6 231.8 231.8 233.1 233.3 233.6 233.7 233.6 233.1 233.8 234.4 234.9 236.7 239.6 242.4 243.2 242.8 242.4 244.4 246.3 247.7 250.3 253 255.7 259.1 262.9 265.1 269 272.1 274.9 277.7 280.1 277.6 273.4 268.3 262.9 254.7 249.4 244 239.1 235.5 233.7 234.3 232.5 233.6 234.8 234 234.8 235.3 238 241.2 244 244.8 245.6 246.6 247.6 248.1 248.8 248.1 246 244.1 241.9 239.5 237.3 237.4 238.6 239.4 241 241.6 240.2 239.5 238.1 235.9 233.4 231.7 229.4 226.5 225 223.6 223.2 223.1 223.2 222.6 222.1 222.9 224.5 225.3 226 225.4 226.1 224.9 224.4 222.4 222.1 221.2 221.5 221.2 220.8 220.2 219.5 219 218.5 218 217.5 217 215.6 215 213.7 212.5 210.8 209.3 207.6 205.3 203.8 201.4 198.5 197.2 194.9
301.9 302.5 303.1 303.4 304.3 305 306 307.1 308.2 308.2 307.5 305.1 302.3 299.9 297.9 296 293.4 290.9 288.7 287 287.8 289.5 291.2 292.4 294.9 297.5 300.2 302.5 303.2 302 300.7 299.9 298.8 297 295.7 295.5 295.6 294.9 294.2 292.3 290.7 288.6 287.7 287.6 286.3 285.9 285.3 284.8 283.6 281.5 279.1 277.5 276.1 275 274.3 273.6 271.6 269.3 266.2 264.1 262.1 260.1 258.4 257.5 256.6 255.5 255.8 255.5 255.2 254.9 254.4 252.4 250 247.7 245.4 242.3 239.1 235.8 231.8 230.9 231.1 230.4 229.8 229 228.4 228.5 228.5 228.8 229.2 229.5 228.1 230.5 230.9 231 232.7 233.6 232 234.5 235.3 238.2 240.5 242.4 244.5 247.5 250.2 253.4 257.6 261.7 268.3 273.2 278.9 283.8 286.4 285.2 281.1 276.5 269.3 262.3 251.7 245.7 238.1 232.5 228.7 227.5 227.2 226.1 229.1 231 232.1 234.3 234.2 236 238 240.3 241.3 241.1 241.4 241.7 242 242.1 242.6 241 238.8 237.7 235.6 235.1 235 235.9 237 237.9 238 236.4 233.9 231.2 228.3 226.6 225.8 224.2 222 221.6 220.4 220.3 220.3 218.3 219 218.9 219.3 219.3 219.6 218.3 217.7 218.1 218.4 218.8 218.7 219.5 220.6 220.9 220.8 220.9 219.9 219 218.4 217.9 217.4 216.9 216.1 214.7 213.6 212.8 210.5 208.7 206.4 205.1 202.9 201.6 198.8 197.2 196.1 194.4
300.5 301.4 302 302.5 303.2 303.7 304.5 305.7 307.2 307.9 306.7 305.5 303.4 301 298.7 296.8 293.9 291.3 289.8 288.2 288.2 289.1 290 291 292.9 295.6 299.3 301.6 302.3 301.8 301.3 300.3 299.1 297.5 296.9 295.9 295.3 294.7 294 292.1 289.9 287.9 286.6 286.3 284.4 283.3 282.7 282.4 280.5 279.1 277 275.3 274.1 273.2 272.5 271.9 271.7 269.7 266.9 264.8 262.8 260.3 257.7 256.3 255.2 253.4 255.2 255.7 255.4 255 254.7 252.8 250.6 248.3 245.9 242.9 239.2 235.8 232.5 228.4 228 227.5 227.1 226.2 225.3 225.1 225 224.9 224.9 225.4 225.1 226.6 226.9 227 227.5 228.5 229.7 229.9 230.8 233.4 235.9 238 241.4 244.2 247 250.1 254.9 261.2 270.1 278.6 285.1 289.9 289 284.1 278.2 271.8 264.4 251.6 241.8 236.1 229.5 225.3 221 220.5 221.5 224 225.7 225.7 228.5 229.4 231.2 231.4 232.2 231.6 231.7 231.5 232.1 233.3 233.2 234.4 233.9 233.6 232.3 231.1 232 231 232.5 233 231.5 232.5 231.2 228.7 226.7 224.4 221.2 220 219.4 219.6 218.9 217.7 217.4 217.7 217.5 216.8 216.9 217 216.2 215.8 215.6 214.9 214 214.8 215.9 216.6 216.8 218.6 220.1 220.3 220.4 220.7 219.7 218.7 217.9 217.3 216.8 216.3 214.8 212.8 212.2 212.1 211 208.8 207.5 204.8 203.1 201.2 199.5 197.4 195.5 193.5
299 300 300.9 301.5 302 302.5 303 304.5 306.2 307.5 307 305.7 304.4 302.3 299.9 297.6 295.2 293.2 291.2 289.4 286.7 287.7 288.7 289.7 290.8 293.7 297.5 300.6 302 302.7 301.9 300.6 299.3 298 296.9 295.6 294.7 294.3 293.8 292 290.4 288.4 285.8 284.8 284 282.9 280.8 280.3 278.9 276.8 275 273.2 272.3 271.5 270.7 271.2 270.6 269.9 267.7 265.5 263 260.4 257.9 255.8 254.3 251.3 253.1 255.1 255.5 255.5 255.1 253 250.5 248.2 244.9 241.2 238.1 235.3 232.1 228.8 223.7 224.4 224.4 223.4 223.5 223.2 222.5 222 222 221.9 222 222.1 222.2 222.5 223.1 223.5 224.5 225.3 226.4 226.9 230.1 233.8 236.3 238.7 242.7 246.8 250.8 258.8 270.5 279.2 286.7 288.1 282.6 276.2 267.6 256.1 245.9 237.4 226 222.5 218.8 216.7 216.1 215.5 216.8 218.1 221 224.4 226.1 227.3 228.1 226.9 227.2 227.4 227.2 226.7 226.3 226.3 227.7 228.5 228.6 229 228.4 227.3 225.9 226 226 227.9 226 224.5 223.7 222 221.4 220.3 219.3 218.6 218 218.3 216.7 215.4 214.9 215.5 215.4 213.5 214.1 213.7 213.4 213.3 212.7 212.3 212.4 213.5 214.1 215.1 216.2 217.6 219.3 219.9 220.2 220.4 220 218.5 217.5 216.8 216.2 215 213.8 211.7 210.1 209.8 208.9 206.6 204.2 203.9 200.4 200.3 198.1 196 194.7 192.8
297.4 298.3 299.3 300 300.6 301.1 301.7 303.2 305 306.3 306.1 305.2 303.8 302.6 300.6 297.8 295.5 293.5 291.4 288.5 285.9 286.8 287.8 288.8 289.1 290.8 295.9 298.7 301.4 303 302.2 301 299.3 297.3 294.8 293.6 293.9 294.3 293.4 292.3 291 289.1 286.3 284.4 283.6 282.2 280.3 277.4 275.1 272.6 271.4 270.5 269.6 269.7 269.6 270.3 269.7 269.5 268.3 266.2 263.6 260.9 258.3 255.6 253.6 250.4 251.5 254 254.9 255.6 255 252.9 250.4 246.7 243.4 239.5 236.9 234.5 231.3 228.2 224.7 220.3 220.5 221.1 221 220.2 219.6 218.8 217.9 216.6 217.2 217.4 217.3 216.3 217.9 218.5 219.2 219.9 221.8 222.5 225.7 229.6 231.2 234.1 237.8 240.5 243.5 252 265 274.1 278 274.6 269 258.5 245.9 236.5 229.8 223.4 218.1 214.8 215.4 215 214.6 212.7 214.8 216.7 219.3 221.1 222.5 223.9 224 223.7 223.7 223.6 223.2 223.6 223.9 223.4 223.3 223.5 224.2 224.2 223.1 222.1 222.5 223 223.3 223.7 223.3 222.4 221.1 219.6 219.7 219.2 218.4 217.4 216.7 215.9 213.7 213.2 212.7 212.5 212.5 212.3 210.9 211.7 211.8 211.5 211.3 210.6 210.9 212.6 213.9 215.1 216.6 217.9 219.2 219.8 219.9 220.2 220.3 218.8 217.3 216.4 214.7 213.8 210.8 209 207 205.1 204.4 202.3 201.2 200.3 197.8 197.2 195.5 194.9 194.2 195.3
294.6 295.9 296.8 297.8 298.7 299.6 300.5 301.3 302.6 304.4 304.8 303.9 303 301.8 300.3 297.7 295.1 293 290.6 287.7 287.4 285.9 286.3 285.8 287.1 288.7 293.4 297 300.4 302.5 302 299.6 297.4 294.9 292.3 290.2 292.8 294 292.9 291.7 290.6 289 286.9 285 283.6 281.4 281 279.6 277.2 274.9 271.8 270.3 267.8 268.1 269 269.3 269.3 269.3 268.6 266.3 263.9 261.4 258.7 255.9 253.6 252.2 251.5 252.5 253.2 254.2 254.6 252.5 250.2 245.1 241 237.3 235.6 233.7 229.7 227.7 225.3 223.6 219.6 217.6 217.7 216.9 216.2 214.8 214.8 213 212.7 213.1 212.3 210 212.4 213.3 213 213.6 214.4 217.3 221.1 225 226.7 227.9 229.9 232.4 235.1 243.2 254.6 262.5 260.6 255.5 242.1 235.4 229.1 224.4 219.8 215.3 214.3 213.6 213.7 213.4 213 211.2 211.7 212.9 215.4 216.3 217.6 219.6 219.8 221 221 221.2 221.4 221.6 222 222 222.1 222.2 222.7 222.6 221.7 220.9 220.2 220.8 221 220.8 220 219.1 218.5 218.6 218.2 217.9 216.2 214.6 213.9 213.5 211.9 211 211.1 210.9 210.6 210.2 210 209.6 209.4 209.2 208.7 208.2 209 210.2 212.6 213.8 215.8 217.5 219.1 219.7 219.9 220.1 220.3 219.1 217.4 214.6 211.9 209.2 208.6 206.8 203.6 201.6 200.6 199.8 199.3 198 197.4 197.3 196.4 196.1 197 197.4
291.4 292.3 293.3 294.9 296.3 297.6 299 300.1 300.8 302.1 302.4 302.2 301.4 300.8 299 297.3 294.7 292.6 290.2 289.2 288.4 285.9 284.7 282.2 285.2 286.5 289.9 293.9 299.1 301.4 300.5 298 295.6 292.5 290.2 288.5 291.6 292.6 291.8 290.6 289.5 288.6 287.1 285.6 284.6 284.2 282.9 280.9 278.9 276.4 274 271.4 269.7 268.2 266.6 267.6 267.9 268.2 267.1 265.8 263.4 261 258.5 256 254.1 252.9 250.1 250.6 251.9 253 253.6 251.8 249 243.7 238 235 233.5 232.1 228.5 226.7 223.4 220.4 218.2 214.4 214.6 213.5 212.2 210.9 211.6 210.1 205.9 205.4 204.6 203.7 205.3 206.3 205.8 205.7 207.8 210.5 215.6 219.7 221.9 224.3 226.1 228.2 230.3 231.9 239.4 235.6 229.6 227 226.9 223.8 221.8 218.2 214.6 212.5 212.1 211.9 212 211.7 211.1 209.1 208.6 210.2 210.7 211.8 214.8 217 218.1 218.7 219.3 219.9 219.7 219.7 219.7 220.7 220.6 221.1 221.4 221.5 220.7 219.4 218.5 219.2 219.5 219 218.2 218.1 216.4 215.4 215 214.4 213.3 212.2 211.3 210.5 209.6 209.3 209.6 209.4 208.9 208.2 207 207 207.1 207.2 205.7 206.2 207.3 209.9 210.7 212.7 214.8 216.7 218.9 219.6 219.8 219.7 219.5 218.4 216.8 214.3 210.8 208.8 207.3 205.1 203.8 205.5 206.4 205.8 203.3 204.3 203.5 202.2 202.3 200.3 201.2 202.4
