ncols 200
nrows 82
xllcorner 270000
yllcorner 211400
cellsize 50
312.4 317.2 321.1 322.5 322 321.6 319.6 316.7 313.4 309.2 302.3 297.2 293.6 291.6 287.4 285.9 284.4 283.9 282.8 282.2 281.3 280.6 280.3 279.7 279.8 278.3 278 274.1 272.5 276.1 276.7 277.1 277.4 278.3 279.6 279.8 279.3 279.2 278 277.3 279.8 281.3 278.9 275.4 272.3 270.4 267.4 263.2 256.2 240.8 226.2 249.1 254.9 260.2 263.1 263.9 267.3 268.9 269.8 271.3 275 279.8 285.3 290 293.6 295.3 297.5 299.5 300.7 302.2 302.3 299 299.6 302.2 302.8 300.9 301.8 303.8 307 310.4 314 315.9 316.5 317.6 316.3 312 307.1 307.6 312.5 315.2 317.9 321 321.4 322.6 322 321.5 320.6 318.3 316.3 315.3 310.4 314.7 319.9 322.8 325 326.8 328.7 330.4 331.7 332.3 332.5 331.6 330.6 330.1 330.1 330.8 334 335 337.4 341.7 344.6 348 350.7 356.7 355.7 355.9 355.3 354.8 354.7 355.4 355 355 355.5 354.7 353.7 345.5 335.7 326.7 323 317.4 313.2 305.8 295.4 283.4 261.4 265.6 285.9 276.9 286.7 295.2 301.5 308.2 315.5 324 336.1 346 352.1 355.6 352.2 341.1 328.6 320.9 319.1 324.8 326.6 324.7 330.9 338.2 348.1 355.8 360.2 361.8 362.1 362.4 360.9 358.5 354.2 348.4 339.8 330.5 323.1 318 314.5 314.6 320.9 326.9 335.3 343.6 350 353.5 353.8 351.3 348.2 344.6 341 337.5 332.3 324.4 319.4 315.7
307.1 311.4 313.8 315.1 313.9 312.3 309 306.7 303.7 297.3 292 289.4 288.2 284.9 281.9 280.8 278.5 278.2 278.4 278.1 276.8 275.9 273.6 273 272.9 272.6 273 269.3 267.2 269.9 270.8 272.5 273.4 274.7 275.5 276.1 275.6 273.8 272.1 271.3 272.1 273 271.4 267.7 265.7 264 260.8 255.7 246.3 228.4 237.5 247.6 251.6 256.9 260.8 261.8 263.5 264.7 265.6 266.5 268.7 271.7 275.9 280.9 285.7 289.5 291.8 294.2 294.3 293.9 293.2 292.8 294.6 296 293 294.3 297.4 305.7 312 315.4 314.9 315 315.1 313.5 307.8 300.7 298.6 293 305.4 307.8 310.3 314 315.7 316.7 316.7 314.9 313.7 312.7 311.6 309.7 304.3 311.6 317.2 319.6 321.6 324.2 326.6 327.5 327.7 327.3 326.7 326 326.1 326.1 323.6 328.2 330.5 332.1 334.7 337.9 342.3 347 348.8 351.5 351.8 351.3 350.1 348.9 347.5 347.8 350.1 351.8 351.6 350.8 348 339 329.8 319.9 314.1 309.6 305.3 299.3 291.6 280.2 261.9 262 274.2 275.4 287.2 293.8 300.3 307.3 315.2 326.1 338.3 346 352.2 355.8 355.7 345.2 327.4 319.2 316.9 320.3 319 318.6 324.3 332.7 343.5 352.4 356.9 359.6 360.3 360.6 358.9 355.6 350.5 343.6 334.7 324.7 318.4 312.9 310.8 315.1 319.6 326.5 335.1 343.1 348.8 350.9 351.5 348.8 345.3 341.5 337 333.2 328.4 320.2 314.9 310.8
299.6 303.8 305.8 306.1 305.1 302.9 300.5 295.2 292.2 288.1 284.8 284 281.7 280.1 278.1 275.3 273.2 273.4 273.4 272.5 271.9 269.8 268.6 267.7 267.9 268.4 267.9 264.6 264.9 268.2 269.3 270.3 270.4 269.8 271.1 270.7 269.3 268.6 267.1 266 266.7 265.8 261.8 259.7 259.4 257.9 254.6 251.9 245.5 221.6 232.7 244.5 248.9 252 255.4 257.6 259 260.4 262 263.5 264.9 266.7 269.3 274.4 278.6 283.4 285.4 285.8 287 287.6 287.4 287.2 286.8 284.8 287.9 296.4 305.5 313.7 319 322.3 320 317.2 314.2 308.5 297.7 291.7 293.9 296.2 301 303.6 305.9 309.2 310.1 310.3 311.2 309.8 308.4 307.9 305.7 301.5 300.4 309.4 313 315.1 317.7 320.4 322.1 322.9 322.8 321.6 321 320.8 321 320.7 316.8 324 325.1 327.4 330.5 334.9 339.1 342.5 347.1 345.1 345.2 346.4 344.7 342.5 340.3 342.3 345.7 348 348 347.2 342.6 333.7 323.4 313.4 307 301.6 297.4 290.5 283.9 275.7 258.9 252.6 264.9 276.5 286.3 292.3 299.1 306.3 314.9 326.9 337.8 345.3 352.2 357.5 357.1 345.2 328.8 319.6 316.6 316.2 316 318.4 322 328.8 339.5 349.2 354.3 357 358.5 358.5 356.3 352.2 346.2 338 328.3 319.5 313.9 309.2 307.6 314.7 318.9 326.1 334.5 341.9 347.5 349.3 348.8 346 341.9 338.1 334.1 329.4 323.8 315.9 310.3 305.7
292.1 295.4 297.1 297.3 295.8 293.5 289.8 288.1 286.4 283.1 279.7 278.4 276.7 275.7 273.4 269.7 267.7 267.8 266.5 265.7 265.6 265.3 264.4 263.3 262.7 263.3 263.3 257 262.5 264.2 266.2 266.9 266.7 265.9 265.3 264.6 264.2 264.1 263.1 263 261.9 259.6 257.2 256.4 255 252.9 250.5 248 244.6 222.1 231.5 246 251.3 252.1 253.7 254.9 255.4 257.3 258.9 260.4 261.9 263.4 266 269 270.7 274 277.7 280.2 281.2 281.8 281.1 280.5 279.2 281.6 291.1 300.1 306.5 313 317.8 322.1 323.5 320.4 315.7 307.6 289.8 288.7 285.4 292.9 295.7 298.5 300.7 302.4 302.8 304.4 305 304.6 304.2 303 294.9 294.3 302.2 306.1 308.6 311.4 314 316.5 317.7 319.4 318.4 317.8 316.8 315.8 315.2 314.7 310.5 318.8 320 323.1 326.2 329.6 333.9 334.8 335.7 337.2 338.7 339.6 338.9 336.9 335.9 337.5 343 346 345.6 343.2 336.9 327 316.4 307.8 301.6 294.2 288 281.5 277.2 271.2 256.1 246.4 267.8 277 284.5 291.3 298.7 305.3 315.7 328.7 337.2 345.2 354.1 359.8 358.9 348.2 330.2 320.2 316.1 315.6 315.1 317.9 321.6 326.8 336.7 345.9 352.1 355.5 356.8 356.2 353.3 348.4 341.6 332.3 323.4 315.5 308.7 304.9 309.2 313.1 317.3 324.7 333.4 341 345.5 346.8 345.9 343 338.9 334.6 331.1 325.6 317.8 312.1 305.2 302.1
282.3 284.7 286.3 285 286.1 287.6 287.1 285.4 281.7 278.1 276.2 274.5 271.4 269.6 268.1 265.1 262.6 261.6 260.7 260.2 260.9 260.8 260 258.9 259.6 260.4 260.1 250.6 258.7 260.7 263.5 264.6 263.8 262.1 261.6 261.2 260 259.7 258.8 258.8 257.7 255.7 253.8 251.7 250.8 249 246.2 244.1 239.3 214.6 232 241.9 248.5 251.4 252.6 251.9 252 254 255.4 256.6 257.8 259.6 262.4 263.9 265.7 267.6 270 273 274.9 275.5 276.4 276.1 272.3 282.8 290.8 298.7 305 310.9 315.1 318.9 321.5 322.2 317.1 307.3 293.7 281.5 277.9 286.8 288.8 291.9 293.7 296.2 297.2 298.8 299.7 299.2 298.7 294 288.5 294.7 299.4 302.4 303.4 307.9 311.5 314.3 315.2 315.7 315.4 314.7 313.5 311.5 310.8 310.1 311.6 314.3 315.7 318.1 320.6 323.2 324.7 328.6 330.5 332.3 333.1 334 333 332.9 333.9 335.3 338.3 342.4 342.7 338.2 329.9 320 309.2 301.8 295.2 287.6 280.8 275.9 272.4 266.2 254.5 243.6 267.7 276 283.7 290.9 298.4 305.9 319 329.4 337.2 346.7 357.2 362.9 363.6 352 331.9 321.5 316.3 314.7 314.7 315.9 320.1 325.5 334.6 344.6 350.5 353.5 355.1 353.5 349.7 344.1 337.2 327.8 318.9 310.9 305.2 302 307.1 311.2 315.7 323.2 332.5 339.5 343.1 344.2 342.9 339.7 335.4 330.9 326.3 320.4 312.2 306.7 302.5 300
273.4 274.7 277.1 280.1 286.5 286.4 283.6 279.7 276.6 274.7 272.5 269.3 265.6 264.4 262 258.9 258.1 257.6 257.2 256.7 256 255 255.1 255 255.6 256 254.6 242.9 256.7 259.3 262.2 262.9 260.4 259.4 259.6 259 257.1 256.1 256.9 256.8 254.7 251.1 249.4 247.6 246.4 242.2 238.7 232.7 225.4 215.8 230.3 236.9 242.5 248.9 251.3 250.3 247.6 250.1 251.3 252.5 253.7 255.9 258.3 259.7 261.6 263.3 265.3 267.3 268.4 268.4 268.4 267.6 276.3 282.5 289.6 296.1 302.9 308.1 311.9 315.4 317.9 319.5 317 306.8 290.6 275.9 268.6 280.7 282.4 284.2 288.2 291.6 291.3 293 293.4 293.2 291.6 287.6 283.8 296.2 299.5 301.8 302.6 304.8 308.4 310.4 311.4 312.3 312.4 311.5 309.7 307.8 306.5 304.4 308.7 310.2 311.6 313 314.8 317.1 320.1 323.4 324.4 326.8 327.9 328.5 328.8 330 332.5 334.1 337.3 340.9 338.7 332.7 322.8 313 303.1 296.5 288.6 280.4 274.9 269.3 266 259.5 250.1 251.9 263 274.3 284.2 291.8 299.3 307.4 317.7 329.2 337.7 350.7 360 368.4 367 355.5 335.4 322.1 316.2 314.1 313.8 314.7 319 324.3 331.8 342.7 349.2 351.8 352.8 350.5 345.7 339.5 332.1 323.9 314.4 307.1 301.4 300.2 304.4 308.9 313.8 321.6 330.7 337 340.2 341 339.3 336 331 326 321.2 314.3 307.6 302.1 299.3 297.3
269.4 273.7 279.8 283.5 284.7 281.7 278.9 275.3 273.5 271.2 268.1 264.1 260.2 258.8 256.6 255.8 255.2 254.1 252.3 251.8 251.5 251.7 251 250.4 250.9 250 248.4 242.5 254.8 257.1 258.8 259.6 258.6 258.1 257.5 255.5 253.2 253.8 254.4 254.1 250.8 247.4 244.3 242.5 238.8 234.1 228.3 218.4 213 216.3 229.8 234 241.3 246.2 248.8 248.2 242.8 245.9 247.3 248.4 249.8 252.1 253.9 255.6 257.6 259.5 261.8 263.3 264 261.8 261.7 268.3 273.5 278.7 285.8 291.1 297.4 302.1 306.1 310.2 314.3 316.4 313.6 303.1 285.6 271.8 270.1 273 275.7 278.1 282.1 285.1 284.8 285.2 285.9 286.2 286.5 281.2 288.4 297.4 302.5 304.6 304.9 305.6 306.8 307.9 308.6 309 308.7 308.3 306.4 304.7 302.7 299.7 304.7 306.3 307.4 308.9 310.1 312 314 318.1 320.2 321.7 323.3 325.7 327.4 329.3 332.4 336 338.4 338.6 335.2 326.8 316.8 305.6 296.4 287.8 280.2 272.8 266.9 262.7 260.2 253.1 242.1 234.3 259.3 277.3 286.4 293.2 300.8 308.7 317.2 329 341.3 353.5 366.1 370.3 367.7 358.5 337.8 321.5 315.5 313.8 312.5 314.4 318.9 323.2 331.3 342.2 346.8 349.5 350.1 346.8 341.1 333.1 326.2 319.1 309.8 304.7 300.7 296.7 303.5 307 311.5 320.3 328.4 333.7 337 337.3 335.3 331.7 325.7 321.1 315.4 308.5 301.5 297.4 295.6 293
270.6 275.9 279 280.9 279.6 276.6 274.9 272.4 270.5 267 262.8 257.8 254.8 253.3 253.4 252.2 251.5 250 248.9 248.3 247.9 247.3 246.7 245.6 245.5 244.9 243.5 236 251.5 254 256.3 258.2 257.2 255.6 254.1 251.4 248.9 249 249.1 247.6 245.7 242.5 239.3 235.3 232.3 225.6 214.9 208.5 212.6 226.7 229.1 234.5 239.6 242.6 244 243.4 238.7 241 242.9 244.3 246 248.2 249.8 251.8 251.8 253.9 257.1 259.8 260 255.9 256.9 263.4 270.1 275.6 281.5 286.7 290.8 294.5 298.2 303.5 309.1 311.4 308.6 296.9 283.5 271.8 256.9 263.1 267.3 270.5 273.8 275.7 277.2 278 279.1 279.6 277.8 276.3 286.5 294.8 300.2 302.8 303.8 303.8 305.1 305.9 306.1 306.3 306.2 305.2 304.1 302.2 299 295.6 301.5 302.2 303.8 304.7 305.1 306.2 309.9 314.8 316.4 317.8 319.3 322.4 325.6 328.1 331.7 335 336.4 334.5 330.4 321.2 310.3 298.6 288.3 278.4 272.5 267.5 264.9 259.1 254.8 244.9 231.2 249.3 267 277.2 286.4 293.7 302.9 310.5 317.9 331.2 344.3 357.2 367.7 369.9 364.4 358.6 337.5 320.6 314.8 313.1 312.7 314.8 318.4 322 330.4 340.3 344.3 346.9 347.1 343.1 335.5 327.9 320.1 313.8 306.4 303.1 299.3 295.9 301.5 305.4 309.7 318.3 325.2 330.1 333 332.8 329.2 325 320.7 314.4 309.7 301.9 295.9 294.5 291.7 285.2
271.5 274 274 272.9 271.7 269.9 270.1 268.2 266.1 262.4 257.9 253 248.7 250.2 250.1 248.7 247.6 246.4 245.2 243.9 243.2 242.7 242.3 241.1 240.1 240.1 238.3 234.8 243.3 247.4 249.9 253 252.6 252.4 248.7 245.9 242.9 241.2 243.3 240.4 239.7 237.1 230.7 228.9 225 214.2 206.4 215 220.7 226 231.4 233.7 235.9 236.8 237.8 237.8 236.6 236 236.7 238 241.3 244.5 246.5 247.5 248.2 249.5 253.1 255.7 256.4 250 253.9 260.6 267 272.7 278 283 287 289.5 292.2 295.6 298.7 299.6 298.6 291.6 280.9 273.4 261 251.2 255.4 261 263.9 265.1 267.8 270.4 272 271.3 272.2 280.5 284.1 289.4 296.2 299.3 299.4 300.8 302.1 303.4 303.6 303.5 303.5 303.3 302.8 300.1 297.2 291.4 296.7 296.9 299.7 300.2 300.5 302.8 306.4 310.5 312.3 313.9 315.8 318.9 322.2 325.6 330 333.1 333.4 331.5 326.4 315.5 302.9 290.8 281.9 273 266.9 263.9 260.3 255.6 254.1 236.9 241 257.4 268.2 277.8 286.2 295.1 305.4 313.3 321.5 333.9 347.4 360.7 366.7 365 361.2 356.9 335.9 318.7 313.7 312.3 312.3 314.9 316.7 320.8 328.7 337.4 341.6 344.1 343.6 340.4 335.5 327.4 317.8 310.6 304.7 301.6 297.7 291.8 299.7 304.1 308.9 315.4 321 325.9 328.3 327.2 323.5 319.7 315.2 310 304.2 295.3 292 290.8 283.6 276.4
268.8 269 268.6 266.6 265.4 265.6 265.1 262 260.1 257.1 252.9 248 244.8 246 246 245.9 243.5 242.3 240.8 239.9 238.5 238 237.3 236.2 235.3 236.6 235.7 232.6 236.3 240.5 243.3 245.5 246.8 245.2 242.9 239.5 236.9 234.7 234.7 233.5 232.3 227.3 225.5 209.5 204.8 204.4 212.5 221.4 224 226.9 229.1 230.1 230.9 231.5 231.5 231.5 230.9 231.8 232.3 234.8 237.7 240.5 243.2 243.6 244.4 246.7 249.3 252.2 252 245 250.4 257.2 263.3 268.5 273.9 279.3 283.8 284.7 287 290.5 293.1 293.9 294.5 289.6 279.5 272.3 261.2 246.4 249 253.1 254.7 259.3 258.4 261.1 263.8 265.9 273.6 278.4 281.9 285.9 289.9 293.4 295.8 297.2 298.7 299.2 300.3 300.8 301.4 302.7 303 300.7 297.1 287.8 290.4 293.3 295.3 295.9 297.1 300.2 302.6 306.1 308.6 310.5 312.4 315.4 318.5 321.4 326 328.8 329.7 327.5 323.4 310.7 295.7 284.5 276 268.2 261.7 258.7 255.3 252.5 247.8 232.9 244.6 260.4 269.9 278.7 287.9 297 306.5 315.3 323.4 337.2 350.5 360.9 363.7 359.3 358.6 353.2 333.3 317.3 313.2 311.3 313 313.9 314.8 317.5 325.4 333.5 338.1 340.9 340.8 337.4 331.7 323.2 314.1 307.6 303.5 300.9 296.4 292.8 297.9 303.3 308 312 315.7 320.5 322.9 322.3 319.8 314.7 309.7 304.5 297 289.5 287.8 282.8 275.8 280
262.7 262.2 261.3 260.5 260.5 260.4 258.8 256.8 254.6 252.2 246.8 242 241.2 241.9 241.8 241.1 239 237.7 236.4 235.4 233.6 231.5 229.5 231 232.9 235.2 234.2 226 232.9 236.2 237.5 238.6 238.7 236.2 234.4 234 231.2 229.7 228.7 227.9 226.3 224.5 219.8 197 201 208.7 219.2 220.6 222.5 224.8 225.6 225.6 225.4 226.2 226.5 226.7 227.5 228.1 229.2 232 234.8 237.1 238.5 239.5 241.1 243.2 245.8 247.9 247.3 239.9 246.1 252.7 258.2 264.3 269.9 274.5 279.2 281.8 285.1 288.7 291.4 290 289.8 288.5 279.1 270.1 258.9 245.2 254.2 261.5 262.8 262.8 264.4 266 267.9 272.1 274.4 278 280.2 282.6 286.6 289.6 291.8 293.9 294.7 294.5 296.1 298.6 300.2 301.9 302.3 299.7 296.2 291.5 284.4 289.1 291.7 292.6 294 296.4 298.8 302.6 305.3 307.2 309.1 312 315 318.3 322.4 324.5 325.5 324.1 320.4 309.9 291.7 278.2 270.7 263 258 254.4 252.3 250.2 237.6 225.6 251 261.9 271.3 281.5 290.4 299 307.4 315.5 326.1 339.6 352.5 359 356.4 353.6 356 350 330.6 315.7 310.9 310.1 312.3 312.9 312.4 313.2 321.8 329.7 334.4 337.6 337.3 333.1 326.2 317.5 310.1 305.6 302.4 300.1 295.6 290.7 296.3 301.6 306 309.5 313.3 317.2 319.1 318.9 315.1 308.9 304.1 298.4 289.8 283.3 277 274.3 269.9 283.4
256.5 256.3 254.1 255.9 255.4 253.3 251 249.6 248.8 245 240.3 237.8 236.4 236.8 236.1 234.5 232.1 230.4 230.3 229.4 227.1 226.1 226.9 232.1 235.1 235.9 234.2 228.1 226 235.7 234.5 233.3 230.7 228.6 227.4 225.9 225.1 224.4 224.4 223.6 222.5 220 195.3 198.4 207 214.8 217.9 219.2 220.4 221.3 221.2 221.4 221.4 221.2 222 222.6 224 224.8 226.6 229.4 232.2 234 235 236 237.1 239.3 241.7 243.3 240.6 235.8 242 247.5 252.4 260.1 264.9 268.3 273.1 277.4 281.2 284.4 285 283.4 282.7 282.7 275.6 267.5 257.7 242.8 248.8 256.4 257.7 261.1 264.5 269.3 273.3 276.9 278.3 278.9 280 281.1 282.4 283.7 285.3 288.6 289.7 290.1 291 295.2 297.6 298.1 298.5 296.2 293.1 290 278.8 284 287.7 288.7 290.5 292.6 295.1 298.5 302.2 303.9 305.5 308.5 311.4 314.7 318.2 319.3 319.9 322.6 318.9 304.2 289.5 277.3 268 259.6 254.3 251.9 247.6 242.9 223.6 239.3 256.2 264.9 273.7 283.7 292.7 300.1 307.7 315.3 328.5 343 353 352.3 348.4 349.6 352.9 346.6 328.2 313.7 309.3 311.3 311.4 310.5 308.2 308.7 318.4 325.4 330.2 335.1 332.8 327.3 320.1 312.4 307.8 304.5 301.1 298 291.6 287.9 295.9 304 305.8 309.4 312.1 313.7 315.7 314.5 309.1 304.3 299.4 291.4 282.1 273.4 269.3 270 281.3 287.5
249.5 247.5 247.5 249.6 247.3 245.2 244.1 243.5 240.8 238 234.3 232.5 231 231.1 229.7 228.4 227 225.1 224 222.4 222.8 224 228.1 234.8 238.5 238.3 233.7 226.5 221.5 230.3 229.6 224.3 222.5 222.9 222.9 222.3 222 221.9 221.6 220.5 218.6 206.3 193.4 199.3 210.6 214.6 217 217.5 217.6 217.4 216.5 216.1 217.1 216.3 217.9 220.1 222.2 223.4 224.9 226.9 229.5 230.6 231.4 232.6 233.6 235.2 236.4 236.8 235.2 233.1 239.2 244.7 247.8 253.9 258.8 261.6 265.7 269.8 274.3 277.1 278 276.7 275.4 274.9 269.4 259 250.1 237.9 243.3 252.4 257.7 261.5 266.7 270.8 274.9 278.5 280.4 281 280.8 281 279.9 278.2 277.6 281.7 284.1 286.4 287 289.8 293.2 294 294.2 292.6 289.6 286.4 277.2 278.4 282.3 284 286.2 288.8 291.8 295.4 298.1 299.7 301.6 304.7 307.9 310.4 311.4 312.9 316.8 321.9 318.7 304.1 287.1 275 264.7 256.6 252.2 247.9 245 225.4 232.4 248.4 262.3 268.8 277.1 285.6 294 300.7 307.7 317.1 331.5 344.1 348.2 343.8 342.6 344.7 349.4 344.1 326 311.5 306.5 310.3 309.2 306 303.3 306 314.9 320.7 327 330.8 327.2 320.6 314.4 309.1 306.4 303.5 300.1 296.2 288.7 285.4 297.3 301.7 304.4 308.7 310.3 312.2 312.9 309.8 305.7 299.7 294.9 287 274.3 265.6 267.7 280.5 288.3 289.5
241.8 240.3 242 242.5 240.3 238.7 238.1 236.2 232.7 230.3 226.7 225.3 224.7 224.9 224.1 223 220.7 220.5 220 220.4 221.6 223.8 229.2 237.8 239 237 229.9 220.1 221.8 224.1 222.8 220 219.8 219.3 219.4 219.8 219.8 219.5 217.9 216.4 211.3 199.7 190.9 203.6 212.3 215.2 216 214.7 214.1 213.5 211.3 211.9 213.3 217.9 219.1 219.7 221 222.1 223.6 224.5 225.2 226 227.3 228.5 229.7 230.9 231.8 230 229.5 232.5 236.4 240.3 244.6 248.4 252.7 255.1 258.8 263.6 267.7 269.2 269.7 269.5 268.7 267.2 261.4 249 239.2 233.2 246.1 254.5 260.6 265.7 270.8 275.1 278.3 281 282.8 283 283.2 281.5 279.8 277.9 276.7 276.9 280.2 282.5 284.8 286.2 288.6 289.4 289.3 287.6 284.8 281.8 271.9 273.9 278.7 280.2 281.5 284.3 288.5 291.4 293.8 295.5 297.7 300.6 303.4 304.7 306.1 307.8 311.7 315.3 316.2 306.9 286.7 271.2 261.6 254.3 249 240.8 224.5 232 252 256.2 262.9 271.1 280.1 287.1 294.2 300.9 307.7 319.1 332.9 343.7 340.4 336.8 337.6 340.7 346.6 340.1 324.5 309.4 303 307.6 305 300.4 299.6 304.7 312.7 318.1 323.6 325.3 320.2 314.7 310.7 307.8 304.7 301.9 298.3 292.1 284.9 286.9 296.6 300.7 303.6 305.8 308.1 309.8 308.2 304.7 299.4 295 289.1 280.6 265.3 260.4 277.4 283.3 286.8 288.3
235.9 237.5 237.6 235.8 233.9 232.1 231.2 229 224.8 221.2 219.5 218.4 216.9 215.8 215.7 217.1 216.3 216.9 219 221.9 225.7 229.4 235.5 236 234.5 232.3 226 211.4 217.3 218.9 219.3 217.7 217.2 218.2 217.8 217.6 216.4 215.2 213.3 210.6 205.1 190.8 192.7 205.7 210.6 213.1 213.1 211.3 210.2 209.1 209.5 212.4 214.4 215.8 217.5 218.5 219.4 220.2 221.2 222.2 223.2 224.5 225.5 226 226.8 227.3 227.5 226.6 221.3 228.8 231.9 234.7 239.1 242.9 245.9 249 252.4 256.4 260.6 261.1 261.3 262.1 261.5 260.1 251.9 234.4 230.1 234.2 249.8 259.4 264.6 269.8 275.5 279.8 282.5 284.5 285.7 285.5 285.1 283.6 279.8 278.2 276.3 275.9 276.2 277.7 280.1 282.3 283.3 283.6 283.7 281.8 279 277.6 267.9 270.3 274 276.6 278.2 280.1 283.2 285.9 289 291.2 293.8 296.4 298.6 299.9 299.9 303.3 305 305.2 304.8 299.9 286.2 269.3 259.1 249.8 242.5 224.7 228.2 248 258.1 262.2 265.7 271.5 279.5 286.5 293.4 299.9 308.1 321.4 333.9 336.6 332.2 331.3 332.7 337.8 343.5 338.3 324.3 308.8 302 303.3 300.1 296.5 297.5 304.1 310.5 315.6 319.8 317.4 312.7 308.1 307.5 306 303 299.9 295.8 288.3 279.1 287.4 295.1 298.9 301.1 303.6 305.6 305 303.2 299.7 295.5 290.1 282 268.3 257.7 265.4 280.1 282.4 284.6 287.8
231.7 232.6 229.6 228.8 229 225.3 222.3 219.2 216.1 213.9 212.4 210.7 210.8 211.2 212.6 214 217.3 222.4 225.3 227.7 228.9 231 231.4 229.9 228.2 226 221.4 202.2 217.1 218.7 216.6 215.4 214.5 215.5 215.3 213.8 212 210 207.1 204.4 199.7 187.1 194.6 204.5 206.9 208.4 208.2 207.4 207.1 206.2 207.9 209.3 211.1 212.8 214.5 216.2 217.1 218 219 220 221.4 222.7 223.9 224.1 224.4 224.7 224.9 223.3 217.2 225.1 226.9 227.8 232.1 237.1 240.7 243.9 246.5 250.3 253.5 255.3 255.6 255.4 254.1 251.8 238.3 225.5 237.7 250.3 255.1 260.9 266.8 273.3 278.1 281.8 284.5 286.3 287 286.7 285.3 282.5 278.3 275.6 275.3 274.4 274.3 275.1 275.6 275.8 276.5 276.6 276.6 276.7 275.8 273.1 262.9 266.4 269.9 272.5 273.6 276.2 279 281.7 284.1 286.4 287.9 289.5 293.1 294.1 296.6 299.2 299.9 300.2 300.9 299.9 284.3 269.3 257.1 246.8 226.8 222.5 233.2 253.6 259.6 264 268.5 271.9 276.6 283.4 292.1 299 310.2 322.5 330.1 327.4 324.6 325.2 328.5 335.9 341.2 337.2 325.5 309.5 298.5 298.8 295.9 294.6 295.8 303.8 309 312.6 313.6 309.9 305.3 304.3 304.2 303.4 300.7 297.2 290.7 283.2 278.1 289 295 298.5 299.2 300.4 301 300.8 300.4 295.8 290.2 285.3 275 257.7 258.5 276.1 279.1 281.3 284.3 287.5
226.7 225.2 222.7 222.3 221.5 218.6 213.2 211.5 209.5 207.7 207.1 206.6 209.8 213 216 218.2 221.9 224.4 226 225.8 224.8 220 223.5 223 222.4 220.8 211.3 201.1 214.6 214.2 212.1 211.2 210.9 210 210.3 207.8 207.4 206.4 203.9 200.1 188.2 184.7 197.9 201.7 203.4 202 203.7 204.9 204.4 203.9 205.8 207.5 208.7 210.3 211.9 213.5 214.6 215.6 216.6 218.3 219.6 220.7 221.9 222.6 223.1 223.4 223.4 221.2 213.2 221.9 223.3 224.5 226.8 230.7 235.2 238.8 241.2 244 246.5 248.1 247.9 247.3 246.5 243 227.9 231.6 244.1 249.6 255 260.3 265.5 271.5 277 280.3 282.4 283.4 284.6 285.5 284.2 281.2 276.8 272.1 270.8 270.2 271.1 272.4 273.2 273.4 274.2 273.6 273.7 272.3 270.2 266.6 257 262.1 265.9 267.9 269 272.1 275.3 277.8 279.6 281.3 283.3 285 288.8 290.6 291.1 292.3 293.3 298.2 303 303.1 285.1 267.2 253.4 242.7 220.9 219.1 236.7 257.8 260.2 263.5 267.8 270.7 273.5 280.6 289.6 298.8 312 321.7 322.3 320.1 318.3 319.9 326.4 333.8 339 337.7 327.2 312.3 299.2 296.9 294.4 293.2 295.1 302.5 307.2 309.1 307.4 302.8 299.8 300.4 300.3 299.3 297.2 293.7 288.3 279.1 278.8 290.4 295.1 296.5 296.8 297.6 299 298.6 294.7 287.1 283.2 278 266.1 253 264.5 280 278.9 280 284.5 288
218.7 215.8 214.8 214.5 212.7 209.1 206.8 204.5 202.3 202.9 206.6 210.6 215.2 218.3 220.2 220 220.1 221 221.4 220.1 217.7 217.4 215.8 215.5 214.8 212.5 203.2 199.4 209.5 208.5 207.6 207.4 205.1 205.1 203.3 203.8 203.2 201.6 200 189.5 182.4 183.4 197.9 199.3 199.1 199.7 201.8 202.4 201.5 202.1 204.7 205.1 206.4 207.3 208.9 210.5 211.7 212.6 213.5 215.6 217.3 218.6 219.8 220.9 221.8 222.1 222 220.1 214.1 218.4 220 221.5 224.1 226.5 229.3 233.7 236 237.4 239 238.6 238.4 237.4 237.1 234 221.3 232.6 242.9 247 251.5 257 262.7 268.8 273.4 275.9 277.4 278.2 279.9 281.2 282.1 278.8 273.6 267.8 266.2 265.9 266.8 267.9 268.8 269.7 269.7 270.1 269.4 267.6 264.7 261.5 252.9 257.5 261.8 263.7 264.8 266.9 269.9 273.2 276.1 279 280.8 282.7 283.6 285 285.6 286.9 288.1 291.2 295.9 295.6 283.9 265.2 249.2 234.1 215.9 215.8 232.2 258.3 260.4 262.6 265.4 268.1 272.6 278.7 288.5 301.8 312 315.4 314.6 312.6 312.5 316.2 325.2 331 333.9 333.3 327.6 314.8 303.1 296.6 295.1 291.9 293.7 301.2 304.4 304.6 300.9 295.6 295 295.9 296.4 295 294.2 289.3 283.6 273.5 276.7 290.9 293.8 294.9 294.8 295.7 296.3 294.3 286.9 281.5 278.7 269.9 258 251 266.5 277.5 276.9 279.3 283.7 288.2
210.2 207.6 207.3 206.5 205.3 201.7 200.5 198.4 201.5 206.6 210.2 213.5 216.3 217.4 218.5 216.8 215.9 215.3 215.1 214.9 213.3 212 210.8 209 208.7 208.3 203.7 200.9 204.4 205 203.2 200.3 199.5 200.6 200.8 200.7 200.9 199.3 195.8 179.9 179 191.2 194.9 195.5 195.7 197.1 199 199.7 198 198.9 202.2 202.5 203.1 203.4 204 205.5 207.2 209.1 210.4 212.4 214.3 215.3 216.7 218.2 218.8 219.2 219.2 215.7 211 215.6 216.1 217 219.1 221.3 224.3 227.3 229.8 231.6 232.5 231.1 230.1 229.5 229.4 223.2 221.8 235.5 240.5 244.4 248.3 252.9 258.2 263.7 268.5 270.6 271.8 272.6 274.1 275.8 277.1 275 268.5 265.2 263.5 262.1 261.2 262.3 264 264.8 265.3 265.2 263.8 260.7 258.6 256.6 250.6 255.1 258.8 259.5 261.7 264.1 267.1 271 275.1 277.7 279.2 280.1 280 280.7 281.4 283 285.1 286.5 287.9 284.5 276.7 263.7 245.8 221.7 224.5 215.4 241.3 259.6 260.7 262 263.6 266.6 271.4 278.5 289.9 302.3 307 308.8 307.6 305.7 308.5 314.2 321.9 325.8 328.2 327 323.8 315.4 305.8 299.8 297.7 293.8 294.3 298.8 300.5 299 293.2 292.5 292.8 293 293.1 292.8 291.3 286.9 282.5 270.7 278.2 288.3 291.4 291.8 293 294.4 290.7 283.9 278.2 276.3 273 262.8 249.9 253.1 271.1 275 275.4 278.3 283.3 288.1
202.7 200.3 199.6 200.1 198.2 196.4 195.6 198.8 203.9 207.8 210.3 212.3 213.4 213 211.5 210.9 210.5 209.9 210.4 209.6 208.8 205.6 202.6 202.2 202.7 201.4 197.8 199 201.2 200.1 197.5 195.7 195.8 196.8 198.3 198.6 196.7 193 192.3 176.6 178.3 188.6 190.3 190.8 193.1 195 196.7 197.4 193.2 193.8 198.1 198.7 198 197.1 198.7 200.4 202.2 204.1 205.7 207.8 210 212 213.2 214.3 215 216 215.1 207.5 207.1 211.3 210.6 211 212.1 213.2 215.5 217.7 222.1 225 223.8 224.2 222.8 222.2 219.7 215.9 226.1 232.2 236.8 240.6 244.1 247.6 251.8 256.1 259.8 262 263.4 264.2 266.6 269.4 270.9 269.1 263.3 262.7 260.6 257 256.5 257.4 258.6 259.6 259.8 258.8 257.2 255.6 252.8 251 244.9 251.6 255 256.4 258.6 261.7 265.5 270 272.9 273.7 274.7 275.7 276.1 276.6 276.9 278.3 280.3 280.7 279.6 277.7 273.8 262.6 243.5 207.8 232 248.1 257.5 260.8 263.1 261.6 262.7 266.1 276.1 284.3 293.8 298.8 300.9 301.9 299 299.9 305.5 311.6 317.7 319.8 320.7 320 317.4 312.1 304.1 300.6 298.7 293.1 291.6 296.3 296.4 292.9 290.3 290.3 290.6 291.1 291.1 290.8 289 285.8 281.5 269.6 278.1 287.1 289.5 290.4 291 288.3 282.9 275.4 272.8 268.1 264.9 251.9 246.6 255.6 269.1 273.6 274.4 277.6 284.2 287.9
195.3 193.4 193.3 193.4 192.1 188.8 196.5 201.4 204.6 205.7 207.4 208.4 207.1 206.5 206.2 205.9 205.2 204.7 204.3 202.1 199.7 197.7 195.6 196.5 196.9 195.6 185.4 195.3 196.4 194.5 193.6 191.5 192.3 193.8 196.2 196 195.4 193.6 190.2 175.9 176.9 184.2 185.4 186.8 190.9 193 195 195.8 194.2 189.9 193.5 193.5 190.6 192 194 195.4 197.2 198.2 200.2 202.3 204.8 206.7 208.5 210.3 210.7 209.1 208.7 200.2 203.8 205.8 207 208 208.9 209.9 211.8 213.8 214 215 217.1 216.7 216.4 214.7 214.6 223.5 226.5 230.9 235 237.2 238.1 241.3 244.8 247.4 250 252.4 254.4 257.5 259.6 262.5 265.7 261.7 259.7 257.7 255.3 252.5 251.8 252 252.8 253.5 252.8 251.9 251.2 250.5 249.7 249.1 243.5 248.2 251.3 252.2 253.5 257.7 263 266.9 269 269.4 269.9 270 270.6 271.3 271.5 273.1 274.6 274.9 274 271.9 269.4 265.3 235.7 205.9 238.2 255.8 258.2 258.8 258.1 258.4 262.4 268.6 275.8 284.9 291.7 294.8 294.6 292.7 292.9 298 303 308.9 312.3 313.8 314 312.4 310 305.4 299.8 297.5 295.4 290.2 289.2 292.9 291.7 288.3 287.2 287.4 288 288.6 289.3 289.1 287.6 282.5 278.5 266 280.5 287.6 287.7 287.4 287 283.3 277.1 270.2 264.4 261 257.7 247.4 247.2 256 263.3 270.6 272.4 276.9 282.7 286.1
188.5 187.5 187.6 187.7 188.7 193.2 195.8 200.8 203.2 204.1 204 203.1 202.2 201.9 201.8 200.8 200.4 199.5 196.4 194.9 194.2 193.3 193 192.3 191.3 190 185 191 192.2 190.2 188.7 187.9 188.9 190.2 192.1 192.7 191.9 191.2 189.7 174.3 173.7 177.4 179.7 185.5 188.2 190.8 192.1 192.7 191.5 185.1 186.6 186.6 187.9 191 191.6 192.2 193 195.4 197.7 198.9 200.7 202.2 202.9 203.6 203.4 203 200.9 198.5 201.5 202.6 201.5 201.9 203.9 205.4 206.6 209.1 212 211 212.9 213.4 212.9 210.3 215.2 218.3 221 224.9 228.4 230.6 231.7 234.5 238 240.6 243.5 245.6 247.5 250.8 255.7 259.9 260.7 256.1 252.6 251.4 249.6 247.3 246.5 246.9 248.1 248.4 247.8 247.1 246.9 247.2 246.6 245.5 237.9 244 246.8 247.4 249.7 252.8 258 261.7 264.1 264.4 264.8 264.3 265.5 266.6 267.3 268.7 268.8 269.3 267.6 266.6 265.9 263.5 231.7 206.7 246.2 253.5 254.3 254.2 254.3 256.1 260.3 268 277.9 284.1 288.2 289.1 285.8 286 288.5 294.9 299.2 305 307.3 308.3 307.5 304.7 301.4 298 294.6 293.7 291.2 287.6 282.7 288.6 286.9 284.7 285.1 285.5 286 287 287.7 285.5 282.6 272.3 265.1 267.4 281.2 282.2 281.5 281.1 279.9 277.1 270.1 262.5 259 254.8 249.7 241.6 250.1 259.5 263.3 266.8 271.4 274.7 278.5 280.2
182.7 182.8 182.2 187.6 190.8 193.7 198.6 201.5 202.3 201.9 200.7 199.8 198.5 197.5 197.4 196.6 195.3 193.2 192.4 192.4 191.6 190.2 189 187.9 186.3 185.5 178.8 187.6 187.2 186.9 185.3 184.7 185.2 186.4 187.8 189 189.5 188.5 187.3 172.7 171.7 172.8 176.7 183.2 185.5 187.6 188 188.1 187.1 182.1 183 184 185.8 186.7 188.3 188.9 190.4 193.5 194.6 194.9 197 197.2 199.2 200.7 199.8 197.6 196.7 196.1 203.7 202.4 199 196.5 198.5 200.7 202 202 204 205.6 207.6 207.2 206.4 211 214.8 216.7 218.7 220.6 221.6 223.2 225.1 227.5 231.1 234.1 236.9 238.1 240.1 243.9 249.6 252.3 253.7 246.8 243.9 244.4 243.9 241.4 242.1 242.6 243.3 243.3 243 243.2 243.6 244.4 243.8 242.4 233.8 240.2 243.1 245.6 249.1 251.8 254.1 257.3 258.5 259.2 259.8 260.9 261.1 262.2 263 263.7 263.8 263.7 263.4 263.5 263 258.9 226.2 229.4 243.5 248 248.5 249.5 251.8 254.8 258.6 268.4 276.1 281.8 284 284.6 285 287.1 286.3 292.8 296.1 300.5 303.4 303.2 299.2 296 293.1 292.4 291.2 289.7 288 282.1 283 284.7 282.9 283 283.4 283.7 284.1 285.7 284.3 277.1 273.1 264.6 259.5 270.5 276.5 276.2 276.3 275.7 274.7 269.6 262.3 256.7 250.9 240 238.3 243.8 253.7 259.2 264 269 270.5 272.9 275.5 277.9
177.5 182.2 185.9 189.2 192.8 196.5 199.4 200.1 199.5 198.4 196.9 195.8 194.5 193.6 192.8 191.4 189.1 187.2 188.5 187.6 186.8 185.3 184.4 183.4 182.6 181.6 174.7 182.9 183.5 182.9 181.1 181.1 182.3 183.7 185.6 186.3 186.6 185.9 184.8 178.9 170 167.4 175.5 180.5 181.6 182.9 183.3 183.2 182.3 179.9 180.5 181.3 181.3 182.3 183.5 185.4 187.5 189.2 190.9 191.9 193 193.8 194.5 195.5 194.8 192 198.1 200.4 199.7 197.7 194.9 190.9 192.9 194.2 196.3 197.7 197.4 198.6 203.5 205 208.6 212.2 214.7 216.5 218.6 219.7 222 225.2 227.4 227 225.7 227.1 229.7 231.4 233 238.4 242.7 245.3 247.7 242.5 236 235.4 235.8 238.7 239.6 239 238.2 238.1 238.7 239.2 240.1 240.4 239.6 238.7 234.9 238.1 241.6 244.4 247.9 251.9 254.2 255.4 256.4 255.4 255.9 256 255.9 256.7 256.9 256.7 257.1 258.7 259.5 260.2 260.5 253.8 222.3 221.8 234.7 243.7 246.8 248 249.9 257.3 263.8 270.7 276.5 280.6 282.4 283.7 285 287.4 287.6 289.6 293.4 295.4 296.2 295.3 291.8 288.6 288.3 288.8 285.8 285.1 283.5 277.3 281.9 281.2 281.1 281.1 281.3 281.5 282.3 282.7 275.9 269.3 266.2 259 259.3 269.6 270.6 271.5 272.3 272 270 263.6 257.1 252.1 234.1 234.6 242.4 250 254.6 258.7 262.4 265.9 269.3 272 273.9 276.7
176.9 183.2 186.7 190.4 193.6 196.8 197.9 197.9 196.3 195.4 193.5 191.2 190.9 190.1 189.8 188.7 185.8 183.2 182.1 182.1 181 181.4 181.2 179.8 180.1 179.2 170.5 179 180.5 178.7 174.3 176.5 179.6 181.6 183.1 183 183 181.8 179.9 179 172.2 167.2 172.4 176.5 176.8 177.2 177.5 177.3 176.6 178.2 178.9 179.5 180.4 181.2 181.9 183.4 185.4 187.3 190.2 193.1 194.6 195.9 195.4 194.6 188.3 195.2 196.8 196.5 189.6 185.8 185.4 188.7 190.7 192.7 193.4 195.7 199.3 207.6 210.2 210.5 210.6 211.8 213.3 215.6 217.2 218.2 219.2 220.1 221.6 222.5 222.3 223.2 225.9 227 227.8 231.8 236.4 239.3 240.4 236.5 230.6 233.1 234.8 235.7 235.4 233.5 233.7 233.7 234.3 235 235.9 235.6 235.2 234.3 229.5 234.3 237.4 240.7 244.2 247.1 248.8 250.4 250.7 250.7 250.7 251.1 250.2 249.3 249.2 248.1 251.3 254.6 256.1 257.6 256 249.8 214.6 216.4 236.3 243.7 245.9 247.9 250 256.9 264.6 272 276.7 278.5 279.3 281.5 283.9 286.7 289.1 289.3 288.9 289.8 290.7 289.9 285.7 286.9 283.9 283.3 282 281.1 279.1 273.6 275.5 276.9 276.9 278.1 278.9 279.1 278.8 275.4 267.3 263.2 259.5 255 259.4 264.2 266.9 269 270.9 269.5 264.6 258.1 253.8 247.2 232.3 235 246.9 251.9 255.1 258.9 262.2 265.3 268.5 271.4 274.1 276.6
177.5 181.7 184.9 188.7 193.3 194.9 194.5 192.5 191.7 190.9 189.9 188.1 187.9 187.4 186.8 185.2 184.3 182.1 172.3 174.9 176.5 176.9 177.3 178.2 177 175.2 165.8 177.1 177.5 175.8 166.6 174.2 176 177.2 177.7 177.1 177.1 176.2 175 174.4 172 169 168.3 169.9 170.7 172 174.1 174.5 175.9 177.5 178.8 179.7 180.6 181.5 181.1 181.7 183 185.2 187.3 189.5 192 194.3 194.4 192.9 184.1 192.3 188.6 180.2 183 185.4 186.6 190.1 194.7 197.8 199 201.7 204.7 207.8 209.7 211 212.4 213.1 213.7 214.1 214.3 215.4 215.6 217.5 219.4 220.5 220.9 222.6 225.6 227.1 226.7 226.8 230.8 233.1 233.9 230.6 231.9 233.5 234.2 232.3 230.5 229.3 229.5 229.4 229.8 230.6 231.3 231.2 231 229.5 226 232.3 233.8 234.8 237 239.7 241.8 243.2 243.2 242.5 243.4 243.6 240.5 240 241.6 242.7 244.3 246.4 247.9 249.2 247.8 241.8 205.5 213.7 234.8 241.7 242.4 246.5 251.2 256.4 262.7 268.5 272.1 273.6 274.3 275.8 278.2 280.7 284 286.5 287.8 286.1 284.8 283.8 282.3 282.5 281.1 278.8 277.4 276.2 274.8 264.4 274.8 273 273.8 275.5 274.7 273.1 272.9 267.8 261.2 258.1 255.1 249.9 256.7 259.9 264.7 268.8 269.9 266 258.5 254.8 247.8 236.6 229.2 239.5 249.8 253.6 256.8 259.1 261.8 264.7 268.7 271.6 274.4 276.9
176.7 180.3 183.3 187.6 190.9 189.9 189.2 186.7 187.7 186.7 185.6 185 184.8 184.2 181.6 179.4 178.9 172.8 166.5 168.6 171.4 173.7 176 176.2 175.6 167.5 160.7 174.1 173.7 171.5 158.7 167.6 169.9 171.5 171.7 172.6 172.9 170.5 168.7 166.9 164.7 164.2 164.3 166.3 172.2 173.5 175.7 176.1 176.8 177.6 178.3 179.2 180 180.4 178.9 179.5 180.3 182.4 183.7 185.8 187.7 188.7 187.8 185.4 181.2 181.4 180.1 181.7 187.4 193.9 197.2 199 200.1 202 203.5 204.5 205.4 207.3 208.8 209.7 210.9 212.5 213.4 212.9 213 213.3 214.2 216.1 218.7 219.9 218.8 219.7 220.4 221.1 221.3 221.6 224.2 226.2 226.9 225.7 229.8 228.9 227.5 226.1 225 225 225 225.1 225.4 225.7 226.4 226.3 226 224.6 224.5 229.3 230 229.5 229.9 232.3 234.8 235.6 235.6 235.4 234.9 234.1 237.5 243.3 246.3 246.7 244.8 241.6 236.2 241 240.8 228 205.4 207.3 231.9 236.7 239.4 242.7 250.5 256.9 262.4 266 267.9 268.3 269.3 271.8 275 280.2 282.2 284.5 282.8 280.5 279.4 279.4 279.8 276.8 275 274.2 273.3 272.2 270.8 261 268.5 270.4 271.3 271.6 270.7 268.4 266.7 261.5 256.4 251.7 249.7 250 257.2 262.1 263.5 266.6 265.6 258.9 255.4 250.6 230.3 225.8 229.5 246.8 251.5 254.7 257 259.2 261.3 264.2 268.1 271.7 274.4 276.5
178.3 181.2 184.8 187.7 187.1 185.9 184.4 183.2 183.6 183 182.5 181.3 180.5 178.5 175.8 172.3 169.9 161.5 166.8 169.5 171.3 172 172 171.3 170.8 161.4 160.4 169.1 168 165.8 153 162.5 163.5 163.8 165.1 167.2 166.8 165.5 162.4 160.5 161.7 162.4 164.4 174.2 176.4 177.3 177.6 177.3 176.8 177.2 177.9 178.4 177.9 177.5 176.9 177.4 177.8 179.5 180.6 181.9 182.8 183.6 183.5 181.1 177.6 178 179.2 188.3 191.2 193.4 195.4 197.4 199.3 201 202.8 204.2 205 205.9 206.5 207.1 207.7 208.9 210.4 211.3 212.7 213.3 213.8 213.9 215 216.1 216.5 217 217.6 217.2 215.6 215.9 217.2 219.5 220.9 222 222.8 222.4 221.5 221.4 222.7 222.6 222.6 221.6 219.3 219.8 220.8 222.2 223.3 218.9 222.5 226.2 227.3 228 227.5 227.3 228.6 228.2 228.1 229.4 231.2 234.7 238.6 242 242.4 236.9 236.1 233 223 233.2 227.4 196.2 221.3 229.1 234.8 236.5 239.2 243.1 248.2 255.3 260.1 263.7 264.3 264.3 264.4 265.9 270.5 274.5 278.1 279.2 277.5 277.9 279.4 278.9 276 272.8 271.7 270.4 269.3 268.7 266.7 258.2 259.9 266.9 269 268.9 267.3 264.2 259.8 255.8 250.4 246.2 246.6 255.5 260.9 266.5 267 263.6 258.8 254.7 249.7 240 220.9 230.8 245 250 252.5 254.7 256.9 259.1 261.5 265.4 268.1 269.9 272.2 273.7
179.5 182.2 184.2 184.3 183.2 181.9 181.1 180.8 180.6 180.1 178.5 176.6 174.8 172.5 169.7 165.7 159.2 160.6 168.4 169.4 170.2 168.8 166.1 166.7 164.8 156.7 157.5 162 161.5 159.4 148.2 152.9 154.3 155.4 156.4 157.5 157.8 155.7 154.8 157.7 159.4 160.8 169.6 172.7 174.9 176.5 177.1 176.5 176.8 176.1 176.2 175.8 175.8 176.6 175.4 175.3 174.7 176.5 179.3 180.4 181.2 180.9 179.7 175.4 174.5 179.7 184.7 185.8 188.1 190.9 192.7 194.6 195.9 197.4 199.3 200.9 201.4 201.7 202.5 203.1 204.1 205.7 207.4 209.5 210.8 212.2 212.5 212.8 214.2 214.9 215.1 213.7 212.9 211.4 212.9 213.7 213 214.4 214.2 216.2 218.5 217.7 219.4 222.2 220.2 218.6 216.4 214.6 214.3 216.5 218 219.7 219.2 217.1 223.8 224.9 226.3 226.5 226.2 225.9 225.4 225.1 225.2 226.9 229.5 233.2 235 233.1 225 227.5 226.1 219.8 209.1 217.2 212.5 199.2 223.6 229.2 232.3 234.7 239.3 246.1 250.7 254 255.7 256.8 258.3 259.4 259.9 264.2 269.9 272.3 273.9 275.9 277.1 278.6 277.8 275.7 272.4 268.9 266.6 266.9 265.8 265.4 263.7 255.8 254.9 263.5 264.5 263.9 261.9 258.3 253.3 248.2 243 245.8 253.9 260 266.4 268.6 265.9 259 254.1 246.3 239.4 227.2 225.8 240.1 248.6 250.6 252.7 255.3 257 259.3 263 267.1 270 271.4 271.2 270.6
178 179.9 180.7 180.3 179.4 178.6 178.3 177.2 176.6 176.1 174.9 171.4 169 166.5 163.5 159.3 154.8 163.6 167.2 168.4 166.9 164.4 163.4 163.5 160.9 153.3 152.2 153.9 150.7 148.1 149.6 150.3 150.1 151.5 152.2 154 154.9 155.6 157 158.5 159.9 160.4 163.8 167.3 171.2 174 175.6 175.5 174.2 170.4 173.1 169.8 174.8 175.3 173.6 172.3 170.6 171.6 173.8 175.8 176.1 176.4 174.2 174.9 179.7 180.9 180.8 181.4 184.4 187.9 190.5 191.2 191.8 192.4 194.2 195.2 195.9 196.8 199.8 200.4 202.8 203.5 203.9 205.9 207.8 209.3 208.4 210.2 211.5 211.8 212 210.4 208.9 207.9 208.6 208.1 207.6 209.1 208.5 209.3 209.2 217 216.2 214.1 211.5 211.2 211 211.3 213.5 216 216.8 218.1 215.7 218.6 219.9 221.2 222.4 223 222.6 222 221.6 222.8 223.9 223.7 225.1 227.4 221.1 213.6 213.7 212.1 213.1 210.2 197.4 200.5 186.4 215 227.6 232.1 234.2 235.2 239.4 247.4 253.3 257.1 256.4 255.9 256.6 257.9 258.7 261.7 267.5 270.4 272.7 274.6 275.9 276.6 274.8 271.4 268.1 262.8 265.7 265.8 264 262.7 261.3 256.5 245.9 258.3 259 257.9 256.3 251.6 246.5 242.4 240.2 251.6 259 264.4 267.3 265.2 259.1 255.6 247.9 238.8 226.9 224.6 235.9 249.8 249.4 251.7 254.4 256.1 257.7 259.6 263.2 267.1 269.1 269.1 267.7 265.8
174.9 175 175.2 175.7 175.1 174.1 172.8 172 171.2 170.5 168.4 165.6 162.9 160 157.4 155.2 153 161.3 164.5 164.2 162.2 160.9 161 159.3 156.4 149.3 147.9 146.3 147 148.1 149.7 150.6 151.3 152.7 154.8 154.1 153.8 155 155.9 156.2 156.7 156.8 158.1 160.4 163.3 168.3 167.2 163.6 163 163.1 162.8 163.8 164.5 165.4 166.2 167.4 168.4 168.4 170 170.9 171.7 172.6 174 175.7 178.6 179.9 179.9 179.1 181.2 185.3 189 188.4 188 188.3 189.2 189.8 190.4 192.9 195.5 195.8 196.4 197.8 199.7 201.3 202.3 202.2 203.1 204.2 206.1 208.3 208.2 206.3 204.1 202.5 203.1 203.6 204.6 205 204.6 205.4 206.2 207.9 207.9 208.5 208.8 208.5 209.3 212 213.8 215.5 216.1 215.4 212.2 214 215.2 213.3 213.7 215.7 215.7 215.8 217.3 219.9 219.1 220.3 215.6 210.7 202.4 201.9 201.9 206.5 207 203.8 192.6 183.2 203.6 220.8 228.4 233 234.8 237.5 242.5 247.4 250.6 254.3 254.9 254.7 255.7 256.6 257.6 262.7 267 270.6 273.7 276.3 277.7 275.8 272.7 268.3 264.3 259.8 261.8 261.5 259.1 258.7 258.8 255.3 243.7 253.3 254.1 252.1 249.1 243.9 238.9 241.4 251.9 257.8 263.5 265.1 263.5 258.6 256.1 250.4 239.9 228 211.1 234.5 247.5 247.5 249.1 251.1 253 254.4 256.8 259.4 262.1 264.8 265.6 264.7 262.8 261.3
170.6 170 169.9 170 168.9 167.9 167.9 167 166.5 164.5 161.7 159.6 155.8 152.2 151.1 147.8 150.2 155.4 158.6 157.1 157.3 156.8 149 145.3 146 146.8 145 145.7 147.4 150.6 157.8 161.4 160.1 160.6 162.4 164.6 155.5 155.4 160.5 160.7 159.8 158.6 158.1 157.9 159.3 160.4 160.6 162.1 163.3 168.1 169.9 171.1 168.3 165.3 166.2 166.3 167.7 169.3 168.7 170.7 172 172 172.7 174.1 175.5 174.2 174.3 174.8 177.1 181.3 185.1 185.3 184.2 184.7 185.2 186.2 187 188.2 189.4 191.5 189.6 190 193.5 196.4 198.7 200.6 201.2 202.7 202.7 204 203.2 200.8 199.6 199.4 200.5 201.1 201.3 201.7 202.1 203.3 204.7 208.6 208.3 208.2 205.6 207.3 210.1 213.3 213.9 213.5 212.9 210.6 210.1 211.4 211.2 208.9 209.1 209.5 209.2 210.7 213 214.8 215.9 209.8 206.3 193.8 186.6 183.6 190.4 196 195.3 186.3 186.5 210 221.7 227.9 230.8 231.8 233.3 235.8 241.6 246.6 250.3 251.8 251.7 251.9 253.7 255.2 257.3 263.2 266.2 270.2 273.4 275.3 274 271.9 268.2 263.8 260.5 256.7 255.2 255.6 256.1 256.6 256.3 254.9 246.6 239.8 249 246.4 239.4 234.1 241.4 250.4 256.5 261.3 261.6 260.4 257.4 254.9 251 242 232.4 218.4 216.2 237.9 244.2 243.2 244.8 247.7 250.4 252.6 255.2 257.8 259.7 261.1 260.7 259.8 257.8 257.5
166.1 165.5 164.8 163.6 162.6 162 161.7 160.5 158.5 155.5 154.2 151 145.1 137.3 135.5 137.6 144.2 149.3 151.1 151.8 152.4 143.1 142.5 142 142.8 145.1 142.4 146.4 155.6 158.2 166.3 163.4 163.1 166.9 166.8 167 166.5 167.3 169.5 169.5 168 168.3 169.2 164.8 161.5 162.1 164.1 170.7 177.6 184 190.4 191.7 188.6 181.8 181 171.9 168.5 168.8 169.1 175.6 176.9 178.8 177.2 172.5 173.6 173.5 173.8 174 174.3 177.9 180.1 179.8 180 181.7 182.2 182.8 182.9 183.9 185.1 184.3 185.8 186.7 188.6 191.9 194.7 195.3 195.6 196.6 195.9 195.3 194.6 195.3 197.4 198.5 199.5 200.8 201.7 200.4 200.9 202.5 206.4 208.6 207.5 205.5 204 207.6 210.5 211.6 210.6 209.3 205.7 206.4 207.9 208 206.4 205.9 205.8 206.4 208 209.6 211.2 213 208.3 199.4 195.7 179.2 176.6 178.6 178.6 177.1 186.6 204.5 209.6 220.5 227.9 226.8 226.5 227.7 229.5 233 238.4 243.7 247.3 248.2 248.5 248.6 250.3 253.2 256.7 260.1 261.9 265 266.4 267.5 266.9 265.6 261.7 257.9 255.6 252.5 252.8 253.4 253.9 254.2 253.3 251.7 248.6 233.7 243.5 233.2 231.5 241.6 248.3 253.2 255.5 256.6 256.4 255 251.3 248.4 244.7 235.9 222.2 204.4 224.3 240.3 239.6 240.5 242.6 245.7 248.8 251.4 253.7 255.4 256.5 256.2 255.3 254.4 253.5 253.4
161.7 161 159.3 157.4 155.5 155.7 155.8 154.2 149.6 146.2 144.4 139.5 130.1 132 132.2 133.8 135.7 141.5 148 150.4 145.1 141.2 141.1 139.9 143 144.8 148.6 155.5 154.4 158.6 165.7 164.4 171.4 177.1 177.8 176.5 174 174.9 175.1 174.5 174 174.9 177.7 178.2 174.8 178.3 182.3 186.3 194.9 203.2 206.8 205.8 202.2 197.7 194.6 191.2 191.7 190.3 186.9 181.9 179.7 179.7 183.8 182.2 179.9 175.2 173.9 173.2 173.5 173.5 173.9 174.1 174.7 176.6 180.3 178.8 179.3 180.1 182.4 185.1 188.8 189.8 188 188 188.7 189.8 190 190.9 191 191.8 192.9 195.1 199.4 199.7 199.4 200.3 199.7 198.8 199.5 201.1 205 206.8 205.5 202.5 201.5 204.1 204.8 204.6 204.1 201.9 203.2 204.6 205.5 205.4 204.3 204.3 205.1 209.4 212.1 213.8 215.2 216 206.8 200.2 190 175.9 178.5 187.5 210.8 213.6 220.3 221.8 224.4 225.4 224.2 223.2 224.3 226.8 229.2 231.9 236.4 241 243.8 244.9 246.2 247.4 250.3 254.4 257.2 257.7 257.8 258.4 258.9 259.6 257.9 256 253.3 252 250.2 250.1 250.2 248.9 250.2 250.2 250.1 249.1 246.3 239.1 231.6 228.8 240.4 246.7 250 249 250.2 251.7 251.5 249.8 246 243.7 240.7 231.1 210.7 216.9 232.2 237.3 238.2 239.1 241.3 243.6 246.4 249.7 250.7 250.8 251.3 251.2 250.3 249.4 249.3 249
157.5 156.9 155.1 150 143 142.8 144.7 140 137.2 133.7 129.1 131.4 132.2 132.7 133.8 134.5 134 136.7 140.1 140.7 140.3 140.3 140.5 142.2 149.4 150.6 153.7 156.5 159.1 163 171.7 178.3 185.2 187.5 188.6 187.1 184.5 183.9 182.2 182.2 182.4 186.1 190 189.8 193.2 196.6 197.4 203.7 212.3 214.2 215.5 215.4 212.6 209.5 206.6 204.9 205.4 204.2 197.9 182.8 186.3 193.1 196.4 190.9 188.2 183.7 179 175.4 173.2 173.4 173.7 174.1 174.3 175.1 176.1 179.1 184.2 187 186.3 187.6 190.6 192.4 192 191.3 190.9 191.7 191.9 190.9 191.5 192 192.1 193.8 195.6 196.6 196.2 195.5 197.5 197.7 198.3 199.6 203.3 204.7 202.3 200 199.2 200.2 199.8 199.3 198.5 199.8 201.8 202.8 203.5 203.5 203.2 204.7 206.2 210 212.5 213.5 214.8 214.8 209.7 199.9 188.1 174.6 180.5 209.1 214.1 215.5 219.6 222 222.2 221.3 221.2 222.4 225.1 230 233.9 238 242.2 246.3 248.2 247.6 249 248.7 248 250.1 251.6 251.7 252 252.4 251.1 250.2 250.4 249.4 249 248.2 248.5 248.1 246.5 247.1 248.2 247.9 247.7 246.8 246.6 243 234.2 226.8 240.6 246.5 246.9 246.8 247.9 247.6 246.9 245.4 242 239.4 235.6 223.2 195.9 221.9 234 235.4 236.7 238.2 240.1 241.5 243.7 245.7 246 246 245.8 245.7 245.2 245.2 245.3 244.4
152.1 154.6 149.8 146.7 143.4 130.8 130.9 129.9 128.2 129.4 130.5 131.8 132.6 135 142.8 145.4 147.2 132 136.4 138.4 140 139.6 140.8 149.9 158.7 166.1 165.9 168.1 168.9 173.2 181.3 190.7 195.1 196.2 198 199.9 198 195.8 191.2 189.5 190.3 194.5 198.1 200.4 204.3 211 214.8 218.1 222.1 224.9 225.6 225.9 224.1 221 217.9 216.5 217.1 215 210.6 203.6 199.8 198.9 198 193.6 192.1 193 189.3 184.5 180.8 175.4 173.9 173.8 174.1 175.1 176.1 176.9 177.4 176.7 175.9 182.7 188.3 190.6 191.5 191.8 192.1 193 193.6 192.9 192 191.9 190.7 189.9 190.2 191.8 194.1 195.5 196.1 196.8 197.4 197.8 198.3 197.1 196.7 196.6 196.7 196.7 197.1 196.3 196.6 199.3 200.5 201 201.5 201.7 203.7 205.8 207.7 210.1 212.2 212.3 213.2 212.4 207.4 197.1 181.8 167.4 195.5 212.5 215.2 215.9 216.6 217.5 217.3 219.2 221.1 224.7 229.8 233.3 237.9 241.9 246.1 249.5 250.6 250.3 249.9 249 247.9 246.3 246.4 245.5 245 244.8 245.2 246.7 247 247.1 245.8 246.3 246 244.8 245.4 245.6 246.2 247.5 247.1 242.5 239.7 235.6 227.1 229.5 242.3 243.7 244.4 245.8 246.2 245.1 243.8 241.9 239.2 236.7 231 213.6 188.9 218.8 231.3 233.8 236 237.3 238.3 239.9 240.6 241.3 241.2 241.1 240.8 240.9 241.4 241.5 241 240.7
143.3 144.7 143.9 142.9 141.2 129.1 124.2 135.4 132.8 129.8 139.6 139 142 145.3 146.3 147 148 149.1 144.5 139.8 140.9 142.3 145.8 156.7 169.5 166.1 164.7 169.2 178.2 187.9 194.5 200.3 203.5 206.1 209 211.1 210.8 207.5 204 202 201.1 206.8 207.8 211.9 215.8 221 225.6 230 233.2 235.6 236.4 236.9 235.8 231.9 227.9 225.2 222.3 217.9 214.1 209.6 203.4 203 203.3 196 188.6 193.7 194 193.2 188.8 183.7 180.8 173.1 173.1 174.8 175.7 176.6 177.1 176.9 175.9 175.7 182.5 187.8 191 191.4 193.7 194 193.2 191.8 189.9 189.1 187.7 187 188.6 190.5 194 195.7 197.8 196.9 197.7 196.9 194.9 193.6 192.8 193.2 191.2 192.5 191.8 194.4 196.8 198 198.9 199.3 200.2 201.2 204.2 207 209.3 210.7 211.5 212.1 212 212 207.2 184.9 171.5 175.2 204 210.6 212.8 213.3 213.2 214.7 216.3 220.2 224.8 228.5 232.6 237 240.8 243.7 247 248.7 248.4 247.6 246.8 245 243 241.7 241.1 241.5 242.6 244.6 245.3 247.7 249.5 247.2 244.1 243.8 243.7 243.9 244.4 244.9 246.2 245.5 242.2 237 225.1 223.1 223.5 236.7 242 243 244.4 245.1 244 242.2 240.5 238.8 236.3 234.1 230.2 209.4 185.3 209.4 227.1 232.4 233.6 234.5 234.8 235.3 236 236.9 237.4 236.4 237.1 237.9 238.1 238.2 238.1 236.3
134.9 136.3 135.3 137.6 131.8 125.2 134 128.3 136.2 139.8 140.4 140.2 141.1 143.1 144.1 145.6 146.8 148.6 149.8 150 148 148.8 148.7 153.4 169.9 169.1 174.7 183.2 192.2 198.7 204.2 208.9 210.5 212.2 215 217.3 218.2 216.9 215.1 213.1 212.1 215.1 218 221.5 225.9 229.7 235.8 241.4 244.3 245.7 246.8 247.3 245 240.7 237.4 234.2 228.4 222 217.2 211.4 204.5 206.6 205 197.9 196.2 193 190.9 190.6 190.2 188 182.8 174.1 173.4 174.5 175.6 177.6 176.8 176.8 175.8 175.3 175.7 181 186.8 190 189.3 191.8 191.9 190.1 187.9 186.1 184.5 186 187.6 189.1 191.6 193.6 194.8 195.7 195.3 192.2 190.4 188.9 187.9 184.7 189.7 190.5 191.8 195.1 196.1 196.7 197.8 199.2 199.6 200.3 203.1 206.2 208.9 210.9 211.8 212.3 211.7 210.7 203.6 179.6 165.1 192.5 201.4 205.9 208.5 209.1 210 212.8 216.4 220.8 225 228.9 232.8 236.6 239.6 242.3 244.4 244.8 244.4 243.1 241.2 239.7 239.1 238.9 239.4 240.5 241.6 243.9 246.4 248.4 247.6 245 243.6 243.2 242.9 243.2 243.7 243.2 242.8 242.5 240.8 230 220.9 220.8 236.4 238.8 240.4 242.6 243.7 243 240.9 238.4 237 235.3 233.9 232.6 230.5 218.7 178.8 201.9 218.3 229.7 230.5 230.9 230.8 230.7 231.6 232.5 233.4 233.1 234 234.8 234.8 234.7 234 232
128.2 131 131.1 126.5 122.9 123.9 126.1 132.9 137.7 138.3 138.4 138.6 139.8 141.6 143.8 146.5 148.8 149.7 151.4 152.7 152.2 153.9 156.2 160 169.4 176.8 185.5 192 198.8 204.5 207.4 209.3 210.4 212.8 215.9 217.6 220.4 221.3 221.6 221.1 221.3 223.2 226.1 229.6 233.5 237.9 243.7 248.7 249.4 249.6 250.3 247.3 246.4 246 244.6 242.5 236.8 232.1 228.7 221.7 212.1 206.2 204.4 199.6 194.1 189.8 185.7 182.1 182.5 181.6 182.8 177.2 174.4 174.3 177 178.2 176.9 176.7 175.8 175.3 175.7 175.8 176 180.1 182.4 184 184.7 185.8 184.3 181.6 183.9 185 186.3 187.8 188.3 188.6 188.8 188.7 188.2 185.9 182.5 186.4 192.8 194 194.5 194.6 195.9 195.7 197.8 198.9 199 199.9 200.3 200.4 201.7 204 206.1 208 208.9 208.9 208.8 207.2 197.8 186 166.7 191 198.6 201.5 203.4 204.9 207.4 210.4 213.5 217.3 221 225.4 229.4 233.2 236 238 239.8 240.2 239.8 239.2 237.2 237.2 237.3 237.3 238.2 239.4 240.6 242.1 244.2 245.2 243.8 243.5 243.2 242.8 242.2 242.4 241.8 240.8 239.8 238.2 237.3 230.2 218.7 225.5 235.1 236.9 238.3 239.4 239.3 238.1 235.3 233.8 233.3 232.1 231.4 230.1 229.1 222 181.5 194.6 216.6 225.9 226.8 227.3 227.3 227.4 227.9 228.5 229.1 229.9 230.6 230.8 230.8 229.7 229 224.5
123.3 124.8 124.8 123.2 123.9 124.8 134.9 137.3 136.9 137.3 138.4 138.8 140.3 143.8 147.4 150.7 153.3 153.4 155.4 157.6 157.9 160.8 167 172.4 180.3 186.9 192.5 197 200.6 203.8 206.3 209 212.1 215.1 217.4 219.3 220.8 222.4 223.7 224.5 225.3 228.1 231.5 235.6 241.8 245 245.5 246.4 248.4 248.8 251.3 248.2 248.3 248.3 248 247.3 245.4 242.1 235.6 231.1 223.6 214.2 204.2 199 193.3 190 185.4 178.7 174.8 173.2 173.1 171.3 172.6 174.4 176.1 175.8 176.5 176.3 175.4 175 175.2 175.2 175.2 174.3 175.6 177.8 180.4 181.8 178.7 178.8 181.4 183.7 185.6 185.7 185.2 185.1 182.5 179.4 179 180 187.7 192.3 192.6 193.4 194.3 195.2 196.4 198 199.8 201.1 201.7 202 202.2 201.9 201.2 200.9 201.7 203 203.2 203.6 203.4 201.9 191.2 177.4 166.8 177.5 197.8 199.7 199.8 201.7 204 206.4 208.9 211.7 215.5 218.3 222.5 227.6 230.9 233.2 235.2 236.8 237.3 236.5 235.4 234.8 234.9 235.2 235.4 235.4 235.9 237.3 239.5 241.3 242.4 243.2 243.9 243 241.2 240.4 239.4 238.1 237.5 235.5 234.1 231.8 216.9 228.3 233.6 234.7 235.8 235.7 234.4 232.4 230.7 230 229.7 229.2 228.8 227.6 226.6 217.5 191.1 187.7 218.5 223.6 224.1 224.1 224.5 224.8 225.1 225.7 226.3 226.8 226.8 226.9 226.8 225 220.6 215.9
120.5 121.3 122 123.6 128.9 133.8 135.5 136 136.1 137.8 139.3 140.5 144.8 151.2 154 156.6 160.4 163.2 164.7 165.8 165.5 169.6 175 181.5 188 193.2 196.8 199.4 202.3 204.4 207.4 210.5 214.1 216.9 217.5 219.5 219.3 223.6 224.7 226.2 227.2 229.1 232.3 236.9 245.1 245.8 244.8 245.8 247.6 249.8 250.8 250.5 250.3 250.2 249.7 248.8 248 247.3 240.4 233.6 228.4 219.7 208.4 201.2 193.5 189.4 184.2 177.1 168.6 164.6 162.6 162.2 164.5 169.9 174.2 174.3 174.9 175.5 174.7 174.5 174.7 174.8 174.4 173.4 174 173.6 173.8 173.2 174 175.4 178.3 182.2 184.2 183.1 183 180 175.6 184.6 189.2 190.2 190.5 190.7 190.8 191.3 192.7 193.5 194.7 196.8 198 199.1 200.5 200.9 201.4 200.6 199.3 197.8 197.1 197.6 197.6 197.2 196.6 192.8 182.6 171.2 163.1 188 195.1 197.5 197.5 199.1 200.7 202.3 205.2 208.7 211.8 215.1 219.2 223.3 227.3 229.8 231.3 232.5 233.7 234.2 232.8 231.7 231.7 232.2 232.6 233.6 237 239.7 242.1 243.4 244.3 244.6 244 241.7 239.5 237.9 236.6 235.7 234.5 233.4 232.7 230.4 215.8 224.4 231.2 232.1 232.5 231.5 229.8 228.4 227.4 227.2 227 226.5 225.8 224.8 223.3 218.6 190 190.1 212.5 220.5 220.6 220.9 221.3 221.8 222.3 223 223.6 223.6 223.3 223.2 222 219.9 214.9 209.4
119.7 121.8 124.7 129.2 133 134.2 134.7 135.6 137 139.1 141 141.7 146.3 152.9 157.5 162.3 166.6 169.8 172.5 173.7 175.1 178.4 182.8 188.7 194 197.3 199.3 201.9 204.2 206.7 209 211.8 215.3 216.8 216 221.5 223 228 232.3 233.7 233.4 235.1 236.7 241.3 247.5 249 249.1 247.5 251.3 252.9 253 253 252.7 251.9 250.9 249.3 248.2 247.6 244.7 236.7 229.4 220.1 210.7 200.7 195.5 187.1 181.5 173.7 167.2 160.2 155.1 155.4 150.5 154.8 166.8 173.1 173.9 174.4 173.9 174 174.2 174.3 174 172.6 170.8 170 171 170.9 171.7 172.6 176 179.6 180.4 180.4 179.5 174 181.5 185 186.8 187.9 188.1 188.4 188.8 189.3 191 191.9 192.5 193.6 194.5 196 196.7 196.6 197 195.9 194.5 192.1 192.5 192.8 192.8 191.3 188.5 176.8 172.9 157.8 168.8 175.6 179.9 185 196.1 196.3 198.4 200.5 202.9 206.2 209.6 213.6 218.4 222.5 226 227.7 229.1 230 231.1 230.1 228.1 229.7 230.8 231.7 232.3 235.8 238.3 240.6 243.1 244.9 246 244.5 242.3 239.9 238.2 236 234.7 233.8 232.5 231.6 230.8 229.6 215.6 218.6 227.7 228.5 228.7 227.4 226.3 225.4 224.3 224.2 224.1 223.4 222.2 221 220.6 220.4 199.3 175.8 202.1 215.6 217.5 218 218.5 219 219.6 220.2 220.4 220.2 219.8 218.4 216.3 212.2 204.7 195.6
126 128.6 129.5 131.5 132.8 133.4 134.5 136.2 138.2 140.4 142.3 144 148.7 154.9 160 165.3 169.4 173.8 178.4 180.3 182.1 185.6 189.2 193.4 196.9 199.3 201.5 203.7 206.8 209.4 211.8 214.2 217.9 219 224.1 230.3 239.5 243.2 246.9 247.1 247.1 247.3 249.9 252.9 254.5 254.7 255 254.5 254.9 254.9 254.4 254.3 253.8 253 251.3 249.6 247.1 246.4 244.3 238.5 230 218.3 209.8 200.7 193.6 183.2 175 168 152.8 145.5 149.6 141.8 140.9 149.1 154 172.4 176.7 175.9 176 172.7 173.3 172.4 173.5 172.2 169.2 168.9 168.9 168.4 169.4 171.2 175.6 178.4 177.8 176.4 174.1 171.9 178.2 181.9 183.8 185.2 185.7 186.7 187.8 188.3 189.1 189.4 189.8 190.3 191.2 192 192.6 192.6 192.1 192 191.6 190.9 190.2 189.4 187.8 183.9 177.4 169.5 163.4 165.7 181.4 187.7 196 195.4 196.7 198.7 200.2 201.6 202.6 204.9 208.6 213.7 219.2 222.5 224.4 225.8 226.9 226.9 226.9 225.5 228.1 229.7 230.8 232 234.4 236.8 239 241.3 243.8 245.3 244.6 241.1 237.2 236.9 235.6 234.4 232.8 231.6 230.4 229.7 229.1 228.3 217.5 212.4 223.5 224.9 224.8 224.1 222.6 221.9 221.3 220.9 219.4 218.7 219.1 219.3 220.1 218.6 199.5 169.2 191.5 211.8 214.7 215.2 215.7 216.3 216.9 217.5 216.8 216.3 214.6 212.1 207.8 201.5 191.2 190.2
129 129.6 130.2 131.6 132.4 133.5 135.3 137.3 139.6 142.1 144.1 146.6 152.1 159.3 164.9 169.7 175 180.8 183.8 185.5 187.3 190.2 194.2 197 199.9 203.3 205.3 207.5 209.6 211 213.5 216.2 219.2 221.4 231.7 244 251.1 253.1 254.4 254.9 255.6 256.2 256.3 256 255.7 256 256.2 256.1 255.8 255.4 255.1 255 254.8 254 251.5 248.1 244.9 244.4 242.5 236.9 227.8 216.9 207.1 199.8 188.7 177.6 167.8 146.4 141.3 140.9 140.9 140.9 140.9 140.9 152.5 170 177.9 180.1 179 177.3 173 171.4 171.6 171.7 168.7 167.5 166.9 166.7 167.1 169.7 172.2 172.6 171.6 170.4 170.2 169.4 171.7 177.3 180.3 184.1 186 187.4 187.2 187.2 187.1 187.5 187.9 188.3 188.5 189.2 190.7 192.4 192.6 192 191.3 190.9 189.9 187.1 181.6 175 169.4 164.2 158 170.3 188.2 194.3 195.9 196.4 198.5 202.1 205.6 205.5 204.8 204.8 209.1 215.9 218.8 220.1 222.2 222.8 222.8 222.5 223.2 226 227.2 228.8 230.5 232.8 235.3 237.4 239.7 241.9 242.9 243.2 239.9 235.6 235.2 234.4 233 231.8 230.6 229.6 228.4 227.8 227.2 226.2 223.3 207.1 217.2 221.4 220.3 218.6 218.3 217 215.5 216.4 216 216.2 217.3 217.9 216.9 215.2 202.1 166 179.4 201.8 211.7 212.9 213.7 214 214.1 214 213.2 211 206.9 200.9 194.9 187.3 189.7 202.1
128.3 129.2 130.6 131.8 132.9 133.9 135.8 139.8 143 144.6 146.6 149 154.7 161.4 169.1 174 179.1 183.9 187.2 189.6 191.5 194.1 196.9 199.8 202.1 203.9 205.9 208.2 210.7 212.5 214.8 217.5 220.2 224.2 235.2 248.1 255.2 255.7 256 256 256.6 256.9 257 256.5 256.3 256.5 256.4 256.3 256.2 255.7 255.3 255 254.7 253.3 249.5 245.2 243.6 243.3 241.2 234.4 225.7 215.1 204.9 195.4 184.7 171.8 150.9 140.9 140.9 140.9 140.9 140.9 140.9 140.9 140.9 167 180.1 183.2 182.5 179.8 176.7 173.4 172.2 170 168.6 167.9 167 165.2 166.2 168.3 167.7 167 166.6 167 167.5 167.9 168.7 171.5 178.3 183.2 187.2 186.9 185.7 185.6 185.3 185.6 186 186.4 187.6 189.7 191.4 192.8 193.3 193.2 191.7 190.1 187.9 179.1 171.8 165.3 159.8 158.8 166.2 178.6 187.2 192.3 194.4 196.8 199.6 202.6 208 210.9 209.4 207.4 210.1 216.4 218.3 219.3 219.5 220.2 219.4 220.6 222.4 224.3 226.2 228.1 230.3 232.8 235.5 237.8 239.1 239.7 240.1 237.3 235.3 234.5 234 233.1 231 229.4 228.2 227.4 226.4 225.7 224.5 223.2 222 208 206.9 215.7 215.4 215.3 213.9 212.7 213.2 213.9 213.3 213.7 214.3 214.8 213.7 211.6 199.2 172.5 169.8 193.6 208.2 210.6 211.7 212.1 211.1 209.3 207.5 203.1 195.7 188.5 182.4 189.1 203.7 211.8
127.8 130.1 131.5 132.9 134 135.5 137.9 141.9 146.1 150.5 154.4 157.7 159.8 161.9 169.2 175.8 180.2 185.2 188.6 191.4 191.9 193.6 196.6 199.4 202.2 204.4 206.5 209 211.5 214 216.3 218.6 220.8 225.6 237.8 248.7 255.5 256.3 256.5 256.8 257 257.3 257.7 257.2 256.8 256.8 256.8 256.8 256.6 255.6 254.7 254.5 254.3 252.3 247.1 242.8 241.5 242.5 238.8 231.8 222 213 205.5 192.9 182.5 168.7 146 140.9 140.9 140.9 140.9 140.9 140.9 140.9 140.9 165.3 180.9 185.3 183.8 181.1 178.7 176.3 173.7 172.3 171 168.1 166.8 165.7 165.1 166.6 165 164.9 165.3 165.7 165.8 166.1 167.6 167.6 175 181 184.6 184.7 184 183.6 183.5 183.8 184.1 184.9 186.8 188.5 190.1 191.5 192.6 192.8 190.8 188.2 183.5 169.4 161.6 159.1 157.1 164.2 184.3 189.6 193.1 193.5 193.4 197.1 200 202.3 205.2 209.2 212.5 211.4 210.1 214.9 216.5 216.8 216.4 217 217.1 218.9 220.5 222.5 224.6 227.1 229.6 232.5 235.2 237.1 237.1 235.2 234 233.7 235.2 234.6 233.6 231.5 229.2 227 225.8 224.8 223.8 222.7 221.5 219.7 218.2 211.8 206.2 212.4 212.9 211.6 210.6 210.3 210.5 210.7 210.7 211.4 211.3 211.6 209.8 206 189 161.6 174.9 196.6 206.9 208.5 208.4 208.5 206.8 203.8 198.4 190.6 181.9 178 189.9 204.6 210.6 216.1
129.9 131.2 132.6 134.2 136.2 139.9 142.6 145.1 150 154.3 158.6 164.3 168.1 170 172.3 175.6 179 182 185.2 189.9 193.1 196.1 198.6 200.6 202.2 203.6 206.1 208.8 211.4 213.6 215.9 217.9 220.3 224.4 235.4 248.1 255.8 256.1 256.4 256.6 257 257.7 258.1 257.7 257.2 257.2 257.2 257.2 256.9 255.5 254.5 253.9 253.1 250.1 244.5 241.8 240.7 241.5 236.1 229.3 219.6 210.6 204.3 191.3 180.4 166.9 140.9 140.9 140.9 140.9 140.9 140.9 140.9 140.9 141.6 167.3 183.8 189.2 185.4 181.9 181.5 177.7 175 172.6 170.5 169.7 167.9 165.8 164.9 164.6 164.2 163.6 164.3 164.6 165 165.1 165.2 165.9 169.3 177.4 181.2 182 181.8 181.6 181.7 182 182.2 183.9 185.5 186.9 188.4 189.7 190.2 189.8 188 185.6 170.3 160 156.8 151.8 162.9 192.1 194.2 195.7 195.8 195.8 195.7 196.2 199.3 201.1 202.8 206.2 210.3 213.7 210.8 212.5 213.6 214.4 215.8 216 215.4 216.4 217.8 220.3 222.6 225.1 228.2 231.1 233.1 233.8 231.4 232.6 233.8 233.7 233.6 233 231.5 229.1 226.5 224.4 223 221 220.3 218.8 216.3 213.9 208.8 208.7 200.9 210.4 208.6 208.5 209.4 209.5 208.7 208 207.8 207.8 208 207 205.1 195.7 176.7 161.5 188.5 203.3 205.8 205.4 205 203.4 200.6 193 183.9 176.6 178.7 194.5 203.6 208.7 213.2 217.8
131.6 132.8 133.7 136.1 140.4 145.2 149.5 154 158.3 161.5 164 167.9 171.8 174.8 178.4 182.5 185.9 189.3 192.8 196.1 198.5 200.9 202.8 205.1 206.2 207.2 207.7 208.8 211.2 213.1 214.7 216.9 219 222.1 231.7 244.5 253.2 254.4 255.9 256.1 256.8 257.5 258 257 257.3 257.5 257.6 257.7 256.6 255.3 254.4 253.5 251.9 249.4 245.3 243.7 240.8 238.5 234.2 227.5 218 211 202.1 189.6 177 163.6 140.9 140.9 140.9 140.9 140.9 140.9 140.9 140.9 147.3 170.8 189.6 191.1 189.1 185.4 184.1 181.5 177.4 174.6 171.8 170.2 169 166.9 165.9 164.8 164.1 163.5 163.4 163.7 164 164.3 164.3 164.3 169.3 175.7 178.3 179.2 179.2 179.4 179.7 179.9 180.1 181.9 183.6 185.2 186.3 186.7 185.9 184.9 183.2 181.3 156.4 152.4 156.4 166.9 178.3 192.2 197.5 197.3 197 196.8 197.1 198.2 198.5 199.8 201.2 203.6 210.2 215.7 215 214.2 214.4 214.5 211.4 212.7 212.4 212.8 214.8 217.7 219.5 222.1 224.4 226.4 228 226 229.1 232.3 232.4 231.9 231.6 230.7 229 226.6 224.6 222.2 220.1 217.4 216.3 212.4 208.3 205.4 209.7 211.4 200.4 205.7 205.7 207.2 207.2 206.1 205.3 205.7 206.2 206.1 204.9 203.8 202.2 187.1 163.7 171.2 196.4 203.9 203.8 201.8 199.4 194 185.9 177.1 172.4 181.1 194.8 201.9 206.3 209.7 213.9 218.2
133.2 134.5 137.4 140.7 145.6 152.6 158.1 163.7 167.5 169.4 170.8 174.9 177.6 178.6 181.8 185.5 189 193.4 197.7 200.4 202.8 204.5 207.5 209 210 210.8 211.5 211.6 212 213.5 214.4 216.2 217.9 219.7 229 237.7 244.9 248 253.9 255.8 256.3 256.8 256.5 257.7 257.5 257.5 257.6 257.3 256.1 255.2 254.3 252.8 251.5 249.3 246.7 247.2 247.1 244.5 238.2 227.7 216.9 210.6 199.2 187.7 174.4 164.6 140.9 140.9 140.9 140.9 140.9 140.9 140.9 140.9 152.6 173.1 192.3 191.5 189.4 187.6 187.2 184.5 183.5 181.9 179.8 176.5 170.9 168.5 167.1 165.6 164.6 164 163.6 163.4 163.4 163.4 163.1 163.3 166.8 172.9 177.1 177.3 176.9 177.1 177.4 177.9 178.9 179.8 181.1 181.8 182.3 182.5 182.3 181.7 180.4 162.8 148.7 160.5 173.8 187 191.4 196.5 197.1 197.6 197.8 197.7 197.9 198.1 198.5 199.1 199.9 203.1 209.5 215.1 216.9 216.2 214.9 212.9 210.3 210.9 211.9 213.2 214.7 216.7 218.9 220.2 221.4 222.8 223.8 226 227.5 230 230.4 230.1 229.2 227.5 224.8 223.3 222.1 220.2 217.8 214.4 210.3 208.2 208.4 204.3 207.6 208.6 196.6 202.6 203 203.5 203.5 203.9 204.7 205.8 205.8 204.3 203.6 202.5 199.9 179.8 153.5 176.5 192.7 199.1 199.1 195.7 189.4 177.4 166.7 166.2 180.3 193.2 199 203.6 206.6 209.5 212.2 216.5
140.5 144.9 146.5 147.9 153.7 161.5 165.9 169.2 172.6 174 176.4 178.9 181.3 182.2 184.5 188.1 191.7 195 198.8 203.3 206.2 207.9 211 212.7 213.4 214.1 215 214.4 213.6 213.9 214.6 214.8 216.6 218.3 224.2 229.4 235 241 249.7 254.2 255.7 256 256.7 257.1 256.6 256.4 257.2 256.6 255.9 255.8 254.1 252.8 251.7 249.4 245.5 246 245.6 243 235.4 226.6 216.8 209.2 197.6 186.2 172.4 163.4 140.9 140.9 140.9 140.9 140.9 140.9 140.9 140.9 158.6 177.6 192.1 191.7 190.3 190.3 189.3 187.7 186.9 186.2 184.1 180.5 176.2 171.3 170.2 167.8 165.8 166 165.2 164.5 163.5 162.5 162.3 163.2 165.6 168.7 173.3 174.6 173.3 173.4 174.5 176.2 177.7 178.6 179.2 179.7 180.3 180.2 179.2 178.4 176.7 151.4 157.8 171.1 184.4 190.1 194.1 196.4 197 197.4 197.8 197.7 197.1 196.9 196.7 196.6 198.1 201.6 207.2 213.1 215 214.6 213.3 209.7 208.8 209.9 212.1 213.8 215.1 216.8 218.6 220.4 222.8 225 226 226.2 227 228.6 228.9 227.7 225.4 224.2 222 220.4 219.1 217.6 215.2 210.8 208.5 206.9 206.2 204.1 201.9 200.4 196.6 200.5 201.9 202 203.9 208 208.9 206.8 205.6 202.5 200.9 199.3 195.2 176.3 155.1 173.3 189.2 192.1 190 182.9 170.8 163.6 176.6 183.6 191.1 195.2 199.1 202.3 205.6 208.7 211.8 214.9
149.6 153.3 156.1 155.9 160 165.6 169.4 172.6 174 175.6 178.4 180.9 183.5 185.3 187.4 189.9 193.4 195.5 199.1 204.5 208.7 212 215.6 216.9 217.1 217.3 217.7 215.7 214.5 213.4 212.6 212.2 215.1 215.9 216.8 218.2 225 233.8 245 252.2 254.3 255.6 256.1 256.5 256 255.5 256.1 254.9 254.9 254.8 252.9 251.8 250.5 247.9 245 241.3 239.9 237.9 235.4 225.1 215.9 207.4 195.5 185 172 155.9 143.9 140.9 140.9 140.9 140.9 140.9 140.9 140.9 162 184.7 194.2 190.7 188.8 189.1 188.5 187.5 186.5 184.9 181.9 178.5 175.3 173.8 170.6 168.5 167.5 168.8 166.9 166.2 165.7 163.5 160.2 163 164.6 165.9 167.6 168.4 168.1 169 170.5 172.6 176.4 177.1 177.6 178 177.7 176.6 176.3 175.8 152.4 149.3 162.1 175.8 186.4 190.6 193.9 195.6 195.8 196.1 196 195.9 195 195.1 195.1 195.2 196.2 199.2 203.8 209.4 212 211.4 209.4 207.1 207.9 209.2 211 213.3 215.7 218.3 220.8 222.8 224 224.4 224.9 225.4 225.9 227.2 226.2 222.4 220.7 220.9 219.4 217.6 216.2 214.3 211.7 210 208 205.4 202.9 200.6 199 197.2 196.7 198.9 201.4 204.5 206.7 207 206.7 205.3 203.2 200 197.5 195.2 192.1 174.7 150.8 168.5 183.1 182.7 175.8 164.7 161.9 174.9 187.1 190 191.9 195.3 198.5 201.7 204.6 207.4 210.3 213
154.6 157.8 159.3 161.2 163.8 166 170.4 173.3 174.9 176.4 178.8 181.3 184 186.9 188.9 191.1 193.8 195.3 199.9 205.4 209.2 215.2 218.5 219.3 219.7 219.9 216.9 214.2 209.6 207.3 206.2 206.6 207.3 207.3 207.4 209 214.4 228 242.1 251.1 253.4 254.6 255.3 255.9 255.8 255.2 255.5 253 252.3 252 252 251 249.6 248.1 244.5 239.4 233.9 228.6 230.2 223.9 215.7 206.2 194.1 181.2 170.7 157.3 143.8 140.9 140.9 140.9 140.9 140.9 140.9 140.9 159.2 186.9 194.5 188.6 186.2 186 185.2 183.5 182.2 180.4 177.4 173.9 171.7 171.2 169.8 168.3 167.9 168.5 168.6 167.6 166.4 164.9 161.7 162.2 163.8 164.4 165.5 165.3 165.5 166.5 167.7 169.2 172.6 175.3 176 175.4 174.5 174.8 174.5 159.7 146.4 151.2 164.7 181 188 190.7 193 194.1 194.4 194.1 194 194.1 193.7 192.8 192.6 193.5 194.9 196 199.3 205.1 206.5 205 204.9 205.6 207.9 209.6 211.3 213.2 215 217.1 219.7 221.2 222.6 223 223.6 224.4 223.4 221.8 218.5 217 219.4 220.6 216.9 215 213 209.8 208.7 208.2 206.9 204.5 200.3 197.5 196.4 195.4 195.5 198.7 202.2 203.2 204.3 204.6 204.3 202.8 200.4 196.8 192.9 190 187.5 173.1 145.4 162.6 174.2 170.9 159.9 160.3 174.5 184.3 188.7 189.8 192.4 195.2 197.9 201.1 203.4 205.7 208.6 210.5
157.2 159.6 162.1 164.9 167 168.5 171.9 174.1 175.9 177.5 178.7 180.6 183.1 186.8 189.3 191.5 193.1 194.8 198.2 204.7 209.3 215.3 217.9 219.4 219.9 217.9 212.2 206.7 206.3 206 206.2 205.9 205.6 206.4 207 206.8 212.3 221.7 237.6 245.6 252.1 253.3 254.4 255.1 255.3 254.9 255.5 251.9 245.4 242 243 245.7 244.7 246.4 241.9 234.6 230.1 225.5 222.8 219.9 214.4 204 192 181.8 169.3 159.1 140.9 140.9 140.9 140.9 140.9 140.9 140.9 140.9 163.6 184.3 192.1 185.3 182.5 183.1 180.7 178.2 176.5 175 173.4 171.1 169.6 169.2 168.2 167.9 167.9 168.5 169.7 169.2 168 166.5 163 159.8 161.9 162.4 163.1 164.2 164.9 165.7 166.6 167.9 169.3 170.8 172 172.6 173.1 172.7 168.4 150.3 147.9 155.4 169.6 185.5 188.5 190.1 191.6 192.2 192.4 192.2 191.8 192.6 190.9 190 190.2 191.7 193.7 193.6 195.8 200.2 199.1 201.7 205.2 207.9 210.2 211.3 213.3 214.5 215.5 216.4 218.7 219.9 220.9 221.7 222.3 222.1 219.5 215.9 215.4 218.5 221.5 220.2 216.5 209.5 206 204.6 205.5 204.4 203.1 201.7 199.3 196.6 194.4 191.6 194.5 198.3 203.2 203.7 203.4 202.5 201.5 199.8 196.6 192.4 189 186.6 184.3 167.9 142.1 155.6 162.8 152.3 160.3 175 183.8 185.9 187.6 189.3 192 194.7 197.5 199.7 201.8 203.5 205.6 207
159.4 161.6 163.5 166.4 169 170.8 173.3 174.9 176.4 177.8 178.5 180 182.9 186.1 188.6 190.8 192.6 194.6 196.4 201.7 207.2 211.1 213.8 215.2 216.1 213.2 207.2 205.4 205.4 205.5 205.4 205.1 205.1 205.6 205.5 205.8 210 215.7 230.8 238.1 242.7 248.3 253.3 254.4 254.6 253.7 254 250 242.8 240.2 237.9 238.3 237.4 235 235.1 229.6 227.6 221.5 217.9 216.4 212.3 201.5 191.3 181.4 170.1 161.3 140.9 140.9 140.9 140.9 140.9 140.9 140.9 140.9 161.7 181.5 189.1 183.8 180 180 177.7 174.1 171.4 170.4 169.6 169.1 168.5 168.2 167.8 167.5 167.3 168.5 168.9 167.9 167.5 165.8 161.7 157.7 159.9 160.6 161.7 163.4 164.7 165.5 166.5 167.5 168.5 169.5 170.4 171.4 172 170.7 152 144.4 150.7 165.3 178 185.1 187.2 188.3 189.4 190.4 189.5 189 189.3 190.2 188.9 189 189.5 190.7 191.7 191.7 193.4 199.5 199.1 200.8 202.5 205.6 208.1 211.3 213 214.7 215.9 216.9 217.7 218.4 218.4 218.6 218.1 216.8 213 214.3 218 220.1 221.2 215.7 209.3 202.1 202.7 203 200.9 199.5 199 197.7 196.6 194.2 192.1 190.2 194 200.7 202 202.4 201.2 199.2 197 194.3 190.2 186.7 185.4 184.7 181.7 164.2 139.3 148.8 150.3 158.3 172.4 181.7 183.5 185.1 186.8 188.7 191.4 194 194.9 197 198.9 200.5 201.9 202.4
160.8 162.8 164.7 167.6 170.5 172.6 174.5 176.1 177.6 178.4 178.8 180.1 182.3 185.1 188 190.6 192.4 194.1 195.5 196.4 199.5 201.8 204.7 208.4 210.8 209.1 205.1 204.9 204.7 205 204.6 204.2 204.2 204.4 203.6 202.5 206.5 208.7 223.6 231 237 243 249.8 253.4 254.1 252.8 250.5 247.1 241 236.7 233.7 233 229.6 229.1 226.9 226.8 225.4 219.5 216.9 215.7 212.3 202 192.2 182.3 172.4 161.6 140.9 140.9 140.9 140.9 140.9 140.9 140.9 140.9 156.6 179.4 188.4 179.1 176.9 175.7 173.2 171.2 168.8 167.8 167.1 167.2 167.5 167.3 167 166.4 165.5 166.4 166.9 167.2 166.3 165.6 161.9 159.7 159.2 160.7 161.9 162.4 164.4 165.4 166.4 167.4 168.3 169.1 170 170.9 171.4 159.3 145.2 145.2 169.4 180.5 182.7 184.3 185.2 186.2 187 187.3 186.5 185.9 186.5 187.3 187.3 189 189.5 191.3 191.7 191.7 195.5 199.7 202.5 203.1 203.8 206.9 206.4 209.6 211.5 213 214.5 215 215.5 215.3 215.5 216 215.3 214.4 214.4 217.3 221.5 223 216.5 207.9 203.9 198 201.8 198.3 195.8 194.1 193.6 193.7 192.7 190.5 189 193.9 197.4 199.8 200 199.7 198.5 195.9 191.9 189.3 185 183.6 182.8 182.3 179.8 163.6 137.5 143 153.1 164.9 178.5 181.3 182.9 184.6 186.2 188 190.7 191.6 192 194.1 195.8 197.1 197.6 197.1
162.6 163.9 165.9 168.7 171.6 173.8 175.7 177.4 178.4 179.3 179.4 180.7 183.2 186 189.1 191 192.8 193.4 193.7 193.1 193.9 193 195.3 197.9 201 203.2 208.2 204.2 204.1 204.2 204.4 204.4 204.3 204.1 204 205.5 206.2 208.2 211.6 224 231 238.1 243.7 250.9 253.1 252 250.4 246.7 239.5 232.9 230.6 228.6 225.6 222.2 221.5 220.2 220.1 222.1 218.9 215.2 212.3 203 194.1 183.7 175.1 165.9 140.9 140.9 140.9 140.9 140.9 140.9 140.9 140.9 158.1 179.8 188.1 181.3 176.8 173.3 170.9 168.9 168.2 167.7 167 166.8 166.4 166.3 166.1 165.7 164 161.4 163.5 164.7 162.4 163.3 161.9 159.4 158.8 159.8 160.8 162.4 164.3 165.2 166.1 167 167.9 168.8 169.6 170.5 169 144.3 139.4 159.1 172.5 179 180.2 181.9 183.4 183.6 183.9 184.1 184 183.8 184.4 184.9 186.5 188 189.2 191.7 194.2 195.4 198.7 202.4 205.2 206.5 208.5 208.6 207.5 207.2 208.6 209.8 211.1 212.3 213 213.6 214.1 213.4 213.6 215.4 216.3 219.4 224.4 224 214.4 201.5 197 197.5 198.5 193.9 191.5 189.2 189.7 190.3 190.5 188.1 194 196.9 197.7 198.6 197.8 196.5 194.5 190.8 186.5 183.7 181 180.4 180.5 179.8 177.4 161 140.2 144.9 161 172.7 179.1 181.3 182.6 184.1 185.9 187.3 188.4 188.7 189.1 190.6 191.4 192.3 192.4 189.7
165.4 166.3 167.3 170.1 172.7 175.3 177.1 178.8 179.5 180.2 181 182.1 184.7 187.3 189.7 191.5 192.7 192.8 192.3 191.5 191.3 191.9 192.4 195.2 197.8 198.7 199.5 199.5 199.1 198.3 197.8 197.6 198.8 201.3 203.1 204.4 205.1 205.6 208.1 214 224.8 232.1 238.9 243.5 245.5 245.8 246 244.8 237.4 232 226.6 222.7 219.2 216.2 217.5 219.1 220.8 219 220.5 214.9 211.7 204 195.5 185.1 173.5 161.5 140.9 140.9 140.9 140.9 140.9 140.9 140.9 140.9 164.2 180.4 188.2 182 175.5 172.6 170 168.8 168.1 167.6 167.1 166.8 166.4 166 165.8 166.3 166.2 165.9 164.3 161 157.5 159.1 161.4 160.5 158 157.7 159.7 162.2 163.4 164.8 165.8 166.7 167.6 168.4 169.3 170 156.1 140.8 145.8 157.2 168.1 168.8 178.8 180.5 180.9 181 181.2 181.4 181.2 181.9 182.3 183.7 185.2 188.1 190.5 192.8 195.1 197.9 201.4 204.6 206.4 207.7 208.8 210.3 210.5 210.3 210.3 211.2 211.7 212.7 214.5 216.9 216.9 212.2 213.1 215.9 218 220.7 224.3 222.9 213.4 200.1 191.6 194.2 190.8 190.3 190.8 187.3 189.4 188.2 186.4 190.2 196.1 196.4 197 196.1 196 193.3 189.6 185.1 181.1 179.6 178.9 178.9 178.6 176.8 165.6 146.8 140.6 153 167.8 176.8 179.7 181.8 183.2 184.3 185.5 186 185.9 185.5 185.5 186 186.4 186.8 185.2 181.5
167.8 168.5 169.8 171.7 174.4 176.4 178.2 179.8 180.4 180.7 181.6 183.3 185.6 187.9 189.7 191.6 192 191.7 191.3 190.8 191.4 192.8 193.4 195.5 196.8 197.9 198 198.4 197.1 196.3 195.7 196.3 198 201.7 203 204 204.2 204.5 204.5 207.4 217.2 225.8 231.9 235.8 236.5 236.5 237.6 239.1 235.7 229.7 222.3 219.6 214.8 214.1 214.8 219.1 219.6 218.2 217.4 217.7 210.9 204.2 196 185.6 172.9 160.5 140.9 140.9 140.9 140.9 140.9 140.9 140.9 140.9 170.9 181.4 188.1 183.1 177 172.3 170.1 169 168.2 167.7 167.7 166.9 167.7 168.1 168.4 168 167.6 167.1 165 162 159.3 157.6 160.1 159.8 156.8 154.8 159.9 162.5 162.8 163.7 165.3 166 166.8 167.5 168.3 168 151.7 136.4 142.7 153.3 161.3 166.7 177.1 174.3 174.8 176.9 177.8 178.2 179.4 180.5 180.1 181.2 184.1 187.7 190.5 192.6 194.8 197.3 200.3 202.6 204.9 206.4 207.7 209.5 210.6 211.4 211.7 211.8 212.1 213.8 216.1 217.9 216.3 211.7 213.4 216.9 220 222.7 223.8 220.6 210.5 199.3 191.1 189.2 188.6 188.8 187.4 185.4 183.6 183.8 185 192.6 195.7 195.7 194.8 193.7 192.7 188.2 184.1 180.2 178.6 177.4 177 177.3 175.3 167.3 153.2 136.5 146.1 161.3 172.9 176.8 179.8 182.1 183.2 184.2 183.8 182.9 181.9 181.2 180.9 180.8 180.1 178.9 176.5 177.8
169.7 170.5 171.7 173.1 174.8 176.6 178.4 179.5 180.4 181 182.1 183.5 185.9 188 189.6 190.6 190.8 190.4 190.1 190.3 192 193.1 193.9 194.9 195.8 196.8 198.1 197.7 198.4 196.3 195.3 195.6 197.6 201.1 202.7 203 204 203.4 203.2 203.8 207.9 217.6 225.3 227.4 228 227.5 228.7 230.1 229.2 224.6 220.7 216.9 215.5 216.1 215.6 218.2 217.2 216.7 215.3 214 213.1 205.8 196.2 183.3 173.8 153 140.9 140.9 140.9 140.9 140.9 140.9 140.9 145.6 174.1 179.5 184.8 182.4 175.6 172.2 170.9 169.3 168.5 168.6 169.5 170.4 171.5 172.6 173.5 173.2 171.7 169.5 165.9 162.3 159.7 155.3 158.1 158.2 153.9 158.5 161.5 162.9 163.3 163.9 164.5 165 165.3 166.5 168.1 164.2 149.1 139.5 147.3 155.3 163.7 163.5 167.7 172.8 170.8 174.2 175.5 176 177.4 179.1 178.9 181.2 184.5 187.2 189.5 191.1 192.3 194.9 197.8 200.5 202.9 204 205.9 207.2 208.6 209.5 210.3 211 212.4 215.3 216.7 215.3 212.8 210.8 213.4 216.8 220.2 220.1 219 216 207.3 196.8 188.3 187 187.7 185.6 182.8 182.1 180.6 186.3 189.7 191.2 193.1 193.7 192.1 190.6 187.7 184.3 180.8 178.2 176.8 176 175 172 158.2 147.7 136.4 137 155.5 170.8 175.1 178 180.1 180.9 181.3 181 179.7 178.4 177.8 177.2 176.2 174.8 173.8 172.3 172.5 174.5
171.6 172.6 172.9 173.3 173.7 175.5 177.3 178.8 180.1 181 182.2 183.3 185.7 187.1 188.7 189.3 189.2 189 188.9 190.5 192.5 194 195.5 197.8 198 199.5 199.9 199.7 199.6 195.8 194.9 195.9 198.2 201.1 201.8 201.7 201.2 200.8 201.2 202.4 205 208.4 215 217.2 218 218.3 218.4 220.7 221.1 218 217.9 217.2 218.5 216.1 213.1 212.4 214.7 215 214.9 215.7 216 210.5 199.5 187.1 174.3 154.7 140.9 140.9 150.4 148.8 140.9 140.9 146.4 150.1 171.4 179.4 181.5 177.7 175 174.4 171.6 169.8 169.6 170.8 173.7 175.2 176.2 177.3 178.7 177.9 175.9 172.3 167.1 162.9 159.9 158.4 154.8 155 155.8 159.7 161.7 163.1 164.2 164.2 164.5 165 165.4 165.9 165.7 160.8 140.2 140.9 151.3 164 169 173.5 176.4 176.3 173.2 172.3 174.3 175.7 175.8 177.5 179.4 180.9 182.5 184.7 185.6 187.8 190.9 193.9 196.4 198.5 201 201.9 203.1 203.9 204.8 205.8 206.7 208.8 213.3 215.4 214.5 212.1 210.4 211.7 214.2 215.4 215.7 214.8 213.4 208.7 202.1 191.9 184.9 185.2 184 180.3 177.7 184.2 186.6 190.1 191.2 191.9 192.4 190.6 187.9 186.1 183.2 180 178.2 177.4 177.6 177.7 176.3 162.4 143.7 128.6 135.7 150.9 165 173.7 176.5 178.4 178.9 178.5 177.9 176.7 175.5 174.2 173.2 172.4 170.5 169 168.5 168.4 169.7 172.2
172.4 172.8 172.8 172.9 173.1 174.4 176.1 177.6 179.1 180.9 182.2 183.3 185.2 185.9 187.2 187.7 186.9 187.3 188.6 191 192.6 194.7 201.5 199.8 199.4 199.6 199.5 199.7 198.5 196 195.4 197.1 198.1 200.3 200.7 200.4 199.5 199 199.3 200.6 201.9 202.9 207.7 207.2 207.6 209.6 211.2 213.6 215.3 218.4 221.5 226.6 226.9 225 222.2 216.1 212.3 210.9 212.5 214.5 215.2 214.1 203.1 189 175.9 153.1 140.7 140.7 161.7 172.5 167 161.6 159.7 159 175.8 184.1 178.8 177.6 176.2 175.1 173.6 170.5 170.1 171.8 174.9 178 179.8 180.9 181.1 181.1 177.9 172.7 166.4 162.1 159.1 156.6 154.7 157.4 160.1 160.4 161.7 163.6 165.6 164.8 164.9 165.2 164.5 164.6 162.8 152.5 133.4 140.9 156.1 166.6 170.8 174.3 175.1 176.1 177 176.3 176.3 176.9 177.7 179.1 180.5 182.1 184 185.7 186.9 189 191.8 193.8 195.1 197.5 199.4 199.6 200.6 200.8 202.7 206.3 208.9 210.6 212.9 213.3 212.1 210.1 210.3 211.8 211.8 211.6 210.4 209 205.6 200.3 195.2 188.9 184.6 181.2 178.4 178 184.6 187.2 188 189.6 190.2 190.6 189.2 187.3 184.7 182.1 180.2 179.1 178.7 180.4 181.6 182.2 180.9 160.9 136.8 131.9 139.9 156.3 169.5 174.5 176.2 176.9 176.2 174.9 173.6 172.3 171.1 169.9 168.7 167 165.4 164.5 164.6 165.9 167.9 170.8
171.9 172.6 172.6 172.6 172.8 173.4 174.9 176.6 178.4 180.3 182.1 183.3 184.2 184.8 185.1 185 184.6 186.3 188.7 190.5 192.4 196.6 208.6 202.8 199.6 199.2 199 198 197.3 195.7 194.5 196 197.2 199 199.7 200 198.8 201.1 198.8 198.4 199.1 200.9 201.8 202.9 203.8 206.1 208.8 210.7 214.8 218.4 229.2 235.2 237.2 237.1 235.6 232 226.1 218.9 211.5 208.9 213.3 212.8 204.7 191.2 178.3 159.3 140.9 149.9 168.5 177.6 173.4 172.1 172.5 174.7 181 186.2 184.9 182 178.3 175 173.1 171.6 171.2 173.1 174.8 176.2 179.6 180.5 181 180.5 177 168.7 163.9 152.2 150.3 157.3 159.9 159.6 160.1 160.8 161.6 164.5 166.8 166.8 164.9 164.4 163.9 161.9 158.7 141 132.2 142.7 158.6 165.7 169.8 172 172.6 174.2 176.4 177.3 177.2 178.2 180.5 181.3 181.9 183.6 185.6 187.4 188.2 190.3 193.6 196 196.9 198.2 197.9 198.3 198.2 201.5 204.6 208.5 210.6 211.5 211.6 211.1 209.3 206.7 206.9 207.6 206.5 205.7 203.8 199.9 195.5 190.8 186 184.1 180.9 176.3 180 182.4 185.3 186.6 187 187.5 188.5 188.9 184.9 182.5 181.2 180.2 179.7 180.4 182.6 184.4 185.3 185.6 180.8 159.3 134.6 129.9 138.9 160.9 170.8 174.2 174.4 173.7 172 170.2 169.1 167.9 166.7 165.5 164 162 160.5 160.4 161.8 164.4 166.5 169.4
170.7 171.5 172.2 172.5 172.2 172.7 173.2 174.9 176.8 178.6 180.3 181.7 181.6 181.9 181.9 182 182.8 185.5 187.6 189.1 190.8 198.8 213 209.6 201.4 197.7 197.4 195.8 196.1 193.6 192.8 194.2 195.6 197.6 202.3 202.6 199.3 192.9 193.8 197.6 195.9 199.1 199.5 200.7 200.9 200.9 209.6 210.7 212.2 220.2 233.7 244.2 248.3 248.8 246.8 245.3 240.8 234.9 227.8 220.5 211.6 208.7 207.4 195.2 185.2 173.1 153.2 171.8 184.6 186.8 185.1 184.1 183.1 185.3 188.6 189.5 188.1 184.5 180.6 177.7 176.1 174.4 172.9 172.7 173.2 175 178.4 180.1 180.1 178.1 168.9 158.6 152.3 151.2 161.4 161.9 162.3 161.4 160.7 161.1 162.5 165.5 171 172.8 165.6 164.9 164.4 160.1 146 137.1 135.1 142.9 160.5 164 168.4 170.4 171.2 172.3 174.4 175.5 176.5 178.7 181.1 182.7 183 185.1 187.2 189.1 191.1 194 196.9 198.4 199.3 199 197.2 194.8 196.2 202 206.2 207.9 208.5 208.9 209.2 208.8 205.6 202.9 202.5 201.6 199.2 197.7 194.5 189.8 184.8 181.7 180.6 178.9 175.4 175.5 181.1 182.5 183.5 184.6 184.2 183.5 182.2 180.3 179.1 177.9 178.8 179.4 182.1 184.3 186.4 187.7 188.4 183.5 168.5 149 127.9 129.8 145 164.5 171.3 172.1 171.4 169.7 167.5 165.5 164.5 163.5 162.3 160.8 159.2 157.3 156 156.9 159.2 161.9 164.4 166.1
167.3 169 170.3 171.1 170 170.2 170.6 172.7 174.7 176.6 178.1 179 179 178.7 178.9 179.6 180.7 183.2 185.8 187.1 188.1 197.8 212.1 214.6 204.4 195.5 194.6 193.6 193.3 191.9 191.4 192.5 193.2 194.1 196.6 195.4 191.3 191.2 190.7 193.3 195.7 201.9 201 201.4 201.4 207.5 210.7 211.5 214.3 224.8 236.8 247.9 254.5 256.8 256.1 255.4 253.4 249.6 244.6 237.3 226.6 217.3 211.9 207.1 199.1 186.6 190.3 198.7 203.5 202.5 197.9 196.5 195.4 194 194.5 193.7 191.9 188.7 185.5 182.4 179.9 178.2 176.6 174.7 174.1 174.9 178.6 181.5 180.3 177.4 171.1 162 152.7 155.1 162 163.4 164.5 164.1 163.3 162.2 162.9 165.9 170.2 172.4 166.2 165.4 164 161.2 140.1 129.8 138.2 150 163.4 165.9 167.9 169.4 170.1 171 172.5 173.7 174.3 176.8 180.3 181.5 183.5 187 189.1 191.5 194.4 197.2 199.7 200.5 200.6 199.5 196.6 193.3 192.4 199.9 203.4 204.9 205.7 206.2 205.4 204 201.1 198.6 197.4 195.5 191.5 188.4 185.2 181.3 178.2 176.8 176.4 175.4 173.3 178.2 183.7 184.5 184.2 183.1 180.9 179.1 177.2 177 177 177.2 178.6 182.5 186 188.4 190.1 190.6 187.3 177.8 164.8 140.7 122.6 133.1 158.6 168.5 169.1 168.9 167.3 165.5 163.3 160.9 159.9 159.2 157.7 156.1 154.4 152.7 153 154.4 157.3 160.2 161.6 161.9
163.2 165.5 167.6 168.4 169.1 169 169.8 171.1 172.3 173.6 175.7 176.4 176.3 176 176.1 176.9 179.2 181.7 183.5 183.9 185.1 190.6 200.1 201.3 198.2 192.5 192.5 191.5 190.6 189.7 190.1 190 189.6 189.4 189.2 189.7 189.1 191.8 194.6 195.6 197.8 204.2 202.7 200.6 204.7 206.1 206.1 210.2 217.4 228.3 238.4 249.9 257 260.4 261 260.7 260.9 260.3 258 251 241.2 230.6 223.4 216.9 212.4 210.8 209.9 209.3 206.1 205.4 202.9 199.5 200.6 198.8 199.1 198.7 196.9 194.2 191.2 188.3 185.9 183.3 180.9 178.7 176.6 176.7 178.9 181.7 181.7 178.6 172.6 162.7 148.9 153.8 159.7 163.9 165.6 166.7 166.3 165 164.1 164.7 167.6 167.3 166.4 166.1 163 143.5 138.4 133.3 144.5 159.3 164.9 166.4 168.2 169 169.3 169.7 170.5 171.1 172.5 176.8 180.8 182.9 186.2 189.1 190.3 193.4 196.5 198.7 200.5 201.4 200.8 199.4 195.7 192.2 186 193.5 199.5 201.2 202.3 202.4 201.4 199.9 197 195.5 194.8 192 188.1 183.3 179.4 177.4 175.8 175.2 172.2 171.7 180.5 181.9 182.4 183 181.5 178.6 178.4 176.4 176.4 177 177.6 179 183.7 187.9 190.2 191.5 191.5 188.6 183.4 176 158 130.8 124.7 144.5 164.7 166.4 165.6 164.8 162.5 160 157.9 156 155.5 154.3 153.2 151.7 150.3 150.8 152.3 153.7 155.8 157.1 157.3 157
155 161.4 165.1 165.7 166.3 166.8 167.9 169.6 170 171.8 172.3 173.1 173.7 173.4 173.6 175.3 177.7 179.7 181 181.2 181.8 181.5 184.1 186.3 189.9 191.2 191.3 192.6 188.3 188.4 188.2 187.3 187.2 186.8 186.7 186.6 188.9 192.6 195.5 197.8 200.3 201.6 205.2 205 206.3 206.7 207 213.3 221.5 230.1 240.8 252.3 258.5 262.3 264.9 265.8 266.5 265.6 266.8 266.6 254.5 239.8 230.5 225.3 225.4 226.4 224.6 212.2 211.4 210.6 208.1 205.8 204.8 204 204.4 203.7 202.7 200.6 199.1 197.7 196.3 193.2 188 183.7 180.1 179.6 181 181.3 180.8 178.7 172.7 161.6 148.8 147.6 156.8 160.4 164.8 167.2 168.4 168.4 168.3 166.9 167.2 167 166.9 165.9 162.1 142.8 131.4 133.9 149.6 165.8 165.6 166.1 167.2 167.9 168.3 168.7 168.9 170.6 174 178.2 181.5 184.3 188 190.2 192.1 194.3 195.7 197.8 200.3 200.8 200.2 198.5 195 189.4 183.5 186.1 193.5 197.6 198.5 198.2 197.7 195.9 194.7 193.3 192 189.7 186.4 182.8 178.8 176.4 176.3 169.3 173.1 176.5 176.8 177.2 177.5 177.5 176.2 175.9 175.6 175.4 176.3 177.7 182.1 185.9 189.7 191.8 192.3 191.6 188.7 184.6 178 165.9 130.4 121.3 130.8 156 162.9 162.8 162.1 159.2 156.8 154.3 152.3 150.5 149.5 148.5 148.3 148.1 149.1 149.7 151.2 152.5 152.5 153 152.3 151.9
134.6 158.5 161.6 162.7 164.3 165.2 165.5 166.5 167.3 169.4 168.7 169.4 170.2 171.1 172.3 174.4 176.8 177.7 178.5 178.5 177.8 176.6 176.3 182.8 180.4 189.3 189.8 188.7 186.9 186.4 185.7 185.6 185.3 184.9 184.5 186.2 188.9 192.8 195.6 198.6 201 202.6 202.9 205.9 206.2 205.5 207.6 215.1 223.3 231.1 242.8 253.3 259.3 263.2 267 268.8 268.9 268.5 269.7 270.1 268.6 259.3 243.7 233.4 232.4 235.4 236.3 232.8 216.2 214.1 213.2 211.8 211.2 210.7 212.2 212.4 211.7 210 209.8 210 210.3 208.1 204 195 187.8 183.7 182.8 180.8 178 175.8 171.2 165.5 157.7 144.3 153.2 154.8 162.1 165.9 168.5 174.8 173.2 171 168.6 167.3 165.9 163.7 161.1 142.4 130.9 135 152.1 164 164.3 164.8 165.9 166.4 166.7 166.2 169.9 172.1 175.4 178.9 182.3 186.2 189.3 191.2 193 194.8 195.5 197.2 199 200.1 199.5 197.6 193.6 187.6 182.4 184.5 188.4 192.2 192.9 193.9 193.9 192.3 191.1 189.4 187.4 187.8 186.2 183.4 179.1 174.9 173.8 167.9 174.1 175.3 174.9 175.3 175.5 175.1 175 174.9 175.1 176 177.9 182.6 187 190.7 193 193.4 191.1 188.4 183.4 178.3 169.7 147.3 116.6 120.8 144.8 160.9 160.9 159.3 157.1 153.2 150.8 148.4 146.9 145.2 144.4 144.3 145.8 147.2 148.7 148.8 150 149.6 148.9 148.1 147.2 145.6
133.5 147 158.4 159.2 159.6 161.5 162.5 163.4 164.2 164.2 164.5 165.4 166.5 169 171.4 174.6 176.5 177.4 177.3 176.1 173.5 174 175 176.8 178.1 179.5 181.5 186.5 186.1 185.7 184.6 184 183.3 183.2 183.2 185.4 189.1 192.9 195.6 198.6 200.4 202.1 202.6 202.9 207.3 205.5 208.3 214.2 223.1 231.3 241.6 249.3 258.3 263 267.1 268.7 269.1 270.2 272.4 271.4 271.6 271.1 262.8 255.8 253.8 254.7 254.7 251.5 233.6 223.1 221.5 220.9 220.7 221.5 222.6 222.9 223.1 223.2 225.1 225.4 222.6 220.1 214.9 204.6 195 188.6 182 175.6 170.9 168.8 165.6 162.9 159 146.9 144 151.3 155.9 162.7 168 175.8 176.3 175.5 172.1 169.1 165.4 163.1 159.6 137.2 125.7 136.9 157.6 165.1 163.1 163 163.9 164.5 164.6 164 168.5 172.1 176.1 179.9 183.9 187.9 190.2 192.1 193.9 194.7 195.6 196.5 197.5 199 198.2 196.5 192.1 185.2 185 185.1 185.9 186.7 187.4 188.7 189.9 188.7 187.2 185.5 183.7 183.5 184.8 183.3 179.5 174.1 170.8 166.1 172.9 174.1 174.1 174 174 174.1 174.3 174.8 175.9 179 183 187.1 191.5 194.2 194.1 191.6 188.9 184.1 178.7 173 156 130.7 118.2 132.1 157 159.5 157.6 154.3 150.7 146.4 142.7 141.9 140.8 141 142 143.1 144.7 146.4 147.4 147.6 146.6 145.5 144.4 142.4 140.3 138.4
141.9 136.5 156.2 156.5 157.3 159 160.4 160.5 161 160.6 161.2 162.8 164.8 168.4 171.7 174.4 175.5 176.2 176.1 174.2 172.1 173.3 174.6 175.8 177.1 178.6 179.8 182.7 185.5 183.8 183.2 182 181.7 182 183.3 185.1 189.1 192.3 195.5 198.2 200.1 201.1 201.8 202.3 203.2 209.4 209.9 212.8 219.6 229.8 237.8 245.8 255.4 263 266.7 268.3 268.6 271.7 272.5 272.5 272.7 272.8 272.8 271.8 271 270 268.1 263.9 247.9 230.4 230.4 230.6 231.8 235.8 235.9 236.5 238.8 240.4 240.1 238 233.8 228.5 220.4 211.1 200 192.5 182.3 174.3 169.8 166.6 163.5 161.5 158.2 149.3 143.5 146 151.1 158 165.5 172.7 175.8 175.9 174.2 171.2 167.6 163.4 159 140.8 125 134.3 158 160.8 158.5 161.7 162.6 162.9 162.8 163.2 163.9 166.3 172 179.5 186.5 189.6 191.3 192.8 193.6 193.9 194.3 194.1 194.1 195.6 195.8 193.9 189.9 181.7 185 185.1 184.3 182.7 183.3 184.6 185.9 185 183.4 182.2 179.4 178.8 179 178.8 176.1 172.8 168.6 164.6 171.7 173 173.3 173.9 174.1 174.8 175.8 176.9 180.3 184.4 189.4 193.1 194.7 193.4 190.6 187.8 184.1 179.7 173.5 168 149.7 121.2 117.9 135.9 154.1 153.3 151.2 148.4 144.4 139.1 137.8 137.9 138.9 140 141 141.8 142.8 143.8 144.4 143.2 141.9 140.1 138.1 136 133.7 131
155.4 141.2 153.9 156.6 158.2 158.6 158.4 158.4 158.9 159.2 160.6 161.8 163.1 165.9 169 171.2 172.9 173.7 174.2 171.3 172.1 173.1 174.4 175.7 177.3 178.7 179.6 180.1 180 179.3 180.4 181.1 181.9 182.5 183.4 184.7 188.3 193.3 195.9 198.2 198.9 199.3 200.5 202 203.9 206.5 213.8 217.1 215.1 218.8 227.7 237.8 248.6 258.4 264.6 267.5 269.4 271.7 272.2 272.3 272.5 272.7 272.7 272.1 271.3 270.5 269.3 266.8 254.3 238.8 241.8 243.6 244.6 247.6 249.4 252.5 255.5 256.1 253.9 250.5 244.8 236.6 227.1 217.2 203.6 194.9 183.7 176.4 171.6 169 162.9 159.5 154.7 148.3 145.2 138.5 149.6 156.9 165.7 172.7 176.4 176.3 174.9 173.1 168.9 164.4 159.3 133.7 127.8 130.5 154.1 154 156.2 160.5 160.8 161.2 161.1 162 163 164.4 167.9 176.3 186.2 189.8 191.1 192 191.8 190.5 189.1 187.5 187.5 188.3 188.7 188.6 185.9 180.6 185.3 185.2 183.8 179.5 178.2 180.6 181.9 181.1 180.5 178.2 174.8 171 172 172.5 170.6 172 165.8 163.3 170.2 172.8 174.6 175.2 176.2 177.5 179.5 180.9 183.3 188.7 191.8 193.4 192.4 189.4 186.4 182.5 178 174.5 169.9 163.8 145.2 118.8 115.7 131.8 148.3 147.1 143.6 139.9 135.9 135.2 135.7 137.7 139 139.5 140 140.7 140.6 140.6 140.4 138.1 136.2 133.8 131.8 130.4 130.9 130.5
154.9 146.8 154.1 157.3 158.2 158.5 157.8 157.4 158.4 158.8 158.6 159.2 161.1 163.5 166.4 167.4 169.8 170.9 172.9 172 172.3 173.4 174.5 175.2 175.4 176 176.6 174.6 180.6 183.8 184.3 183.3 183.2 183.6 183.9 185.3 188.7 192.9 195.4 197.2 197.9 197.9 199.8 203.1 205.3 208.4 213 216.7 222.1 224.1 220.4 227.2 238.1 250.2 259.1 264 268.7 271.5 272 272.1 272.3 272.6 272.7 271.9 271.2 270.4 269.3 268 258.9 250.3 253 256 259.4 266.1 270.3 274.4 275.2 274.1 269.9 263.7 253.3 242.1 232.6 221.4 207.2 196.5 186.3 179.7 174 171.2 167.3 162.3 155.1 166.1 159.4 139.5 145.6 154.5 164.4 173 177.7 176.7 175.9 173.6 168.9 164.4 157.6 131.2 126.1 132 145 145.4 153.9 156.7 158 159.3 160.5 161.1 162 163.1 165.6 174.8 186.3 189.4 190.3 190.7 188.1 184 180.9 178.5 178 178.7 180.3 181.9 178.1 180.4 182.6 184 182.7 177.1 173.9 175.9 176.8 176.6 173.9 170.2 165.8 162.9 162.8 169 169.6 169.1 162.5 164.3 171.9 174.6 176.4 178 179 180.2 183.2 183.9 185.8 188.2 189.3 189.2 188.2 185.7 181.5 176 172.1 169.3 164.5 150.7 132.6 114.1 114.5 131.2 141.7 140 137.1 133.9 133.8 134.5 135.7 137.6 139.5 139.9 140.4 139.4 139.4 137.9 135.2 133.4 131.2 130.3 129.1 129.7 131.2 131.2
152.8 145.6 152.6 155.7 156.8 156.3 155.8 155.5 155.6 158.7 158.3 159.4 160.2 162 163.2 165 166.9 169.1 170.7 171 171.5 171.5 170.5 173 174.2 175.9 176.1 177.9 180.2 182.7 185 185.8 184.3 184.4 184.4 186 188.4 191.4 193.9 195.1 196.1 196.9 199.6 203.5 206.9 211.3 214.4 215.8 218.1 223 229.7 227.5 230.8 241.6 252.7 261.9 268.4 270.4 271.3 271.2 271.2 272.1 272.5 271.8 271 270.4 269.6 268 260.8 266 270.1 275.3 278.1 284.7 287 288.5 290.6 284.7 281.1 274.3 263.2 251.6 239.7 226.1 218.9 202.9 190.2 181.9 176.4 173.7 171.2 168.8 166.9 170.2 167.5 145.1 141.3 150.6 161.4 171 179.2 181.7 179 175.2 169.8 163.6 147.8 125.4 124.6 136.4 152.2 155.9 155.8 156 156.6 158.6 160.4 161.4 162.1 162.7 165 172.2 182.8 183.9 184.1 187.3 179.9 176.2 172.4 169.3 170.2 171.9 172.8 176.2 178.1 179 181 181.9 180.6 174.8 169.6 170 170.8 169.9 166.1 159.8 158.1 159.5 162 164.9 164 163 159.5 170.9 173 175.8 179.6 181.1 183.3 184.8 184.6 185.2 185.5 185.1 185.1 185.3 183.8 180.3 176.7 171.8 166.5 161.8 155.1 134.2 117.4 112.5 114.2 132.6 133.5 132.6 131.5 133.7 134.5 135.4 137.1 138.9 140.1 140.3 139.6 138.1 136.2 133.6 130.7 128.2 127.7 128.9 128.5 130.9 133.8 135.1
143.7 145.3 152 155.6 156.1 154.6 154.2 153.9 154.9 158.8 160.9 161.3 161.5 161.5 161.4 163.2 163.3 163.6 163.8 169 167.2 170.4 171.7 175.3 177.6 177.6 177.6 177.6 178.8 179.5 183.5 184.1 184.5 183.6 184.2 184.7 187.2 189.1 191.6 193.5 194.7 196.8 199.6 203.9 207 212.7 214.4 217.3 220.2 222.2 224 228.8 230.6 231.6 241.5 253.9 266.2 268.8 268.6 268.7 267.3 266.9 271.5 271.6 270.9 270.4 269 269 274.4 280.6 284.5 289 292.8 295.4 296.4 294.7 291.1 286.2 282.3 277.6 269.2 258.2 245 242.3 230.1 214.8 197.9 185.5 180.3 176.7 174.3 173 171.3 170.3 170.6 147.8 138.5 143 154.6 165.3 174.5 181.8 182.2 176.9 171.3 159.2 140.7 123 124.2 136.4 153.2 155.3 155.4 156.3 157.9 159.5 159.8 160.9 161.9 162.4 163.6 165.6 171 172 172.7 171.8 167.6 167.5 165.7 165 167.1 170.3 173.4 175.5 175 177.1 180.2 180.4 177.8 171.7 166.2 163.7 161.8 159.8 157.7 156.5 156 154.6 155.2 157.6 159.6 159.4 171.1 173.9 176.5 180.1 182.1 183.5 183.7 183.5 182.5 181.8 181.9 182 183.1 184 182.5 179.5 174.6 168.9 161.8 152.6 135.6 117.7 110.2 107.5 115 125 122.7 131.6 132.8 134.2 135.6 137.4 139.2 139.9 139.4 138.3 136.2 134.1 131.3 128.4 126.1 125 125.6 127.4 130.4 133.4 135.8 135.1
143.2 145.4 151.5 156.5 157.9 155.6 153.4 153.2 156.8 160.6 163.6 162.8 161.6 160.8 160.9 160.8 168.5 168.3 172.1 173 173.2 172.8 175.9 178.8 178.1 178 178.1 178.1 178.3 179.1 175.5 177.3 181.3 182.9 183.3 184.5 184.7 188.2 191.1 193.1 194.2 196.7 199.3 203.5 209 212.1 215.9 219.3 221.5 223.2 225 227.9 228.6 234.2 232.4 244 256.7 265.6 262.6 268.9 271.5 269.8 266.5 270.2 270.7 270.5 270.4 275.3 282.2 287.7 292.7 298.9 303.7 305.5 305.8 304 299.2 292.4 286.1 279.3 272 264.5 256.5 251 239.5 222.3 203.9 190.5 184 179.8 177 176.8 175.4 172.9 169.3 152.4 141 136.9 146.8 156.4 166.8 177.3 182 178.2 170.6 158.1 143.9 119.8 122.9 132.9 148.6 152.2 153.6 154.4 156 157.9 159.4 160.2 161.2 161.7 162.6 162.6 163.4 164.7 165 165 164.3 162.7 162 161.3 162.4 165.5 168 169.9 169.8 175.5 178.2 176.4 171.3 165.7 160 156 154.5 153.2 152.1 153.6 155.1 158.1 167.6 169.3 170 172.1 175.5 178.5 180.9 182.3 182.4 182.2 181.6 180.2 178.8 178.5 178.5 179.6 181.2 182.4 181.5 177.9 170.8 160.4 149.9 136.8 120.2 109.4 109.3 108.8 124.3 133.5 134.9 135 135.5 136.3 137.8 138.4 138.4 137.3 136 133.6 130.8 128 127.4 125.3 123.7 124.1 125.7 128.8 132 133.4 134.4 132.5
146 145.3 150.4 156.8 157.1 155.4 152.7 153.2 158.6 161.7 162.8 162.2 160 159.5 161.5 173.3 176.9 177.2 177.2 177.1 177.3 176.1 179.1 179.5 178.6 178.5 178.6 178.9 179.7 181.7 183.5 184.4 183.5 185.6 186.6 188.5 188 188.5 188.2 189.8 192.9 196.1 198.9 202.8 208.3 212.6 216.2 218.1 220.5 222.4 225 226.6 226.4 229.6 235 237.7 247.4 259.4 274.1 280.9 284.1 282 275.3 269.7 270 270.8 272.8 281.7 288.3 292.8 296.9 301.3 305.1 306.3 306.7 304.6 299.8 294.2 288.4 282 275.8 268.7 261.1 252.2 240.1 224.2 207.1 193 188 183.9 181.5 181.5 179.5 176.4 174.5 170.9 149.3 137.1 138.5 150.8 160 170.8 178.7 177.2 168 157.7 143.1 126 122 131.6 147 149 150.6 152.1 154.6 157.8 158.8 158.6 160.1 161.1 160.5 160.6 161.4 163.4 163.9 161.9 160.6 159.4 158.3 158 158.6 159.5 161.4 163.3 166.1 170.5 170.6 165 158.5 154.1 146.6 147.7 152.4 157.3 161.7 166.8 169.7 170 171.9 172.5 174.4 176.1 179.6 182.2 183.3 183.4 181.8 180.1 178 176.3 174.8 174.2 174.4 175.8 177.4 178.4 177.3 174.1 163.5 149.7 138.2 129.5 120.1 107.5 104.2 120 124.4 141.8 141.7 139.7 137.6 136.9 136.2 135.1 134 132.5 129.9 128.6 125.8 123.6 123.2 122.6 123.3 124.4 126.2 128.2 130.3 130.9 130.2 127.7
149.9 145.3 147.1 154 155.3 152.6 152.6 154.9 158.1 159.8 160.4 160 158.5 155.4 170.2 176 176.4 177.1 177.9 178.7 179.1 179.2 179.3 180.9 179.9 180.6 180.9 182 183.3 185 186.5 187.9 188.5 189.8 191.2 192.1 192.4 192.5 194.9 197.4 197.6 194.2 196.9 199 205.8 209.5 211.9 212.3 215.8 219.8 223.5 225.5 230.2 234.2 240.3 250.3 261.8 271.9 280.6 287.1 289.5 288.2 285.3 280.8 277.7 279.3 283.5 287 290.4 294.4 298.4 302.4 305.6 308 309 305.6 301 295.2 288.4 281.1 274.9 269 260.1 248.9 234.7 219.5 205.8 196.8 191.1 188.3 187.7 186.7 184.5 179.7 174.9 171.5 157.6 140.7 130.3 139.4 151 162.9 168.3 168.7 163.1 155.9 141.8 125.6 120.6 128.8 143.2 146.2 149.5 151.2 153.9 156.7 157.7 158.5 159.5 158.9 159.1 161 162.4 162 159.9 157.9 156.6 155.5 154.7 154.9 155.7 153.1 153.8 157.1 161.5 162.7 159.9 152.6 144.6 147.9 153.3 161.8 165.1 167.7 169 169.9 170.8 172.3 174.2 175.2 176.1 177.5 179.7 182 183 182.4 179.4 177.4 174.9 172.4 170.7 170.4 170.5 171.6 173.1 173.6 172.9 169.6 157.2 150.5 142.9 131.8 115.9 105.6 106.5 117.2 128 140.8 139.3 136.7 134.4 133 131.5 130.8 129.2 128.2 127.3 126.4 125.2 122.9 122.1 121.9 123.1 124 124.9 126.2 125.9 125.7 124.2 122.2
155.3 147.7 143.5 147.2 151.4 153.6 153.6 155 156.2 158.4 157.8 157 156.8 156.6 158.6 164.8 168.9 173.5 177.8 178.7 179 179.5 180 180.2 181.2 182.5 183.5 184.3 185.8 187.3 188.7 189.8 191.3 193.6 195 196.1 195.9 195.5 197.7 199.9 202.4 203.2 203.5 205.7 205.9 202.9 212.4 217.2 219.1 216.5 222.1 228.9 234.6 240.5 247.3 255.9 266.3 273.3 281.6 286.8 290.5 292.2 291.3 290.4 289.5 290.6 292.1 293.6 296.3 299.1 301.7 304.6 309.1 313.1 312.4 307.4 301.1 293.7 287.4 279.4 271.5 268.6 260 247.1 233.5 221 206.8 198.9 194.8 192.3 193 191.2 187.6 182.4 176.6 171.5 165.4 150.3 136.6 129.6 140.6 153.8 158.8 159.9 155.6 151.2 136.1 124.2 119.4 124.3 139.3 144.5 148.5 151.5 154.5 157.4 158.1 158.7 157.7 152.9 160.1 161.2 160.4 158.1 156 153.9 152.8 151.9 151.7 151.9 152.6 154.4 155.1 154.2 159.5 154.9 149.8 140.9 152.5 161.8 164.4 165.7 167.1 167 168.2 169.9 171 173.4 174.9 175.8 176.7 177.5 178.8 180.1 179.9 179.2 177.2 174.8 172.2 169.8 168.3 168 168.1 168.5 169.8 169.5 167.8 163.4 154.9 151.1 141 119.6 106.6 104.1 112.3 132.4 134 131.9 130.8 129.9 128.4 128.7 129 128.8 128.3 127.4 125.9 125.2 124.1 123 121.2 108.5 110.6 112.6 116.9 117.5 117.5 118 114.5 107.2
160.5 157.3 155.4 147.1 146.3 148.9 152.1 154 155 156.1 155.4 154.6 155 155.9 157.9 161.6 162.8 163.9 177.2 178.5 178.6 179.1 179.7 179.8 179.8 181.2 183.6 185.3 187.4 188.8 190.1 190.9 194.4 197.4 199 200 199.5 199.2 200.2 202.4 204.8 206.8 209.5 211.6 213.2 215.5 219.3 222.6 224.3 225.4 221.7 226.5 238.5 246.5 255 262.1 267.4 272.6 282.2 287.9 292.2 295.5 297.3 297.1 297.6 298.6 299.5 299.6 299.5 301.2 302.5 306.4 312.1 314.4 312 307 300.2 293.3 286.1 276.7 267.5 263.6 257.9 244.9 230.7 219.7 208.6 202.3 198.1 197.1 196.9 194.5 190.8 185.1 178.1 172.3 167.3 156.2 142.9 132.7 131.1 143.7 148 149.6 143.1 138.5 133.5 122.4 116.5 120.9 137.7 142.5 149.6 152.3 156.5 156.8 157.8 158.2 150.4 154.9 159.8 158.6 156.6 154.4 152.2 150.3 149.3 148.6 149.1 149.6 150.5 153 155.1 155.9 154.5 143.9 138.3 151.7 162.5 163.3 163.7 165.6 170.2 170.8 168.1 170 171.6 174.5 175.3 176.1 177 177.7 178.3 178.4 177.4 176 174.1 172.3 169 167.1 166.4 166.5 166.3 166.3 167.4 167.1 163.8 161.4 157.3 153.1 144.7 129 106.3 99.1 110.9 125 124.6 123.3 124.2 124.8 126 127.4 129.1 129.4 128.3 126.6 124.7 122.9 121.7 120.6 108.9 97 95.8 96.5 103.7 101.6 101.5 111.8 115.5 102.7
162.7 158.5 156.7 155 148.8 146.9 152.1 153.3 154.6 154.2 156 154.3 154.5 155.8 160.3 163.8 166.8 167 176.4 178.2 178.5 178.6 179.2 178.3 178.1 178.9 181.1 184.6 187.1 187.9 190.2 193.3 196.6 200.4 202.2 203.3 203 202.6 203.1 204.3 207.4 210 213.5 216.2 218.8 223 225.7 227.6 229.6 232.4 233 232.3 228.5 233.1 247.5 264 268.2 275.6 282.8 288.4 293 296.5 299.4 301.3 303.5 304 304.6 306.4 308.8 310.3 313.8 315.9 316.6 316 311.5 304.4 298.7 293.8 287.8 277.5 264 259.8 251.6 238 226.3 219.1 212.1 205.1 203.7 201.8 200.6 197 192 185.1 177.7 174 166.5 158.1 152.5 142.6 131.9 128.9 134.8 130.9 127.5 125.9 123.6 120.6 118 119.7 134.3 140.7 149.3 150.6 153.4 153.7 157.1 154.2 139.9 152 158.9 156.2 152.7 150.6 148.4 146.9 145.9 145.7 146.7 147.8 148.3 150.5 152.3 149.2 142 138 152.8 162 162.7 161.9 162.4 166.9 170.8 172.8 172.6 170.2 172.8 175.5 176.1 176.9 177.4 177.8 178.5 178.1 178.2 177 174.7 171.9 168.5 166.6 165.6 165.7 165.8 167.4 169 168.6 167.2 165.7 162.1 157.1 149.7 141.9 118.4 101.5 102.8 113.9 119.6 121 121.5 122.9 126.9 128.6 128 127 124.8 122.7 121.2 118 104.2 98.7 94.4 94.4 93.1 92.6 95.4 95.8 96.5 106.1 114.3 100
163.9 160.6 158 156.5 153.5 147.3 150.5 152.2 153.1 153.4 155.6 154.4 155.6 160.2 164.6 169.6 173.3 175.9 179.4 181.6 180.8 179.5 178.6 178 176.6 177 178.6 181 183.2 186.1 189.5 193.5 197.5 201.3 204.4 205.9 206.2 205.4 206.5 208.1 210.9 213.8 217.5 221.7 225.4 231.8 232.6 234.3 235.7 238.1 240 240.6 238.7 236.6 234.8 242.9 250.9 273.3 281.5 287.2 291.7 295.5 298.4 302.3 304.9 309.1 314.3 318.7 320.1 320.3 321.7 324.8 325.3 322.3 316.4 307.3 296.1 289.1 283.5 273.8 259.8 253.3 243.7 232.7 225.6 219.6 212.2 211.4 208.7 205.8 203.3 198.4 191.6 184.5 180.1 176.1 173 171.7 168.6 165 149.5 136.9 130.1 132.8 130.4 129.7 123.6 115.3 116.9 116.6 124.5 134.4 140.9 141 141 141.9 147.5 146.4 130.3 143.4 154.2 154.8 150.3 146.7 144.6 143.4 143.1 143 143.3 144.5 145.3 147 148 139.1 139.1 152.7 161 162.4 161.6 160.7 162.7 166.9 171.6 172.3 172.1 176.7 174.4 177 177.9 178.7 178.8 178.8 179.8 180.6 180.7 180 177.7 175.1 170.9 167.3 165.1 165 165.4 166 167.7 168.2 168.6 166.9 162.8 158.4 152.3 146.1 139.3 103.1 100.5 101.7 116.4 118.7 121.7 123.5 124 123.7 122.8 121.3 119.6 117 106.8 97.2 92.9 92 93.1 92.3 89.4 89.9 92.3 93.3 95.2 96.9 99 99.3
163.7 161.4 159 157.2 153.1 147.4 149.8 150.4 151.7 151 157.1 154.5 156.6 161.7 167.6 172.9 177.1 182.5 185.5 187.9 189.4 187.9 187.5 187.5 187.1 187.8 184.5 188.4 188.1 185.3 188.2 192.1 198 202.1 205.7 207.8 208.6 208.5 211.3 212.6 216.6 221 225.4 229.5 233.1 238.6 240.9 244.4 245.3 246.7 246.8 247.7 246.9 245 241.8 244.3 248.1 270.6 279.7 286.4 288.5 295 300.7 305.7 311 315.2 321.6 324.5 326.3 327.9 329.6 331.2 332.8 329.1 320.3 307.6 292.5 285.4 277.8 268.1 259.8 248 241.3 234.6 228.1 223.3 220.2 216.4 213 209.6 203.7 198.4 191.1 187.2 183.9 180.4 178.5 177.2 175.8 173 166.3 155.3 153.6 153.4 159 155.5 144.9 132.5 112.5 114.9 118.7 126 136 140.6 139 132.3 132.9 131 120.5 132.5 141.9 148.3 146.3 143.3 140.8 139.8 139.4 139.3 140.2 141.6 141.5 138.5 135.1 136.1 149.1 161.4 162.2 162.2 160.3 159.9 163.5 166.7 168.8 171.8 176.9 183.1 180.5 178.1 179.6 180.1 180.3 180.8 181.2 181.1 181.1 180 177.8 175.3 171.1 166.3 164.1 164.6 165.1 165.7 166.8 168.9 168.9 165.8 161.6 156.6 151.4 145.1 137.3 120.4 97.5 100.6 109.6 116.8 119.1 119.3 119.4 118.9 117.1 116.1 114 99.4 87.3 86.2 90 89.9 86.7 86.7 90.3 93.8 93.9 93 90.1 96.4 97.6 98.7
163.5 161.1 159.5 156 152.6 150.8 151 147.9 150.7 151 157 155.2 158.3 162.4 168.5 174 179.6 184.8 188.7 192 194.5 194.8 195.6 194.6 194.2 193.9 193.2 193.2 191.8 189.3 189 192 195.8 202.3 205.7 208.7 211 212.1 215.6 219.8 224.4 229.1 233.1 238.2 243.5 248.9 255 259 263.1 261.8 259.6 259.2 257.6 254.3 253.9 258.3 264.6 272.5 280.1 286 291.3 298.3 305.5 310.1 315.4 318.4 322.1 326.2 331.3 334.9 335.8 336.6 335.5 330.9 322.4 305.8 295 288.3 283.7 277.1 270.7 263.4 255.7 247.6 238.6 236.3 228 223.7 220.6 214.3 204.3 199.3 194.1 190.7 186.8 183.9 183.1 182.5 182.6 180.7 177.9 173.3 172.9 172.6 168.4 157 158.6 145 126.2 112.1 114.6 115.6 123.1 132.1 134.4 131 121.9 116 116.6 116.6 126.2 132.8 133.7 135.8 133.7 133.7 136.1 137.7 138.6 137.5 136 132.5 135.1 148.1 158.9 161.3 162.6 160.8 159.3 159.3 158.7 163.7 166.1 170.9 182.9 183.7 180.3 180 181.9 180.2 180.2 179.8 179.5 179.4 178.9 177.5 175.4 172.9 168.3 164.9 163.8 164.4 164.9 166.7 168.9 169.4 166.9 163.5 159.2 152.9 148.2 140.7 132.5 117.6 94.9 98.7 107.3 113.3 114.9 115.4 114.7 113.6 110.9 108.5 96.7 85.5 90.1 92.1 92.7 92.8 108.1 114.9 112.5 99.8 96.5 98.2 95.2 91.4 97 97.9
