ncols 200
nrows 82
xllcorner 350000
yllcorner 663000
cellsize 50
152.3 152.4 151.5 150.1 149.1 149 148.8 149.6 149.3 147.4 144.5 141.9 138.9 136.2 134.4 132.2 130.5 128.7 129.1 129.5 130.5 135.1 136.7 137.7 138.7 139.3 139.1 138.7 138.1 138.6 139.3 140.5 141 141.2 140.6 139.3 136.6 134.4 141.9 146.8 148.2 148 146.8 145.3 142.9 141.6 141.3 142.2 142.8 143.7 140.8 144.6 146 147.4 148.4 149.4 149.2 148.9 147.6 146.1 144.5 143.3 142.1 140.9 139.9 138.7 137.1 135.1 133.1 131 130.2 130.1 130.2 130.7 131.2 132.1 132.9 133.8 134.6 135.6 136.4 137.2 137.7 136.5 133.1 130.2 128.4 127.6 127.8 126.7 122.5 125.9 127.5 127.8 127.9 131.1 133.6 136.9 139.7 143 145.9 147.4 145.5 143.8 139.6 138 137.3 133.6 136.2 136.7 137.2 141.2 146.5 154.7 160.6 165.8 171.5 173.4 175.1 176.6 177.8 179.1 179.5 173.5 167.2 185.7 192.5 196.6 199.6 202.1 202.4 201.9 200.5 199.5 201.5 203.2 204 204.8 203.9 202.1 194.1 202.7 206.5 205.7 211.7 213.8 213.9 210.1 217.5 225 230 233.8 237.1 242.6 250.1 250.8 253.5 257 260.3 263.7 266.2 269.8 273.3 276.6 279.9 281.9 283.5 284.6 286.5 287.3 286.8 286.3 286.6 285 282.5 279.5 275.8 269.6 259.6 252.8 265.6 274.5 280.4 284.7 287.6 289.8 291.8 293.1 296 297.9 301.1 303.4 303.5 300.4 297.4 295.9 299.6 301.1 303.7 306.4
153 154.1 154.1 150.7 149.1 148.7 148.4 148.3 149.6 148 144.4 141.5 138.7 135.9 133.6 131 129.5 130.6 131.2 133.1 132.2 132.5 138.7 139.4 140.3 140.5 140.4 140.2 140.6 142.9 144.9 145.1 144.9 144.7 144 143.2 142.2 137.3 140.5 147.9 148.5 148.4 147.3 145.8 144.2 143.2 143.2 144 145 145.6 145.6 144.1 147.1 147.9 148.7 149.7 150.7 150.7 149.9 148.4 146.9 145.7 144.6 142.8 141.2 139.1 137.1 135.1 132.9 130.8 131.2 131.4 132 132.5 133.1 133.4 134.1 134.9 135.8 136.9 137.8 138.4 139 137.1 134.4 132.5 131.5 130.6 130.5 130.6 128 124.3 124.2 125 125.8 125.9 128.1 130 131.3 132.3 133.2 134 134.3 133.3 131.6 134.1 131.8 140.9 143.5 143.9 142.4 139.5 139.1 137.7 142.5 145.5 151.3 159 168 173.6 174.6 175.3 176.3 159.4 180.8 187.1 193.7 198.1 199.9 200.9 200.8 200.9 200 199.5 202.3 204 205.6 206.4 205.5 202.8 202.7 203.8 208.5 214.1 215.5 216.4 216.4 215.3 213.5 221.6 227.3 231.8 234.7 239.6 246.4 248.5 250.9 255.8 260.1 264.6 267.6 271.9 275.3 279.1 282.4 284.2 285.7 288.5 291.3 291.3 290.6 290 290.1 287.9 285.1 282.4 278.8 272.5 262.8 252.5 266 277.5 283.6 287.7 291 293.4 295.4 297.3 301.4 302.9 305.5 307.4 306.7 304.1 301.5 300.7 299.9 303 306.7 309.7
154.5 155.5 154.7 150.8 149.7 148.7 148 147.3 148.2 147.5 143.8 140.4 137.5 135.7 133.3 131.3 131.3 132 133.1 135.6 136.6 135 134.6 139.2 141.4 142.1 142.2 142.2 144.6 147.8 149.5 149.3 148.8 147.8 147.2 146.1 145.7 140.3 139.4 147.3 148.4 148.5 148.3 146.8 145.8 145.6 146.5 147.3 147.4 147.7 147.3 145.7 146.6 148.3 148.8 151.2 152.8 152.4 151.4 150.6 149.3 148.1 146.8 144.6 142.4 139.8 136.5 134.3 132.1 130.4 131.4 132.7 133.7 134.3 134.5 134.6 135.2 136 137 138.1 139.1 139.6 140.4 140.1 137.1 134.8 134.4 135.2 135.3 134.1 134.3 135.4 135.3 133.5 130 126.3 127 128.2 128.3 126.3 126.6 127.4 128.9 140.9 150.5 151.9 155.5 155.3 155.4 156.2 155.6 150.8 146.4 142 140 145.9 144.4 143.8 148.3 154.7 163.1 165.3 159 174.6 182.2 188.3 195.1 197.9 199.4 200.1 200.1 199.9 199.9 200.4 202.2 204.6 205.5 206.9 206.4 203.1 203.8 204.9 210.7 216.3 217.2 217.9 218.8 218.9 217.5 215.4 220.1 228.4 232.5 236.1 242.9 245.9 249.1 254.4 259.8 265.2 268 272.9 276 279.3 282.6 284.9 286.4 288.5 293.1 293.8 293.6 293.2 292 288.5 286.2 283.7 280.4 274 266.9 252.8 264.2 278.7 285.2 289.2 293.5 296.5 298.9 301.6 305.3 306.3 307.3 308.4 307.8 307.5 306.6 304.3 304.4 305.3 306.9 310.8
154.3 154.8 153.4 151.1 150.4 149.8 147.4 146.4 147.6 146.6 143.1 139.4 136.7 135.4 134.6 133.9 134.2 134.2 135.9 138.6 140.5 140 137.3 135.9 142.3 142.7 143.7 144 148.3 151.9 152.8 152.9 151.7 150.7 149.9 148.8 147.5 143.8 139.2 147.6 149.5 150 149.7 148.4 147.4 147.5 149 149.5 149.6 149 148.5 147.2 147 149 149.9 152.7 154.1 153.8 153.2 152.8 151.4 150.2 148.8 146.7 143.6 140.1 136.6 134 131.6 130.4 131.7 134.1 135.8 136.3 136.2 136 136.4 137.3 138.3 139.5 140.3 141.4 142.4 142.6 142.2 139.4 139.1 139.8 139.6 138.3 138.4 141.1 142.5 145.4 144.9 138.4 126.1 128.4 135.5 140.3 141.5 142.2 135.3 150.6 154.4 156.9 159.6 160.4 160 161 163 161.3 151.8 140.1 151.2 154.4 155.3 157.3 159.3 160.6 157.4 156.8 176.2 179 183.8 189.6 194.3 197 198.5 199.5 199.4 199.2 199.5 200.4 201.5 204.1 205.2 205.8 205.3 203.2 203.8 204.6 211.4 217.1 218.8 220.3 221.8 223.2 221.9 221.8 219.4 220.8 227.4 233.7 238.7 243.6 247.3 253.4 259.5 265 268.3 273.5 276.4 279.8 283.5 284.5 285 289 293.7 295.1 295.2 294.2 291.9 289.4 286.9 284.2 281.1 276 269.5 258.5 258.8 274.1 284.8 288.9 293.6 296.4 300.5 305.1 306.4 307.6 307.5 308.1 308.6 308.8 310.6 310.4 308.6 308.9 310.5 311
154.3 154.1 152.4 151.2 150.8 150.8 147.6 146.6 145.7 144.1 141 138.2 136.6 135.5 135.2 136 137.4 138.2 138.4 140.7 143 143.6 143.2 137.4 141.6 143.2 143.6 145.7 150.3 154.3 155.4 155.4 154.6 153.6 152.2 150.6 149.1 146.1 140.6 148 150.4 152.6 152.6 151.9 150.8 150.4 151.5 152.2 152 150.7 149.5 148.3 148.9 150 151.7 153.4 155.1 155.4 154.9 154.6 153.7 152.4 151.1 149 145.6 141.4 137.4 134.4 132.6 132.2 132.8 135.2 137.5 137.9 138.1 138.1 137.7 138.2 139.6 141.5 142.7 143.5 144.3 145.3 145.3 145.4 144.6 143.2 142.2 141.4 142.3 145.8 148.2 149.7 149.1 145.1 128.8 135.3 142.3 147.9 149.1 146.8 140.2 152.3 157.7 160.7 163.1 163.7 162.3 162.1 164.1 164.9 155.5 145.1 153.6 159.5 160.5 162.7 164.9 166.7 168.1 164.6 177.1 180.2 183.6 188.1 192.5 195.4 197.3 198.4 198.7 198.8 199.4 200.4 201.2 201.9 202.9 203.4 202.9 202.6 203.4 205.4 212.2 216.7 220 222.8 224.8 225.2 224.4 224.9 225.3 224.5 222.7 227.9 236.1 242.2 246.9 252.2 258.7 264.1 268.1 272.2 275.2 278.5 282.6 282.8 283.5 288.8 293 295 295.4 293.4 291 288.9 286.8 284.5 282.9 279.3 273.4 265.7 254.3 263.8 274.8 284.2 287.5 292.3 298.7 305.4 305.9 305.6 307 307.6 308.8 309.9 312.4 314.9 316.2 315.9 314.4 317.6
154 152.8 151.3 150 149.8 150 148.7 146.4 144.1 141 139.4 137.8 136.8 136.7 137.4 138.3 140 140.9 140.8 142.9 144.9 145 144.8 143 137.5 143.6 144.5 147.2 152 156.1 157.6 157.6 157 155.2 153.3 151.7 149.5 146.5 141.8 148.6 151 153.9 154.5 154.3 154.3 154.2 154.4 154.5 154.2 152.7 150.9 150.2 151.6 152.1 153.6 155.8 157 156.8 156.6 156.3 155.9 155 153.8 151.6 148.2 144 139.8 136.2 134.5 135 136.2 138.2 140.8 139.7 140.9 140.3 139.7 139.9 141.1 143.1 144.6 145.2 146.2 147.4 148.5 148.7 148 146.6 144.8 144 144.1 147.5 151.3 152.3 149.7 147 131.2 138.7 147.9 153.4 152.7 149.1 144.3 155 162 163.9 165.8 166.1 164 165.2 169.4 168.1 158.3 147.3 155.3 164 165.4 167.5 170.1 172.2 174.7 175.6 171.2 173.6 182.3 186.2 189.8 193.3 195.5 196.6 197.3 198.7 199.3 199.7 200.1 200.3 200.2 200.5 202 202.8 204.4 207.6 214.4 219 222.9 225.5 227.1 226.6 226.9 227.8 228.4 229 228.9 226.4 229.9 238 244.4 250.4 256.7 262.5 266.9 269.9 273.3 277.1 280 280.1 283 287.6 291.2 292.8 292.7 291.3 290 287.4 285.8 284.4 282 279.4 275.3 270.2 263.1 258.6 261.1 266.4 275.3 283.8 290.6 294.9 298.8 299.9 302 304.3 306.3 310 314.3 317.7 320.7 321.8 322.4 321.9
152.7 151.1 149.3 148.6 148.1 147.6 146.5 144.2 141.6 138.2 137.8 140.2 140.7 140.9 141.8 142.4 143.9 142.7 143.5 145.1 146.4 146.6 146.2 144.6 139.2 143.1 145.3 150.4 154.4 158.1 159.2 159.6 158.7 157 154.8 152.4 149.8 145.5 143.4 149 152.9 155.4 156.3 156 155.8 155.8 155.8 155.7 155.7 154.5 151.7 153.1 153.7 154.1 155.6 157.6 158.5 159 158.8 158.3 157.8 157.1 156.4 154.1 150.7 146.6 142.4 138.5 136.9 137.4 138.7 140.4 141.7 142.5 142.3 142.1 141.7 141.5 142.5 144.2 146.1 147.2 148.3 149.5 150.6 151.1 151.1 150.5 148.4 146.3 145 148.6 153 154.8 151.7 147 133.6 143.7 154.4 160.4 155.5 149.8 146.3 154.6 165.2 166.7 168.7 167.8 165.1 165.3 169.8 169.8 159.9 150.3 151.7 166.8 168.9 171.6 174.2 175.5 176.8 178.6 179.3 178.9 178.2 169.6 185.7 189.3 192.5 194.7 196.1 197.1 197.1 197.5 198.1 199 200.6 201.4 203.2 204 205.7 212.3 220.6 224.3 227.4 229 229.7 229.6 230.1 230.7 231.3 232 233.2 233.6 232.4 231.8 238.7 246 252.1 258.6 264.1 267.3 271.1 275 277.9 278.4 281.1 286 289.6 290.9 290.1 289.3 287.6 286.1 285.1 284.1 281.5 278.8 275.8 268.8 263.6 265.9 267.6 265.3 261.1 270.4 279.4 284 287.5 294 297.6 298.9 303.9 309.3 314.7 319.7 323.3 325.7 327.8 328.3
150.1 148.3 146.8 146.3 145.6 144.9 143.6 141 138.7 138.5 142.3 144.7 144.9 145.9 146.3 146.6 146.6 144.8 144.3 146.3 147.7 147.9 147.4 145.8 142.1 142 147.8 152.8 157.5 159.9 161 161.3 160.4 158.6 156.3 153.5 150.4 146.5 146.1 151.5 155.4 157.4 158.1 157.8 157.5 157.3 157.2 157.1 156.9 156 154.1 155.6 156.6 157.1 158.2 159 159.8 160.2 159.9 159.7 159.3 158.9 157.9 155.9 152.8 148.7 144.6 141 138.6 138.4 140.4 142.4 143.9 144.1 143.9 143.5 143.3 143.2 143.7 145.2 147.2 148.6 150 151.3 152.4 153.1 154.2 153.8 151.7 149.7 148.8 150.8 155.2 156.9 153.6 141.7 137.4 149.9 160.8 164.8 160.8 155.1 151.9 151.5 157.8 161.6 164.2 167 167 164.8 168.5 167.2 158.8 151 152.5 168.8 171.8 174.5 175.9 177.1 178.4 181.1 183.3 184.4 182.9 173.2 174.4 182.7 189.1 192.3 193.5 195 196.6 197.8 199.6 201.6 202.9 203.7 205 205.5 207 219.1 224.8 228.4 229.8 230.1 231.1 231.6 233.5 234.2 234.7 235.3 236.7 236.5 236.9 236.8 236.6 238.4 245.6 252.5 261.1 265 269 272.5 275.6 276.3 277.9 282.3 287 288.3 287.7 288 287.4 286 284.3 283.1 280.4 275.3 270.1 265.9 267.2 271.5 272.7 272.5 271.3 267.4 267.3 271.5 278.8 287.6 291.4 292.7 300.8 307.6 314.5 320.6 325.1 328.5 331.4 334.5
147.4 145.5 144.6 143.9 142.7 140.7 139.5 138.6 141 142.5 145.9 148.9 149.5 150 149.9 149.4 148.4 146.9 145.8 147.3 148.5 148.6 148.5 147.1 146.4 141.7 148.8 154.4 159.5 161.4 162.6 162.6 161.8 160.2 157.4 154.5 151.6 148.5 146.7 153.2 156.9 158.7 158.9 158.9 158.8 158.7 158.8 158.7 158.9 157.8 154.9 158.4 159.9 160.3 160.5 160.6 160.9 161.1 161 160.8 161 159.7 159 156.6 153.7 149.8 145.7 142.4 139.7 138.3 141.6 144.9 145.8 145.8 145.7 145.4 144.7 144.2 144.2 145.6 148.2 150.2 151.6 153 154.1 156.4 157.1 156.8 154.9 153.9 153.9 155.8 157.3 159.4 149.8 136.1 141.5 152.3 160.6 163.8 163.5 160 157.8 154.6 152.5 155.1 158.8 168.1 168.5 166.7 164.4 163.3 158.5 155.2 155.8 170.5 173.2 175.8 177.4 178.8 179.9 181.9 184.3 185.4 184.8 183.7 174.3 174.9 183.9 193.4 194.5 196 197.7 199.9 201.8 203.5 204.4 205.3 205.7 205.4 211.4 221.9 226.7 229.8 231.9 233 234.7 234.5 236.3 237.9 238.8 239.6 240.1 239.7 240 240.6 242.4 238.1 240.1 248 256.3 262.4 266.8 270.1 273.3 274.8 275.2 279.3 283.3 283.8 283.7 284.6 285.4 284.1 282 280.9 276.8 272.1 267.7 269.5 271.7 273.9 275.7 276.2 275.7 275.5 275.3 271.6 271 275.4 281.2 289.9 299.4 306.6 313.4 321 327.1 331.2 335.5 338.5
144.6 143.5 142.3 141.9 140.5 141.1 142 143.1 144.5 146.3 149 151.4 152.8 152.9 152.8 151.7 150.4 148.6 147.5 148 149 149.7 149.6 149.4 148.8 144.3 147.9 155.3 160.2 162.6 163.9 164 163.1 161.7 159.2 156.3 153.4 150.4 147.9 154.3 157.7 158.8 159.8 160.1 160.3 160.2 160.2 160.4 160.8 159.8 158 158.3 161.9 162.4 162.1 161.9 161.8 162.1 162 161.8 162.2 161.2 159.3 157.1 153.9 150.2 146.5 142.8 140.9 139 143.4 146.1 147.5 148.1 148.1 147.1 146.1 145 145.6 147 149.4 151.3 153 154.7 157.4 159.7 159.8 159.7 158.3 158 157.8 158.8 160.9 154.2 142.7 139.7 147.3 155.6 161.3 165.3 167.4 163.6 161.8 164.4 161.5 154 158 167.9 169.5 169 167.5 163.4 164.1 165.1 153.3 171.4 174.5 176.9 179.6 181.2 182.4 183.3 185.2 186.1 187 187.2 188 189.4 180.2 192.8 195.3 195.9 197.1 200 202.4 203.5 205.2 206 205.5 205.3 216.2 223.7 227.7 231.2 233.7 236.3 238.4 238.4 239.4 241.4 242.5 242.7 243.3 244.6 244.7 245.6 246.2 245 245.4 247.2 252.5 257.6 263.9 267.8 270.7 272 271.9 276.5 279 278.4 278.8 279.9 282.6 283.6 281.5 277.3 273.1 268.7 268.7 273.8 276.1 278.6 279.9 279.3 280 280.6 281.3 279.2 276.5 276.5 276.6 284.3 298.1 306.6 312.6 320.2 327 332.4 337.5 341.5
143.6 143.4 143.3 143.7 143.3 143.7 145 146.5 148.1 149.9 152.1 154.1 155.6 155.7 154.3 153.3 152.3 150.9 150 150.4 150.6 150.9 151.4 151.2 150.4 146.1 146.9 155.2 159.6 162.8 164.2 164.8 164.5 163.1 160.8 158.2 155.7 153.3 149 154.8 158 160.3 161.6 162.1 162.3 162.2 162.3 162.6 163.3 162.1 161.7 159.6 163.6 165.2 164.5 163.1 162.6 162.7 162.6 162.6 163.2 162.6 160.1 156.9 153.6 149.4 145.2 142.7 140 141.5 144 146.8 148.7 149.4 149.4 148.5 147.4 146.2 147.2 148.8 150.7 152.7 154.1 156.4 160.1 163.2 163.2 162.7 161.7 160.9 159.7 156.3 148.9 140.7 142.1 145.8 153.8 159 162.1 161.3 160.8 162.3 165.1 167.4 167.3 156.8 160.9 166.2 169.3 170.1 170.7 165 164.7 167.3 158 166.6 174.9 177.1 180.4 183.4 183.3 184.8 185.7 186.6 187.5 189.6 191.4 191.8 191.7 181.8 185.5 193.3 191.5 197.3 200.6 203.9 206.3 206.9 206.2 206.6 218.9 225 228.2 231.8 235.6 238.8 241.3 240.5 241.4 244.3 245.5 245.8 246.5 247.7 250.5 249.8 249.9 249.9 250.7 252 252 251.7 255.9 262 265.5 266.1 269.2 272.1 272.7 273.3 274.5 275.5 279.2 282.2 278.4 273.1 269.7 269.2 276.1 278.7 281 283 283.4 282.1 282.4 283.5 284.5 284.9 284.4 285.3 282.3 277.8 281.5 290.6 303.4 314.2 324.4 330.7 336.1 340
145.2 145.5 145.7 145.7 146.3 147.1 148.3 150 151.7 153.3 155.4 156.8 157.4 157.2 155.9 154.6 153.5 153.1 153 153.2 153.3 153.4 153.2 152.5 151.3 147.4 148 155.6 159.8 162.9 164.4 165.5 165.2 164.3 162.4 160.7 158.7 156.6 150.4 154.1 159.2 161.7 163.3 164.1 164.6 164.8 165.8 166.3 165.9 165.2 164.3 160.9 165.6 167.5 165.9 164.3 163.1 163.1 163.1 163.7 164.3 164.1 161.8 157.4 153.3 149.5 145.9 142.3 140.8 141.7 144.8 147.7 149.9 151 150.7 149.5 148.4 147.5 148 150.3 152.1 154.2 157 160.9 163.7 165.3 166.4 165.8 161.7 157.1 151.6 145.3 146.1 148.9 152.5 157.6 159.8 161.7 162.8 162 161.4 163.4 167.6 170.6 165.6 157.4 163.3 167.6 168.7 170.4 172.4 167 165.3 169.7 167.5 158.6 173 176.7 182.1 184.3 184.6 185.5 186.1 186.9 187.8 190.8 193.2 194.8 195.5 195.6 197 198.1 199 198 198.6 203.2 207 207.8 207.5 207.8 215.9 224.1 227.2 230.9 235.8 241 244.2 244.4 244.7 246.5 248.5 249.7 251.4 251.9 254.6 253 252.7 253.5 254.9 256.4 258.5 257.4 254.7 256.3 259.7 260.4 263.4 266.5 268 268.7 270.4 271.7 274.1 273.5 271.1 270.2 273.7 279.6 281.1 282.4 284.8 286.3 285.5 285.4 286.1 287 287.8 288.4 290.3 291 290.5 288.1 289.2 283.6 286.2 300.5 315.4 325.6 331.8 336.5
147.5 148.3 148.5 149 149.5 150.4 151.9 153.6 155.1 156.6 158.5 160 159.6 158.7 157.3 156.1 156 155.7 155.8 155.9 156 155.4 154.9 153.6 151.4 150 149.7 155.8 159.7 162.6 164.7 165.9 166.1 164.9 163.7 162.4 161 158.6 152.1 156.2 162.1 164.6 165.6 166 166.9 167.7 168.1 168.5 167.9 167.1 166.1 162.7 164.9 167.4 166.4 165.3 164.1 163.7 163.7 165.1 165.7 165.5 161.6 157.4 153.3 149.8 145.9 142.9 144 145 146.8 148.2 151.3 152.7 152.6 151.5 150.2 149.4 149.7 151.8 153.6 156 161.7 168.4 168.2 166.9 158.6 153.9 148.5 149.6 149.7 151.1 153.7 157 161.8 163.1 162.7 162.2 163.7 166 165.2 165.6 167.8 169 163 159.8 168.1 171.6 171.6 172.2 173.5 168.4 165.7 169.1 169.7 160.8 163.7 176.7 182.3 184.5 185 186.1 186.6 187.2 189.2 191.9 194 195.5 196.7 197 199.3 201 201.9 202.8 199.9 198.3 207.1 207.4 207.1 208.1 214.2 222.8 226.3 230.6 235.3 240.9 245 246.4 247.6 248.9 251 253.5 255.3 257.6 259.4 257.3 257.5 258.6 260.5 262.9 262.8 260.7 260.3 261.1 263.9 265.4 265.6 263.6 263.6 265.6 265.5 267.3 268.8 270.2 270.4 274 280.4 282.8 284.6 286 288.1 288.6 287.8 288 288.9 290.5 291.3 292.5 295.6 296.2 295.5 295 296.2 293.9 287 289.1 301.8 310.6 322.7 331.6
150.5 151.6 152 152.5 152.9 153.5 154.9 157.2 158.5 159.4 160.4 161.5 161.3 160.2 159.1 158.4 158.3 158.3 158.4 158.5 158.3 157.9 156.9 154.6 151.9 154.3 153 154 159.5 164.2 166.7 167.6 167.2 166.4 165.9 164.6 163.5 161.3 153.5 160.4 165 167.2 167.5 168 168.7 169.4 169.4 169.3 168.8 168.2 167.5 164.9 163.8 167.5 166.9 166.6 166.3 165.2 166 166.5 166.6 166.3 162.3 156.9 152.4 149.7 146.9 147 148.1 148.7 149.6 151.2 152.2 153.3 153.5 153.1 152.1 151.7 151.6 153.8 156.5 162.2 170 172.7 167.6 154.2 160.1 161.6 161 159.7 158 159.7 161.8 166.6 166.9 165.9 164.3 163.7 169.9 170.3 167.3 165.1 167.1 166.5 161.1 164.4 168 171.4 172.8 174 176.7 171.9 166.8 169.4 171.6 171.1 160.5 167.2 181.3 185 186.2 187 187.4 187.7 190.3 192.8 194.7 196 197.3 199 200.5 202.5 204.6 204.4 203.2 203.7 199.8 201.5 203.8 208.4 213.2 221.8 225.5 229.7 234.4 240.1 243.7 245.3 248.5 251.1 253.5 255.8 258.2 260.4 263 262.7 263 263.7 266.3 268.4 266.8 265 264.7 265.5 267.8 269.3 269.2 269 269.3 270.3 270.3 269.2 268.4 270 274 278.3 282.1 284.8 287 289 289.8 289.7 290.1 291 292.1 293.6 294.8 298.1 300.6 301.5 301.6 300 300.2 300.7 293.8 289.7 288.1 291.7 306.5 317
154.5 155.8 155.7 156 156.4 156.4 158.1 160 161.5 162.6 163 163.8 163.8 163.1 162 161.5 161.1 160.7 160.8 160.8 160.6 160.1 158.5 154.9 156.2 157.9 155.7 155.1 162.4 166.7 168.5 169.7 168.8 168.3 167.9 167 165.8 162.6 156.5 163.8 166.7 168.6 169.5 169.5 170.4 170.8 170.6 170.4 169.6 169.1 168.5 166.4 164.7 167.9 168 167.7 167.7 167.5 167.2 167.2 167.5 165.4 159.4 155.1 151.3 149.8 150.1 151.1 151.7 152.2 152.1 153.5 153.8 153.8 154.7 154.3 154.3 154.1 153.9 156.2 163.5 171.6 173.9 171.5 163 152.6 163.9 165.2 164.6 163.4 161.6 163.6 167.1 168 168.4 167.8 165.5 165.3 168.9 167 165 164.3 164.1 162.7 165.4 169 170 171.7 174.4 177.2 179.3 175.1 168.3 172.3 173.1 173 166.6 161.4 180.6 185.1 185.8 186.8 187.7 187.9 190.7 193.4 195.1 196.8 198.2 200 202.7 204.5 204.9 204.7 204.6 205.2 205.5 207.4 209.4 210.7 213.2 217.6 224.4 229.1 234.4 238.7 241.7 244.5 248.1 252.6 255.3 257.8 260 262.6 265.4 267.1 267.4 269.6 271.4 273.2 272.4 270.1 269.2 269.7 271.4 271.9 272.2 272.7 272.8 275.6 277.3 271.5 270.7 271.8 275.9 280 282.9 285.6 288.2 290.2 290.7 292.1 293.4 294.9 295.8 296.6 299.2 303.2 305.4 306.5 305.4 304.4 304.1 304 300.2 301.8 302.2 300.4 295.4 298.2
157.8 158.8 159.1 159.3 159.4 159.4 160.5 161.6 163.3 164.2 165.2 166 166 166.5 165.6 165 164.3 163.6 163.2 163.1 162.3 162 161.1 155.5 161.1 163.4 162 154.7 163.6 168.9 169.8 170.1 170.1 169.9 169.8 168.8 168.1 163.8 159.3 167.3 168.6 169.7 170.5 171 171.7 171.7 171.6 171.3 170.6 169.3 167.9 165.4 166 169.1 169.4 169.2 168.7 168.4 168.1 167.8 167.7 164.2 158.5 154.3 150.6 150.5 153.4 155.2 156 155.8 155.8 156 155.7 156.1 156.1 155.9 155.9 156.2 156 158.7 168.4 172.4 171 166.9 157 160.8 166.8 167.1 167.2 164 164.8 165.9 167.4 169 168.5 167.1 167.4 167.5 167.9 166.9 165.8 165.4 164.8 165.7 169.3 173.3 175.1 174.4 177.7 179.5 179.6 176.2 170.9 176.4 175.3 175.4 173.5 162.3 178.8 184.4 185.6 186.3 187.5 188.3 190.8 193.2 195.5 197.2 199.2 201.5 204.3 204.9 204.7 204.4 204.4 205.8 206.9 208.8 211.7 215.6 216.9 220.8 222.4 227 234.1 238 241 245 248.6 252.7 256.1 258.8 261.9 264.4 267 269.2 270.7 274.6 276.6 278.1 277.4 275.6 273.8 273.4 274.6 275.7 275.5 275.8 276.7 281.1 277.5 271.4 272.5 275.5 277.5 282.5 284 286.1 288.4 290.6 292.9 294.6 296.5 298.2 299.8 300.2 304.2 307.2 309.4 309.9 309.8 309.6 307.6 307.1 306.2 305.3 306.9 306.3 305.8 302.3
160.6 161.3 161.8 162.3 162.3 162.4 162.6 163.1 164.8 165.7 166.8 168.2 169 169.6 169.4 168.3 167.3 166.6 165.7 164.5 163.8 164.8 161.7 159.1 166.7 168.8 168.4 157.3 165.7 168.9 170.1 170.7 171.9 172.2 171.6 171.1 170.4 164.2 160.2 168.9 170 170.9 171.6 172.1 172.5 172.7 172.5 172.3 171.5 169.8 167.5 164.9 168.7 169.8 170.2 170.1 169.6 169.3 168.8 168.5 167.3 162.9 157.8 153.5 150.3 151.1 155.7 160.2 160.7 158.1 159.3 158.9 158.4 157.9 158.3 158.5 158.4 158.4 159.1 162.2 170.6 171.9 168.8 164.1 155.2 165 167.6 168.8 167.6 165.5 166.8 166.9 167.9 169.3 168.2 168.7 169.7 169.6 169.7 168.6 167 167.1 167.4 168.7 170.5 174.2 176.3 175.4 177.5 178.2 178 177.6 174.7 178.1 177.7 176.8 175.2 162.9 176.8 182.7 185 185.3 186.9 188.2 190.6 193 195.4 198 200.7 203.1 204.4 204.9 204.5 204.2 204.9 207.2 209.3 212.7 217.3 220.8 219.6 222.7 227.9 230.5 230.6 236 239 244.9 248.8 252.5 255.8 259.8 263.4 266.1 268.6 271.1 273.7 280 280.9 281.9 282.3 280.1 277.3 277.5 278.6 279.2 278.9 279.5 282.1 280.8 276.5 273 275.4 278.4 280 284.1 285.6 287.3 290.3 292.2 294.2 296.9 298.8 300.8 302.2 303.9 306.3 310.3 312.2 313.2 313.8 314.1 311.5 310.2 309.6 308.6 310 310.6 309.9 308.6
163.2 163.9 164.3 164.5 164.5 164.6 164.6 164.8 166.1 168.1 169.6 171 171.9 173 173.2 171.3 170.4 169.4 168.2 166.6 166.6 166.4 158 165.1 171.1 171.8 170 166.9 168.4 170.6 172.2 173.1 173.2 173.7 173.3 172.6 171.9 168.1 161.5 170.1 171.4 171.8 172.4 172.9 173.2 172.7 172.3 172.4 172.1 171.2 168.2 168.2 169.9 170.4 170.6 170.8 170.5 169.9 169.7 169.2 166.1 161.7 157.6 153.6 152.9 155.2 158 164.7 165.8 162.8 163.5 162.3 161 160.8 162 162.4 162 162.4 164.9 168.7 172.2 172.8 170.7 164.3 156.9 170.1 171.4 170.4 169.7 169.1 168.5 169 169.2 169.7 169.1 170 171.1 171.1 171.3 169.7 169.5 171.6 171.2 172.3 173.8 174.4 177.5 177.6 177.7 178.5 176.2 176.9 174.6 177.6 180.2 179.7 177.8 166.1 173.3 180.2 182.8 184.3 186.1 188.1 190.4 192.9 195.4 198.8 200.7 202.5 204.4 204.6 204.4 204.4 207 211 215.3 220.2 223.1 223.7 222.8 223.5 229.2 233.2 235.1 231 236.8 241.9 246.5 250.8 254.7 260.5 264.8 267.9 270.2 273.4 277 282.3 284.5 285.2 286.4 282.9 280.6 281.1 281.5 281.9 282 283.5 284 279.6 274.9 276.2 280.1 282 283.4 282.6 286.2 289.1 292.3 294.2 297 299.1 300.8 302.8 304.4 307.2 308.6 311.2 314 315.7 317.2 317.8 315.3 313.3 311.3 311.5 312.6 313.5 313.3 312.5
166.3 166.4 166.6 166.8 166.9 166.9 167 167.4 168.7 171.4 173 174.2 175.4 176 175.4 174.1 173 172.3 171.5 170.3 169.3 162.1 162.9 170 172.8 171.4 169.9 169.6 170.4 171.8 173.5 173.7 173.5 173.2 172.8 172.8 172.4 169.4 164 171.8 172.9 173.2 173.3 173.7 173.3 172.6 172.2 172.1 171.6 169.6 168.3 170.4 170.6 171 171.6 172.1 172 172.5 171.8 169.5 165.9 160.9 157.2 154.4 156.4 158.7 162 167.6 169.7 167 166.7 164.9 163.8 163.9 165 165.9 165.5 169.4 174.4 175.5 174.3 172.5 170.1 161.9 162.3 171.2 172.4 171.4 171.5 171.3 171.3 171.9 171.1 171 171.1 171.9 171.7 172.2 172.8 170.6 173 174.7 175.2 176.2 177.9 179.4 180 178.9 177.5 177.9 178.2 177.1 175.8 178.3 180.3 180.7 179.9 172.3 169.8 179.7 183.7 184.5 186.3 188.1 190.9 193.5 196.2 199.5 201.9 203 204.6 205.8 205.7 206.1 212.6 218.8 222.8 224.9 226.5 227 225.8 223.3 229.8 234.1 236.5 236.6 234 237.9 243.2 246.1 253 260.3 265.2 268.3 271.3 274.6 278 283 285.6 289.8 287.9 285.6 284.4 283.9 284.1 285 285.4 285.6 284.2 277 274.9 281.7 284.1 284.5 284.9 284.3 287 289.5 293.6 296.5 298.8 301 302.7 304.3 306.4 309.6 312 313 316 318.3 319.9 320.9 319.4 317.7 316.8 314.8 315.8 318 317 315.8
170.8 169.6 169.6 169.8 170.1 170.3 170 170.4 171.6 174.8 176.6 177.5 178.5 177.9 177 175.6 174.4 173.7 173 172.3 169.6 161.6 168.6 171.7 172.6 172.1 171 170.9 171.3 172.5 173.3 173.3 173.5 172.6 172.9 172.9 172.9 170.2 166.9 173.3 174.3 174.8 174.9 175.2 174.9 173.5 172 171.3 169.4 169.4 170.5 172 173 173.5 173.4 174 173.6 173.2 172.8 169.6 164.6 160.5 157.6 157.7 159.2 163.1 167 172.3 172.5 169.9 169.3 167.7 167.2 167.2 168.8 169.4 170.1 174.8 177.5 176.3 173.7 173.1 171.2 160.7 168.6 171.4 172.9 173.3 173.6 173.8 174.3 174.6 174.4 174.3 173.8 174.9 175.6 175 174.1 173.4 175.9 177.1 177.7 180.9 182.5 183.1 182.2 181.6 180.1 178.6 178.8 178.1 175 178.6 180 180.7 179.4 175.8 166.7 170.3 182.5 184.7 186.4 188.6 191.1 193.9 197.1 200.1 202.9 204.2 205.3 207 206.8 209.7 217.4 224.1 226.2 228 229.5 230.1 230.2 229 231.3 235.8 238.1 238.5 239 238.1 238.2 244.3 250.9 257.6 263 267.4 271.6 275.1 277.9 281.8 284.5 287.8 289.2 288.1 287.8 286.4 286.7 288 288.6 287.6 285.1 274.9 282.2 285.4 286.3 286.7 287 285.4 288.9 290.5 293.4 296.8 300.1 302.9 304.4 306.1 308.4 311 313.6 316.6 318.1 320.6 322.5 323.8 323.3 322.7 321.5 319.5 319.8 321.1 320.5 318.7
175.1 174.2 173.7 173.3 173.7 173.8 173.8 174.1 174.2 177.5 180.2 181.2 180.8 178.9 177.7 175.9 174.7 173.8 173.1 172.7 169.4 164.5 171.4 172.3 173 172.7 172.3 172.3 172.3 172 172.7 173.4 172.5 171.6 171.6 171.7 172.2 169.2 166.4 169 173.2 176.3 176.9 176.5 175.7 173.2 171.8 170.2 171.1 173.6 174.7 175.3 175.8 176.6 178.4 176.9 176.6 175 172.6 170.1 163.9 160.3 159.2 159.4 161.9 166.7 171.6 175.9 175.3 172.7 171.6 170.7 169.9 170.8 172.6 174.9 179.8 177 175.8 174.7 174.8 174.7 170.3 161.7 170.2 172.9 174.3 175.1 175.4 175.8 178.3 177.6 178.8 178.3 177 176.3 176.2 175.3 175 177.1 179.2 179.8 183.4 184.2 183.3 183.5 182.8 183.6 183.4 180.1 179 178.1 176.8 179.2 180.4 181 179.7 178.2 175.3 169.6 171.9 183.1 186.4 189.2 191.5 194 196.6 200.7 203.7 205.3 206.5 206.4 206 213.3 220.9 227.5 229.4 230.9 232.2 232.8 233.2 233.6 231.3 238.4 239.9 241 242.1 243.8 245.5 244.7 246.6 255.2 259.1 264.9 269.1 272.8 275.9 280.2 282.5 285.9 289.6 289.3 289 289.3 290.1 290.5 290 288.2 284.8 274.9 286.9 289 288.6 288.5 289.3 289.7 289.9 292.1 294.7 297.6 300.7 304.1 306.6 308.6 311.4 313.6 315.9 318.9 320.4 322.8 325.8 327.4 327.2 328.9 327.7 324.9 324.5 325.1 324.6 321.9
178.6 177.8 177.9 177.4 177.3 177.3 178.6 177.9 176.4 179.7 183.6 184.7 183.3 179.7 177.3 175.9 175 174 173.2 172.1 168.5 165.9 172.6 174.2 174.4 173.6 172.9 173.2 172.7 172.7 172.5 174 174.4 174.7 174.3 174.3 173.6 173 171.4 169.9 168.3 174 177.1 175.9 173 171.4 171.5 173 177.4 176.9 177.2 178.3 179.1 179.7 179.9 180.1 178.2 175.7 172.8 169.5 163.9 161.4 161.4 162.4 165.6 169.9 176.2 178.6 177.3 175.4 174.2 173.7 173 173.9 175.9 177.8 178.3 176.7 174.5 173.6 174.8 174.6 170.6 163.3 171.8 175.3 175.8 176.2 176.3 176.7 179.2 182.1 181.1 180.7 178.5 177.5 176.1 174.3 177.4 180.1 180.4 181.4 183.8 183.7 184 184.7 183.6 183.9 183.6 181.1 179.3 178 177.7 179.4 180.7 181.8 181 179.6 180 178.6 166 178.1 185.7 189.3 191.8 194.6 198 201.6 204 205.8 205.4 205.5 209.5 217.2 224.5 229.6 232.5 234.3 235.4 235.9 236.8 237.1 237.9 239.6 242 242.8 244.4 246.7 248.7 250.4 252.3 250.2 254.3 260.7 263.7 270.1 274.2 277.8 280.4 284 288.3 289.3 291.3 291.9 292.7 292.9 292.2 290.3 278.2 282.4 288.4 290.6 290.3 290.3 291.7 292.7 292.5 293.6 296 298.2 301.2 305.2 307.9 311.2 314 316.8 319.1 321.2 323.7 326.4 329.4 331.6 332.9 335.2 333.7 331.7 329.9 330.2 329.6 327.4
181.4 181.8 182 181.1 181.3 182.5 183.4 182.9 181.3 178.2 182.2 184.3 182.8 180.2 178 176.1 175.3 173.5 171.7 170.9 166.8 168.5 170.3 174.7 175.9 173.3 173.5 174.8 174.5 175.7 177.6 178.2 180.5 180.9 180.7 181 178.8 178.8 177.7 175.4 170.1 170.1 171.5 174.3 171.7 173.1 175.2 178.3 180.2 180.3 180.5 180.8 181.2 181.4 181.6 180.7 178.8 176.8 173.9 170.5 167.2 165.1 166 166.9 169.6 173.1 177.3 182.7 180.3 178.4 177.2 176.9 176.1 176.6 177.2 177.3 177.6 176.8 175.4 174.7 174.9 173.5 170.6 164.8 173.2 176.1 176.8 176.7 176.7 177.1 179.1 185.4 182.2 179.6 178.1 177.3 176.2 177.9 180.3 181.3 183.1 183.8 184.9 183.2 184 184.4 183.5 183.6 182.5 180.4 179.6 178.1 178.7 180.7 181.9 182.2 181.8 181.9 182.4 180.5 174.2 170.6 182.9 188.6 192.4 195.4 198.5 201.8 204.1 205.5 205.6 207 211.8 219 225.6 230.8 235.5 237.5 238.7 239.8 240.4 241 241.9 238.3 243 244.6 247.2 249.2 251.3 254.6 256.7 257.4 257.5 255.4 256.4 264.1 270.4 273.3 278.3 281.4 286.9 289.7 291.6 292.7 293.8 293.6 293.2 290.1 278.2 280.6 288.2 291 291.7 292.2 293.6 294.6 295.1 295.3 297.3 299.4 302.5 306 308.9 312.1 315.5 318.6 321.1 323.8 327.1 329.9 333.2 335.7 337.7 339.2 339 336.7 336.9 337 335.3 331.8
187.7 187.8 186.8 185.3 185.5 186.2 186.4 186.8 186.4 183.2 178.6 180.6 180.9 179.6 177.4 176.2 174.6 172.7 171.2 171.6 170.1 173.1 169.5 171.9 175.9 176 175.9 177.3 178.5 179.6 181.6 181.7 182.2 182.2 182.4 182.8 181.5 182.2 183.1 183.8 179.4 171.7 178.5 179.1 180.7 181.1 180.5 180.7 182 182.6 183.1 182.7 182.6 182.5 182.6 181.8 180.1 177.9 175.5 172.5 170.4 169.6 169.9 171.1 174.2 177.2 180 180.1 178.7 178 176.8 177.1 177.4 177.6 177.6 177.8 178.1 178.1 176.8 175.3 174.5 171.7 167.1 169 175.9 177.6 178 178.6 178 177.3 178.1 178.4 177.7 177.1 177.6 177.6 178.2 180.7 182.8 184.5 186.1 186.2 185.7 185 184 183.3 183 182.1 182.2 181.1 180.1 178.6 180.1 181.2 181.9 182.8 182.4 182.9 184.7 183.9 181.5 167.4 182.5 189.4 193.3 196.1 199.1 201.7 204 205.4 206.8 210 214.3 220.9 227.1 233.2 238 240.8 242.2 243.5 244.2 245.4 245.5 244.5 240.6 245 249.6 251.2 253.8 258.1 261.7 262.3 262.4 260.7 261 261.3 263.4 269 275.2 279.6 283.6 287.3 290.2 290.7 292.5 292.9 291.7 287.3 278.2 286.8 287.8 290.6 292.1 294 295.5 296.8 297.5 298 298.4 299.9 302.8 306.2 309.7 311.9 314.8 318.2 322.2 326.7 330.3 333.6 337 339.9 341.8 343.6 344.1 343.3 344.2 343 338.7 333.8
191.9 193.1 192 191.1 191.5 191.8 189.9 189.8 189.1 186.5 182.4 177.5 177.3 176.6 176.1 175.6 174.5 174.8 175.3 175.1 175.3 176 173.4 172.2 176.2 179.5 180 181 182.1 183.4 183.1 182.7 181.4 183.1 183.2 183.9 183.9 184.7 184.6 184.3 179.3 174 184.3 187.6 185.5 185.4 184.8 183.6 183.7 184 184.3 184.2 184.3 184.1 183.9 182.9 181.6 179.4 177.5 174.5 173.1 172.1 172.6 174.2 176.1 178.6 181 180.6 179.8 178.9 177.8 177.7 177.7 177.6 178.3 178.6 179.4 179.5 178.1 175.9 173.4 168.6 169.2 174.3 180.9 182.4 181.6 181.5 180.7 179.4 178.8 179.2 177.4 177.1 178.1 180.2 181.3 181.5 184.5 186.5 185.3 184.6 183.6 182.8 182.5 182.3 181.8 181.5 181.5 181 180.2 179.8 181.5 182.4 183.3 184.1 185.4 186.8 187.9 185.9 184 169.4 183 189.2 193.6 196.8 199.5 202.1 203.9 205.3 208 211.7 217.5 223.7 230 235.6 239.9 243.2 245.1 247.1 248.5 249.8 249.6 249.5 246.8 245.4 250.8 252.9 256.6 261.3 265.3 266.1 266.7 264.7 263.5 265.8 265.7 264.8 270.3 274.6 280 285.5 286.5 286.9 288.7 289.7 288.2 284.5 278.2 289 291.6 294.4 294.6 295.3 297.3 299.1 300 300.4 301.9 302.1 303.8 307.1 310.2 312.4 315.2 317.9 322.5 327.6 332.9 338 341.7 345.4 347.7 349.5 349.7 350.8 351.1 348.3 341.9 334.6
194.5 197 196.5 195.3 194.4 195.7 192.8 192.7 191.2 187.7 183.7 181.2 178 177.3 176.7 177 179 180.9 183 179.6 178.5 178.8 176.7 175.6 180.9 182.5 182.9 182.8 182.9 183.4 183.1 182.2 182.9 183.7 183.6 184.7 184.6 184.1 183.4 183.8 179.9 176.7 181.1 184.2 184.6 184.8 185.4 185.9 186.2 187.3 186.5 185.9 185.9 185.5 185.3 184.7 183 181.3 179.4 174.7 173.7 174.1 174.7 176.3 178.3 180.3 182 182.5 181.5 180.3 179.3 178.5 178.1 178.3 179.3 180.8 182.4 183.3 179.2 174.9 171.9 169.5 172.9 179.9 182.6 182.1 182.2 182 183.3 184.7 186.6 186.1 184.8 184.7 184.9 183.6 182.8 182.7 182.9 183.9 183 182.9 183.3 183.7 183.7 184.2 185 185.2 184.4 183.4 182.5 181.6 184.4 185.6 186.1 186.6 187.2 188.5 188.8 187 185.5 168.8 184.3 190.1 194.6 198.3 201.2 202.6 203.9 205.6 209.1 213.8 219.8 226.3 232.3 238.2 242.3 245.8 248.4 250.3 252 253.8 254.6 253.6 250.4 245.5 249 254.1 258.9 264.3 268 269.4 270.5 269.5 267.3 270.2 271.6 272 270 269.3 273.4 277.8 280.2 282.4 286 284.8 282.6 278.2 283 292.7 295.4 296.9 296.5 297.1 298.5 301.2 302.5 303.4 304.8 307.1 307.4 308.1 310.6 314.6 317.5 322.1 327.5 333.8 339.8 344.3 348.8 351.9 356.4 358.6 359 357.8 355.8 352.1 345.7 337.8
193.9 196.9 198.3 198 196.2 195 193.8 192.9 193 189 185.9 182.9 183.3 179.3 181.1 184.3 189.7 191.3 188.7 183.6 181.3 182.4 177.2 179 180.6 183.7 185 183.6 183.3 182.9 182.9 183.7 184 184.3 184.4 185 184.4 183.9 183.4 184 183.9 182.1 177.1 184 184.1 184.2 183.7 184.1 185.7 187.6 188 187.4 187 186.8 186.8 186.6 185.2 183.4 181.7 177.4 174.5 175.1 174.8 176.7 178.7 182 184.1 184.1 183.5 182.5 182 180.6 179.4 180.4 181.5 182.4 184.8 184.9 178.8 173.4 169.3 172.1 175.7 181.3 182.4 182.9 183.5 184.5 188.4 188 187.6 187 186.3 185.3 184.7 184.3 185.3 184.9 184.6 184.5 185.6 187 187.8 188.5 189.1 188.7 188 188.5 187.1 185.3 183.7 184.3 185.6 185.4 186.2 187 187.7 188.3 187.8 186.8 184 175.6 185.8 193.5 196.2 199.9 202.4 204.2 205.6 207.1 210.4 215.8 222.5 228.9 234.9 240.7 245.1 248.5 251.3 253.3 256 258 258.5 256.7 254 248.8 248 255.7 261.5 267.2 270.9 273.5 274.2 271.7 271.5 275.1 275.4 275.5 274.9 274.6 273.9 278.9 278.2 278.2 278.2 278.2 280.1 282.1 290.7 296.4 298.2 298.8 299.5 299.2 300.4 302.8 305.1 306.5 308.3 310.9 311 312.3 314.4 317.8 323.7 329.9 336.4 344.3 349.7 353.1 357.9 361.9 364.7 364.8 364.4 362.1 359.2 354.7 348.5 339.9
195 197.5 200.1 199.5 197.9 195.5 194.3 192.7 191.1 188.9 186.3 185.7 184.7 182.2 186.3 189.3 191.9 191.7 189.2 185.4 184.6 183.4 179.1 181.7 183.4 183.4 184.4 183.5 182.9 183.2 183.9 185.6 186.1 185.4 185 184.9 184.6 185.9 188.6 190.5 191 185.7 178.5 181 180.5 180.1 179.6 180.2 180.9 182.2 183.3 186.1 187.5 187.3 187.2 186.9 186.5 185.7 184.1 179.9 175.8 174.7 174.4 175.7 178.9 183.9 185.1 185.9 186.4 185.6 185.3 184.7 183.3 184 183.6 184.3 185.4 183.1 175.8 171.3 174.2 177.1 176.4 182.5 184.7 185 186.4 187.6 188.1 188 187.3 186.5 185.7 185.3 186.2 187.6 188.4 188.8 189 189 188.9 190 190.2 190.9 190.6 189.6 189.1 188 186 184.3 184 183.9 185.6 185 185.7 186.7 187.2 187.3 187 185.9 181 176.5 188.6 195.7 198.6 201.1 203.6 205.6 206.3 208.6 213 219.2 226 231.1 237 242.6 247.5 251.4 254.7 257.4 259.9 262.1 262 261.2 259.7 257.5 251.7 257 263.9 269.3 274.3 276.5 277.2 273.1 272.9 275.6 275.8 276.1 276.4 277 277.5 279.1 278.2 281.6 283.1 283.5 285.6 292.5 296.9 299.3 299.9 300.7 302.7 302.6 302.7 304.4 307.1 309.3 311.6 314.8 315.1 316.6 319 323.4 331.1 340.5 348.7 355 358.9 362.8 364.9 368.7 370.2 370.3 368.2 365.6 361.4 353.9 344.6 336.6
197.9 200.1 201.2 200.6 198.4 196.6 194.3 192.4 190.6 188.4 186.2 184.5 183.7 185.3 187.8 190.5 191.3 188.7 187.2 186.3 185.4 182.8 181.7 184.4 184.6 184 183.9 183.5 183.4 183.7 183.9 186.1 186 185.3 185.9 187 190.1 190.5 192.2 191.9 186.9 182.6 178.7 179.3 181.5 181.6 181 181.3 181.2 180.7 180.8 182.4 186 187.4 187.2 186.5 186.5 186.7 184.8 180.8 176.3 175.6 175.2 175.9 179.6 184.8 187.2 189.3 190.2 190 189.3 188.7 187.7 187.3 187.3 185.9 182.4 177.3 172 175.4 178.2 179.6 180 181.3 185.9 186.2 187 187.5 187.8 186.8 186.4 185.6 185.5 185.9 187.9 189.2 190.6 190.9 191.2 191.7 193.2 194.1 194.2 192.5 192.3 191.1 189.3 187 185.6 184.3 183.9 183.5 184.7 184.9 185.9 186.7 187.3 187.3 187.2 186.6 180.6 174.7 190.3 198.1 200.4 203 205.1 206.5 207 210.1 215.9 223.5 228.8 233.9 239 244.5 249.4 254 257.8 260.5 262.7 264.5 265.3 264.9 265.6 266 254.9 256.7 266.3 272.2 276.8 279.3 278.7 275.8 273.3 275.5 276.5 276.9 277.8 278.3 279.5 282.4 285.5 292.5 289.3 289.4 291.8 296 300.5 301.5 301.7 304.2 306 307.2 307.2 306.5 309.3 312.1 315.7 318.7 319.3 322.4 327.4 333.7 344.6 352.5 359.6 364.4 368.3 369.7 371.7 373.2 374.6 373.6 371 366.4 361.5 350.4 342.4 334.5
201.6 201.2 201.6 200.4 198.5 197.9 195.6 192.8 190.2 187.9 186.3 186.1 185.1 183.7 185.9 188.5 188.4 186.9 186.5 186.1 185.3 182 183.3 184.7 185 185.1 184.4 184.1 183.7 183.7 183.2 184.9 184.4 184.5 185.1 189 191.1 190.5 188.7 185.7 183 180.8 181.7 186.4 186.2 183.9 183.4 182.4 181.6 181 180.4 180.5 182 185 185.8 186.4 187 186.9 185.1 181.6 178.3 177 176.9 178.1 182.3 187.3 189 190.9 192.3 194.7 195.2 195.3 195.1 195.5 192 186.2 178.7 174.3 176.2 178.9 181.8 184.3 185.7 181.5 183.3 186.9 187.3 187.3 186.7 186.2 185.7 185.5 188 189.2 189.7 191 191.6 192 193.3 196.3 198.9 199.2 197.1 194.9 193.3 191.7 187.9 184.1 184.1 185.7 185.2 184.2 185.5 186.4 187.3 186.3 187.3 188.4 188.6 188 186 173.4 188.1 199.5 202.6 204.9 206.3 207.1 207.6 212 219.5 227.8 232.2 236.4 241.1 246.7 251.5 256.1 260.3 262.8 264.8 266.2 266.9 267.7 267.9 267.7 265.2 254.8 266.8 274.5 279 278.9 276.8 276.2 274.9 276.7 278.3 278.8 279 283 288.7 290.2 288.6 290.2 291.8 293.3 295.7 300.3 302.7 303.1 304.9 307 309.3 311.8 311.9 311 311.4 314.5 318.3 322.8 325.7 332.3 336.2 345.2 355.4 362.6 369 372.4 375.2 375.8 377.4 377.6 377.6 375.4 373.1 368.6 362 355.8 347.5 330.8
202.2 201.3 201.4 200.1 198.5 197.4 194.5 191.5 189.4 188.1 188.3 188.8 187.3 185.6 185.9 188.3 187.7 187.4 187 186.2 185.6 181.7 184.7 184.7 185.2 185.5 184.8 184.7 184.7 184.1 183.7 183.5 183.5 183.8 184.1 184.5 184.5 184.4 183.9 182.5 182.2 187.7 191.9 190.4 187.1 185.4 183.9 183 182.1 181.4 180.9 180.3 180.4 183.5 187.6 188.8 188.5 186.8 185 182.3 180.2 179 179.2 180.7 184.7 187.4 190.7 192.9 192.9 194.8 195.8 197.4 195.8 192.8 187 181 175.7 176.6 178.9 179.6 182.9 186 186.6 186.2 183.3 185.1 187.6 187.8 187.3 187.6 188.6 189.9 190.2 190.3 191.2 192.5 193.5 195.5 199.1 201.1 202.4 201.1 198.5 195.5 193.4 191.6 187.3 184.1 184.1 184.1 184.8 185.6 184.8 185.1 185.9 186.3 187.1 188.1 188.4 188 188.9 186.4 173.6 199.7 203.8 206 206.8 207.6 209.1 214.6 223.1 231 236 239.4 243.7 248.9 253.8 258.1 262.2 265 266.5 267.2 268.2 268.8 268.6 268.5 267.4 261.4 261.4 274.8 276.7 277.8 282.1 281.4 279.2 277.5 279.5 280 285.5 290.8 292.3 293.6 293.8 293.5 294.8 297.6 299.3 301.5 303.9 305 307.5 310.4 313.2 315 315.1 315.2 314.1 316.8 321.6 328.5 334.5 339 344.9 356.9 365.4 373.8 379 381.4 382.5 382.4 381.8 381.5 380.4 378.1 373.9 370.1 366.3 358.2 348.2 333.3
202.7 201.8 199.8 198.4 195.5 192.5 189.4 188.8 188.5 187.7 188.3 189.7 189.7 187 187.5 187.9 187.5 187.7 187.2 186.3 184.7 182.3 186.6 187.1 186.2 186.2 186.3 186.6 187.2 186.9 186.8 187.2 187.9 188.5 188.4 186 184.6 183.9 183.9 188.3 193.2 195.1 193.4 192.6 188.3 185.8 184 182.8 182 181.3 181 180.7 180.2 183.8 189.6 190.9 190.3 188.2 186.2 184.2 182.7 181.3 182 184.1 185.8 189 191.9 193.6 193 191.7 193.3 193.5 188.2 184.2 178.2 176.4 176.2 180 184.1 184.8 183.1 186.5 187.4 188.1 188.4 186.7 186.2 188 188.9 190.4 190.9 191.7 190.8 192.3 193.3 196 199.7 203.7 205.4 204.9 204 201.5 200 197.4 193.5 191.1 188 185.5 185.8 184.1 184.9 185.4 184.2 184.1 184.1 185.5 185.9 186.6 187 187.6 190.2 193.5 182.1 192.6 204.1 206.6 207.9 208.5 210.7 217.1 225.8 233.1 239.1 242.8 247.1 251.7 255.9 259.9 263.8 266.1 267.5 268.2 269.3 270.3 272.5 273.7 273.2 270.1 259.1 272.6 278.4 284.5 286.1 286.5 282.5 279.4 280.3 285.7 290.7 293.2 294.3 295.1 295.6 296 295.1 298.3 301.6 303.1 305.8 307.6 309.2 312.5 315.7 317.3 319.3 320.2 324 328.1 333.6 338.7 349 355.9 365.8 373 378.7 382.7 387.3 388.6 388.9 388 386.7 385.6 383.2 379.8 376.7 373.5 367.6 358.1 346.8 337.9
201.5 200.6 196.5 192.4 190.6 189.7 189 188.8 188.6 188.1 187 187.7 188 186.7 188.7 189.4 189 188.3 187.5 186 184.4 184.5 190.2 190.6 189 188 188.9 190.1 191.3 191.4 191.7 192.6 193.7 194.6 194.5 191.6 194.3 188.9 187.1 191.3 196.3 194.4 193.6 193.3 189.3 186 183.8 182.7 181.9 181.2 180.9 180.7 180.5 185.5 191.8 193.1 192.1 190.5 188.8 187.9 186.5 185.2 189.4 191.9 193.2 193.3 193.7 195.1 194.4 191.2 190.9 186 180.3 178.7 176.8 178.3 180.2 184 189 186.5 185.9 188.7 189.6 190.2 190.1 190.9 189.9 190 191.3 192.4 192.8 194.6 194.7 196 199.7 204.4 207.6 208.3 207.5 207.2 203.6 201.5 199 197.9 193.4 191.4 189.3 187.2 185.9 185 185.6 187.1 184.9 184.1 184.1 184.1 184.1 185.4 186.6 187.5 191.6 196.5 185.3 190.3 204.4 206.6 207.5 209.2 211.8 219.1 227.3 235.1 242.3 246.2 250.1 254.6 258.6 262.3 265.2 266.8 268.3 269.3 273.9 275.7 278.8 279.8 279.5 273.7 264.9 271.5 283.5 288.1 289.3 289 285.9 281 284.1 289.6 293 295.2 296.6 297.2 297.4 297.7 298 299.5 301.8 304.4 307.5 309.4 310.2 312.7 317.1 321 325.4 330.2 338.5 344.6 349.2 355 364.4 373.7 380.3 384.7 388.5 391.8 392.5 393.7 393.9 392.4 390.2 388.3 385.6 382.5 379.5 375.2 369.7 360.7 347 339.9
201 199 192.6 190.4 190.3 189.9 189.4 189.1 188.6 188.1 187.3 187.4 187.7 189.9 191.3 191.2 190.2 189.4 188.4 186.4 184.9 186.9 192.1 192.6 192 190.9 191.3 195.5 196.5 196.9 197.1 196.3 196.3 196 196.4 195.7 198.9 191.7 188.5 191.2 196.1 194.4 193.3 193.6 191.1 186.5 183.5 182.3 181.6 181.1 181.2 181.3 182.9 190.4 195 195 195 193.9 192.4 191.2 191.3 191.7 196.6 199.5 199.3 197.4 196.6 196.8 192.8 186.2 182.2 180.1 179.6 179.8 182.8 185.6 189.2 191.1 189.1 187.2 191 191 190.9 191.6 192.3 192.9 194.1 192.1 194.6 198.2 199.8 201.2 202 203 205.8 208.8 209.5 208.7 208.6 205.9 202.1 199.2 197.3 195.7 195.2 192.4 191.2 190.5 188.9 186.8 187.8 189.5 188 185.5 184.8 184.1 184.4 184.9 186.8 188.8 193.6 197.4 193.6 179.4 191.3 202 206.8 210.1 213.9 221.2 229.2 237.6 245.3 249 252.6 257.2 261.2 264.1 266.7 268.4 268.6 272.9 276.7 280 280.5 279.6 279.7 278.8 271 268.3 286.1 290.7 291.4 291.1 288.4 282.9 286.2 291.9 296.5 298.5 298.7 299.4 299.5 299.6 298.9 301.2 303.3 305.7 308.6 311 312.3 317.4 322.6 328.3 336.7 344.3 353.7 359 364.2 372.4 380.5 387.6 391 394.7 397.5 398.4 399 398.3 398 396.5 394.3 390.9 388.3 385 381.6 376.7 369.7 357.7 348.8 348.4
200.4 196.5 191.4 190.5 190.2 190.3 190.3 188.9 187.6 187.5 187.6 189 191.8 194.2 194.8 195.6 193.4 190.3 188.1 185.8 185.9 190.8 193.8 194.2 193.6 192.4 194.5 201.1 202.3 200.9 198.7 198.1 197.5 196.8 196.7 199.1 197.7 193.9 189.9 189.6 194.3 196.4 195.3 194.5 193.3 188 183.3 181.8 180.9 180.5 180.3 182.7 187 195.8 196.7 196.8 196.7 196.1 194.5 195.2 197 201.7 202.4 202.1 198.2 195.6 191.8 187 183.7 181.7 181.7 181.3 185.7 188.8 194.2 199.3 199.5 193.5 190.4 192.9 196.8 198.1 200.2 200.5 203.2 200.8 200.4 197.9 195.4 207 210.3 209.6 206.4 205.8 208.3 209.3 207.9 206.3 204.7 203.3 200.5 197.8 196.1 197.7 197.9 194.1 191.5 191 190.7 190.5 190.3 190.4 190.4 189.3 187.6 185.9 185.5 187.8 189.3 191.7 196.6 199.9 200.8 186.1 182.7 191.8 201.4 210.7 216.8 223.5 232.2 241.1 248 252.5 255.6 259.6 263.4 266.1 267.3 268.5 269.8 275.9 278.2 281.5 279.3 281.1 283.9 282.7 280.2 268.1 290.8 295.1 293.8 293.5 291.8 287.3 285.5 294.1 300.1 302.2 302.5 301.8 301.4 301.4 301.6 302.6 305.4 307.8 310.5 312.8 314.9 322 330.3 339.6 349.3 358.3 367.2 372.8 378.6 387.5 393.5 397.7 400.3 402.7 404.3 404.1 403.4 402.3 401 399.5 396.9 393.5 390.6 387.2 383.6 379.1 370.4 362.4 364.5 360.9
197.1 193.4 190.6 190.7 190.5 190.6 190.5 189 187.6 188.2 190.4 195.2 199.5 200 201.4 199.9 196.5 190.3 186.4 186.4 189.4 193.4 194.4 194.8 194.3 193.6 194.3 199.7 203.4 203.5 201.1 200.5 200.2 200.3 198.3 198.8 197.4 194 192.6 190.3 191.2 198.1 198.3 198.2 195.7 191 186.4 182.4 181.3 180.5 181.5 187.6 193.2 196.8 196.9 196.3 196.5 195.1 194.9 197.1 199.4 200.8 200.6 197.7 190.8 186.9 183.7 182.9 182.3 184.4 188.4 191.6 199.1 206.9 209.3 210.1 204.4 194.5 196.9 203 207.2 208.2 207.7 206.7 207.5 206.2 205.2 201.8 197.1 204.7 211.3 209 206.8 208 209.7 206.5 204.5 202.6 200.8 199.9 199.1 197.2 195.9 196.9 198.7 194.9 191.8 191.6 191.1 191.1 190.9 191.3 191.7 190.4 189.8 187.6 188.5 190.5 191.5 192.9 196.5 200.5 201.9 193.6 179.6 195.3 205.4 212.4 219 226.1 235 243.7 251.2 255.6 258.2 261.9 264.6 267 268.6 269 271.3 276.7 281.1 280.1 281.3 283.9 285 286 284.8 268.4 290.7 298.6 299.1 297.3 294.3 292.1 285.4 296.7 303.3 305.2 305.3 305 304.2 303.6 304.2 304.6 306.3 310 312.8 315.6 318.2 324.9 335.9 348.2 361.3 371.8 380 386.1 393.3 399.5 404.3 406.9 407.8 409.5 409.7 409.4 407.6 405.1 403.6 401.7 399.4 396 392.5 388.6 385.7 380.7 374.1 375.5 377 376
196.1 192.2 190.5 190.5 191.3 191 190.7 188.9 187.7 191.8 197.8 202.2 204.4 204.1 199.7 195.6 191.5 186.9 186.7 190 192.9 194.7 195.6 195.8 195.2 194.7 193 195.8 199 201.4 203.1 204.4 205 205.8 201 198.4 197.4 194.7 193.3 190.4 190.7 197 200.9 202.1 199.7 194.4 186.3 182.2 181.6 181.8 186.4 191.2 194.9 194.6 194.5 193.7 193 191.7 191 189.7 189.9 188.6 187.8 185.9 185.5 184.1 183.9 183.8 185.7 192.9 200.4 202.3 207.2 212.9 213.7 208.6 202.8 195.7 202.8 206.5 208.2 209.1 209.2 208.5 208.5 208.7 207.7 204.9 200.9 200.3 208.3 206.7 206 205.8 204.7 203.1 202.4 202.2 202.1 200.5 201 197.3 196.7 199.5 200.3 196.3 194.4 192.2 191.2 191.1 191.5 191.7 191 189.8 188.7 189 190.4 192.3 195.8 198.4 198.6 200.2 201.6 195.9 181 192 209.3 214.3 219.1 228.8 238.2 246.5 253.8 258.4 260.5 263 265.7 267.9 269.3 269.8 275.5 281.9 281 282.7 283.3 285.2 287.3 287 284.5 268.9 290 298.3 299.6 297.7 294 290.6 286.6 298.3 305.8 307 307.8 307.5 307.2 306.8 306.8 307.9 309.9 311.7 314.7 318 323 332.1 343.2 358.6 372.1 383.6 391.7 397.9 406.3 411.6 413.5 413.5 414.5 415.5 415.2 412.8 410.4 408.2 406 403.9 401.2 397.4 393.7 390.9 387.8 382.7 384.2 384 384.3 384.6
195.5 191.7 191.5 192.4 193.3 192.4 191.6 189 188.6 195.6 202.1 205.6 206.2 199.9 193.6 190.7 189.2 188.2 191.4 194 195.9 197.3 197.9 198.1 198 197.2 196.1 194.7 195.1 196.7 197.7 199.4 200.2 200.6 199.9 197.4 195.3 194.2 192.5 190.3 191.9 198.1 201.5 202.9 202.9 198 188.3 181.9 181.1 181.9 186.9 189.5 191.2 191.8 190.9 189.2 188.8 187.8 188 188.6 188 187.6 187 186.3 186.3 185.6 185.7 188.1 194.7 200.5 205.2 205.4 208.4 211.6 212.9 207.3 199.4 198.9 204.6 207.1 209 209.9 209.9 209.7 209.3 209.2 208.8 207.6 204.7 200.3 202.3 204.1 204.3 204.1 202.6 202.4 204.2 205.3 204.4 201.7 200.1 199.8 201.7 203.4 203.2 201.8 202.4 198.1 194.8 191.7 190.3 189.9 188.9 189.7 189.8 191.8 194.9 193.8 198.8 204.4 203.9 201.5 199.6 196.1 180.4 194.2 210.2 216 221.7 231.5 241.8 249.8 257.6 260.8 263.1 265.4 267.4 268.6 269.3 275.9 279.8 283.5 290.2 285.1 286 288.3 290.1 288 284.7 276.3 280.3 285 285.9 288.2 288.7 288 288.2 295.8 303.5 308 309.4 310.8 310.9 310.6 309.3 310.9 311.9 314.5 319.7 324.5 331.5 343 355.5 369.8 384.1 394.3 402 408.9 416 419 419.2 418.4 418.9 419.2 417 414.9 412.3 409.9 407.7 405.5 402.2 398.7 395.9 393.2 389.8 388.5 389.5 389.8 389.8 389.7
193.6 191.5 192.1 196.1 196 195.3 194.4 188.2 188.6 196.1 199.5 201.5 197.5 191.5 188.8 188.2 189.5 192.7 196.8 199.5 201.8 202.6 203.5 203.5 202.1 201.2 199.3 197.6 196.3 196.1 194.5 194.1 193.8 194.1 193.6 193.2 192.8 192.5 191.1 192 197.2 200.2 202.4 203.3 203.6 202.5 196.2 184 181.6 182.8 184.2 184 184.3 185.2 185.4 185.9 187.1 188.1 189 189.4 189.6 191.3 189.1 190.9 191.7 191.9 192.8 194.2 200.7 203.8 205.7 207.1 208.8 210.2 209.5 206.2 201.3 202.7 204.9 207.1 209.9 211 210.8 210.4 210 209.7 209.3 208.9 207.2 203.7 201.2 202.6 203.2 202.7 202.3 203.4 207.2 207.3 204.7 202.5 201.5 201.6 201.8 203.5 204.1 203.3 205.2 207.2 205.7 196.1 192.1 192.1 191.8 192.1 192.6 193.6 195.4 196.3 204.2 206.1 205.7 202.3 199.5 190.3 185.8 201.7 210.8 217.7 225.8 235.6 244.8 253.7 260.5 263.4 266 268 269.4 270.2 278.6 283 288.9 294 295.6 286.1 294 297.1 297.7 295.3 290.1 288.1 284.4 277.6 283.5 285.2 288.2 290.8 292.1 292.8 299.9 307.2 309.9 312.2 313.5 313.4 313.7 317.5 321.7 325.2 331 336.8 344.6 355.3 368.4 382.8 393.5 402.1 408.9 416 420.6 422.1 421.9 421.6 420.5 419.4 417.9 415.8 413.4 410.9 408.3 405.8 402.7 400.3 398.2 395.5 392.7 393.2 393.4 393.7 393 392.4
192.8 191.5 194.1 197.1 197.6 196.8 195.6 190.5 188.3 194.6 196.5 194.9 191.5 188.6 189.4 194.5 197.8 200.4 202.3 205.8 210.6 209.2 206.9 207.3 206.7 205.7 202.4 200.4 197.7 198.5 197.6 197.3 195.2 192.8 192.5 193.3 193.4 194.1 197.2 201.9 204.3 204.1 204 204.1 204.8 205 201.4 189.9 184.9 183 183.5 184.4 184.5 185.9 187.7 189.3 191.6 193.2 195.4 190.7 192.2 196.8 193.1 194.7 197.5 198.5 198.8 199.4 202.7 205.8 207.7 208.3 209.5 209.5 209.4 207 204.8 204.5 206.1 208 211.4 211.7 211.4 211.1 210.8 210.4 209.5 208.9 208.7 206.5 204.4 203.5 203.9 204.8 206.7 210 210.3 208.2 206 205.4 204.7 204.8 203.9 204.5 204.9 206.4 205.9 205.3 203.7 197.8 195.7 201.2 200.9 199.3 197 197.2 197.9 200.1 204 205.6 205.8 201.1 198 184.2 192.6 207.4 213.1 221.3 231.6 241.3 249.1 257.6 263.3 266 268.1 270.3 273.6 276.4 284.2 290.3 295.7 299.6 290.1 302.2 303.7 304.1 304.4 303.5 300.1 300.2 299.8 290.8 287.2 293.9 297.6 297.4 299.4 301 297.1 304.6 311.2 313.9 315.3 316.3 323.2 331 336.2 338.6 344.9 351.5 355.9 367.8 379.6 390.8 400.6 407 414.5 420 423.4 423.4 422.5 421.3 420.2 419.3 417.7 415.4 413.2 410.4 408.1 405.7 403.5 401.3 399.4 397.8 396.7 396.4 396.4 396.7 395.6 394.7
192.3 192.7 196.2 198.6 199 199.5 197.2 192.6 189 189.7 192.3 192.4 190.3 191.2 195.9 201.8 204.9 207.8 207.8 209.1 212.3 210.8 209.4 210.3 209.8 206.7 203.7 200.8 198.7 200.6 201.9 203.2 201.4 196.5 197.3 199 200.6 202.6 204.3 204.9 205.1 205.9 206 207.3 206.9 206.3 205.6 197.5 191.7 187.8 188.2 189.9 193.9 198.4 199.2 202.3 204.2 204.6 203.8 193.4 192.7 201.7 199.6 199.1 198.9 200.6 201 202.4 204.5 208.2 209.3 209.5 209.5 209.3 209 207.3 205.6 204.6 205.8 209.3 211.5 211.5 212.2 212 211.7 211.1 210.3 209.4 208.5 207.3 206.7 205.9 211.4 214.2 215 214.4 213.3 211.1 209.5 208.9 209.8 210.9 208.1 209.2 209.4 208.7 208.4 207.1 204.8 200.9 196.7 200.8 203 204.9 203.5 203.8 203.8 204.1 203.8 204.6 203.8 198.4 189 185.5 201.2 210.6 218.6 227.2 238.5 246.8 254 260.8 265.9 268.3 272.7 275 278.3 282.8 290 297.1 301.1 294.9 299.4 307.8 308.2 308.2 307 306.1 303.6 301.5 301.2 289.2 292.2 299.6 302.9 304.5 305.9 306.5 303.8 304 312.4 315.4 317.4 321.9 332.4 342.6 348.8 351.9 358.3 365.2 371.6 378.9 388.9 397.9 405.7 412.7 418 422.1 423.4 423 422.2 421.1 419.7 418.5 416.8 414.6 412.1 410.1 407.6 405.3 403.6 402 400.6 399.3 398.3 397.5 397.9 398.1 397.3 395.1
192.2 192.7 197.7 201.8 203.4 202.7 200.2 195.1 191.2 189.1 188.4 189.8 190.3 195.2 201.3 206.5 209.8 210.5 210.5 210.5 212.7 210.6 211.8 211.6 209.1 205.3 202.1 200.4 201.2 202.3 203.1 203.5 202.9 202.1 202.9 204.4 205 205.7 206.4 206.5 208 209.2 210.1 211.4 211.7 210.5 208.3 203.8 202.8 201.3 200.6 201.4 205.2 208.9 210.1 210.9 210.9 210.7 207.6 194.2 194.3 205.1 205.5 204.4 203.2 201.1 202.6 204.4 206.8 210.1 210.5 210.4 210.5 210.7 210.4 208.3 206.2 204.6 205.4 210.9 211.7 212.7 213.1 212.9 212.5 211.9 211.1 210.1 209.1 208.1 207.3 207.1 212.6 216.2 216.1 215 214.1 213.2 212.1 211.4 210.5 210.3 209.4 208.9 208.9 209.7 209.3 209.3 208.9 204.5 198.7 198.1 197.2 197.2 200.5 201.3 201.4 204.2 205.3 204.3 201 185.6 183.7 195.8 208.2 216.2 224.1 233.3 243 251.7 259 264.3 269 272.4 277.8 281.8 285.3 288.9 294 296.8 294.5 304.6 311.4 311.9 312.4 313.9 313.6 310.4 306.9 303 299.9 289.9 296.3 304.2 307.7 308.8 309.7 310.8 310.3 303.8 311.5 316.6 319.8 328.9 341.3 352 358.9 361.9 369.8 378.7 385.7 389.6 397.5 405.1 411.5 417.2 420.9 422.2 422.1 422 421.4 420.2 418.5 416.7 415.3 413.2 411 408.9 406.7 404.7 403.1 401.5 400.7 399.9 399.3 398.6 398.7 398.6 397.3 394.4
192.6 193.1 200 204.7 205 204.1 202.4 200.5 197 194.4 193 193.2 194.5 201.4 205.8 207.7 210.3 211.2 211.9 211.2 211.7 211 210.7 210.4 207.5 205 202.3 201.5 202 203.8 204.7 205.5 205.7 205.8 206 206.7 207.4 208.8 208.8 210.5 212 213.2 214.4 214.6 214.5 213.9 212.1 209.6 209.3 210 210.5 209.8 211.8 213.6 213.5 214.3 213.2 212.2 203.9 195.3 198.5 204.9 208.1 207.7 205.5 203.4 203.9 205.2 208.3 210.9 210.7 210.8 211 212.7 211.7 209.2 206.3 204.9 205.9 212.2 213.1 214 214.1 214 213.6 212.8 211.9 210.8 209.7 208.6 207.6 207.2 211.9 216.9 216.4 215.5 214.6 213.7 212.7 212.8 211.6 210.9 209.6 208.5 209.4 209.5 209.6 209 209.2 207.5 204.4 201.9 200 198.5 199.7 199.9 199.8 201.1 202.5 201 195 184.1 191.7 203.3 214.4 221.3 231.8 239.6 245.5 253.3 263.4 268.5 273.6 279.9 284.6 288.3 291.2 292.1 293.3 298.4 312.1 315.9 316.3 316.9 319.2 319.7 317.7 313.6 308.3 304.2 299.5 293.5 299.1 307.1 310.9 312.6 314.5 315.3 314.7 309.4 310.7 316.9 323.9 334.8 346.2 358.1 365.6 371.7 380.5 389.5 397 402.5 405.7 410.8 416.4 420.4 422 422.5 421.8 420.7 419.6 418.2 416.6 414.9 413 410.9 408.9 406.9 404.8 403.6 402.8 401.1 400.4 399.6 399.1 399.1 399 398.5 396.4 394.3
193 193.6 200.4 205.3 205.6 204.6 204.6 205 204.5 203.7 203.1 203.2 204.7 207.3 209.6 210.9 210.5 211.4 212.1 210.7 210.3 210.4 210.5 210.8 210.1 208.6 203.1 201.8 202.7 204.2 206.6 207.3 208.3 209.3 209.7 210.3 211.4 212.5 211.2 213.6 215.7 215.9 216.2 216.5 216.2 215.8 214.9 213.6 214.4 214 213.1 213 214.4 215.2 214.6 215.3 214.7 210.8 198.7 201.2 204.6 208.3 210 208.4 206.3 204.2 204.6 205.8 209.2 211.2 210.6 210.9 212.9 214.4 215.1 211 206.1 205.2 207.9 213.8 215.5 216.4 216.3 215.4 214.6 213.9 212.8 211.2 210.1 209.1 208 208 212.5 215.8 216.4 215.8 214.8 213.9 213.1 212 212.3 212.4 210.6 209.8 210 209.3 208.9 208.7 208.7 208.5 206.7 206.3 203 200 199.1 199.6 200.3 200.6 201.9 197.1 188.1 186.3 196 208.1 218 227.3 237 243.9 252.1 261.4 269.4 275.7 282.1 286.8 292.2 293.9 299.3 308.4 311 316.4 319.5 322.8 323.7 324.3 323.9 322.9 318.9 314.3 309 304.5 301.7 301.1 298.9 308.2 313.3 315.8 317.6 318.8 319.3 316.2 314.9 317.8 324.1 331.7 343.4 357 368.4 378.9 389.3 397.7 404.7 410.3 412.8 415.4 419.1 421.1 422.2 422.7 421.9 419.6 417.4 415.7 414 412.2 410.2 408.2 406.1 404.1 403 402.1 401.3 400.1 398.9 397.8 397.7 398.1 398.5 397.6 395.2 392.5
193.7 193.8 198.4 203.8 205.9 205.6 206.2 207.7 209 210.1 208.8 209.1 209.5 211.2 214.3 214.1 213.6 212.9 212.2 211.2 210.9 210.3 210.4 210.7 212.6 211.5 203.5 202.7 203.2 205.6 208.4 209.8 212 212.7 212.5 212.8 213.7 212.8 213.5 216.4 219.3 216.7 216.7 216.7 216.8 216.6 216.9 216.6 216.5 215 214.5 214.6 215.4 215.1 215 214.6 212.8 205.5 202.3 207.7 209.7 211.6 210.7 208.4 206.5 205.2 206.7 206.8 208.8 210.3 211.2 213.9 215.6 216.6 214.4 210.3 206.2 206.3 210.7 218.4 219.1 218.6 217.7 216.8 215.9 215.2 213.8 212.2 210.9 209.9 208.9 208.9 212.4 214.3 214.9 215.5 214.9 214.1 213 212.6 212.4 212.3 211.2 210.5 209.9 208.3 208.2 208.5 208.4 208.5 208.6 207.8 205.6 203.5 202.1 204.4 206 206.7 205.2 197.4 185.4 189.8 199.7 211.6 223.7 231.6 240.6 247.2 257.3 266.4 276.1 285.5 291 294.3 298.8 309.8 317.4 322.1 325 326.4 329 330 330.8 331.5 329.6 325.5 319.6 314.2 309.2 303.9 306.1 305 299.2 309.6 316.2 320.2 322.3 323.9 324.6 320 318.5 320.4 324 331.6 341.1 355.9 367.5 383.9 395 403.3 410.4 415.4 417.1 419.3 421.1 422.2 423.1 422.8 420.8 418.5 416.1 414.2 412.3 410.2 408.2 405.6 402.9 401.5 401.1 400.2 398.6 398 396.6 395.7 395.9 396.5 396.6 395.9 393.6 391.5
192.6 193.7 196.1 201.8 205.7 206.6 208.8 210.6 212.1 214.9 216.2 216.5 223.3 226.4 222.4 220.9 222.4 220.1 216.5 213.6 212.5 211.5 210.6 210.7 213.9 211.2 204.4 204.4 206.1 209.7 210 212.5 212.4 212.6 212.8 213.6 213.3 213.3 214.5 216.7 218.3 217.5 216.6 216.7 216.7 216.5 217.7 216.9 217.8 216.8 215.8 215.5 217.4 217.9 216.2 214.8 212.5 202.6 206.4 212.6 213.9 215.2 214.2 211.1 207.9 206.7 207.4 208.4 210.5 212.4 214.8 216.5 216.5 214.9 212.4 209.1 206.7 207.3 213.6 219.9 219.6 219.1 218.6 218.2 217.4 216.4 215.1 213.7 212.3 211.1 209.9 209.8 211.5 212.7 213.4 214.1 214.6 214.3 212.7 213.1 212.3 212.1 210.8 210.7 210 209.1 209.6 208.8 208.4 208.6 208.5 208.3 207.7 206.8 206.4 206.1 206.7 206.5 205.8 194.6 187.8 191.6 202.8 213.7 225.3 233.9 245.2 253.1 261.5 270.6 282.6 292.5 295 307 320 326.2 330.6 334.3 336.6 338 338.1 337.9 338.4 336.9 333.8 327.9 320.8 314.8 309.6 310 310.8 308.3 302.7 312.3 320.8 325.1 327.9 329.2 328.4 323.8 322 325.8 329.9 338.9 349.8 362.9 378.3 388.9 398.7 407 413.3 417.5 418.8 420.7 422.2 423.1 423.1 421.2 419.1 417.3 415 413 410.8 408.5 405.9 403.3 400.9 399.8 398.8 397.1 395.6 395 393.9 393.7 393.9 394.3 394.2 393.5 392.1 390.6
192.5 193.1 195 199.6 205.6 208.3 211.2 213.3 215 217.6 219.2 221.5 226.3 226.4 230.9 230.8 229.2 229.1 225.1 214.9 213.4 213.1 212.9 211.6 210.9 207.9 205.8 205.9 210.9 212.5 211.7 212.6 212.7 213.2 212.9 212.3 212.6 213.2 215.6 217.5 218.6 218.1 217.4 216.5 216.3 215.3 217.2 217.2 217.4 216.9 215.6 214.6 214 212.3 210.7 210.3 208.6 203.5 212.1 214.5 215.4 215.7 215.9 213.9 209.7 207.9 209.1 210.3 211.7 212.6 215.7 216.7 216.2 214.3 212 209 207.4 209.1 214.9 221.5 220.7 220 219.2 218.9 218.5 217.5 216 214.9 213.7 212.5 211.5 210.3 210.9 211.5 212.2 212.3 212.3 214.1 213.2 212.4 212.1 212.1 211.4 210.9 210.2 209.7 209.6 209.2 208.9 208.7 208.5 208.2 207.6 206.9 207.1 206.2 206.4 205.9 195.6 187.5 187.5 193.1 204.6 214.5 225.1 235.8 248.6 257.5 265.1 272.5 285.7 294 311.1 324.2 333.8 337.7 341.2 344.5 346.3 348.3 347.3 346.9 345.6 342.6 338.1 330.6 321.8 314.5 313.5 315.4 315.3 312.6 306 316.9 325.5 330.9 334.6 335.8 331.7 327.8 327.4 334.6 340 347.8 359 373.7 386.6 396.5 403.8 409.9 413.7 417.2 419.2 421.2 423 422 421.2 419.1 417.1 415.4 413.4 411.2 408.9 406.6 403.8 401.1 399.4 397.9 396.1 394.5 393.7 393.1 392.5 391.8 391.7 391.9 391.9 391.8 390.6 391.8
194.8 197.5 196.3 197.1 204.7 210 212.9 214.7 215.8 218.2 220.9 223.8 229.5 232.7 234.2 235.5 235 230.9 224.1 222.8 218.6 215.7 214.2 213.3 210.7 207.6 207.3 208.7 212.4 213 213.2 213.6 214 214.3 213.9 213.1 212.2 211.8 214.9 220.5 221.4 220 217.9 214.1 212.3 211.8 212.2 212.6 214.6 212.5 212.2 210.6 210.1 210 209.7 209.1 208.5 204.8 211.2 217.9 218.2 216.8 214.8 212.9 210.8 208.7 209.7 210.9 212.6 214.6 217.1 217.1 215.2 213.5 212 208.7 208.3 209.4 218.7 224.8 222.4 221.2 219.6 219.5 219.1 218.2 216.9 215.7 216 216.3 214.8 212.2 210.6 210.2 210.2 210.4 211.2 211.3 211.6 211.3 211.6 212 211.9 211.2 210.7 210.2 209.6 209.1 208.6 208.1 207.7 207.3 206.9 206.6 204.7 202.2 201.7 197.2 191.4 187.7 189.3 193.2 205.3 214.6 225.3 238 251.7 258.4 266.2 275.1 288.9 301.2 321.9 334.3 344.3 349.9 352.5 355.8 355.4 356.7 355.8 354.2 351.5 347.2 340.7 331.2 321.4 318 322.3 323.1 321.6 318.1 307.9 319.5 329.7 337.4 341.2 340.5 334.6 332 336.7 346.5 352.3 358.8 369.6 383.7 395.8 403.4 408.2 412.8 414.5 416.6 419.2 420.5 420.7 419.7 418.1 416.5 414.9 413.3 411 408.6 406.5 404.2 401.4 398.8 396.8 395.1 393.7 393.2 392.7 392.2 391.3 390.2 390 389.9 390.2 389.9 391.2 393.2
200.7 200 197.7 196.2 202.8 210.1 213.3 214.8 216 217.9 221.2 225.4 230.5 233.7 238.4 234.9 235.2 233.6 229.1 227.7 224.7 219.4 217.3 214.7 211.7 209.1 208.5 212.2 213.4 214.2 215.2 215.7 216.3 216.5 216 215.7 214.3 213.3 213.9 218.6 222.5 221.2 214.4 211.6 211.9 211.7 211.6 211.2 210.9 209.7 209.8 209.4 209.6 209.7 209.8 209.7 208.9 207.4 208.6 219.6 220.2 219.8 218.4 215 212 210.5 211.3 212.3 213.8 216.4 217.8 217.8 214.9 212.6 211 209.2 209.1 212 221.2 226.9 225 222.9 221.2 220 219.6 220 220 220.3 221.9 223.2 223.1 221.6 216.9 213.2 210.8 210.9 211.1 211.4 211.5 211.6 211.6 211.7 211.6 211.4 211 210.3 209.3 209.2 208.3 207.3 206.3 205.4 202.6 197.1 196 197.6 196.5 200 199.4 188.8 191.3 194.1 205.9 214.7 225.3 239.6 252.5 261.7 270.2 279.2 291.7 308.4 328.1 341.7 353.7 360.1 362.7 365.5 364.6 363.2 361.9 359.2 355.3 349.1 339.9 329.8 321.5 327.7 331.3 329.8 329.5 324 316 320.3 333.5 341.5 345.1 344.5 340.7 341.7 347.6 356.7 364.8 372.1 383 394.5 403.4 409 412.4 414.2 414.3 416.1 417.3 417.9 417.2 416 414.4 412.9 411.4 410.2 408.2 406 403.7 401.3 398.8 396.4 394.3 392.7 391.3 390.4 390.7 390.1 388.8 388.4 388.1 388.6 389.3 391.7 394.8 396.6
201.5 201.4 198.9 196.9 201.9 209.3 212.8 214 215.3 216.9 219.4 222.2 226.6 229.3 231.6 235.4 236.2 239.9 235.6 231.4 227.5 225.6 222.1 216.9 212.5 210.6 209.9 211.8 215.2 216.4 217 217.6 218.1 218.2 218.1 217.7 215.8 214.4 213 214.9 220 218 213 213.6 216 214.8 214.9 217 216.7 215.8 213.8 212.6 212.1 212.3 211.6 211.3 210 209.8 209 218.3 219.5 219.6 219.6 217.6 213.8 212.2 212.8 214 215.4 217.6 217 216.4 213.8 212.6 210.7 209.8 211.1 215.6 225.8 227.8 226.4 223.2 222.8 221.8 221.9 222.3 223.3 223.6 225 226.4 226.8 225.5 223.5 221.4 216.3 212 211.7 212 212.5 212.1 212 211.5 211.3 211.4 210.7 209.8 209.1 208.5 207.4 205.8 201.7 199.1 198.6 201.6 204 204.2 204 203.8 203.5 189.5 191.9 195.9 205.7 212.7 220.4 236.3 249.7 261 272.4 284.4 297.2 306.6 330.4 344.8 355.1 363.8 368.4 369.3 368.8 368.2 365 361.5 356.1 346.3 334.4 326.6 329.1 337.1 339.6 337.2 336.8 330.3 321.2 322.9 333.7 343.4 348.1 349.7 347.9 352.9 359.8 368.4 378.3 386.3 394.6 402.6 408.8 413.8 414.8 415.2 415.3 414.5 414.2 414.4 413.1 411.7 410 408.6 407.2 405.4 403.6 401.6 399.5 398 396 393.6 392.4 390.8 389.1 388.5 388.6 387.8 386.7 386.7 386.7 387.7 391 395.4 399.4 403.1
203.9 202.8 198.6 196.4 202.2 210.4 212.7 212.5 212 212.7 215 215.8 217.5 224.6 228 231.9 237.7 239 241 232.8 229.2 228.2 227.2 221.3 213.8 211.8 212.6 214.8 216.7 218.3 218.9 218.8 219.1 219.3 219.2 218.6 217.1 215.5 214.5 213.1 213.8 214.3 214.5 225.8 225.3 226.9 230.6 228.8 227.8 226.6 222.9 218.6 216.5 215.1 213.9 213.5 212 209.9 209.1 210.9 213.6 216.9 216.9 217.1 215.3 214.2 214.4 215.2 216 215.7 214.7 214 213 211.6 211.1 210.9 213.4 222.5 227.9 228.8 227.5 225.7 224.5 223.8 224.2 224.7 225.8 226.3 227.7 228.9 229 227.8 226.5 224.8 220.6 215.5 213 213.3 213.3 212.9 212.3 211.4 210.8 210.2 209.4 208.6 207.7 206.9 205.3 204.6 204.6 205.5 205.9 207.4 207.9 208.2 207.7 205.6 196.6 191 194.3 196.9 199.2 206.3 213.6 225.5 241.4 256.9 271.6 285 299.3 301.8 326.4 342.6 356.8 364.2 366.6 365.5 365.6 367.6 366.2 360.7 353.2 342.7 332.8 334.9 340.8 346.3 346.3 344.9 342.9 334.6 322.6 323.3 336.7 346.7 353.9 357.7 356.7 364 373.7 381.7 389.7 396.6 402.6 408.2 413.1 414.7 415 415.2 414.8 413.4 412.2 411.4 410.1 408.6 406.6 404.4 402.8 400.9 399.5 398 396 394.2 392.7 391.5 390.3 388.5 386.7 386.5 386.6 386.2 385.7 385.5 386.2 389.9 394.8 399.3 403.7 407.4
205.3 204.2 199.9 197.1 202.3 210.3 210.1 209.3 209.2 209.6 212.5 212.9 216.6 224.2 227.1 228.1 235.6 240.8 236.2 233.7 228 224.3 222.1 217.4 215 217.1 220.8 222.6 224.7 223.5 224.3 222.4 221.6 221.9 222.3 222.9 220.9 219.7 219.3 216.9 216.1 217.1 221.2 230.3 232.1 232.4 233 233 234 234.4 234.6 231 223.6 219.9 217.5 216 214.8 212.6 210.4 210.4 211.4 212.6 213.8 214.7 216 215.8 216.2 216 215.8 215.1 214 213.4 213 212.1 211.6 213.2 218.8 229.9 231.2 230.9 229.7 228.3 227.6 227.2 226.1 226.7 227.6 228.6 229.6 230.6 230.9 229.3 228 226.6 222.7 218.8 215 214.5 214.1 213.6 212.9 211.9 210.8 209.9 209.2 207.9 206.6 206 207.4 208.8 209.7 210.4 211 211.1 210.5 209.6 207.7 199.7 191.2 193.2 196.7 201.5 205.5 205.3 206.7 218.8 233.1 249.3 263.4 278.1 293.1 300.7 321.7 335.2 346.4 350.6 351.2 351.9 353.4 356.4 358.9 356.1 351.4 341.9 340.4 347.4 351.3 354.6 353.1 352.1 345.3 334.8 329.5 331.9 340.8 353.8 362.2 365 366.9 377 386.6 393.3 399.9 404.6 408.2 412.3 414.9 415.7 415.8 415.7 414 412.7 411.3 408.8 407.3 405.9 403.7 401.5 399.7 398 396.2 394.6 392.9 391.7 390.8 389.3 387.5 385.7 384.3 384.5 384.7 384.4 383.8 383.7 386.4 392.2 396.2 401.3 405.7 410.1
207.6 204.7 199.9 197.9 202.5 208.9 209.1 209.1 210.6 211.5 214.2 216.5 219.8 224.6 228.4 228 229.3 235.8 234.4 234.8 226.8 222.7 217.3 216.5 224.3 233.8 237.3 237.8 235.2 234.8 233.8 234.9 234.4 231.5 234.5 234.8 234.4 233.3 232.2 231.3 229.3 223.2 226.3 231.3 232.5 233.6 234.2 234 234.8 235.3 235.7 236.3 234.3 231.8 227.2 222.8 218.9 216.2 213.9 212.7 212.3 213.4 214.8 215.8 216.3 216.5 216.8 216.9 216.1 215.6 214.4 213.7 213.1 212.4 213.2 218.6 229.2 234.2 234 233.4 232.4 231.1 230.5 230.2 229.2 229.3 229.6 230.5 231.5 232.2 231.9 230.9 229 228.1 224.6 219.6 216.7 215.5 214.5 214.5 213.3 212 210.8 210.4 209.3 209 209.8 210.5 211.7 211.9 211.5 211.4 211.1 211.5 211.4 210 207.7 192.6 192.6 195.5 200.1 205.1 210.5 212.3 211.1 212.4 224.1 240 257.2 276 292.7 300.1 314.8 324.7 331.8 335.6 335.2 334.8 333.5 336.8 346 348.8 346.3 340.1 348.8 355.6 358.3 360.2 360.4 356.1 342.8 336.5 337.7 343.9 342 361 370.6 375.6 375.9 386.9 396.2 402.1 406.7 409.7 412.5 414.3 416.1 416.5 416.2 415.3 414 412.6 410.3 407 404.7 403.2 401 398.8 397.1 395.6 393.9 392.3 390.4 389.1 388 386.2 384.1 383.3 382.3 382.7 382.8 383.2 382.3 381.9 387 392.9 397.7 403.3 407.5 412.4
209.2 204.3 200.3 198.7 203.1 207.3 210.1 210.3 211.4 214.5 217.5 220.5 223.3 228.9 229.2 228.3 227.3 232.1 231.1 224.4 224.6 219.8 218.7 227.8 240 246.6 247.6 244.8 241.1 242.6 242.4 242.2 241.1 237.8 237 236.8 235.8 235.2 235.1 235 233.9 233.4 226.5 232.8 236.4 238.5 238.4 239.2 239.8 239.1 239.7 239.4 238.5 237.7 236 231.9 227.9 222.6 220.1 215.5 214.1 214.3 216.1 216.8 217.6 217.5 217.7 217.7 217.1 216 215.6 214.5 214.3 215.3 219.7 231.7 236.8 237.5 236.8 235.9 234.9 233.8 233.1 232.5 231.9 232.2 232.5 232.8 233.2 233.7 233.2 231.6 230 228.5 225.3 220.6 216.6 215.5 215.4 215.5 213.7 213.4 212.8 213.3 212.5 211.9 211.8 212.2 212.8 212.3 212.3 211.9 212.3 212.3 211.4 209.3 195.2 193.3 193.6 198.4 204.9 209.2 210.9 216.1 220.1 220.9 221.5 238.5 255.8 274.9 289.8 298.5 304 307.2 312.6 312.9 317.6 315 311.8 321.7 335.6 342.5 338.6 340.9 355.8 361.8 364.7 367.3 365.7 353.9 346.2 338.7 346.5 355.2 344.2 365.1 376.8 383.1 383.7 396.5 404.1 408.8 411.7 412.8 414.1 415.4 415.8 416.4 415.6 414.1 412.3 411.2 408.7 405.2 402.9 401.1 399.5 397.7 396 394 392.2 390.9 389.1 387.2 385.3 383.6 383.2 381.8 380.6 380.8 382.7 383.4 382.3 379.6 386.3 393.3 399.5 405 409.6 413.7
209.8 204 200.2 199.8 203.8 208.5 210.6 211.3 213.5 216.1 218 221 224.1 230 229.2 227.2 226.1 225 223 223.6 221.1 221 223.9 240.8 251.9 253 252.2 249.8 246.5 246.9 247.2 247 245.4 242.4 241.2 241.7 242.6 239 239.2 239.5 238.2 239.1 233.1 234 238.9 242 242.7 242.8 243.2 242.9 243.9 243.9 241.6 239.4 237.4 234.8 231 228.1 226.7 225.6 224.5 220.3 219.3 220.4 218.9 219.4 219 218.8 218.5 217.3 216.8 216.3 217.1 224.2 232.3 236.4 239.3 239.5 239.2 238.5 237.4 236.3 235.5 234.8 234.1 234 234.5 235.1 235.3 235.7 234.5 232.6 230.7 228.4 225.5 220.5 217.2 216.3 216.3 215.9 215.2 215.8 214.8 215.2 214.8 213.6 212.9 214.6 215.3 215.4 214.2 214.4 215.6 215.9 214.8 208.4 194.2 195 196.5 202.2 208.7 213.7 214.6 221.1 230.7 230.7 218.3 232.4 250 268 282.2 295.7 290.9 284.6 292.5 291.1 296.4 294 293.1 314.3 325.5 329.9 327.5 338.5 355 363.3 369.9 371.8 368.1 351.1 352.3 344.2 356.5 363.5 362 359 377.8 385.5 390.7 402.2 409.2 411.4 412.7 413.4 413.5 414.3 415 414.7 413.4 412 410.5 408.8 406.7 404.4 402.6 400.6 398.6 397.4 395.5 393.5 391.8 390.1 388.5 386.6 383.1 381.9 382 380.4 379.1 380.5 383 383.9 382.5 377.7 384.8 392.3 399.9 405.3 411 414.6
211.5 204.2 200.3 199.9 205.5 208.7 210.9 213.7 216.2 216.9 218.5 220.6 223.1 218.2 226.6 225.6 223.9 221.7 221.2 221.2 221.8 222.7 237.9 251 260.5 266.1 258.5 253.8 252.5 252 251.3 251.1 250.5 251.1 249.3 248 246.7 244.5 244.5 245.7 244.7 241.8 237.5 237.8 238.1 242.2 245 244.1 243.2 244.8 245.9 246.6 244 240 237.6 234.6 231.7 231.2 230.2 235 243.9 243.4 232.3 230.8 232.1 222.7 220.8 220.2 219.7 219.2 219.4 219.9 226.4 234.9 238.1 240.5 241.7 241.8 241.4 241.1 239.9 238.8 237.9 237.3 236.7 235.7 236.8 237.5 237.6 237.3 235.2 233.2 230.4 227.3 224.6 220.3 217.4 217.3 217.2 215.9 216.6 216.2 216.4 216.4 216.2 215.4 215.6 216.9 217.4 217.2 218.4 218.9 221.3 221.5 219 208.1 195.2 195.9 199.7 204.2 209.9 217.2 219.8 228.1 239.5 242.1 234.1 221.5 237.3 255.1 272.6 277.5 270 263.9 273.2 272 275.8 274.1 285.2 300.3 309.2 310.5 320.3 336 350.8 362 371.5 374.6 365.3 356 359.4 352 364.8 373 373.2 365.4 371.7 384.3 396.9 405 409.6 411.1 411.8 411.6 412.1 412.6 412.9 412.5 411.2 409.9 408.4 406.8 405 403.5 402.1 399.7 398.2 397 395.1 392.9 391.2 389.4 388.1 386.3 383.2 381 380.1 379.1 377.5 379.2 382.2 382.7 380.4 376.4 382.6 390.6 398.1 404.2 410.1 415.1
212 204.8 201.1 200.7 209.2 212.3 214.5 216.8 217.7 217.7 218.3 220.9 221.9 222.8 222.8 221.2 219.9 220.8 222 223.4 224.3 237.3 251.3 260.3 268.8 272.8 266.8 261.3 263.3 262.7 261.2 260.4 258.2 257.2 256.1 253.2 251.6 250.6 250.7 250.2 248.9 245.5 243.3 240.2 239.2 239.8 243.1 242.9 243.1 245.4 247.2 249.7 246.2 241.4 238.2 234.7 232.3 232.4 235.5 235.5 248.6 248.9 245.5 246 244 223.2 224.2 227.6 225 225.8 225.7 226.8 236.4 240.1 242.5 243.9 244.3 244.6 244.5 243.5 242.5 241.4 240.3 239.7 239.2 237.9 238.8 239.3 238.9 237.9 235.8 233.3 229.8 226.6 223.5 221 218.3 218 217.4 216.9 217.4 217.8 218.9 218.7 218.6 216.4 217.4 218.8 219.6 220.9 223 225.3 226.7 226 223.9 208.8 195.9 196.6 201 205.9 212.4 220.1 225.5 235.9 247.6 250.9 247.9 236.4 229.2 245.1 252.8 254.3 251 251.7 255.6 257.8 261 271.1 275.4 284.7 291.8 300.2 312.8 330.2 345.6 358.4 370.2 372.6 363.8 362.2 368.4 358.9 372.7 379.5 380.7 376 383.3 392.7 400.2 406.6 409.6 410.7 410.6 410.6 410.1 409.8 410.1 409 408.4 407.6 406.2 404.5 402.8 401.7 400.3 398.1 396.7 395.6 394.2 392.1 390.7 388.7 387.5 385.5 383.5 381.6 379.8 378.2 376.8 375 378.4 378.7 376.3 375.4 380.3 388.4 396.8 403.4 408.9 413.7
211 204.9 201.4 202.5 212.5 216.3 217.9 218.9 218.9 218.2 219.6 222.9 222.6 219.1 217.4 218 220 220.6 223.1 224.2 227.2 246.2 253.3 266.8 276.3 280.3 274.4 268.7 269.7 269.6 267.9 267.4 264.8 263.6 263.3 259.6 257.3 256.5 256.7 256.7 253.8 251.7 248.1 244.2 243.3 242 240.4 240.3 242.2 245.7 247.5 248.9 248.5 241.4 233.7 232.9 236.6 237.1 237 241.6 248.1 250 250.4 250.2 236.7 227.2 229.4 242.1 239.9 238.1 238.4 240.1 244 246.1 247 247.5 247.4 247.5 246.9 245.9 244.8 243.8 242.7 242 241.5 240.6 240.8 240.9 240.1 238.8 236.6 233.3 229.3 226.3 223.8 221.4 220 219.4 218.7 218.2 218.4 218.8 218.8 218.7 218.1 219 220.2 221.5 224.4 226.9 229.4 231.2 232 231.5 227.1 209.8 197 197.1 200.2 207.3 212.6 221 230.5 243 255.1 258.8 256.8 251.7 239.3 230.2 236.3 236.9 240.1 246.1 249.9 260.7 269.7 281.2 290.5 296.4 304.1 314.3 323 328.4 339.1 352.4 365.4 370.4 364.6 366.1 372.6 364.7 376.7 383.3 386.1 385.1 394.9 400.6 404.3 408.3 410.1 410.7 409.9 409.9 409.3 408.5 407.9 407.1 406.7 405.1 403.7 402.2 400.5 398.9 398.1 396.6 395 394.1 393.2 391.4 390.1 388.1 386.9 385.4 383.8 382.8 382.1 381.5 380.9 378.1 373.6 373.1 373.2 375.5 381.4 388.3 397.2 403.4 408.6 411.2
208.6 204.3 202.1 204 215 219.7 220.5 220.5 220.4 219.3 221.8 224 219.8 215.4 216.8 217.7 220.9 223.3 227.5 228.9 226.9 246.1 255 269.5 278.2 281.6 277.6 273.9 279 278.1 277.9 274.9 271.9 270.5 269.6 266.6 263.4 263.3 262.7 262.3 259.4 257.4 252.9 252.6 250.1 248.5 246.2 242.6 241.7 245.4 248.3 249.5 250.1 238.6 236.8 238 242 242.3 241.3 241.7 246.7 244.8 242.3 233.5 227.8 231.9 242.8 253.8 249.8 247.4 247 247.5 249.6 251 251.3 251.2 250.7 250 249.2 248.2 247.2 246.2 245.1 244.3 243.8 243.3 242.9 242.5 241.3 239.9 237.3 233.9 230.6 227.8 225 223.2 221 220.4 218.4 220.5 220 219.9 219.6 219.7 221.1 222.5 225 227.9 231.8 234.8 236.2 237.3 238 236.4 230.6 211.3 197 197.4 198.9 207 216.1 225.6 235.7 248.6 260.3 264.2 264.7 264.2 257.8 249 246.9 248.4 251.9 253.3 252.1 259.7 276 291.4 301.8 309 317.4 328.4 336.2 341.2 346.7 357.3 364.7 369.2 367.5 369.5 376.9 377.6 376.7 386 388.6 393.3 401.1 406.4 409 410.8 410.9 410.9 410.4 409.3 408.8 407.4 406.3 405.1 403.8 402.4 401.3 399.9 398.1 397.4 396.7 395.9 395.1 393.7 392.2 391.1 389.5 387.9 386.7 385.6 385.2 384.6 384.1 383.6 382.6 380.1 377.3 373.3 371.3 378.1 384.8 390.6 398 402.7 407.4 409.2
206.5 204.6 203 205 217.9 221 221.8 222.8 223 223 225 223.6 215.2 214.7 216.6 225.3 229.2 226.5 232.8 235.8 231.6 243.3 255.2 266.7 274.4 277.8 276.4 279.6 285.3 285.3 284.7 281.3 279.6 277.5 273.6 270.9 269.6 270.1 269 267.5 264.6 262.7 259.1 257.4 257 255 253.6 250.5 249.5 249.4 255.2 266.5 260.7 245.8 237.4 243.2 245.2 246.2 244.5 243.4 239.2 233.6 231.6 230.8 233.4 233.3 253.6 259 256.1 254.8 254 254.8 255.3 255.2 254.9 254.2 253.4 252.6 251.8 250.7 249.5 248.5 247.5 246.6 246.1 245.7 244.9 244 242.9 240.9 238.1 235.1 232.3 229.6 227.4 223.9 222.7 220.8 220.6 222.5 222.2 220.7 222.7 224.2 225.9 229.1 232.5 236.7 240.6 243.1 244.6 244.7 244.6 243.1 235.7 214.1 198 198.4 199.6 206.8 217.7 229.4 240.3 253.8 266.1 270.9 274.7 279.1 275.2 271.5 269.1 269.1 270.6 269.6 266.8 258.1 278.9 298.1 308.8 317.6 327 339.6 347.6 355.4 361.5 368.4 374.3 373.2 370.7 373.9 382.9 384.2 385 389.7 392.5 402 408.5 412.4 413.1 413.1 412.4 411.7 410.9 409.7 408.4 406.3 404.5 402.7 401.1 399.7 398.4 397 395.6 395.1 395.2 395.1 395.6 393.3 390.7 390 389.1 388 387.1 386.6 386.5 386.3 385.9 385.2 383.2 380.7 378.3 375.3 369.8 379.4 387.5 393.6 399.2 402.9 405.6 406.9
210.1 206.8 204 207.3 216.3 221.2 223.8 225.1 225.3 226.3 220.7 214.6 213.6 219.6 229.4 234.7 235.2 233.7 235.6 238.8 237.8 236.2 253.2 263.7 269.6 273.3 274.4 281.1 286.9 290.1 289.8 288.9 286.1 284.4 281.2 277.1 275.9 275.5 273.8 271 269.7 267.9 264.8 262.5 262.2 261.6 260.9 258.7 257.2 257.3 260.4 264.8 266.5 251.9 250.3 250 249.7 249.9 245.1 237.4 238 243.3 243.2 232.6 237.4 240.9 259.9 258.9 258.5 259 258.5 258.4 258.5 258.7 258.1 257.3 256.4 255.3 254.4 253.2 252 251 250.1 249.2 248.5 248 246.9 245.7 244.3 242.1 239.6 236.6 233.8 231 227.8 225.8 224.5 222.7 222.8 223.6 223.7 224 226.1 228.5 232.3 237.1 241.4 245.6 249.4 251.4 252.7 252.4 251.8 249.4 241.2 218.6 200.1 199.3 201.2 207.6 219.1 232.7 244.5 257.1 271 279.9 285.4 293 292.3 291.5 292.5 291 290.9 287.2 279.2 262.6 278.3 300.3 314.2 323.1 335.2 348.3 355.9 366 373.8 380 383.8 376.8 374.9 381.5 393.1 390.3 391.4 392.7 400.6 408.7 414.2 417.3 417.7 416.2 415.5 414.2 412.8 410.8 409.6 407.3 405.2 402 399.4 397.5 396 394.6 393.1 392.3 392 392.5 392.6 391.5 389.3 389.6 389.2 388.5 388.3 388.2 388 387.7 387.1 384.9 382.4 380.1 378.3 375.4 369.4 380.1 388.5 394.5 398.6 401.8 403.4 404.3
206.4 205.7 205.9 206.2 209.7 212.8 218.4 224.7 224.1 219.1 213.8 215.7 222.9 233.6 236.3 238.3 239.9 239.1 234.9 241 242 236.2 248.3 257.9 262.3 266.3 271.4 279.7 286.8 292 295.5 295.5 293.1 291.4 288.3 284.2 282.5 279.9 277.2 275.8 274.3 272.3 268.8 274 274.4 275.8 269.6 265.7 262 257 263.6 265.8 265.4 253.4 252.2 252.7 252.4 249.3 240.7 242.4 247.1 250.1 249.7 242.2 245.5 250 260.4 259.4 260.5 261.1 261.2 261.3 261.5 261.5 261 260.2 259.2 258.1 257 255.7 254.5 253.3 252.9 252 250.8 250 248.8 247.6 246.3 243.9 241.4 238.4 234.5 231.6 229.8 227.7 225.7 223.7 224.2 225.1 225.2 227.2 229.9 234.1 239.8 245.7 250 254.9 259.1 260.7 261 260.4 258.2 255.5 245 222.3 203.3 199.6 203.6 209.8 220 234.7 246.5 258.5 272.2 283.5 292.3 301.8 301.2 304.2 307.9 311.4 310.6 303.5 290.7 275.1 274.4 297.2 311.2 323.6 339.4 350.7 361.6 374.4 385 389.3 387.3 378.1 378.1 390 401.7 396.3 394.8 400.7 410.3 416.1 420.9 422.7 422 420.5 418.5 417.3 416.3 414.4 412.4 408.6 405.7 402.1 399 396.9 395.6 394 391.9 390.9 389.2 388 386.8 387.4 387.6 388.2 388.4 388.3 389.5 389.6 390.2 389.4 386.9 384.5 381.4 378.9 377.2 373.1 369.2 380.2 387.7 393.9 397.7 400 400.9 401.2
206.6 209 213.1 214.2 212.1 210.3 211.4 214.3 214.6 212.9 215.6 222.1 229.1 237.1 240.6 243.7 245.4 244.3 239.6 242.2 244.4 245.1 240.8 246.8 254.8 258.7 263.7 270.5 280.8 290.7 298.9 300.8 297.3 294.9 290.9 288.2 287.3 285.5 283.4 281.1 278.5 276.5 272.6 274.6 273.4 272.9 269.2 266.8 259.9 262.5 266.4 262.2 257.7 252.8 250.5 248.3 246.1 244.2 246.9 250.4 252.6 253.2 253 241.5 238.4 250.2 256.3 259.9 262.6 262.9 263.7 264.4 264.6 264.4 264.1 263.4 262 260.7 259.8 258.1 257.1 255.9 255.4 254.7 253.1 251.6 250.6 249.5 248.2 246.3 243.3 241 237.9 233.4 231.7 229 225.9 225.8 226.1 226.8 227.1 230.1 234.6 241.3 247 252.8 258.6 263.4 268.8 269.6 269.5 268.6 266.1 261.6 248.1 226.4 206.2 200.3 205.7 211.1 220.4 232 245 256.3 269.1 281.3 294.8 300.7 304.8 316.3 325.5 330.9 330.4 316.8 302.8 285.4 274.8 285.5 300.7 315.4 331.6 345.7 359.8 374.2 387.4 392.7 386.1 376.1 380.6 395.9 403.8 402 403.9 410.8 418.7 424.3 428.3 428.3 426.1 424.6 422.8 421.9 420.9 418.5 414.9 410.2 405.7 401.8 399.9 397.3 396.3 395.4 393.3 393 391.4 390.4 388.5 385.2 383.3 384.5 385.1 387 389 391 391.1 389.5 385.9 382.7 379.7 377.4 374.6 371.2 369.6 378.9 385.4 390.3 393.8 396.4 397.7 397.7
213.8 217.9 219.3 219.8 219.5 218 216.6 217.1 219.1 223 227.7 234 237.7 243 247.4 250.9 250.6 249.6 249.1 246.2 247.4 248.7 249.1 249 253.7 253.1 250.6 255.9 270.4 283 292.1 295.9 293 295.9 296.9 297.2 295.2 291.8 289.8 287.1 283.7 281.9 280.6 279.7 275.5 272.7 271.3 265.9 260.9 261.3 259 254.1 252.5 251.8 253.2 254.9 255 254.7 255.4 256.8 257.2 256.9 258.2 249.9 242.2 242.6 254.8 258 262.9 264.8 267 267.5 267.7 267.5 267.3 266.7 265.2 263.8 262.7 260.8 260.9 259.7 259.1 257.7 256 254.5 253.4 252.2 250.1 248.2 245.9 244.1 238.1 235 233 228.5 228.5 229.6 229.6 230 229.8 232.2 238.2 247 255.7 260.8 266.5 272.5 277.1 278.4 277.8 276.7 274.3 268.6 251.1 228.6 206.3 201 204.8 211.9 219.4 226.6 239.9 250.7 263.1 274.5 285.7 287.7 306 327.4 340 346.8 343.8 329.9 315.3 301.9 293.5 284.9 285.3 301.9 317.5 331.6 344.2 358.7 375 384.4 379.9 371.6 382.7 395.7 403.5 406.8 411.1 419.7 427.2 432.4 433.3 433.1 431.7 429.7 428.8 427.5 425.5 422.1 417.5 412.2 406.6 401.8 400.4 399.4 398.6 398.5 397.7 396.5 395.5 394.3 392.2 389.6 385.2 381.3 380.1 385.5 387.8 388.8 388.9 386.6 382.6 379.1 376.6 372.6 368.5 365.5 368.4 376.3 381.7 385.3 388.5 391.7 392.4 393.6
221.7 221.5 223.2 224.6 225.2 226.3 230.1 237.3 241.5 247.7 249.5 251.3 253.3 255.1 257.4 258.8 258.1 258 261.6 258.9 253.7 253.8 254.2 254.5 256.5 259 262.8 263.8 255.1 268.6 280.8 289.2 296 302.1 305 305 301.1 299.2 297.3 290.8 287.3 284.2 281.5 281.8 277.8 273.7 268.1 263.8 259.5 257.6 257.6 255.7 255.6 257.9 259.3 260.9 261.3 261.3 262 261.9 262 261.8 261.7 257.9 248.3 245.2 249.8 257.5 259.4 266.3 269.9 270.3 269.6 270.3 270.1 269.6 268.3 267 265.7 264.9 264.9 263.8 263 263.2 262 259.6 257.5 255.6 253.6 251.3 249 243.8 239.2 236.3 231.4 230.2 233 233.3 233.4 234.2 233.2 233.9 240 251.9 261.6 269.1 274.5 280.9 285.2 286.6 286.3 284.1 282.7 275.2 250.9 229.3 205.7 202.6 205.6 212.1 219 223.4 228 238.2 248 262.2 268 279.1 306.4 332.7 348 358.8 355.7 341.8 331.8 322.1 314.7 305.6 297.7 291.3 300.4 312.5 322.1 339.7 355.7 371.6 369.1 367.9 385.3 396.9 405.6 411 418.1 428 432.2 434.3 436.2 436.8 436.5 435.5 434 432.2 428.9 424.6 419.4 413.3 408.2 403.1 401.9 402.8 403.7 403.3 402.6 402 400 397.8 395.3 392.7 388.5 384.3 379.9 378.2 384.9 385.2 384.5 381.1 377.6 373.7 369.1 365.9 364.8 364.4 363 369.8 375.7 380 383.2 386.4 388.6 389
224.8 226.4 229.5 232.8 237.7 243.6 248.8 253.8 257.6 261.2 263.6 264.8 266.9 267.7 268.5 268.4 267.3 267.1 270.1 269.6 264.3 262.2 260.1 261.2 260.1 266.2 267.4 269.7 267.8 259.7 266.7 282.2 295.2 304.8 311.4 310.5 308.5 306.8 303.6 297.9 290 285.5 279.6 272.7 268.5 266.9 263.6 263.1 264.7 267 266.2 264.6 265.4 264.9 265.4 266.1 266 265.6 265.7 265.9 266 266.5 265.9 263.5 254.5 254.5 249.1 256.3 259.6 264.3 270.7 273 274 274.4 273.4 271.9 270.9 269.4 268.2 269.3 269.3 268.2 268.5 268.9 269.5 266.4 262.1 260 257.4 255.1 249.4 242.8 239.2 233.8 232.9 235.4 237.5 238.9 238.1 238.1 238 235.4 240.3 252 265 275.9 281.5 288.5 293.3 293.3 295.3 293.2 293.2 278.2 252.4 228.2 203.9 204.5 207.1 210.5 217.6 222.3 225.6 230 233.3 244.4 252.9 277.2 304.7 328.6 345.6 363.6 361.9 356.2 346.3 340.4 335.3 328.7 322.7 316.5 309 305 305.8 314.7 338.2 351.8 343.3 360.7 374.4 389.3 401.1 412.3 421.3 429.3 433.1 436.5 438.6 440.3 440.2 439.2 437.6 435.6 431.9 427 421.6 416.6 411.6 406.3 406.9 407.9 408.2 408.3 407.5 406.2 404 401.4 398.1 394.5 391.1 387.6 383.4 374.4 377.9 379.6 375.8 371.6 369.1 366.6 366.7 366.5 368.9 370.7 367.8 362.6 363.3 369.4 374.9 378.6 381.9 382.3
230.2 234.6 242 249.8 256.7 261.7 266.2 268.5 271.6 272.6 275.3 277.7 278.5 277.7 275.7 275 276.1 276.1 278.1 277.2 274.1 271.4 268.5 267.2 270.9 275.4 277.5 278.1 275.2 273.1 264.3 271.1 288.3 303.2 309.4 313.8 313.4 311.3 307.6 299.1 286.9 274.1 267.6 267.6 272.6 278.2 279.1 278.4 276.7 274.4 273.9 272.2 272.5 271.2 270.7 270.5 269.8 269.3 269 269.2 269.5 269.6 268.9 264.9 261.9 264.2 257 251.7 259.5 264.4 269.2 273.8 275.7 276.7 276.3 276 274.5 272.9 271.4 271.7 271.2 271.4 271.6 272 271.6 268.9 264.3 263.9 259.7 252.2 243.9 238.5 237.8 237.8 239.3 242 244.8 247.1 246.9 245 242.8 240.3 239.6 247.8 264.6 277 286.6 294.6 297.5 298.5 301.1 299.4 293.6 274.1 247.7 224.4 203.3 205.2 207.7 211.4 216.1 218.3 221.6 225.4 230.3 237 246 268.9 294.4 319.5 337.5 353.1 361.8 365.2 358.2 354 348.4 346.9 346.2 343.4 340 335.3 333.1 327.5 324 325.5 349.6 362.9 375 389.6 402.1 418.2 425.7 430.4 435 438.7 441.4 443.4 443 441.1 438.9 436.7 433 428.1 423.4 419.4 415.2 412.4 413.3 413.5 414 414 412.3 410.3 407.6 404.8 400.7 396.7 392.5 387.5 383.5 377.3 371.2 370.5 369.7 368.5 368.2 370.1 372.3 374 376.3 375.4 373.2 367.8 359.9 357.7 359.4 366.1 370.4 371.1
238.8 250.3 263.7 271.3 274.6 278.1 280.9 282.3 283.1 284.1 287.1 288.6 285.7 283.4 281.6 282.5 284 284.9 284.7 283.8 282.3 280.4 278.5 273.9 281.6 284.3 285.4 286.3 282.6 276.9 276.7 267.1 275.4 290.2 305.1 314.9 316.2 312.6 303.2 282.5 270.3 272.6 283.7 286.9 281.4 283.4 284.7 287 289.6 289.3 285.5 284.9 282.6 276.8 275.8 274.9 273.9 272.6 272.2 271.8 272 272.3 272.1 274 274.8 271.7 267.5 258.8 260.1 267.9 273.9 277 279.3 279.6 278 277.1 275.8 273.9 275.9 275.8 276.8 277.4 278 277.7 274.8 267.2 260 257.3 250.8 242.7 243 243.7 242.7 243.2 245.9 250 253.6 256.1 257.1 255.3 251 247.3 244.2 245.7 258.9 274.9 288.2 298.5 302.7 305.1 306.6 302.9 295.5 271.4 243.5 219.4 204.6 207 209.5 212.1 216.2 221.5 225 229 232 235 236.3 252.6 278.1 301.4 320.8 338.2 348.9 356.7 362.5 360.8 357.2 358.7 361 363.4 366.1 365.4 362.7 360.3 355.1 342.5 343.2 356.2 373.7 399.7 415.1 424.3 430 434.1 437.3 440.8 442.4 443.5 442.9 441.8 440 437.2 433.6 429.7 425.1 422.1 419.2 419.4 420.4 421.4 421.6 419.8 417 414.6 411.1 407.4 402.9 397.9 392.1 386.5 380.6 374.6 372.1 371.2 371.2 372.2 374.7 377.5 378.2 380 380.4 378.6 375.1 368.9 365.8 361 356.7 355.9 355.2 356.6
255.9 268.7 278 283.3 287.6 290.3 290.2 290.9 291.8 293.2 296.1 294.3 291.8 289.2 288.2 289.2 291.8 291.2 290.5 291.2 290.6 290.3 284.4 282.3 291.3 292.7 293.5 292.1 288.6 282.7 283.3 280.4 269.9 283.7 301.7 306.7 294.9 281.7 279.4 272.3 279.9 293.7 295.3 292.7 288 296.1 299.1 302.1 301.2 299.3 291.4 293.6 294.4 288.9 281.4 281.3 279.7 278.6 277.5 276.1 276.7 277.6 278.2 281.3 284 280.3 276.2 271.2 260.4 270.3 277.4 281.6 284.2 282.2 278.6 277.7 277.1 279.4 282.4 284.9 287 286.7 284.8 280.6 269.3 260.9 254.6 248.4 247.6 248.4 249.3 248.8 246.7 249.2 253.4 258.5 263 265.3 267.7 264.5 260.3 254.4 249.1 245.1 254.6 271.2 283.7 294.6 302.9 307.4 307.3 305.4 295.2 268.6 240.6 216 206.3 211.7 213.4 218 220.6 226.4 234.7 240.5 240.7 241.4 244 242.1 256.6 277.7 300.5 320.7 336.1 348.6 357.9 361.7 363.5 368.9 372.9 376.5 381.6 383.5 379.3 380.5 376 361.5 353.3 362.3 387.4 411.6 422.8 429.8 434.6 437.5 439.9 441.7 442.1 442.8 442.9 441.3 439.5 436.5 433.4 430.1 426.9 425.1 423.8 425.9 427.6 428 427.3 424.8 421.8 417.7 413.6 409 403.2 397.4 390.5 383.4 372.7 372.5 376 378 379.2 380.9 382.9 383.7 384.1 383.9 383.1 380.3 376.1 374 372.9 369 365.2 361.8 357.1 353.7
269.2 280.6 287.5 291.7 295.7 298.1 299.3 298.5 298.1 299.4 299 297.8 296.4 295 295 295.9 299.1 299.3 300.6 300.1 297.6 296 288.4 293.9 299 301.5 301.8 298.6 293.7 289.7 284.4 282.3 278.5 278.1 297 282.6 280 285 279.9 276.6 296.7 304.4 302.2 296.9 294.3 295.2 297.4 300.1 299.3 298.2 301.2 297.5 295 293.3 291.3 290.9 290.9 290.9 288.3 285.4 285.3 287.4 293.1 296.7 295 290.2 286.4 274.2 263.4 277 280.3 284.5 286.9 283.6 281.8 282.5 284.6 289.6 293.7 295.7 295.2 293.7 287.4 275.7 263.7 253.9 250.2 252.9 254.3 254.2 252.8 252.1 252.3 258.9 262.6 268.5 271.8 274.9 276.4 274.2 270.5 264.1 256.8 250.3 253.7 266.5 278.4 287.8 297.9 304.4 306.2 306.4 292.5 264.8 237.7 212.3 206.4 215.5 217 219.8 223 229.2 239.3 247.8 248.8 247.1 247.6 250.8 251.2 257 281.8 303.9 322.1 333.7 342 355.2 366 374.5 382.1 389.1 394.9 395.9 387.6 389.9 383.3 376.1 366.9 386.4 400.6 416.1 426.7 431.9 435.2 437.6 440.3 442.3 442.5 442.5 441.7 440.2 438 435.1 432.9 430.2 428.7 427.9 428.4 431.2 432.8 432.3 432 428.9 425.2 420.1 415.4 408.9 402.3 394.3 384.4 375.1 374.9 378.9 383.2 386.2 387.4 388.3 388.8 389.1 387.1 386.8 384.7 382 380.7 380.4 379.7 377.3 374.8 371.5 366.4 361.6
276.1 286.9 293.9 298.6 304.5 306.1 306.2 304.7 302.7 302.8 302.1 301.1 300 299.6 299.4 302.9 305 305.7 307 307 302.6 295.9 292.9 299.8 303 309.1 306.1 303.4 297.8 294.2 288.3 285.8 282.1 278.9 278.9 280.3 298.8 299.5 294.6 293.8 302.8 308.9 304.1 300 308.1 308.8 303.3 304.4 305 302.7 303.5 302.3 301.9 302 300.9 301 301.2 301.6 303.1 303.9 305.1 306.4 305.9 305.9 304.3 298.4 293.9 280.2 268.1 287.6 287.5 287.6 288.5 288.3 288.8 291.3 295.2 300.7 304.6 304.3 301.1 294.6 283.1 270 258.3 254.5 256.7 257.9 259.1 257.2 255.5 255.1 260.8 268.4 272.4 278.3 282.1 284.2 286 284.4 280.7 272.9 262.2 255.3 255.9 263.7 274.2 282.4 291.1 298.3 301.4 300.5 288.3 261.8 233.5 209.9 208.6 219.9 221.4 222.5 225.5 233.3 244.5 253.6 258 258.6 255 257.6 260.3 256.2 271.4 290.8 307 311.9 323.7 345.8 364.1 376.7 389.9 397.6 403.8 403.5 391.5 393.5 390.3 387.6 386.4 409.3 420.7 422.7 425.6 431.1 434.5 437.5 440 442 442.6 441.4 438.9 437.3 435.4 433 432 431.4 430.9 431.5 433.6 436.3 437.1 437.8 436.1 431.8 427.2 421.2 414.1 406.6 398.2 387.2 376.3 376.2 381.6 388.1 391.8 393.7 394.2 394.9 394.6 394 391.6 389.1 386.9 385.9 386.4 386.3 385.8 383.9 382 379.2 374.6 369.4
272.1 287.2 296.4 303.9 311.1 312.4 310.8 308.4 306.6 305.4 304.5 303.1 302.5 302.2 302.3 305.3 306.9 307.4 305.8 304.8 300.9 296.3 295.8 294 289.1 292.6 296.4 303.8 299.5 295.5 292.8 290.2 283.7 278.9 278.9 282 287.9 293.6 295.7 299.7 311.6 316 312.9 309.1 310.9 309.8 310.5 309.6 311 309.8 310.7 313.9 315.3 314.8 312.8 314.5 315.1 315.4 316.7 317.8 318.6 317.4 317.4 315.3 311.9 304.7 293.7 274.4 280 298.6 297 295.8 295.6 295.8 297.8 302 307 311.3 312.8 310.2 303.4 291.4 275.7 264.9 255.9 260.4 261.2 260.8 261.5 260.3 258.7 261.4 270.4 277.7 283.8 288.8 293.3 294.6 295.7 292 288.3 280.8 265.1 257.3 260.9 270.7 280.3 287.1 294.3 299.9 303.6 301.8 286.1 257.9 228.3 208.1 212 224.7 225.6 226.3 228.8 237.7 248.2 258.8 265.5 271.3 268.7 264.5 263.8 262.2 265.1 280.6 292 305.6 327.2 346 362.8 381.2 396.9 406 409.6 403.1 392 400.4 401.9 400.1 407.8 421.3 426.7 429.4 432.2 434.2 436.3 437 438.9 440.4 440.2 438.4 435.2 433.6 432.4 431.2 430.2 431 431.2 434.1 437.8 441.2 443 443.4 439.3 434 426.9 419.6 410.7 401.9 391.5 379.3 377.3 384.6 391.8 395.7 399.4 401.5 401.6 401.3 400.5 399 396.3 392.3 390.3 390.7 391.3 391.7 391.7 390.1 388.2 385.8 381.5 377.9
261.7 279.9 294.1 305.4 312.9 315.1 312.5 309.6 307.2 306.6 304.9 303.4 303 301.7 301.4 304.7 305.2 305 303.3 300.6 299.6 301 301.4 289.1 289.1 289.1 289.1 289.1 291.1 293.4 293.2 290.4 282.6 280.4 280.4 283.4 288.4 295.9 300.8 307.5 312.6 316 312.3 314.7 315.1 316 315.2 314.8 316.6 321.6 325.5 328.6 331.9 332.1 328.5 330.2 329.6 330.2 329 328.4 328.7 326.5 323.8 320.7 316 304.9 279.9 283 302.3 310.1 308.5 305.2 304 304.2 306.5 311.6 316.1 318.2 317 311.6 301.7 286.4 270.8 262.4 261.7 264.3 265.1 263.5 264.1 263.7 263.7 270.5 280.9 289 295 299.1 302.8 304.2 302.5 298.2 294.2 281.4 265.8 259.5 268.5 280.4 290.3 297.8 303.5 308.3 310.3 306 281.2 253.3 223.8 209.5 216.7 229.5 231.1 231.7 233.4 241 251.4 262.3 272.7 281.6 285.5 278 270.6 267.3 268.1 274 289.4 307.4 327.3 346.2 360.1 380.6 392.9 393.4 388.4 384.6 385.5 403.5 412.1 414.7 423.2 428.6 432.6 435 437.2 438.5 439.3 438.3 438.4 437.2 435.6 432.9 429.8 426.8 426.7 426.1 426.1 428.3 432.8 437.4 442.8 446.6 448.2 445.8 440 432.3 424.5 414.9 405.7 396.1 382.6 377.8 385.5 393.8 400.3 403.7 406.9 409.3 409.2 407.7 406.1 403.6 400.8 396.4 395.2 396.4 396.7 397.9 397.8 396 393.8 390.4 387.3 384.9
243.1 265.3 283.8 302.5 309.9 313.7 313.4 308.8 306.5 304.2 300.2 298.2 297.8 297.7 299.7 301.7 302.9 301.7 299.6 294.3 294.1 303.3 295.4 289.1 306.9 311.3 305.1 291 289.1 289.1 283.9 280.9 280.2 283.1 282.8 285.6 300.7 309.6 312.8 317.7 319 319.7 317.5 319.4 321.9 323 322.8 324.9 331.5 337.6 342.5 344.5 348.4 347.6 342.2 342 341.3 339.3 337.6 335.7 332.5 328.6 325.3 321 314.9 294.1 284.4 306 319.4 319.7 317.3 315.1 312.2 313.1 315.3 320.2 322.3 322.2 317.3 309.3 297.5 279.9 269.8 264.1 265.1 267.4 267.8 265.7 266.4 267 270.5 280.3 290.8 299.4 305.6 308.3 311.8 310.1 307.7 302.8 293.2 277.2 266.5 268.9 278.1 289.8 300.1 307.4 312.9 315.6 315.2 306 277.5 248.6 217.8 210.4 220.7 233.6 235.1 235.4 236.6 244.3 254 266.1 279.3 288.3 295.5 294.6 284.8 277.8 276.8 275.1 277.4 294.3 311.7 325.7 340.5 352.2 359.9 357.5 353.7 364.9 381.4 400.3 415 425.3 432.2 435.6 439.2 441.5 442.4 443.2 442.5 441.1 438.6 435.9 430.4 425.9 422.3 418.8 418.5 418.7 419.9 424.8 431.4 438.7 444.9 448.6 448.4 444.5 436.1 428.1 419.1 409.4 400.1 390.7 379.3 385.2 395.1 404.1 408.2 411 414.2 417 415.6 413.9 411.6 408.4 405.5 401.7 400.9 402.6 403.2 403.2 403.1 400.6 397.9 395.1 392.7 391.2
225.4 244.9 266.7 288.8 302.6 308 308.9 306 304.3 299 293.3 290.2 291.9 294 296.7 298.5 296.9 293.1 291.4 286.2 284.9 287 292.1 312.7 323.1 325.9 325.3 320.3 309.1 299.9 292.8 287.4 284.2 285.4 285.8 290.6 310.6 320.1 322.9 326 325.5 324.7 323.6 326.5 329.6 332.3 335.7 339.1 346.6 352.9 357.3 358.6 360.8 360.7 355.2 353.5 348.1 344.1 340.5 335.9 331.4 327 321.9 313.8 303.7 285.2 289.5 317.1 325.5 326.5 324.6 323 318.1 318.7 322.7 324.4 322.9 320.1 313.6 305 291.8 277.7 271.2 267.1 265.8 270.2 268.9 268 269.5 271.9 280.4 289.2 300.1 309.8 318.4 318.9 319.8 315.8 311.7 302.7 288.1 275.9 269.5 280.4 289.7 299.5 309.7 315.9 321 322.1 319 301.4 271.9 242.2 211.9 212.8 223.6 236 237.7 238 240.5 246.7 258.4 271.2 283.3 292.8 302.3 305.2 302 297.9 290 286 284.2 283.9 289.5 297.8 311 318.2 324.8 325.4 343.8 367.5 391.7 412.4 426.7 434.6 438.6 441.6 444.7 446.5 447.5 448.2 448.3 445.6 441.7 437.7 431.2 425.3 419.5 414.3 410 409.7 411.4 416.9 423.5 433.5 441.2 443.7 442.7 436.7 429.5 421.5 412.5 402.9 393.6 382 380.4 393.6 404.1 412 415.6 419.3 423.6 423.9 422.1 419.7 417 413.7 409.9 407.2 407.9 409.3 409.8 410 408.7 405.6 402.7 400 397.3 395.6
220.1 229.8 252.3 278.4 296.8 306.1 306.9 302.5 296.5 289.4 285.2 283.9 286.5 289.7 291.3 292.2 287.9 283.6 283.4 290.9 304.3 303.5 314.8 325 330.7 333.6 333.6 330.5 324.1 316 308.2 304.1 299.7 295.4 289.8 296.9 318.3 328 332.1 333 333.1 331.2 330.4 334 338 341.6 347.9 353.1 359.7 364.7 369.6 369.8 369.2 366.6 362.5 358.6 352 345.5 338.8 332.3 326.9 318.2 306.5 297.3 293.7 286.6 302.7 313.2 319.6 321.1 322.9 320.1 317.8 316.4 318.1 319.3 317.3 313.8 306.4 296.8 286 279.4 272.8 271.3 269.2 271.8 270.9 271 273.9 280.1 289.7 300.9 312.5 321.9 330.6 328.6 324.8 318.6 311.3 298.4 283.8 275.9 281.1 292.9 302.9 311.1 318.6 324.6 328.7 326.7 317.9 293.3 264.2 233.6 212.6 214.3 227 236.2 238.3 239.4 243.1 250.3 262.4 275.2 287.4 300.5 311.5 315.8 316.6 315.7 310.8 299.1 296.2 295.9 295.2 297.9 301.5 307.3 313 325.1 350.2 376 402.8 422 433.1 439.6 443.6 446.8 449.5 451.3 453.2 454.2 453.5 450.7 446.2 440.5 433.4 426.2 421.6 417.2 413 407.6 402.3 408.5 412.5 420.6 426 430.6 430.3 425.1 419.7 412.3 404.3 395.1 384.8 381.4 393.9 406.4 415.2 420.4 425.3 429.6 431.2 430.6 428 425.6 422.6 419 415 413.7 414.6 416.1 416.5 415.2 413 410.1 406.9 404 401.3 399.4
226.1 222.9 239 262.9 287.2 298.7 300.5 297.2 286.7 278.8 275.5 278.4 280.6 284.4 287 283.7 278.1 285.3 294.6 302.1 312.9 320.6 327.1 334.1 337.4 340.2 339.9 336.8 331.6 324.5 315.8 310.4 305.2 298.9 292.9 292.8 322.2 330.8 338.7 340.5 340.2 337.9 335.9 341.7 346.8 351.4 358.6 364.7 372.2 375.4 380.5 380.5 375 370.5 367.8 361.4 353.3 344.4 332 320.7 313.5 303.1 298.3 297.9 298 293.4 299.6 307.2 309.8 311.1 311.4 311.8 309.9 307.9 309.7 309.8 307.6 304.8 301.5 291.6 285.6 280.6 277.2 272.9 272.7 273.8 273.3 274.4 280.4 289.2 301 313 324.2 332.7 336.8 334.4 327.4 319.1 307.4 291.7 281.8 281.4 292.4 304.8 315.4 322.6 329 332.2 335.3 328.3 311.6 284.7 255.7 224.4 214 218.2 229.8 235.3 236.8 238.8 245.5 252.8 266.8 277.8 292 307 319.1 326.6 329.8 330.6 327.3 320.5 317.2 312.5 307 308.3 312.9 319.2 331.7 343.1 354.1 372.1 401.2 424.8 436.8 443.1 447.9 451.6 454.6 456.7 458.7 459.4 458.6 455.6 451.3 443.6 437.3 430.3 425.7 420.9 414.7 407.8 400.8 398 399.9 406 410.6 413.5 412.4 410 406.1 398.3 393.2 383.9 382.5 388.6 407.4 419.2 425.6 430.7 435.6 438.6 439.5 437.1 433.7 430.1 427.2 424 420.6 419.2 420.3 420.9 420.3 418.4 416.2 413.3 410 406.4 404.1 401.5
234.5 224.6 225.3 250 276.2 282.1 281.4 277.8 273.6 266.5 267.9 271.6 269.2 271.2 270.8 274.6 283.9 295 301.2 310.6 321.5 328.6 336.8 341.2 342.9 345.6 344.7 342.8 340.4 334.3 324.2 315 308.1 303.5 298.5 294 311.5 330.2 343.9 346.9 346.1 343.2 343.2 348.7 354.1 360.7 368.7 376.6 381.5 386.6 390.9 388.5 381.3 376.1 369.3 360.7 350 335.9 319.2 307.3 305.1 307.7 306.3 304.8 303.1 299.7 298.3 304 306.7 308.3 307.9 306.9 305.8 304.8 304.5 302.9 301.3 298 296.6 291.9 285.2 281.8 279.1 272.9 275.5 276.7 277.4 283 293.1 302.3 313.7 326.9 335.5 341.9 343.7 336.7 327.6 316.2 301.5 289.3 286.3 291.6 306.2 317.9 326.9 333 336.8 337.9 335.7 323.9 304.7 275.3 247.4 215.4 216.6 221.5 230.9 232.6 234.7 239.2 248.1 259.1 272.7 285 299.4 312.8 325.7 336.3 344.6 344.6 340 337.7 335.3 332.3 323.2 322.2 324.9 334.9 347.6 359 371.3 390.5 410.4 428.2 439.7 446.9 452.1 456.1 459.2 462.3 464.2 464.5 463.6 460.6 456.1 450.6 444.5 437.4 430.7 422.6 409.5 399.4 397.1 396 394.6 392.9 394.3 396.6 393 389.3 389.6 385.6 385.6 388.2 396.4 406.8 418.4 429.3 435.8 441.2 444.4 445.6 444.1 441.9 438.3 434.7 430.9 427.1 423.7 422.5 422.5 422.5 421.4 419.4 417.3 414.4 411.1 408.3 405.4 402.4
240.1 233.9 224.4 235 255.4 255.2 254.3 253.3 254.8 258.8 259.6 257.3 264.9 270.9 276.2 278 284.4 296.9 303.3 318.3 327.4 334.9 341.6 344.8 349.6 351.4 352 350.1 346.7 341.3 330.9 319.4 310.6 306.1 305 296.3 309.9 332.3 348.2 352.6 352.4 350.4 352.5 355.4 362.6 370.1 377.6 385 390.3 394.5 394.6 390.2 383.8 378.3 368.8 357.2 342.3 324.7 310.9 313.9 318.1 320.4 319.6 315.2 309.8 305.5 302.4 305.4 309.7 310.2 308.4 306.9 305.6 305.1 304.6 303.1 301.9 299.4 297 290.2 286.1 282.9 280.2 275.1 278.9 280 284.1 296.5 306 317.6 329 339.8 349 353.2 349.8 338.2 327.3 313.8 298.4 291.4 294.8 305.9 319.4 330.6 337.1 343.2 344.2 342.4 337.4 322.5 299.6 268.8 238.8 214.3 218.3 222.9 227.9 230.7 233.8 240 251.2 264.6 278.5 290.9 304.6 315.5 332.1 344.1 352.6 351.5 349.2 350.4 349.6 346.4 341.4 338.4 345.4 351.3 361.7 374.1 390.3 403.5 425.1 436.3 443.7 450.8 456.1 460.3 464.5 467.8 470 470.3 468.8 465.4 460.7 454.7 448.2 440 429.2 411.2 400.3 400.7 402.2 403.2 399 394.7 392.9 391.5 390.6 389.1 387.8 391.1 393.3 398.7 408.5 420.4 431 439.7 445.1 449.2 451.1 451 449 446.3 442.1 437.9 432.9 428.3 424.8 423.6 422.4 421.3 419.6 418.4 416.4 413.7 410.2 408 405.3 402.7
244.4 238.8 231.4 227.5 237 242.4 246 249.1 252.9 249.8 256.8 263.1 271.5 278.3 283.1 284.4 286.9 294.8 303.4 320.9 331.1 338.4 344.5 349.8 357.3 358.3 360.4 358.5 353.5 347.5 336.3 323.7 312.8 306.9 300.7 300 315.6 337.6 353.4 359 359.8 358.6 359.8 364.9 371.7 378 386.6 391.4 396.7 398.5 395.4 390.6 384.3 375.5 363.8 350 333 316.9 318.1 325.8 328.5 333.2 332.5 327.6 321.3 313.9 308.6 308.5 311.8 312.3 311.3 309.7 307.3 305.7 304.5 302.6 300.4 297.6 294 290.3 286.8 283.7 279.6 278.8 281.8 284.8 294.1 307.6 319.7 332.9 343.3 353.5 363 368.3 353.4 339.6 326.2 310.6 298.5 297.1 306.9 320.4 332.7 340.5 347.1 351.2 351.3 348.5 338.7 323 297.2 267.5 234.3 216.6 220.8 222.6 226 229.6 233.6 241.1 254 267.9 283.1 295.5 308.4 321.8 336.2 348.9 356.2 354.5 354.3 357.1 358.8 356.7 355.4 356.2 362 369.4 381 395 411.2 428.3 433.8 446 451.3 456.6 461.2 465.6 470 473.4 475.5 476 473.8 469.3 463.7 456.7 448.4 436.2 415.2 402.6 407.9 414.9 415.3 413.4 410.2 405.5 398 396.5 397.4 396.9 399.6 401.4 403.1 406.9 420.2 432.1 442.1 448.6 452.5 456 457.1 455.6 452.7 449.4 444.9 439.3 433.5 428.4 424.3 422.4 420.5 418.5 416.6 414.9 413.2 410.2 407.2 404.8 402.9 400.8
247.2 239.3 227.6 229.3 233.3 236.6 239.3 242.8 247.9 255.1 263.3 270.7 282.2 288.7 289.5 293.6 296.4 296.4 307.7 319.4 331.2 341.5 347.9 357.7 361.1 367.7 369.2 365.9 360.7 354 341.4 329 316.7 307.9 302.9 308.1 324.1 341.9 356.6 364 368.2 369 369.8 375.7 381.9 388.2 394.2 399.6 403.1 403.3 397.5 390.7 382.3 370 356.9 340.6 325.8 318.4 329.8 335.2 338.6 340.4 338.6 333.5 326.8 318.4 313.3 312.4 314.5 314.3 312.7 310.9 308.3 305.9 304.2 303.2 300.1 297.1 293.6 290 286 282.3 279.8 281.9 284.7 291.1 304.8 319.6 334.2 346.9 357.4 365.3 369.4 365.5 352.1 339 323.5 308.2 301.2 307.2 320.2 333.7 344 350.8 356.1 357.9 358.8 349.5 337.4 320.1 295.7 266.5 232.4 217.5 222.7 224.3 226.4 229.5 233 239.5 251.1 269.2 286.3 298.5 311.9 325.5 338.5 349.5 350.2 350.4 353.4 357.8 358.3 360.7 365.3 370.3 377 388.2 402.2 416.3 431.4 442.2 448.4 453.3 458.3 462.3 466.3 470.7 474.8 478.1 478.8 477.9 475.4 470.2 463.7 455.7 445.3 426.2 405.6 408.3 420.6 424.5 424.1 421.7 416.7 408.2 400.3 406 406.6 408.3 411.3 413.8 417 421.3 431.8 442.8 449.5 454 458 461.2 461.2 459.5 456 451.9 447.1 440.6 434.4 428 423.4 418.3 415.2 412.8 410.7 409.7 407.7 404.2 402.2 400.1 397.8 396.7
249.6 242.8 229.5 229.3 236.8 239.5 243.7 248.1 255.5 263 271.1 275.9 287.3 292.8 297.8 304.5 311.1 309.5 311.7 315.5 329.3 343.1 355.4 364.1 370.4 375.6 376.7 374 367.9 358.8 347.2 334.4 321.1 310.6 305.6 313.5 328.3 342 356.6 368.2 375.2 376.8 378.9 384 387.8 394.2 400.5 405.5 408.8 406.9 400.4 391.7 380.1 367 350.6 335.2 322.7 329.7 339.8 347.2 350.6 346.2 340.6 337.4 330.2 321.2 317.7 316.9 317.6 316.6 312.8 308.5 305.9 302.8 300.4 298.8 298.1 295 290.7 287.7 286.5 284.8 284.2 286 289.5 298.5 314.3 331.3 346.1 360.4 370.4 373.8 370.7 362.9 350.9 336.7 319.4 307.5 309 320.9 335 347.2 355.5 361 362.5 362.9 357.2 347.4 333.7 314.3 290.1 263.3 234.2 218.1 224.2 226.6 229 231.6 234.6 236.3 246.1 262.8 286 298.8 311.6 321.5 326.8 329.2 329.1 335.6 341.9 346.3 353.3 361.6 372.5 381 390.5 403.2 419.4 433.3 445 452.8 457.9 461.5 464.5 468 471.7 473.5 476.3 479 478.7 476.5 473.8 468.5 461.2 451.9 436.7 414.8 405.9 421.9 430 432.9 431.5 427.7 419.2 405.3 410.1 416.4 417.6 422 425.6 429.1 433.9 439.2 444.6 451.7 455.6 459.4 462.6 464.3 463.7 461 458.1 453.8 448.6 441.8 434.9 428.3 421.1 415.3 410.9 406.6 404.8 403.4 399.6 395.8 392.9 390.7 388.4 389.3
