ncols 200
nrows 99
xllcorner 580000
yllcorner 111800
cellsize 50
34.3 30.7 28.5 25.2 21.7 20.8 20.1 18.8 15.6 12.4 10 7.7 6.8 6.8 7.5 7.8 9.5 11.2 11.5 11 10.8 9.3 11.6 14.3 18.5 23.1 22.3 21.6 17.6 18.8 31.7 32.2 38.2 43.9 48.1 51.4 52.6 53.3 53.8 52.8 51.7 48.2 44 37.3 31.4 29 26.5 28.5 33.5 36.2 35.4 34.1 31 27.4 33.9 34.7 35 36.5 36.8 37.1 33.7 35.3 34.9 32.5 29.4 22.9 15.3 8.1 3.1 2.7 4.1 4.8 7.1 12.8 10.9 16.8 23.5 30 33.4 34.3 34.7 32.8 29.3 27 22.5 20.3 17.9 14.7 11.3 7.5 6.5 6.9 9.7 15.8 19.3 20.6 20.9 17.4 13.7 15.4 12.1 9.2 10.8 15 14.8 14.4 14.2 14.6 15.6 16.2 15.1 13.7 12.2 12.9 12.5 15.3 19.2 23 28.5 31.7 35.5 36.5 37.6 38.3 39.8 40.5 41.5 39 37.9 35.7 33.6 27.8 30.4 30.2 28.3 24.6 26.2 26.9 25.7 25.8 23.7 20.7 12.5 16.9 26.2 28.7 42.7 48.7 51.2 52 52.1 51.3 50.1 48.5 47 46.1 46 44.4 40.1 33.2 21.5 14.5 11.2 11.8 14.6 16.7 21.3 24.7 27.6 30.4 32.1 33.2 33.9 35.2 36.1 37.1 36.3 36.5 35.6 36.2 34.4 31.7 27.5 23 19.3 16 13.2 11.6 9.4 7.2 5.3 3.5 2.4 1.9 2.1 2.2 1.7 1.3 1.4 1.4
36.5 32.6 29.8 27 24.9 23.7 21.8 20.5 17.3 14.4 11.3 8.4 6.7 7.4 9 10.3 12.3 13.7 14.1 13.9 12.8 12.4 14.3 16.5 21.7 25.9 27.1 22.5 21.1 17 30.6 34.1 38.1 42.3 47.1 51 52.4 54.5 55.1 54.5 53.1 46.6 42.8 33.5 33.5 32 33 34.9 38.7 38.9 38 35.6 31.8 31.1 35.3 37 36.7 38.3 38.8 39.5 39.7 38.9 36 32.4 25.9 18.2 10.5 3.9 2.9 5.1 6.9 10.2 13.9 15.2 13.6 17.3 26.1 33.7 36.5 36.8 35.7 34 30.3 24.3 19.9 17.2 14.5 11.3 8.9 7 7.1 7.4 13.9 21.9 25.6 24.7 22.8 18.7 18.1 18 14 9.8 14.5 14.6 17.3 18.5 18.9 19.1 20.7 18.3 17.5 15 13 17.6 19.2 16.9 15.4 21 23.3 26.3 27.7 30.1 30.8 31.7 34.1 36.9 38.8 38.7 38.5 38.4 36.5 34.1 33.6 33.7 32.3 30.9 31.3 32.1 31.2 31.9 32.2 31.8 19 26.8 34.9 41 43.7 47 50.5 53.6 53.8 53.5 52.9 51.4 49.9 49 47.5 45.4 42.9 35.5 24.6 18.9 17.1 19.9 23.4 27.5 29.8 31.3 31.8 32.9 33.5 33.9 34.6 35 35.7 37.5 36.2 35.9 34.7 33.6 30.8 27 23.4 19.7 16.8 13.9 11.1 8.8 7.3 5.6 4.2 3.2 2.7 2.6 1.7 1.9 2.1 1.9 2.8 2.7
34 30.7 27.6 24.6 23.1 21.7 20.6 18.6 15.4 12.1 9.4 7.8 6.8 7.7 10.2 12.6 14.2 15.6 16.2 16 15.1 15.7 17.4 20.1 25.7 29.5 30.2 26.8 22 19 29.3 33.3 35.6 39.9 44.6 47.6 49.6 53.1 55.6 54.4 53.9 48.9 42.7 37.3 38.1 38.4 39 40.7 41.8 41.1 39.9 36.7 34.8 36.1 37 37.4 38.4 39.2 40 40.4 40.1 38.3 34.6 31.8 25.6 17.4 9.4 4.1 3.6 4.4 12.2 14.4 16.8 20.6 20.6 22.3 27.1 34.9 39.4 38.1 34.7 33 30.1 24.7 20.2 15.4 10.5 8.7 8.1 8.4 10 9.3 16.6 25.4 26.1 26.4 24.8 20.1 21.7 20.6 16.8 13.2 16 20.6 20.2 21.3 23 23.2 23.1 21.3 19.7 15.4 15.1 20.4 21.5 21.3 18.1 16.1 16.9 19.2 23.9 23.9 23.9 28 29.1 31.7 34.6 37.8 40.1 40 38.7 38.8 37.3 37.1 35.7 34.5 36.2 36.6 36.4 36.6 36.9 35.7 34.4 34.2 38.8 43.7 47.6 50.5 53.2 55 54.6 54.8 53.6 52.6 51.1 49.6 48 45.9 42.7 35.1 31.5 30.5 27.8 28.9 32.4 32.6 32.9 32.9 33.3 33.1 33.5 35 35.6 35.6 35.6 35.6 35.4 33.8 30.4 28.8 26.9 22.8 20.2 16.6 14.3 12.1 9.6 7.4 5.8 4.4 3.6 5.6 6.4 6.9 7.1 6.6 6.7 10.3 12.1 10.1
31.1 28.1 25.1 21.8 19.1 17.8 17.1 15.1 12.3 9.5 8.1 6.6 7.4 8 11.2 14 16.6 18.6 18.5 18.2 19 18.9 22.1 26.1 29.7 33.5 32.4 27.1 21.5 20 26.8 31.9 34.7 35.4 39.5 41.2 47 53.8 54.5 54.8 53.3 49.2 44.5 41.5 42.5 41.4 43 43.7 43.5 42.6 39.3 38.2 36.9 36.6 36.5 36.3 36.7 38.3 39.2 39.7 38.9 37.5 35.1 29.2 21.3 15.7 8.6 4.4 4.7 4.2 13.4 15.4 22.6 27.7 29.6 30.7 34.7 40.6 41.9 41.6 38.1 31.3 29.4 24.3 19.4 13.1 10.1 15.1 15.2 13.7 13.2 10.6 18.6 26.8 28.2 29.2 27.1 23.9 24.7 21.6 18.2 19.5 19.3 21.7 22.6 22.6 25 26 24.8 22.7 19.2 18.4 21.2 22.9 24.2 24.1 22.2 16.9 21.6 26.6 27.4 29.8 31.4 33 36.3 35.4 34.2 35.8 39.2 40.6 41.5 41.7 41.6 41 40.3 36.5 40.8 41.9 41.9 40.9 41.6 40.5 38.4 35.1 41.3 46.3 49.8 53.3 57.1 58 56.3 54.9 53.9 52.9 51.4 49.9 48.3 45.9 44.3 42.1 37.7 37.2 36.1 34 34.2 33.8 33.2 33.7 33.1 33.2 33.8 34.5 35.3 35 35.3 35.5 32.7 28.2 24.1 22.7 21 18.6 16 13.7 11.4 9.2 7.1 5.6 5.3 5.2 7.9 11.8 12.8 13.3 15.5 18.6 16.4 19.6 17.2 13.9
27.7 26.5 24.5 21.3 18.3 13.9 10.1 12.2 9.7 7.7 8.1 8 7.8 9.2 13.6 17 19.4 22.1 23.7 24.4 21.7 23.4 29.1 34.3 38.4 37 32.7 27 23.9 24.1 24.3 28 31.1 34.9 37.5 43.1 48.9 53.4 56.1 56.2 54.6 52.1 50.1 47.8 46.3 45.2 45.1 44.9 44.2 42.4 38.5 38.3 37.5 36.7 35.9 35.9 36.5 36.8 37 37.1 35.8 34 30.8 26.4 20.9 15.3 8.9 6.7 4.4 4.4 12.5 16.1 26.3 34 38.4 40.7 44.3 45.7 43.8 42 38.9 34 29.4 22 17.7 11.8 14.6 19.1 19.1 16.7 16.5 14.3 19.7 26.6 30.2 31.2 29.4 26.4 27.4 25.4 17.9 24.8 25.4 22.1 26.2 26.8 28.1 28.1 26.2 23 17.2 25 27.3 27 25.8 24.4 22.9 20 22 26.3 30.4 33.9 36.1 37.7 39.5 39.6 38.5 36.9 38.9 41.1 42.8 43.7 44.4 44.9 45 44.6 46.1 47.3 46.7 46 45.4 45 42.8 38.4 43.7 48.5 51.8 56.6 59.5 58.8 56.9 55 54.1 52.7 51.8 50.2 48.2 45.1 43.4 41.4 39.9 38.6 36.4 35.2 34.4 33.6 33.4 33.1 32.6 32.6 32.6 33.3 33.6 32.1 29.6 27.4 24.5 21.1 18.7 17.4 17.2 15.7 14.2 11.3 9.2 7.6 9 9.4 10.1 9.9 13.2 20.9 24.7 25.5 25.8 25 22.5 22.4 19.4 15.2
26.7 23.8 21.9 18.7 14.8 14.1 11.3 9.9 8.4 8.3 9.9 8.5 7.7 11.4 16.3 19.8 24.1 26.2 28.3 30.3 25.4 30.2 37.2 40.8 41.5 36.6 31.2 25.1 29.3 30.4 29.1 26.8 32.4 39.3 44.6 48.4 52.7 54.6 57.3 57.3 56.4 54.7 52.7 51.3 49.9 47.1 46.1 45.1 43.6 40.4 39.2 38.4 37.4 36.4 34.3 35.2 35.3 34.9 33.1 33.3 32 29.1 25.6 21.5 17.7 13.8 9.3 5.8 5.3 9.9 15.7 20.8 29.3 37.5 44.9 48 48.8 48.3 46.3 41.7 37.9 34.9 28.8 24 15.9 11.3 20.3 22.4 22.1 21 19.7 18.8 21.6 27.3 31.6 32.7 32.1 30.4 29.7 27.4 21.7 29.8 28.7 24.5 29.3 29.5 29.8 29.2 26.5 21.5 24.2 28.9 30.8 30.5 26.6 24.5 18.6 24.4 27.7 25.1 30.6 35.7 38 40.1 42.1 41.3 40.2 39.9 40.8 42.2 43.1 44.5 46.6 47.5 48.1 49.3 50.4 52 51.3 50.8 50.2 49.1 48.7 46.4 46.7 50.4 53.3 58.2 59.9 59.6 56.6 55 53.7 53.2 51.5 49.7 47.9 46.3 45.4 44.5 41.3 39.4 37.4 35.1 33.3 32.2 32 32.1 31.8 29.9 27.9 27.5 25.9 23.8 22.2 19.4 17.3 16.2 14.7 13.6 12.4 11.8 10.9 9.6 10 12.3 13.2 14.2 15.4 16.3 22.1 27.6 28.2 28 27.2 25.1 23.9 22.4 18 14.6
22.5 20.6 17.6 16.7 14.8 12.8 10.6 8.7 8.5 10.2 11.9 8.5 8 13.5 18.9 22.1 27.1 31.4 33.6 35.5 36 36.9 41.2 44.2 43.9 37.2 30.8 33.7 37.9 40.6 36 31.9 32.3 42.6 50.2 52.9 55.2 56.5 57.1 57.4 57 55 52.4 51 46.7 46.9 43.6 42.6 41 39.9 39.2 38.4 37.9 37.2 34.8 33.6 33.6 31.8 29 29.3 28 24.1 20.3 16.7 13.8 12.3 5.6 4.6 4.5 5.9 14.3 24.9 29.5 37.6 47 50 50.5 49 46.4 41.7 38 33.5 28.9 23.8 15.2 14.9 22.5 25 23.9 23 22.6 21.6 24.9 30.4 33.6 35.6 34.7 34 32.7 29 26.9 31.9 32.1 27.9 32.2 32.1 30.6 29.4 25.2 24.7 28.9 32 31.7 31.3 27 22.1 24.9 27.2 30 31.7 32.8 36.5 39.7 43.1 43.7 43.5 42.4 42.5 42.5 43.6 45.2 44.9 49.2 51.3 52.1 52.9 53.8 54.5 54.3 53.7 51.7 52.1 51.1 50.1 48.7 51.9 53.2 57.1 59.1 58.5 55.7 53.5 52.9 52.7 51 49.2 47.8 46.2 44.4 42.6 40.2 38.5 37.7 36.9 35.2 31.9 28.3 27.9 27.1 25.9 24.1 22.6 21.3 19.5 18 16.9 16.6 15.2 14.2 14.3 14.4 13.9 13.2 13.6 16.5 18.2 19 21 23.3 25.4 27.9 30.9 30.5 29.4 27.6 25.5 23 20.3 16.2 12.2
17.3 13.6 15.7 14.8 13.2 11.1 9.3 8.8 10 13.1 11.9 8.5 8.3 15.2 18.6 23.9 28.7 34.6 38.5 40.8 42.3 43.9 46.1 47.3 46.7 37.6 40.2 43.1 46.9 47.3 45.9 41.4 41.1 42.9 51.3 54.3 56.3 57 57.5 57.4 56.1 53.5 51.5 48.2 46.5 45.3 43.3 41.4 40 39.2 38.7 38 37.4 36.7 34.6 29.4 31.9 29.7 26.1 24.7 23.3 18.6 14 8.9 6.1 5.4 5 4.5 5.5 8.7 18.5 25.4 31.2 38.2 46.8 50.1 50.4 48.1 44.2 40.3 36.8 32.3 28.3 23.4 13.3 20.5 25.4 24.6 27.3 26.9 26.5 24.3 26.7 32.3 35.8 36.7 37.2 37.1 35 34.8 34 35.4 35.4 32.9 34.6 33.5 32.1 28.8 24.6 29.7 33 33.8 31.8 29 27.1 27.2 27.6 30.5 32.8 36 35.8 38.6 41.4 44.4 45.7 45.4 44.8 44.1 44.7 46 47.9 49.3 50.8 54 54.3 54.9 55.3 55.8 55.7 55.8 54.2 53.5 52.4 51.1 51.6 52 52.9 54.5 56.8 56.1 53.6 52.6 51.5 50.8 50.7 48.6 47.3 45.6 43.7 41.6 40 39.7 39.8 39.4 36.8 35.7 31.6 29.2 28.8 27.1 26.8 25.5 24.9 23.4 21.5 22.2 20.1 16.5 16.9 21 21.9 22 20.5 18.9 23.5 28 28.8 31.7 32.2 32.5 32.7 33.4 31.7 29.5 27.4 24.8 21.3 18.6 14.6 8.8
17.4 15.6 14.8 12.7 11.1 9.6 8.5 8.5 12.9 14.7 11.6 8.5 9.8 15.8 19 23.6 26.7 33.8 39.3 42.8 45.1 47.7 48.9 49.8 47 46.4 48.8 49.3 50 50.1 49.9 49.3 49 51.1 53.2 55.2 56.5 56.6 57 55.9 53.9 51.3 48.5 44.9 42.3 37.3 40.3 39.1 39 38.8 38.2 37.5 37 36.2 32.8 27.4 28.2 27.4 18.3 18.3 16.8 11.5 9.5 7.1 5.8 5.2 4.9 5.2 6.4 11.6 22.1 26 36.2 42.5 49.1 51.5 49.7 46.3 42.2 38.5 35.2 31.4 27.6 22.9 13.9 23.7 27.4 28.2 30.3 30 28.7 27.9 27.4 33.2 37.8 38.6 40.3 40.5 40.1 38.3 37.7 39.4 38.8 37.3 36.7 36 31.4 29.5 31 35 36.6 35.4 32.6 29.1 32.2 31.9 29.9 34.2 36.9 38.5 38.8 40.7 43.1 45.4 47.4 46.8 46.8 47.2 48.3 49.8 51.4 52.9 54.2 55.4 55.6 56 55.7 56.6 56.2 55.6 54 53 52.2 52.2 51.2 51.8 52.3 51.7 51.6 52.2 51.9 51.4 49.7 50 49.6 48.2 47 45.5 43.8 42.3 41.7 41.4 41.3 40.6 38.3 37.4 34.8 35.1 34.9 35.7 35 33.6 33 30.2 27.2 28 22.8 19.3 23.1 28.9 30.5 31.4 26.8 25.2 30 33.9 36 36.3 36.5 36.5 36.1 33.7 31.7 28.6 25.7 22.3 18.2 16.2 12.3 3.6
17.1 13.6 12.4 11.5 10.1 8.5 9 12.3 16 15.1 11.6 8.4 11.1 15.5 18.9 26.4 32.4 34.7 37.8 43.1 46 48 48.6 50.1 49.8 50.2 51.2 51.6 51.3 51.5 51.7 51.6 52 52.7 54 55.5 56.4 56.5 56 53.6 51.2 48.5 44.9 41.8 38.9 38.4 37.7 38.3 38.5 38.6 38.1 36.7 36.3 35.2 32.1 26.7 22.9 21.4 18.5 16.1 16.3 16.8 17.5 14 5.9 5.3 2 6.1 8.5 17.6 23.3 28.5 38.1 45.5 50.6 50 47.7 43.5 39.2 36.3 33 29.8 27.4 22.7 19.6 25.9 28.7 30.4 32.3 32.7 31.3 30.2 27.7 33.2 38.4 40.3 42.9 43.3 42.8 42.7 42.1 43.6 42.3 41.1 38 36.1 35.7 30.8 35.8 39.5 39.4 36.9 34 33 35.1 34.8 33.3 36.6 39.1 40.4 41.6 43.5 46.5 47.8 48.9 48.5 49.1 49.7 51.2 52.3 53.8 54.6 54.9 55.3 54.5 55.1 54.5 55.6 55.5 54.8 53.9 53 51.8 51.8 50.2 50.1 49.8 49.7 49.5 49.3 49 48.1 48.6 49.5 48.8 48 46.9 45.9 44.9 44 43.1 42.5 42.2 41.3 39.7 39.5 38.5 38.7 38.8 38.6 38.1 37.4 36.6 34.8 33.4 30.9 24 22.2 27.5 32.5 35.8 36.8 33 33.1 37.2 39.7 40.4 40.2 39.3 38.2 36.7 31.2 30.9 26.6 25.4 23.6 21.7 15 7 2.5
12.5 12.5 10.7 10 8.7 8.9 10.3 15.6 17.2 15.1 11.3 8.7 9.3 14.5 18.6 26 30.9 33.6 36.2 41.6 44.6 46.8 48.7 50 50.2 51.4 51.6 51.8 51.8 51.7 51.7 51.7 52.1 52.6 54.1 55.2 56 56.4 55 52.1 48.4 45 40.8 37.9 35.9 35.5 36 36.7 38.4 38.2 37.7 35.2 33.9 33.4 27.2 24.6 23.8 23.4 23.1 23.9 23.9 23.9 20.3 14.7 6.3 5.4 5.1 6.8 12.6 21 25.7 31.3 38.9 45.3 48.2 47.3 45.2 42.1 38.6 34.4 29.8 27.3 24.5 21.5 24 29.4 30.3 32.3 33.7 33.6 33 33.2 30.6 33.9 38.7 42.9 41.3 47.1 48.2 48 49.2 48.2 46.9 45.8 42.6 40.8 37.3 32 40.9 43.5 42.1 40.1 37.1 37.3 39.4 39.3 38.3 38.6 41.9 42.8 43.3 47.4 51.5 51 50.2 50.7 51.4 52.2 53 53.7 54.3 54.7 54.5 54.2 54.1 54.6 55 55.7 55.3 54.1 53.5 52.2 50.7 49.2 47.8 48.2 47.7 47.4 46.8 46.7 46.2 45.9 46.9 48.6 48.3 47.8 46.7 45.9 45.2 44.4 43.8 42.7 42.1 41.3 40.5 40 39.8 39.4 39.7 40.1 38.8 39.8 38.9 37.1 36.4 35.2 29.2 25.8 31.1 36.3 40.6 41.5 40 41.2 43 44.9 43.9 42.5 42.3 39.1 37 33.2 30.3 27.3 25.1 23.4 21.9 19.8 2.9 2.3
11.2 10.2 9.4 9.1 9.1 10.4 13.4 16.4 17.3 13.2 12.7 8.8 9.2 10.1 17 22.8 27.6 29.6 30.6 35.9 36.4 41.3 48 49.6 49.6 50.3 51.3 51.5 51 51 51.5 51.4 51.8 52.7 53.5 54.5 55.1 55.1 53.4 50.6 43.3 41 38.1 34.5 33.8 34 34.9 36.9 38.6 39.2 38.2 36.9 32.8 30 30.7 31.6 31.1 30.6 31.5 30.8 29.8 25.9 20.7 13.7 6.9 5.8 5.3 7.8 16.4 23.9 28.6 36.2 42.8 45.7 46.7 46.1 44.1 40.6 37.3 33 29.6 28.4 26.4 15.2 26.3 30.9 32.2 34.2 35.8 36.8 35.9 36.5 35.2 35 38.7 43.9 47.5 50.7 52.5 53.3 53.9 53.8 52.6 48.8 47.5 43.2 36.3 36 48.1 48.1 45.5 43.3 39.6 41.9 43.3 42.6 41 41.7 46 48.1 49.6 51.7 51.4 51.6 51.6 50.9 51.5 52.3 53.3 53.1 53.3 53.6 53.5 53.1 53 53.3 53.7 54.3 53.3 53.3 52.4 50.5 48.7 47.1 45.6 45.6 45.3 44.6 43.8 43.7 43.1 43.1 46.2 47.4 47.9 47 45.9 45.1 44.6 44 43 41.9 41.1 40.3 39.8 39.8 39.9 40.1 40.1 40.5 41.1 40.5 40.6 37.4 40.6 41.8 35.5 30.2 35.2 42.2 43.9 45 45.5 46.3 47 46.9 47.1 46.4 44.9 41.7 37.8 33.1 29.4 26.7 24.4 22.6 21.6 6.6 2.8 2.5
10.4 9.8 8.8 11.1 12.8 14.5 20.4 19.3 15.7 17.4 18.6 16.7 12.2 9 11.8 17.2 22 24.3 24.8 27.4 38.3 45.4 47.8 48.9 49 49.5 50.7 50.9 51.6 51.3 50.8 50.3 50.6 51.7 52.5 53.4 53.8 53.4 51.8 48.8 43.9 39.4 34.8 33 32.8 32.9 35.3 37.4 37.9 39.4 38.3 37.2 34 34.4 35.7 36 35.2 35.1 33.5 32.5 29.7 26 20 14.3 7.2 5.7 5.7 9.1 19.2 25.4 30.3 37.4 42.2 45.6 46.6 45 43.5 40.8 37.3 34.2 32.3 30.8 29 19.6 29.4 32.5 34 36.2 38.3 38.7 37.8 38.4 37.6 39.5 40.2 43.8 48.3 53.1 56.4 57.8 58.2 57.5 56.3 54.6 50.6 43.5 38.8 40.1 52.6 50.8 48.7 46 42.8 47.7 48.5 46.8 45.6 46.5 49.7 52.4 53.1 53.1 52.7 52.2 51.5 50.8 49.5 51.2 52.3 51.4 51.7 52 51 48.7 50.7 50.7 50.8 51.3 50.5 48.8 49.5 48.4 46.7 45.5 44.3 43.7 43.2 42.1 40.4 40.5 39 42.8 45.5 46.5 46.9 45.8 44.8 44 43.7 43.3 42.8 40.8 39.9 39.2 38.9 38.7 38.8 39.2 39.6 40.8 41.4 42.8 44.3 45.5 47.7 46.4 40.1 36.5 40.5 43.9 45.3 45.5 46.5 47.2 47.4 47.2 48 48.4 47.1 43.4 38.1 32.8 28.7 25.5 23 21 19.3 2.7 2.6 3
11.9 12.4 13.1 16.6 18.6 18.6 22.7 20.2 19.6 22.4 22.6 19.7 16.4 10.1 9.7 17.4 20.4 23.4 28.4 34.7 40.9 46.6 47.8 47.7 48 47 48.9 49.5 51.1 50.5 50.1 49.4 50.1 50.7 51.5 52.1 51.9 51.1 49.4 45.6 41.8 39 35.6 32.5 29.9 32.8 35.8 39.9 38.3 37.7 37.3 36.6 35.9 36.2 37 36.7 36.2 35.1 33.3 32 28.9 25 19.3 14.6 8.3 6.2 6.2 10.2 19.3 26.1 32.2 39.3 43.3 46.5 46.7 44.3 43.8 41.5 39.1 36.5 35 32.6 30.2 22 28.1 33.6 35.3 38.2 40.5 40.9 41.1 40.5 40.6 41.7 42.2 44 48.1 53.1 57.9 59.8 61 60.9 59.7 58.5 55.1 48.3 42.4 46.1 56.6 54.8 52.2 48.2 48.6 52 52 50.5 49.7 51 52.6 52.7 52.7 51.7 50.5 49.3 48.8 47 45.1 47.3 49.5 49.7 49.5 49.1 48.5 45.1 48.1 49.7 50.1 49.2 48.2 47.5 47.3 46.7 44.9 42.7 38.3 41.2 41.5 40.1 34.3 32.1 38.9 42.7 44.8 45.2 44.7 44.4 43.5 42.7 42.4 41.3 41.1 39.6 39.3 38.7 38.7 38.1 38.3 38.3 38.5 39.9 41.8 44.2 47.3 50 53 50 44.1 42.2 43.5 44.2 43.9 44 45.1 45.8 45.6 46.2 47.8 47.6 46.6 43.1 37.2 32.4 28 24.4 21.1 11.9 3 2.6 3.1 0.6
15.4 14.7 16.7 19.8 25.8 25.3 26.5 22.4 25.8 25.7 22.7 20.7 17.4 12.3 9 17.6 23.8 30.3 36.7 42 44.8 46.5 45.9 44.3 43.6 42.3 45.5 48.3 49.6 49.1 49.4 48.8 48.8 49.8 50.3 50.5 50.5 49.7 49.1 48 45.8 42.1 38.4 34.7 30.1 30.6 33.5 38.1 38.8 36.2 35.3 35 35.8 36.9 36.8 36.6 35.6 33 31.4 29.9 26.8 23.3 18.7 14.6 9.3 6.1 5.8 11.7 20 27.5 35 40.5 44.1 45.5 43.8 43.7 43.3 41.6 39.6 37.6 35.9 33.5 30.7 24.4 28.4 33.2 36.8 39.6 41.4 42.4 43 43.6 43 43.8 44.1 45.2 47.1 52.6 57.4 60.7 62.6 63 62.8 61.7 59.1 52.9 50.1 57.8 59.9 57.3 55.5 53.7 53.2 54.4 53.3 52 51.9 52.2 52.3 51.1 48 48.7 47.5 46.3 45.6 45.2 45.8 47.1 48.1 49.4 47.6 44.9 43.2 39 47.1 48.4 48.4 46.9 42.7 44.1 44.4 41.1 41.4 32.7 33.1 37.9 39.6 38.2 32.8 28.9 39.1 42 43.4 43.6 43.2 42.7 41.9 41.2 39.8 39.7 39.1 38.9 38.8 37.6 37.8 37.7 37.6 36.9 37.5 39.9 43.1 46.2 51.4 54.7 55.2 49.6 44.8 42.3 42.4 42.3 42 41 42 41.3 42.1 45.1 46.9 45.6 41.6 38.7 34.6 30.3 26.2 23.2 17.1 3.2 2.7 2.2 1.4 2.4
21.9 24 25.3 28.1 31.3 32.4 28.9 28.2 29.2 24.9 19.4 19.9 17 12.1 9.7 19.1 26.5 33.6 39.8 44.1 45.4 45.8 43.1 39.2 38.2 41.6 46.7 47.8 48.8 48.3 47.6 47.3 46.6 48.5 49.4 49.3 48.9 48.1 48.8 48.4 46 42.4 38.2 33.7 30 27.4 32.5 35.8 36.7 33.7 33.4 33.4 34.7 35.6 35.9 35.8 33.8 31 26.9 26.4 23.8 20.7 18 14.4 9.9 7.2 6 12.2 20.6 28.6 35.8 41.1 43.6 43.5 42.1 42.8 43 40.3 39.5 37.8 36 33.8 31.4 27.4 28.1 34.5 38.1 40.6 42.3 43.6 44.5 45.5 45.6 46.2 47.6 48.1 49 52.5 56.5 60.7 63.6 64.8 64.8 64.1 62.9 60.9 59.1 62.3 61.2 59.5 58.3 57.8 56.5 55 54.3 53.8 52.3 50.5 49.1 47.9 41.7 45.6 44.3 43 40.9 40.4 40.8 42.7 45.9 45.9 42 38.9 36.4 36.7 43.2 44.6 45.1 43.8 37.4 35 35.9 35 32.8 27.5 28.7 33.7 35.3 33.2 26.5 19.1 39.4 41.3 42.6 42.4 41.6 41.1 40.3 39.3 38 36.9 37.2 37.3 36.5 35.6 35.8 36 35.1 34.3 37 40.2 44.4 49 52.3 54.1 50 45.5 41.8 39.5 38.6 38.7 38.4 36.5 37.8 35.8 38.9 42.8 43.5 41.2 36.4 32.6 29.5 26.5 24.4 21.6 3.3 2.6 3.2 1.4 3.3 2.8
34.6 36.1 35.1 33.6 34.8 33.6 30.9 31.1 28.9 24.6 21.8 18.5 16.1 11.2 14.6 21.4 27.1 35.1 40.7 43.5 44.7 42.4 40.1 35.7 37.9 42.7 45.7 46.7 47.1 47.3 46.7 44.5 45.4 47.8 47.9 47.6 46.5 46.4 45.4 44.8 43 39.2 35.1 31.7 29.3 25.1 31.2 34.8 34.6 32.1 31.4 31.7 32.5 33.7 34.2 33.7 31.4 28.1 24.9 22.5 20.9 18.9 17.4 15.7 10.9 6.7 6.3 11.7 20.3 28.1 35.5 40.4 42.6 42 41.8 41.2 41.1 40.4 39.3 38.1 36.4 34.5 31.1 26.1 31.9 36.3 39.6 41.7 43.1 44.7 46.8 48.4 49.6 50 50.9 51.9 52 53.8 56.9 60.9 63.9 65.1 65.3 65.5 64.7 63.1 62.2 61.7 60.7 60.4 60.3 58.7 56.6 50.4 51.2 49.3 47.3 46 44.1 44.1 42.6 41.4 41.3 36 36 33.8 32.3 37.5 40.3 39.4 35.9 32.9 28.5 32.4 38.5 40.7 42.9 39.9 35.4 30.8 28.6 28 26.8 23.7 24.5 28 29.5 27.2 21 29.5 38.6 40.9 41.7 41.3 40.4 39.1 37.4 37.4 36.4 34.4 34.2 35 33.8 33.1 32.6 33 32.2 34.2 37.9 41.1 48.2 49.4 48.7 47.4 44.1 40.2 37.7 36.5 35.2 35.4 34.4 32.2 30.6 30.6 36 40.4 38.5 35.5 31.4 27.5 25.1 23.5 22.6 6.8 4 0.6 2.5 2.7 2.6 2.7
40.7 40.8 39.5 37.9 36.1 35.3 33.6 31.3 27.5 23.6 19.9 15.8 11.3 10.6 18 23.5 27.1 33.6 40.1 42.3 42.6 39.9 35.8 31.8 36.7 41.4 44.1 45.8 46.2 45.7 44.2 41.5 44.9 46.7 46.4 45.9 45.4 43.6 43.9 40.3 37.8 34.8 32.2 29.9 28.5 24.8 29.2 30.7 30.3 30.4 29.4 28.8 29.2 31.3 31.8 30.9 27.4 25 21.9 19.1 17.6 16.3 15.5 14.8 7.4 5.9 7.4 14 20.3 28.2 30.1 39 40 39.8 39.4 38.9 38.5 39.2 38.7 38.5 37.8 37.2 33.3 24.6 33.9 38.1 40.6 42.2 44.3 46.5 48.5 50.3 51.9 53.2 53.8 54.8 54.9 56.5 58 60.9 63.6 64.5 64.7 62.8 63.5 62.1 60.6 59.5 57.7 57.6 57.3 55.4 53.4 49.9 49.3 45.1 42.1 39.5 37.5 37.7 35.4 33.7 33.4 30.6 28.5 27.7 29.9 36.4 36.6 34.3 31.5 28.7 24.6 31.2 36.6 40.9 42.7 42.8 39.5 32.5 26.9 24 21.2 19.5 19.2 19.5 22.7 23 17.1 27.8 35.8 39.2 40.1 39.6 38 36.2 34.1 33 33.9 31.8 30.5 30.2 29.7 29.6 29.4 29.3 31.4 34.5 38 42.3 47.2 49.5 46.2 41.8 37.9 34.8 32.3 32.3 31.7 31 30.7 28.6 26 26.5 32 35.1 32.4 29 27.3 24 22.2 21 8.1 4.5 2.5 2.6 2.6 2.7 2.6 2.6
43.1 41.9 40.6 38.6 36.5 33.3 30.2 30.1 26 20.9 17.1 16.8 14.1 10.8 16.2 19.3 23 31 39 40.8 38.7 35.9 30.6 31.5 38.3 41.1 42.9 44.2 43.6 43.1 41 41 44 45.6 44.9 45.4 44.9 40 40.6 39 35.6 30.7 29.2 26.8 25.8 25.2 30 31.2 30.7 29.1 28.5 26.9 26.4 27.2 27.8 26.8 24.2 21.6 18.2 15.1 14.4 13 13.2 9.4 6.5 6.8 10.6 17.8 20.8 29 34.6 37.4 37.6 37.3 36.9 36.1 33.9 38.4 38.9 38.7 37.6 37.4 30.5 31.5 35.7 39.2 41.2 43.6 46.5 49 51.4 53 54.2 55.1 55.6 56.5 57.2 58 59.3 60.3 62.3 63.6 62.5 61.5 58.9 57.7 56.1 54.8 52.8 52.9 52.7 51.1 50.4 48.8 46.5 43.5 41.5 36.6 35.1 32.9 30.1 28.7 27.7 25.5 23.9 24.6 28.8 32.5 31.5 30.4 28.3 25.1 26 30.6 38.7 41.6 44.7 46.4 39.9 34.2 31.2 29.8 27 22.7 18.9 15 15.9 17.6 15.6 24.3 30.9 35.8 37.7 36.4 33.6 31.7 30.2 29.2 29.7 28.1 26.5 26.3 26.2 26.2 25.8 27.9 31.6 34.8 39 43.2 50.4 49.1 44.7 38.8 34 30.6 28.8 26.6 28.1 26.8 26.4 25.8 22.6 22.3 26.1 27.4 26.4 25.4 24.1 21.7 19.9 4.3 2.4 2.6 2.5 3.6 2.6 2.6 2.8 2.7
43.3 42.8 40.9 37.9 35.8 33.5 29.3 27.1 22.2 18.1 19.8 21.6 17.7 12.5 12 12.8 20.9 29.2 35.4 36.8 35 32 24.2 31.1 37.8 40.8 43.3 42 42.4 40.8 38.3 40 43 45.1 45.1 43.5 44 41.2 36.1 33.5 32 28.2 27.1 24.6 21.6 26.2 28.5 29.3 29.1 28.3 27.5 25.9 25.7 26.3 22.1 21.7 20.4 17.3 13.6 12.5 11 9.6 8.2 7.1 6.7 9.1 14.1 19.5 22 27.9 34.3 35.3 35.1 34.6 33.1 32.7 34.1 37.4 38.7 39 39.4 35 30.6 34.5 38.3 40.6 43.4 46.1 48.6 51.5 53.8 55.4 56.2 56.3 56.7 57 57.4 58.6 59.3 59.1 59.9 59.6 60.5 59.9 56.4 52.4 50.9 49 48.3 49.4 48.2 47.3 47.2 46.7 45.5 44.6 42 38.3 36.8 36.2 36.3 33.8 29.8 26.4 23.3 21.4 26.2 27.7 26.8 26.1 24.4 23 25.7 31.6 36.4 38.6 43.1 44.8 41.8 37.1 33.6 32.1 29.6 26.5 23.3 18.9 13.2 14.7 20.3 26.2 30.7 33.2 34.9 32.9 30.4 26.5 25.3 25.1 26.7 24.9 23.7 23.2 23.2 21.5 24.3 28.7 32 35.4 39.9 46 48.2 45.7 41.3 36.2 30.8 25.8 19.4 21.9 25.3 24.6 24.3 21.4 16.9 15.4 20.6 21.7 22.2 21.7 20.8 19.7 3.7 2.4 2.6 2.6 2.9 3.1 2.6 2.4 2.5 2.7
43.1 42.4 39.5 35.9 33.8 30.6 28.4 26.2 24.7 24.5 25.8 24.8 21.3 19.2 13.8 13.9 16.2 24.2 31.8 31.8 31 26.2 27.2 31.4 36.7 41 42 41.3 41.7 39.7 36 38 41.1 42.4 43.5 42.7 40.8 40.7 38.5 35.1 29.1 26.2 22.9 20.4 18.5 23.7 26.5 27.1 27.4 26.6 26.8 25.3 21.5 23 19.3 17.6 16.7 13.8 11.3 9.5 7.6 7.5 6.8 7 7.7 11.7 16.4 21 24.4 24.1 32.7 32.5 32.2 31.4 29.3 29.7 33.5 36.6 38.7 39.8 35.7 33.7 30.4 36.7 39.8 42.5 45.5 48.1 50.6 53.3 55.6 56.3 56.6 56.1 56.2 56.9 56.3 57.2 58.3 59.3 60 60.2 58.5 56.3 53.3 48.6 44.6 42.9 44.9 49.3 47.3 44.2 44.6 44.2 44 45 44.9 43.7 42.2 41.9 39.3 35.1 31.9 28.5 25.4 21.5 21.5 21.8 22 23.1 21.6 20.8 24.8 30.1 32.5 35.9 42 42.4 40 36.1 33.9 31.6 29.5 26.4 23.1 18.7 11.5 14.8 22 28.2 31.1 29.7 32 30.8 28.5 26 22.8 23.2 21.8 21.9 20.7 19.3 19.3 23.6 26.4 29.7 32.7 36.5 42.8 47.2 46.6 43.5 37.7 32.5 27.8 21.9 13.2 17.5 22.1 22.6 19.3 18.8 13.1 11 15.5 17.7 18.9 18.7 18.4 4.5 4.4 0.6 1.7 1.4 3.3 2.7 2.6 2.6 2.4 2.6
41.9 41.5 38.9 36.6 34.8 32.8 31.1 30.2 27.8 28.2 28.2 26.5 24.3 21.8 18.6 13.9 14.9 20.6 25.1 28 25.8 24 30.2 35.5 38.5 40.6 41.3 41.3 40.2 38.6 36 34.4 38.6 40.8 42 41.5 37.1 36.8 36.7 33.9 29.8 23 26.4 25.7 23.3 16.1 21 24.5 25.5 25 24.8 23.3 18.8 17.9 16.5 14 12.9 10.8 7.2 7.3 7.4 6.6 8 7.3 8.1 12.7 17.1 21.5 24.6 20.7 29.6 30.3 29.3 28.2 26.5 28.1 31.6 35.6 38.9 40.2 36.2 34.9 31.6 37.2 40.5 43.7 46.7 49.2 51.2 53.5 55.3 55.5 55.7 55.4 55.2 55.4 56 56 56 57.1 57.9 58.5 55.9 53 50.8 47.3 43.8 37.2 41.6 45.5 45.1 41.8 41.2 41.3 42 45.2 47.9 47.6 47 44.4 39.7 35 30.9 27.6 25 21.3 17.2 16.6 18.5 20.2 18.7 19.3 23.3 26.9 30.1 35.1 38.8 38.4 36.6 33.6 32.3 30.5 28.1 25 21.3 16.7 11.3 15.2 22.4 29.2 31.5 31.7 31.3 29.6 27.1 24.8 23 21.4 16.9 18.7 18.5 16.1 21 24.7 27.2 29.2 31.7 35.9 41.1 45.5 44 39.8 33.8 28.5 23.6 18.1 10.2 10.5 15.2 15.7 13.6 14.6 9.3 6.3 9.2 14.5 16.8 16.1 5.6 2.8 2.4 2.9 2.7 2.4 3.6 2.5 2.4 2.5 2.3 2.3
41.5 39.3 35.2 34.5 31.2 29.9 29.6 29 28.8 27.9 27.7 26.7 24.3 21.3 16.5 13.3 13.8 16.6 21.1 22.8 16 26.4 32 35.7 38.5 40.1 40.4 40.1 38.4 37.3 36.2 31.1 35.3 39.6 40.1 39.7 37.8 33.4 31.1 29.9 26.6 25.5 26 25.7 24.6 21.7 15.3 20.5 21.4 21.4 20.7 19.5 17 14.2 13.9 11.1 9.9 6.6 7 7.6 4.7 8.5 10.3 7.4 7.9 10.3 15.6 19.8 23 24.4 26.3 25.7 26 25.1 22.8 26.2 31 35.4 39.3 40.8 38.1 36 33 35.9 39.5 42.4 46.2 48.5 50.5 52 53.3 53.7 53.5 52.7 53 53.5 53.3 54.1 55.6 56.6 57.2 58 56.4 53.5 49.4 44.9 45.6 41.2 33.8 41.1 42.5 40.8 39.6 36.3 39 44.8 47.3 48.3 47.7 44.9 41.3 36.3 31.2 26.3 22.9 24.2 24.4 20.7 14.4 16.4 17.3 23.4 25.3 27.2 31.1 34.9 35.8 34.8 33.6 31.5 31.1 29.4 26.5 22.9 18.5 14.1 9.7 16.1 22.8 28 29.7 30.4 29.1 27.4 25.5 23.4 21.8 20.9 17 15.6 15.4 17.6 21.5 23.7 25 27.8 29.8 33.5 38.2 40.6 40 34.5 28.8 24.1 20.5 17.4 11.1 6.6 5.7 6.3 5.7 8.1 6.1 3.5 3.4 2.8 3.2 3.5 3.4 1.2 3.3 2.4 2.4 2.5 3.6 2.7 2.5 2.5 2.3 2.5
38.9 35.9 32.9 30 28.5 27.9 27.5 26.8 26.5 26.2 24.8 23.5 21.8 18.4 15.8 13.1 15 14.5 15.4 17.6 22.9 27 31.8 36.7 38.8 40.9 38.6 37.6 36.4 35.6 35.6 28.6 34.3 38.5 38.7 38.3 36.5 32.3 28 25.3 24.6 24.7 24.5 24.4 23.6 20.9 16.9 13.5 17.2 17.7 16.8 15.3 13.7 11.9 9.7 8.1 8.1 9.4 11.1 9 5.2 10.1 12.9 10.4 7.9 7.3 12.2 16.8 20.1 22.3 22.5 21.7 21.5 21.9 22.6 26.4 29.7 34.4 39.6 41.1 41.6 38.9 33.2 34.3 38.7 41.8 44.6 47 48.5 49.8 50.4 50.3 47.3 49 49.4 50.9 51.9 53.4 54.7 56 55.6 57 56.8 53.7 49.5 41.7 38.4 38.1 31.8 35.7 40 40.4 38.8 32.7 38.5 43.7 45.9 46.9 46.2 43.9 41.3 36.9 33.3 32.2 32 31.5 27.8 22.6 17.1 14.2 18.3 24.2 26.9 30.5 31.8 33.7 33.5 31.8 29.6 28.6 29.1 27.6 24.4 20.2 16.9 11.8 8.9 16.2 22.6 25.8 27.4 27.5 26.3 24.7 23.2 18.9 19.7 19.3 15.5 11.6 13.2 18.3 21.6 22.5 23.1 25.5 26.4 30.1 32.1 36.1 33.5 28.5 23.5 20.2 18.6 16.7 12.2 7.6 3.3 3.5 3.9 3.8 3.7 3.9 3.7 3.4 3.7 3.1 2.9 2.7 2.3 2.3 2.4 2.4 3.1 2.8 2.5 2.4 2.3 2.7
36.3 33.2 29.3 27.1 25.7 25.3 25.3 24.6 24.8 25.2 22.9 18.9 18.2 15.5 14.9 15.5 18.3 20.8 21.4 20.9 26 31.1 35.3 37.5 38.6 39 36.7 35.7 34.6 33.8 33.3 28.3 33.7 37.7 37.5 35.6 33.9 29.7 25.8 23 22.7 23.3 22.9 23 21.5 18.6 15.1 12.7 14 13.1 12.5 11.4 10.2 9.3 9.1 9 11 12.5 10.1 7.5 8.6 12.6 16.1 15.6 12 7.8 9.1 14.4 18.1 16.9 21.9 15.7 16.2 19.1 22.4 25.8 29.2 32.8 33.9 41.3 42.4 40.6 34.7 33.6 38 40.2 42.3 44.4 46.3 47.8 48.5 48.5 48.8 48.8 49 49 50.5 52.5 53.9 55.5 55 53.9 53.2 51.4 48 42.1 36.6 31.9 30.1 30.4 35 36.5 35.1 30.9 36.6 43.6 44.9 46.3 45.4 44.1 42.7 41.7 41 40 37.7 33.8 29.2 23 18.4 13.2 19.2 25.7 29.4 31.6 31.3 30.9 29.8 28.9 27.5 25.7 25.3 25.1 22 19.5 15.3 9.9 8 15.8 21.7 23.4 24.4 24 23.4 22.3 20.8 18.6 19.3 16.5 12.7 8.9 14.6 18.6 20.2 19.7 19.6 22.9 23.3 25.4 28.3 28.9 26.3 22.1 19 17.3 15.1 12.8 10.8 6.2 3.3 3.7 4 4.1 4 4 3.8 3.5 3.7 2.8 2.5 2.7 1.9 2.4 2.4 2.4 3.1 2.8 2.5 2.3 2.4 3
34.8 30.8 27.7 25.4 23.8 22.9 23.3 22.8 22.8 22.8 21 17.6 14.7 14.3 17.1 19.6 21.4 24 25.5 26.8 29.3 33.5 35.9 37.4 37.1 36.6 34.7 33.9 32.5 31.7 29.8 28.1 33.2 37 35.8 33.4 28.4 25.7 23.3 20.5 21 21.8 21.2 19.4 18.6 14.6 12.4 10.6 10.2 10.6 10.6 11.7 12.8 15.5 15.8 15.7 14.7 11.4 8.3 7.1 11.5 16.7 20.1 20.6 17.2 11.7 8.4 10.7 10.9 10.5 23.4 16.4 19.6 22.4 24.7 28 33.3 37.1 39.6 41.9 43.3 42.7 38.6 38 37.8 36.3 37.8 38.7 43.9 46.1 46.4 46.4 46.8 47.2 47.6 48 50.6 49.8 53.5 54.9 53.8 51.6 49.4 47.8 45.7 42 36.1 34.6 32.1 26.3 29.2 32.2 31.3 28.1 37.4 44.4 46.4 46.7 46.4 45.9 44.7 44.3 44.1 42.5 39.5 35.1 29.1 22.5 14.7 14.4 21 27.5 29.2 28.9 28.4 27.4 26.1 25.7 24.4 21.9 21.6 22.6 20.6 17.3 12.4 7.9 6.5 13 17.4 18.8 19.7 19.4 18.1 18.2 16.4 15.9 15.8 14.1 9.5 6.9 14.9 18.6 18.4 17.3 18.1 20.3 19.8 20.4 21.8 21.6 19.9 16.9 14.5 13.5 10.9 6.9 4.7 3.3 3.6 3.5 3.7 3.2 3.4 3.6 3.6 3.3 2.9 2.7 2.4 2.7 0.6 2.5 2.4 2.5 2.8 2.7 2.4 2.4 2.4 2.9
34.9 31.5 27 24.4 22.9 21.4 20.7 20.4 20.4 19.8 18.1 14.3 14.9 15.6 18 21.6 24.1 26.9 29.6 29.5 33 37.4 37.4 37.8 36.3 33.1 32.9 31.9 30.8 30.9 29.5 25 31.4 32.8 33.3 30.2 23.9 20.5 21 19.3 19.3 19.7 17.2 14.6 12 13.3 12.4 12.5 14 13.1 15.2 16.3 17.9 20.8 20.5 18.4 14.4 10.1 6.9 9.7 15.7 20.4 23.2 20.2 16.4 15.2 11.5 8.9 9 10.3 21.4 18.5 21.1 24.3 27.6 31.1 35.6 39.4 41.6 43.3 44.2 44.5 42.3 41.1 39.8 38 41 38.4 41.3 43.6 43.9 44.8 45.5 45.3 45.5 47.1 50.7 51.8 52.8 53.4 52.5 49.9 45 44.3 43.6 43.2 39.5 35.4 33.3 28.9 22.9 26.5 27.1 27.3 35.8 42.2 45.2 45.6 45 44.7 44.1 44.1 43.7 42.1 38.7 33.2 26.5 18.3 11.9 15.1 20.9 25.7 26.3 25.5 24.9 24.2 23.2 22.8 21.7 18.5 18 19.4 17.2 14.8 11.1 7 5 7.4 10.8 11.9 13.2 12.3 11.6 12.6 11.3 10.6 11.2 10.8 7 5.7 11.1 17.1 16 14.4 16.8 17 16 16.3 17.4 17.4 15.2 12.3 10.1 8.5 6.3 4.7 3.8 3.6 2.9 3.5 3.7 3.7 3.9 3.8 3.3 1.9 3.2 3.2 3.2 2.8 0.6 2.5 2.5 2.5 2.4 2.5 2.5 2.7 2.4 2.5
34.7 32.2 27.6 24.4 22.6 21.8 21.5 20 18.8 16.8 15 15.8 18.7 20.5 21.1 25.1 28.5 31 32.8 36.2 37.2 37.4 37.8 36.7 34.4 32.2 30.7 30.7 30.3 28 27.1 23.4 25.7 26.8 26.9 24.1 21 18.8 17.5 16.2 15.5 14.2 14.9 15.8 17.2 18.3 18.7 16.7 19.6 19.4 20.5 20.3 20.8 20.8 19.7 17.3 13.8 10.2 8.2 12.3 19.5 23.6 24.8 23.6 21.8 21.2 19 15.5 9.3 11.3 20.6 20.2 24.4 26.3 30.6 34.3 38.6 41.5 43.7 44.9 45.3 45.6 45.5 43.4 41.4 39.5 38 40.5 38.9 39.7 40.3 41.3 43.8 43.8 44.6 46.6 49 50.6 51.2 51.8 52.1 49.9 44.9 36 38.4 38.6 36.7 34.1 30.3 26.3 23.1 22 23.1 25.4 27.1 36 38 38.8 38.5 38.5 39.7 40.1 39.1 36.7 33 22.4 22.6 17.3 10.4 15.7 19 21.5 23 22.4 21.6 21.7 21.4 18.4 17.5 14.8 11.3 15 12.9 10 7.5 5.1 4 3.9 5 5 4.7 4.1 3.7 5.4 5.5 4.4 4.8 6.3 4 4.1 9.7 12.8 12 12 13.3 12.8 11.1 11.7 11.8 13.6 11.6 9.1 5.7 4.2 3.9 4.1 3.8 3.5 3.3 3.5 3.3 3.2 3.6 3.1 1.2 3.1 3.2 3.2 3.2 3 2.5 2.7 2.6 2.5 2.7 3 2.5 2.8 2.5 2.1
34.9 33 29.3 26.2 23.5 21.8 20.8 19.5 18.7 15.1 16 17.5 21.3 24.2 25.4 27.1 29.6 32.9 34.8 38.4 39 37.8 37.1 34.9 33.1 30.9 29.5 29.4 27.9 26 24.1 22.3 20.4 21.3 20 17.2 17.7 19.2 17.2 16.4 14.3 16.1 18.1 18.8 20.2 21.5 21.7 21.2 24.2 23.3 22.7 22 20.7 18.9 17.4 14.9 11.8 9.6 8.8 15.3 21.8 25.4 26.1 25.3 23.4 22.6 20.5 16.7 9.7 11.1 19.9 22.7 27.4 30.9 33.1 36.6 40.7 43.9 45.5 45.8 46.2 47.2 47.1 47 44.7 44.2 45.7 43.9 42.5 41.5 42.2 42.4 42.5 42.5 43.7 45.3 47 48.3 49.8 50.6 51.7 49.9 47.2 41 34.2 31.4 29.4 27.7 26 25.5 25.7 21.3 18.9 22 25.4 27.1 29.1 29.9 30.4 31.2 32.8 34.1 33.8 30.6 28.2 23 21 15.7 8.4 13 15.2 15.6 17.4 17.3 16.1 15.6 13.1 12.5 11.7 10.1 7.2 8.4 7.3 5.5 4.4 3.2 3.2 3.4 3.4 3.3 3 2.9 2.5 2.6 2.9 3.2 3.1 3.2 3.1 3.2 5.3 5.4 5.1 9.4 9.8 7.8 6.9 7.5 8.3 9.9 8.3 6.3 3.6 3 3.4 4 3.8 3.3 3.5 2.7 1.2 3.1 3.1 2.6 2.3 3.2 2.9 3.2 3.2 2.6 2.4 2.6 2.5 2.4 2.6 2.8 2.5 2.5 2.5 2.8
34.3 33.6 30.7 26.9 23.7 21.5 20.4 19 16.9 17.4 17.5 17.5 22.4 26.5 27.1 27.4 28.4 30.3 35.6 39 39.8 38.3 36.1 33.4 31.7 29.6 28.7 28.8 27.5 26 25.4 23.8 23.2 21.8 22.4 22.9 22.4 21.1 19.7 18.8 14.2 18.1 20.5 21 23.9 24.8 27.1 26.1 27 26.4 20.5 21.6 19.1 16.3 16.1 13 10 8.9 11.5 18.8 23.8 26.9 26.5 25 23.2 21.8 18.9 14.3 10.1 11.8 19.1 23 29.9 33.6 35.1 39.6 42.7 44.4 45.8 46.7 47.1 47.4 48 47.7 48.2 47.5 47 45.8 43.9 42.8 43.3 43.5 42.7 43.6 44.4 44.6 44.1 46.8 48.6 49.2 50.3 50.3 49 45.5 39.2 35.5 31.7 32.5 29.8 28.1 25.7 22 20.4 18.8 16.7 18.4 21.2 22.8 23.7 25 26.1 26.6 26.5 24.8 22.3 19.8 15.6 10.5 9.3 9 8.7 8.3 9.6 10 10.4 9.7 8.6 7.3 7 5.5 4.8 4.5 4.6 3.8 3.4 3.2 3.2 3.1 3.2 3.1 3.1 3.1 1.8 2.7 1 2.8 0.9 2.9 2.9 2.7 3 3 3.2 3.2 3.5 3.6 3.6 3.6 3.7 3.4 3.2 4.1 4.1 2.9 1.6 1.6 2.7 3.2 3.5 2.7 3.4 2.9 2.7 2.2 1.7 3.2 2.9 3.2 3.2 2.7 2.5 2.7 1.9 1.4 2.5 2.6 2.6 2.6 2.5 2.7
33.1 32.4 30.2 25.9 22.9 20.9 19.7 18.1 16.7 18.9 20.9 17.3 22 25.1 25.5 25 26.7 30.3 37 39.8 39.6 37.4 34.7 33.1 30.6 29.9 29.2 28.9 28.3 28.1 27.2 27.5 26.7 26.7 26 24.2 23 21.8 20.5 18.9 15.7 19.7 22.7 26.5 28.3 31.2 31.9 30.9 29.1 26.3 22.3 20.2 17.8 15.5 13.8 10.6 8.6 8.9 17.3 21.4 24.8 27 26.3 24.5 22.3 19.9 15.2 11.6 10.7 11.8 19.1 21.2 27.7 31.9 31.1 39.8 42.1 43.6 44.3 45.9 46.9 47.2 47.4 48.7 49.2 48.6 48.3 46.7 44.8 44.1 44.2 44.6 43.6 44.1 44.7 45.6 45.5 45.6 47.2 48.1 49.7 50.8 50.7 48.2 46.2 37.5 37.6 35.2 32.3 28.4 24.4 24.5 25.6 23.5 21.6 20.5 16.7 15.7 17.9 19.1 19.8 21.4 21.3 19.5 16.7 14.1 12.4 9.7 9.5 9.6 8.6 8.2 6.8 6.6 7.4 6.9 5.8 5.5 5.3 3.9 4.5 4.2 4.1 4.2 3.1 3.7 1.7 3.5 2.9 3.5 3.6 3.5 4 4.1 2.8 2.9 2.6 3 2.6 2.3 0.9 2.4 3 3.6 3.7 3.6 3.5 3.7 4.1 4.1 4.1 4.1 4.1 3.3 1.6 1.6 2.7 2.4 2.5 2.5 3.1 3.6 2.2 3 2.9 2.3 2.9 3.2 3.2 3.2 1.5 2.6 2.6 1.4 2.4 2.6 2.3 2.4 2.2 2.8
33.8 32.8 30 27.7 24.6 21.5 19.8 17.4 20.7 23.1 23.3 19.2 19.3 21.8 21.8 22.9 28 34.7 37.3 40.1 39.4 38.3 36.4 34.6 32.3 31.9 31.1 29.9 29.1 30.4 30.1 29.5 28.4 27.8 25.5 24.8 23.4 22.2 20.7 18.3 14.7 20.7 25.2 30.2 32.5 33.6 33.1 31.6 27.9 24.3 21.5 18.6 15.9 13.1 10.9 9.7 9.2 16.2 19.7 22.8 25.8 26.7 25.6 23.7 21.1 18.6 13.4 10.1 11.9 18.5 23.5 25.6 24.9 29.5 34.5 38.3 41.1 42.6 43.1 44.6 46.6 47.6 48.2 49.2 49.8 49.5 48.8 47.4 46 45.1 45.2 45.5 45.2 45.3 45.9 46.8 46.3 45.7 46.5 48.4 50.5 51.9 51.1 51.1 47.6 44.4 40.6 34.9 29.8 29.7 30.1 30.2 28.3 25.3 24.5 22.2 19.2 16 13.6 15.2 14.9 15.2 14 13 12.2 10.6 10.6 12.5 14.8 14 12 8.7 7.6 7.1 6.9 6 6.4 6.1 7 7.8 8 7 7.5 8.7 7.2 5.6 3.8 3.7 3.1 4.5 5.6 6 5.8 5.8 5 4.7 5.7 5.4 4.5 3 2.9 2.3 2.7 2.8 2.5 3.4 3.8 4.1 4.1 4.1 4.1 4.1 4.1 3.9 2.3 2.4 3.1 2.2 2.2 2.2 2.8 2.3 2.9 3.4 5 3.4 2.6 2.3 2.3 3.9 2.8 2.5 2.4 2.4 2.4 2.7 2.7 2.2 1.5 2.5
34.5 34.1 32.5 29 25.4 21.4 17.4 23.3 26.3 27.2 26.9 22.5 18.8 18.7 19.2 21.9 27.6 34 37.9 39.3 40.3 40.3 38.8 37.9 36.4 34.4 32.6 31.8 30.3 30.9 30.6 29.8 29.1 27.8 26 24.9 23.4 22 19.8 17.5 20 24.6 29.9 34.2 35.1 33.7 32.5 29.7 25.6 22.6 20.7 18.2 15.8 12.5 10.6 10.1 11.3 17.2 20.1 24 26.1 26.1 24.4 21.8 19.7 16.1 12.8 10.1 15 22.2 27.5 27.1 31.6 34.3 38.1 39.3 40.3 41.2 41.9 44.6 46.6 47.6 48.6 49.3 49.6 49.5 49 47.8 46.6 45.9 47.1 46.3 45.6 46.8 47.2 47.1 46.9 46.4 47 49.1 51.4 52.9 53.3 51.6 48.7 44.4 39 32.5 34.9 36.9 37.7 34.4 28.8 26.9 25.5 21.2 17.3 18.3 17.7 15.9 15.5 14.1 12.4 12.2 15.4 14 15.4 17.4 18.2 16.7 13.8 10.8 10.3 10.8 9.8 7.9 8.4 9.9 11.8 11.7 11.6 11.6 11.3 9.3 6.6 4.7 4.8 4.6 3.6 6.8 8.5 9 8.4 8.9 8.9 9.2 10.2 9.4 7.6 5.3 3.2 3.1 4.7 5.3 3.5 2.6 2.5 0.9 0.9 0.9 0.9 3 2.9 2.4 2.5 2.4 2.5 2.2 2.2 2.2 3.4 3.4 5.2 5.5 8.6 6.3 2.8 5.4 3.6 3.3 2.8 2.5 2.4 2.6 2.5 2.7 2.6 2.3 2.7 2.6
34.2 33.9 31.7 28.1 24.4 20.9 21 30.7 31.5 31.1 28.4 24.1 22.5 21.5 20.2 22.4 30.4 34.6 37.4 38.7 40.8 40.7 40.3 39.7 38.2 35.7 33.6 32.3 31.7 30.6 30.5 29.1 29.7 27.1 26 24.7 22.8 20.5 17.9 22.1 27.1 30.4 34.7 36.2 35.6 32.5 29.8 27.7 24 21.4 19.4 16.8 14.1 11.7 10.5 13.9 15.5 17.4 20.4 23.9 25.1 23.2 22 20.9 19.2 15.8 10.8 10.9 17.2 24.9 30.6 26.9 34.4 36.3 37.6 39.6 39.5 38.7 40.3 43.1 45.6 46.6 49.1 49.4 49.5 49.6 49.3 47.5 46.6 46.6 47.4 47.8 47.1 48.4 48.7 48.7 47.6 47.1 48.2 50 52.3 54.3 54.8 53.2 46.4 41.6 36.6 39.9 42.5 42.9 38.2 34.8 31.5 28.2 24.5 18.2 22.7 23.1 21.5 22.6 20.3 15.6 13.1 17.3 18.6 19.8 20.3 21.5 20.8 17.7 14.2 11.9 13.7 14.5 12.6 10.8 12.8 14.3 15.4 15 14.6 13.4 11.3 7.7 6 6.8 6.7 6.5 5.6 9.3 11.1 12.5 13.2 12.9 13.7 16 15 13.6 9.3 6.2 4.6 7.7 10.5 9.2 5.2 2.9 2.9 2.8 2.7 2.8 2.7 2.6 2.6 2.5 2.5 2.5 2.9 2.4 2.5 2.1 2.4 5.2 9 10.8 11.2 8.1 3.5 9 2.5 4.5 2.6 2.5 2.5 2.7 2.8 2.5 2.5 2.5 2.3 2.7
33.5 33.2 30.2 26.4 22.9 19.5 22.7 32.5 32.7 33.6 33.5 29.2 24.7 22.8 21.8 26.6 29.2 35.6 37.9 38.6 41.3 41 40.3 39.6 38.6 35.4 33.4 32.2 30.4 27.9 29.9 29.6 28.3 26.4 24.8 22.4 20.4 19.2 25.4 28.8 33.4 35.7 36.6 36 33.1 29.1 25.6 23.4 21.3 19.7 18.1 15.6 12.7 10.7 12.7 20.2 19.6 19.3 21.8 24.3 24 22.2 20.2 18.9 17 14.3 10.6 11.3 18 25.1 29.9 31.1 33.9 35.1 36.7 37.3 36.4 35.8 37.9 41 43.7 46.1 49.2 49.4 49.5 49.7 49.4 47 49.2 49.5 49.3 50.2 50.4 51.7 50.1 49.3 48 48.1 49.7 52.5 53.9 55.7 56.1 53.8 48.5 45.4 45.1 47 47.1 43.7 38.3 33.3 30.3 26.7 22.9 23.6 26.1 26 25.3 24.7 21.2 15.2 13.7 21.1 22.8 24.4 25 24.4 20.9 17.5 14.3 14.4 17.2 17.2 15.1 13.8 16.6 18.1 18 17 15.8 13.5 10.1 7.2 9 10.3 9.4 8.1 8.7 11.6 14.1 16.6 18.6 19.3 20.7 21.7 18.5 11.8 7.8 6.4 7.7 12.2 13.9 9.9 5.8 3.2 3.5 3.3 3.1 2.9 2.6 2.7 2.5 2.7 3.3 3.1 3.3 3.3 4.4 3.4 3 5.1 9.1 12.8 13.2 8.7 9.3 13.3 2.2 0.6 2.5 2.4 2.6 2.7 2.6 2.4 2.4 2.7 1.5 2.5
33.2 32.1 28.1 23.7 19 24.7 30.8 32.9 34.7 34.2 33.5 31.4 26.8 23.5 25.6 30.3 33.3 36 37.4 38.7 39 40.5 39.8 38.8 36.7 33.4 31.9 30.6 28.7 26.4 28 27.7 26.5 24.1 21.5 20.3 21.2 22.3 27 31.6 33.1 38.8 37.2 33.5 30.3 26.6 23.8 20.7 19.3 18.3 16.6 14.6 12.6 10.9 18 25.4 24 26.6 25 24.7 23.2 20.1 17.2 15.6 13.1 13.1 11.2 12.5 19.1 25.1 28 31.6 32 34.1 35.9 34.9 33.6 33.6 35.9 40.1 43 48.9 49.3 48.7 49.6 49.8 49.8 48.2 51.7 52.4 52.5 52.3 52.7 52 51.2 50 49.4 49.9 51.2 54.7 55.9 57 57.1 56 54.3 53.4 51.7 50.4 45.9 40.1 35.7 31.3 27.7 24.3 23.8 28.4 28.7 28.1 27.1 25 20.3 13.3 14.6 22.9 27.8 29.1 28 26.2 21.6 17.7 16.9 16.4 19.5 20.1 17.8 17.4 20.3 20 19.5 18.1 15.3 13 9.6 7.6 13.1 12.5 11.1 10 11.3 15.2 16.8 19.7 23.3 25.1 27.1 26.5 19.7 15.8 12.7 12.4 15.6 17 13.1 8.2 3.5 4.4 4.7 5.1 4.6 3.2 3.3 3.5 3.3 4.9 5.2 5.1 2 2.7 6.1 5.6 4.1 5.7 8.9 13.8 14.2 10.8 11.3 2.9 2.3 2.5 2.6 2.5 2.6 2.7 2.6 2.4 2.4 2.8 2.4 2.6
30.9 29.2 25.4 21.1 21.4 29.1 33.2 35 35.6 36.2 33.6 32.3 29.9 23.9 26.7 32.1 34.7 36.6 37.9 38.6 39.1 39.3 39.1 37.4 34.2 31.1 28.8 27.5 27.1 25.9 25 24.5 23.4 20.4 20.8 22.1 25.2 28.3 31.9 36.5 40.3 39.1 37 32.9 28.3 25.1 23.5 21.2 18.4 16 14.6 13.1 11.5 13.8 23.9 28.4 29.3 30.3 28.8 25.2 21.9 19.2 19.1 18.9 18.1 15.1 11.3 12.1 18.4 23 26.6 27.1 28.3 33.6 34.7 32.7 30.7 32.4 37.2 41.4 42.7 48.5 48.2 48.9 49.7 49.5 50.5 50.7 52.3 53 53.7 54.5 55 53.7 52.7 52.1 52 53.1 54.6 54.3 56.9 57.9 57.9 57.5 56.5 55.2 52.8 49 43.3 38.2 33.1 29.3 26.2 26.6 28.4 30 29.8 28.8 27.5 24.8 20.7 15.1 14.5 26.7 31.7 32.8 30.3 25.3 23 20.8 22.6 21.5 19.6 22.8 21.4 22.2 21 21.4 20.4 16.6 14.2 11.8 7.8 10.5 16.7 15.5 14.1 13.3 13 19 20.1 21.9 26.4 30.1 31.6 30.1 26.4 22.8 17.5 18.5 19.8 14.5 10.3 8.4 9.5 10.5 9.2 8.3 7.9 6.1 6.2 6.6 6.5 10.3 10.6 7.4 4.6 3.7 7.4 7.9 7.9 8.9 12.1 15.7 15.8 14.9 3.1 3 2.3 2.5 2.7 2.5 2.5 2.5 2.5 2.4 2.4 2.5 2.4 2.2
27.3 24.9 21.5 20.8 24.7 31 35.2 35.4 36.4 37 34.3 33.3 28 22.5 23.5 28.4 32.7 35.2 36.8 37.6 38.2 38.3 38.2 36.8 33 29.4 26.9 25.4 25.3 24.5 23.8 21.1 21.2 22.3 24 25.4 28.4 32.5 36.4 41 42.6 39.3 36.4 29.5 25.3 23.8 20.7 19.7 18.2 15.6 13.2 11.8 12 18.1 26 31.3 32.4 31.7 28.7 24.9 22.6 23.5 23.2 22.2 19.7 15.3 12.1 11.5 16 20.3 23.2 24.9 27.7 29.4 30.4 29.8 28.9 32.1 36.9 41.3 47.2 48.5 47.1 48.9 49.1 49.6 48.2 48.9 51 53.2 54.5 55.7 55.8 55.5 54.5 54 54.4 55.5 56.3 57.2 58.2 58.9 59 58.1 56.6 53.8 49.2 44.7 39.7 34 30.7 30.1 30.6 31.7 31 29.6 28.3 27.5 25.9 23 18.9 14.6 18 29.5 34.3 33.7 29.7 29 28.8 26.9 27.4 24.2 24.5 26.3 24.9 24.8 21.9 20.2 18 15.3 12.6 9.9 8.6 14.3 19.4 18.6 17.5 17.6 15.2 21.4 25.9 26.8 30.3 34 34.2 32.8 29.5 27.1 24.4 22.1 16.9 12.4 11.5 13.1 14.5 15 13.6 12.4 11.5 10.3 10.8 11 12.7 15 14.2 10.6 5.5 7.7 10.1 12.9 12.7 14.2 16.9 18 17.4 10.2 2.9 2.2 2.2 2.6 2.8 1.5 2.4 2.4 2.4 2.4 2.3 2.4 2.7 2.7
23.6 21.9 22.5 24 28.7 32.1 34.8 36.7 37.3 37.7 34.3 32.9 27.4 22.4 27.6 29.8 30.2 34 35.7 35.8 36.7 36.8 36.7 35.4 31.9 28.9 26.8 24.6 23.4 23.2 22.7 22.4 22.6 25.5 27.2 28.7 33 37.4 43 46 43.7 38.4 33 27.1 23 19.9 19.9 17.4 16.1 14.5 12.7 11.8 16.9 23.2 28.1 33.2 34.2 31.2 27.6 26.2 26.4 26.8 25.1 22.9 19.2 16.1 13.3 12.3 12.7 16.5 19.5 21.7 23.3 26.5 27.3 26.8 29.6 33.6 36.7 42.1 48.1 46.8 45.9 47.8 47.5 45.6 43.9 46.1 49.6 52.5 54.1 55.7 56 55.9 55 55.3 56 56.9 57.2 57.6 58.8 59.5 59.1 57.5 54.3 48.4 43.7 38.8 34.9 32.7 34.1 34.7 34.4 33.8 31.9 29.2 26.5 24.1 21.3 18.4 13.5 15 22.1 34.1 36 35.4 31.9 35.7 34.8 32.7 31.3 29.3 28.8 30 25.9 23.6 20.6 18.7 15.4 12.7 10.9 9.3 11.4 17.3 22 22.7 23.4 23.7 21.8 19.3 27.5 32.5 34.4 35.9 36.4 34.5 31.6 26 22.3 19.5 16.2 16.2 18.5 19.4 19.9 19.5 18 17.1 15.5 13.3 14.1 15.4 18.6 19.5 18.4 15.3 13.8 14 13.9 18.3 19.1 19.5 19.1 17.1 15.6 2.7 2.3 2.2 3.1 2.6 2.8 2.4 2.4 2.3 2.4 2.4 2.4 2.5 2.6 2.9
23.5 24.3 27.3 28.9 29.1 33.6 34.5 37.7 38.3 35.8 34 30.7 29 22.4 29.8 32.5 33.6 32.5 34.5 36.2 36.2 36 34.9 32.5 29.7 27.2 25.1 22.5 22.8 22.9 23.7 23.6 24 27.2 31.4 33.9 38.3 42.6 45.9 46 42.6 37.4 32.5 27.4 23.8 21.9 18.5 15.8 14.4 13 12 15.4 19.4 25.2 31.6 34.4 35 31.7 30.3 30.9 30.4 27.5 25.4 22.1 21 19.1 14.6 12.5 12.3 13.6 16.4 18 21.2 27.9 23.3 25.8 30.2 33.3 40.4 45.8 46.2 44.5 42.7 44.6 44.2 40.4 43.8 46.8 50.2 51.8 54.2 55.9 56.2 56 55.8 56 56.5 57 57.9 59 59.5 59.4 59 57 48.9 43.8 40.4 39.3 40.5 38.5 38.3 36.7 35.2 33.2 30 26.6 22.9 19.4 17.4 16.1 13.5 18.9 28.5 36.9 36.5 36.8 35.4 38.4 38.1 37.4 35.5 33.5 32.2 29.6 25.7 24.2 21.3 18.6 15.1 12.5 8.1 10.7 12.3 19 26.5 27 28.1 26.7 25.4 23.7 27.6 35.1 37.1 38 37.2 34.9 33.1 29 24.7 23.4 22.5 23.2 25.5 25.1 24.7 24.7 23.3 22 20.7 18.8 17.1 20.1 21.8 22.5 22.3 21.6 21.3 21.1 21 22.5 22.3 21.2 19.1 15.7 6.7 2.4 2.2 2.3 2.9 2.4 2.4 2.4 2.3 2.3 2.4 2.4 2.5 2.5 2.6 1.7
25.1 25.5 27.6 28.9 28.4 31.3 32.7 38.3 38.8 36.2 31.4 30.6 28.5 23.1 27.8 30.9 33.1 36 37.1 37.1 36.4 35.2 32.7 30 27.8 25.5 23.1 24 24.4 23.8 23.5 23.7 26.3 30.3 35.1 38.7 41.1 44.2 44.7 43.9 40.6 35.3 30.1 26.9 24.2 20.9 17.8 16 14.1 13.9 16.1 20.7 23.8 28.6 34.1 37.1 36 33 33.7 33.1 31.1 28.5 25.7 25.3 23.5 19.5 13.2 14 13.2 13 13.3 15.6 18.5 21 27.3 26.6 30.2 37.4 43.8 45 43.7 42 39.6 40.1 38.9 41.9 47.8 49.7 51.6 53.5 55.5 55.8 55.8 55.6 55.3 55 55 55.9 57.5 59 59.5 59.3 58.7 55.8 50.7 44.5 47.9 47.6 45.3 41.8 39.1 36.1 32.4 28.5 24.9 23.5 24.3 24 22.3 18.3 15.7 21 32.3 36.3 37.1 40.9 42.1 42.4 41.7 40.2 38.3 36.1 34.3 31.7 28.1 23.9 21.9 18.7 15.2 11.4 12.3 17.1 19.3 18.1 28.8 29.3 32.2 31.6 28.6 28.7 30.5 37.6 38.3 38.4 36.4 33.4 29.7 29.1 29.9 29 28.4 30.4 30.7 29.7 29.9 30 28.9 26.5 25 23.1 21.6 21.2 22.3 22.6 23.4 24.4 24.9 24.8 24.2 24 21.7 20 17.9 14.1 3.1 2.4 2.4 2.8 3.6 2.5 2.5 2.4 2.3 2.3 2.4 2.4 2.5 2.5 2.5 2.5
25.8 27.5 26.9 27.7 29.4 29.5 30.3 33.3 34.5 31.3 29.5 29.2 27 25.5 28.3 29.8 32.4 36.7 37.6 37.8 36.9 35.6 33.6 30.8 28 24.2 26.6 27.6 27 25.3 23.9 24.7 28.5 33.6 37.9 40 41 43.1 42.7 42.6 38 33.4 29.1 26.4 24.2 20.9 18.3 16.8 14.4 13.7 18.6 23.5 27.2 31.8 36.5 39.2 37.9 35.7 37.1 34.6 31.3 29.3 27.5 25.7 22.6 16.8 16.9 19.2 15.4 11.6 14.7 20.4 23.4 26.1 29.1 31.6 37.5 41.6 44 43.5 40.3 38.4 34.5 35.3 36.6 41.8 47.3 50.9 53.2 55.2 55.8 56.2 55.6 55 53.5 52.9 53.1 54.9 55.7 57.8 59.2 59.4 58.7 56.8 51.4 51.9 51.6 49.7 46.2 41.6 37.2 33.4 31.1 31.4 30.7 31.1 30 27.4 22.4 17.4 16.6 18.8 26.1 32.4 38 43.8 44.7 44.9 44.3 42.5 40.5 37.2 34.4 31.1 28 25.1 20.7 16.9 12.8 14.4 17.6 23.6 29.1 22 27 33 35.6 37.7 35.4 37 37.6 38.2 35.8 35.1 32.4 31.2 28.5 26.8 32.4 30 29.7 31.4 30.4 29.7 30 32 30.7 28 25.3 22.9 21.5 20 19.1 19.3 22.5 23.8 24.2 24.1 23.9 23 20.2 15.7 11.5 9.5 3 2.4 2.6 3 3.2 2.5 2.4 2.5 2.3 2.3 2.3 2.4 2.4 2.5 2.7 2.7
26.5 27.2 27.2 27.3 27.6 28.8 29.6 29.3 29.2 29.7 28.5 28.5 25.6 27.4 29.1 31 33.8 37.4 38.1 37.5 35.9 34.4 32.5 29.6 24.9 28.3 29.9 30.6 29 26.6 25 28.8 32.3 36.7 37.9 38.7 39 40.6 40.7 38.9 35.9 31.3 28 27 23.8 21.3 18.8 16 13 13 17.5 22.7 28.7 34.7 39.3 40.9 39.8 38.4 39.2 35.5 32.7 30.3 27.3 24.4 19.9 16.7 22.2 20.9 15.9 11.8 15.2 20.3 23.2 27.3 29.6 31.8 41.8 41.7 42.7 42 37.3 35.8 31 34.6 39.5 43.5 48.4 53.3 55.2 55.8 55.3 55.2 54.2 52.8 51.4 50.3 50.7 52 54.2 57 59.2 59.2 58.4 56.8 55.1 55 52.5 47.1 42.5 38.8 36.2 35 35.4 37.9 37.5 35 32 27.7 22.3 17.5 16.2 22.8 24.1 28.7 35 44.2 47.2 47.4 45.9 45 41.7 37.9 33.1 28.9 25 21.8 17.7 15.3 17.9 21 24.5 32.4 32.5 24.4 26.6 35.5 40.3 40.8 41 39.9 38.2 36.1 31.5 29.3 22.4 24.7 23.6 22.6 25.6 23.4 23 23.7 23.3 23.3 24.7 26.6 24.9 22.9 21.7 20.1 14.4 17.2 15.5 17.2 20.5 21.1 21.5 20.9 21 21.3 20.4 17.3 10.7 5.3 2.7 2.2 2.5 2.9 3.4 2.6 2.7 2.7 2.5 2.2 2.3 2.3 2.4 1.4 2.5 2.9
27.3 26.3 27.1 27.9 28 27.6 27.9 28.7 29.3 28.6 27.9 27.7 26.6 28.9 29.5 32 36.5 39.4 37.7 36.1 34.5 32.9 30.7 27.8 28.8 32 32.1 31.8 29.5 27 28.1 31.5 35.4 37.1 37.8 37.7 36.9 37.9 35.6 34.6 31.8 28.9 26.3 24.6 22.7 20.7 17.1 14.9 13.1 13.3 17.2 21 27.7 35.3 40.7 42.6 40.8 38.9 39.2 35.6 32.9 29.8 26.8 23.2 18.5 22.4 25.1 22.1 16.9 12.3 15.1 19.2 21.7 25.2 28 33.3 34.4 41.8 42.6 39.4 34.6 31.4 32.7 37.8 41.1 45.8 50.8 53.5 54.2 54.5 54.2 53.6 51.9 50.5 48.5 47.6 48.4 50.7 53.8 56.2 57.4 58.8 59 58.5 58.2 57.1 54.6 51.3 43.1 40.2 42.9 42.7 40 41 39.4 36.2 31.9 27.2 21.3 15.5 21.8 31.8 34.9 32 41.8 47.7 48.4 50 47.9 46.2 43.1 38.4 32.5 28.3 23 18.3 17 18.4 25.8 29.9 33.9 35.8 33.7 33.4 36.8 41.1 40.9 40.6 40.4 39.4 36.4 31.9 26.6 21.5 18.8 19.9 18.5 17.9 17 15.5 14 14.9 15 14.3 15.1 15.6 14.5 14.6 13.7 14 12.9 12.6 11.4 13.9 16.2 17.4 18.4 17.6 16.7 16.6 16.4 15 12.3 6.4 2.6 2.3 2.4 2.7 3.6 2.6 2.4 2.9 2.4 2.2 2.3 2.3 2.4 2.4 2.5 2.6
29 29 28.7 29.8 29.5 29.1 29.4 29.4 29.2 29.2 28.1 26.9 27.7 29.4 29.7 32.2 36.7 39.1 36.4 34.5 33.3 31.8 29.3 28.2 33.4 34.2 34 32.2 29.3 28.4 29.3 32 35.8 36.3 36.8 36.7 34.8 34.4 32.2 30 28 26.3 23.8 21.6 20.3 18.2 15.3 13.4 16.5 13.6 15.3 20 26.3 34.4 41.3 42.5 40.4 37.9 36.8 34.8 32 29.5 25.9 21.6 23.4 27.4 26.2 22.8 18.1 12.5 14.8 19.2 22.8 26.3 29.8 33.4 35.9 40.9 40.4 35.9 31.3 30.1 35.6 39.6 43.4 49 51.6 53 52.6 51.9 51.9 51.7 49.6 47.7 45.4 43.8 44.1 48.4 52.9 54.7 55.6 58.2 59.3 60.2 60.1 59.1 56.6 49.8 46.6 43.8 46 45.5 43.5 41.4 39.4 35.7 30.9 25.8 19.8 18.1 24.4 33.4 40.5 40 48.7 51.2 50.6 50.2 49.1 46.8 41.9 37.2 30.8 24.9 22.3 24.5 20 19 30.7 36.7 39.5 40 40.3 39.6 40.5 41.2 40.2 37.3 35.2 33.6 30.9 26.4 22.2 18.4 17.4 15.2 14.1 11.6 10.9 10.8 11.4 10.8 10.1 8.7 8.6 8.5 8.5 7 7.2 7.4 6.5 6.7 6.9 9 10.7 12.2 13.6 13 12.6 12.2 11.8 10.7 8.5 4 2.2 2.4 2.7 3.2 3.6 2.5 2.6 2.1 2.6 2.3 2.4 2.5 2.5 2.5 2.5 2.5
29.9 31.3 31.3 31.2 30.7 30.7 30.3 30 30.1 30 28.9 27.6 26.7 29.6 30 32.4 34 35.9 34.5 33.6 32.4 31.6 29 32.1 34.8 35.2 34.3 31.8 29 29.4 30.4 33.3 35.1 35.6 35.6 34.9 32.3 31.1 29.2 26.3 25 23.6 21.5 19.4 17.8 15.7 13.5 18.3 19.8 16.6 14.3 20.4 28.3 37.8 37.4 42.9 40.2 37.5 34.7 32.2 29.7 28.3 25.1 24.4 28.5 28.7 26.7 22.7 17.4 14.3 14.8 18.5 22.4 26.7 29.7 32 36.2 32.7 32.6 32.2 25.9 32.5 36.6 40.5 45.8 49.5 51.3 52.1 51.5 49.7 49 48.5 47.6 44.2 43 40.8 41.7 44.1 46.8 50.5 53 57.8 59.8 61.1 61.5 60.4 58.2 54.7 49.8 50.8 51.1 48.1 44.3 41.8 38.7 34.5 29.6 23.8 19.7 21.3 27.1 33.7 44.1 50.3 52.4 51.6 52.5 51.5 48.9 46 39.9 34.7 29.6 25 27.8 29.2 24.4 18.3 28.7 37.2 38.7 39.6 39.7 35.1 34.3 34.8 32.5 29.6 26.9 26.3 24.6 21.6 18 17.6 17.4 13.4 15.2 15.6 15 14.6 13.7 11 10.6 11.3 10 9.4 8.9 7.9 7.2 6.3 5.6 4 2.9 2.9 3.2 3.9 6.3 7.8 8 7.5 7.2 6.7 6.1 2.7 2.6 2.5 2.7 3.3 3.9 1.4 2.8 2 2.5 2.5 2.4 2.4 2.3 2.5 2.4 2.5
31.2 30.5 32.6 33.1 32.7 31.7 31.3 30.9 31.1 30.6 28.7 27.2 28.6 29.1 30.6 31.9 33.2 34.3 33.9 33.4 32.3 31.2 29 32.9 34.8 35.5 34.3 31.8 30.6 30.5 31.7 33.5 34.9 34.8 34.6 32.8 30.1 27.8 25.7 24.1 23 21.6 19.4 16.9 15.6 14.9 21.7 23 21.1 17.3 15.4 20.1 29.8 40.1 43.4 42.5 40.4 37.2 34.4 31.7 28.1 25.9 24.7 28.2 30 29.3 26.2 22.5 17.2 14.4 15 19 22.9 22.4 28.5 31.4 33.2 34.1 32.9 30 26.3 33.8 37.8 40.8 46.5 49.4 51.1 51.1 50.6 48.5 45 44.9 43.5 42.1 40.4 39 45 46.8 52 56 56.5 58.9 60.5 62.3 62.4 60.9 59.8 57.3 55.2 52.1 47.8 48.1 44.7 35.8 38.1 33.6 28.7 22.8 20.5 27.2 30 35.9 47.8 53.2 53.8 53 52.9 50.9 47.3 42.7 38.3 34.1 29.4 29.6 31.8 30.8 29.5 23.1 25.8 30.2 34 37.7 35.3 32 30.4 29.2 27.7 25.4 23.1 21 20.1 20.7 21.7 20.3 17.7 18.2 19 19.4 18 16.9 14.5 14 15 14.1 12.6 12.3 11.3 9.9 9.7 8.8 8.4 8.6 9.4 10 9.5 6.9 3.2 2.7 2.8 2.5 3.3 3.3 2.9 3.2 4.4 6 2.4 1.9 0.6 2.6 3 1.8 2.4 2.5 2.2 2.2 2.2 2.4 2.4 2.5
32.2 32.3 35 34.5 33.4 32.5 31.8 31.9 32.1 30.9 29.7 30.7 29.5 29.6 31.4 31.5 33.2 34.1 34.2 34 33.3 31.9 29.9 32.2 34.4 35.5 34.2 33.2 31.2 31.3 33.5 34 35.4 34.8 33.9 30.8 28.3 25.1 23.7 22.7 21 19.2 17.6 15.1 20.8 25.5 26.9 25 21.7 17.6 17.3 23.5 32.9 40.8 44.5 42.1 39.6 36.8 32.8 30.6 27.8 26.9 28.8 30.1 30.8 29.4 25.6 21.8 16.4 15.2 15.2 17.6 18.5 25.5 27.6 28.4 31.6 31.3 33.5 27.4 28.7 35.6 39.4 42 44.8 46.9 48.9 47.2 48 46.2 44 41.6 41.5 39.8 36.4 41.4 46.2 50.3 50.8 55.4 57.7 59.4 61.1 62.7 62.1 60.4 60.5 59.6 57.2 53.4 48.4 46 42.7 37.7 33.5 32.8 28.1 21.9 24.8 31.4 37 39.7 47.9 52.8 54.7 53.1 50.7 47.2 43.6 40.9 37.3 32.9 31 31.2 31.7 28.5 23.3 21.6 25.6 30.4 38.6 38.9 36.4 34.9 34.9 33.2 30.2 26.9 22.9 25.3 25.5 24.7 22.7 19.5 19.8 22.1 21.7 21.8 19.6 17.9 14.4 16.9 17.8 17.1 15.7 15.8 13.7 13.7 14.1 13.2 11.8 14.4 14.4 13.4 9.3 5.7 3.2 3.6 3.7 4.1 4.5 5.7 6.8 4.4 9.7 15.1 3.1 0.6 1.2 2.5 2.6 1.5 2.3 2.4 1.3 2.2 2.2 2.3 2.4 2.4
34.4 34.7 36.3 35.6 34.3 33.1 33.7 33 33.1 31.4 31.1 30.9 31.2 31.1 31.1 32.4 33.4 34.2 35.3 35 33.4 31.9 30.8 32.8 33.9 35.5 34.7 33.7 33.7 33.5 35 34.8 35.2 34.9 32.9 30.5 26.1 23.9 22.2 21.3 17.1 17.2 16.7 20.1 27.8 29.9 28.1 25.1 20.9 17.2 18.8 25.9 32 40.6 43.3 41.4 38.8 36.1 32.9 30.9 31.2 30.4 31.9 32.1 31.6 25.9 24.4 21.1 17.9 15.9 16 16.9 16.8 17.4 21.9 25.1 27.7 26.2 28.4 26.3 30.4 35.1 38 40.2 41.9 43.6 45 45 44.4 43.7 41.9 40.2 37.6 37.1 37.7 43.7 48.1 51.9 55.4 57.4 59.5 60.2 61.3 61 61.6 59.4 57.9 58.5 56 51.5 47 39.9 39.1 36.2 33.3 30.6 28 21.5 27.9 32.7 40.1 44.3 50.1 51.1 51.2 51.1 47.3 44.3 41.2 38.1 35.7 33.6 33 31.3 28 22.3 24.6 29 34.7 37.3 40.4 41.7 40.8 38.9 36 32.8 28.9 27.5 27.8 28.4 28.1 26.5 24 24.3 24 26.9 26.5 25.4 22.1 19.8 20.3 20.2 20.6 20.4 19.7 19.6 19.3 19 19 19.2 19.6 19.7 17.7 14.4 8.7 5 7.6 10.1 10.7 13.8 16.1 18 19.2 19.2 20.3 20 2.6 2.7 0.6 2.3 2.4 2.6 2.3 2.4 2.4 2.5 2.3 2.4 2.4 2.8
36.2 38.2 38.8 37.9 36 36.1 35 33.9 32.5 32.6 34.1 33.6 32.2 32.1 32.6 32.8 33.1 34 35.1 34.8 33.4 32.2 33.6 35.2 35.5 34.8 35.6 35.6 35.3 35.5 35.3 34.9 34.2 33 30.9 28.5 25.6 23.2 20.9 19.4 19.4 21.1 22.3 26.3 29.5 31 28.5 24.8 20.9 16.4 19.2 25.5 31.2 37.5 40.9 40.1 37.7 35.1 31.9 31.5 32.9 34.7 33.7 33.8 32.2 29.9 26.6 23 20.1 16.5 17.8 16.8 19 16.4 17.3 19.4 21.5 21.6 22.4 32.3 25.6 31.3 33.6 35.7 37 39.2 41.4 41.4 41.1 40.4 38.6 37.2 35.5 34.4 40.6 45.2 48.8 52.6 56.7 59.3 60.2 61 59.5 61.6 59.9 56.3 52.2 54.7 51.9 46.6 43.2 38.4 35.1 32.6 30.6 28.8 26.6 21.6 22.7 28.7 36.1 43 46.8 49.3 49.8 47.6 44.5 42.4 39.6 37.7 34.8 34.3 32.5 29.6 25.3 24.7 32.1 35.6 37.1 39.8 41.3 41.6 40.2 38.5 33.9 34 32.1 33.2 32.8 33.2 33.1 30.5 27.8 29.7 28.7 32.2 30.6 27.4 26.1 25.4 25.7 24.7 22.8 25.6 25.8 26.5 25.5 24.9 23.8 23.3 21.7 19.9 16.6 9.6 7.4 12.2 13.5 16.7 20.1 23.7 25.4 27 28.3 26.8 25.4 7.4 1.9 2.6 0.6 2.4 2.6 2.6 2.4 2.3 2.2 2.2 2.3 2.6 2 3.3
38.8 41.3 40.9 39.5 38.1 37.2 37.4 36.9 34.7 33.7 35.4 34.9 33.3 32.2 33.4 35.2 34.8 34.9 34.9 34.4 34.1 34.4 34.8 36 36.6 35.9 36.1 34.7 34.2 34.7 34.8 34.1 32.4 30.3 28.4 26.3 23.9 21.3 19.1 22 25 28.6 32.2 31.8 31.6 31.1 28.5 24.6 20.6 18.6 19.8 24.6 29.1 34.4 39 39.3 37.4 34.8 32.4 33.9 35.9 36.6 36 34.8 33.2 30.9 27.7 24.3 22 19.9 17.3 18.5 20.4 21.5 17.3 18.7 18.6 19.2 19 34 22.9 24.9 27.6 29.8 32.5 35.6 37 37 36.5 36 35.4 33.3 31.9 37.6 41.4 46.4 50.4 52.9 55.3 57.3 59 60.1 56.6 59.8 58 53.7 48 47.1 45.8 42.3 39 35.1 31.3 29.1 27.4 25.3 23.1 20.8 22.7 26.6 30.7 35.9 41.2 43.9 44.2 43.1 40.1 37.6 36.3 33.6 33.1 32.9 29.9 26.7 28.8 31.2 28.9 34.5 35.9 38.6 40.4 41.8 40.5 38.6 36.9 37.2 37.7 38.6 39.1 38.6 36.5 33 34.5 34.5 33.5 33.2 33.1 32.5 31.8 31.4 31.1 29.8 30.1 30.6 30.8 30.7 28.5 25.8 23.2 19.4 16.4 12.4 9.2 9.6 18.2 20.6 20.3 24.6 26.7 29 30.5 30.6 28.9 25.3 13.7 3 2.7 3.1 0.6 3 3 2.8 2.4 2.5 2.4 3.1 2.6 3 3.5 2.7
41.4 43.9 41.6 41.5 42.8 40.8 40.4 38.2 36.6 35 36.4 35.4 34.3 34.1 36.2 37.7 36.9 36.1 35.6 35.8 36.4 37 37.5 37.3 37.4 37 36.8 34.5 32.5 32.6 32.5 32 30.2 28.1 25.5 23.5 21.8 21.3 26.5 29.7 34.3 35.7 35.4 34 32.6 30.8 28.1 24 19.9 18 20.6 25.2 29 34.1 37.7 39 38.3 36.2 35.3 35.9 37.6 38.5 38 36.6 34.2 31.9 29.1 26.6 23.7 20.4 18.2 19.7 22.2 23.3 22.3 19.7 20.9 24.3 25.9 28.9 23.4 23 23.8 25.1 28.1 31.1 32.8 33.1 33.3 32.9 32.2 30.9 34.3 37.4 40.3 44 47.8 50.2 52.1 53.2 53.6 55.9 54.6 55.6 53.7 50.1 43.3 41.3 38.8 37 33.9 31.2 28.6 26.3 24.1 21.8 23.1 23.5 24.9 24.5 26.2 29.8 35.3 38.2 38.7 38.3 37.4 35.5 33.7 32.6 32.1 30.5 28.1 30.4 31.2 34.9 35.7 34.3 36.3 38.8 40.7 43.1 41.9 40.8 40.9 40.8 40.5 43.9 44 42.1 37.9 37.9 39.8 39.3 38.4 37.8 36.4 37.2 36.9 35.8 35.6 34.5 33.3 33.4 32.2 30 26.2 20.9 15.1 18.4 13.5 13.5 18.7 26 23.1 27.3 27.9 30.2 30.7 30 29.4 28.2 25.9 23.3 3.3 2.1 2.3 2.7 2.5 2.8 2.8 2.7 1.5 3.7 2.4 2.5 2.9 3.5 2.7 1.5
47 46.4 45.8 48.8 47.7 46.9 46 42 38.7 36.6 37.4 37.1 37.5 38.7 39.8 40 38.6 38.1 37.6 39.7 41 42.3 41.9 40.8 40 39 37.6 35.6 33.7 31.6 29.4 29 27.5 25.2 23.5 20.8 27.1 31.2 33.5 34.8 35.8 35.7 34.9 33.8 31.3 28.7 26.2 22.6 18.8 19.1 19.6 24.3 28.9 32.8 35.8 39.1 40.4 38.8 38.3 39.6 39.6 40.2 39.3 37.5 34.7 32.2 29.5 27 23 19.7 19.8 22.2 24.7 26.1 25.1 20.6 22.1 27.9 27.3 28.4 25.5 24.6 26.5 25.7 23.9 26.4 28.8 29.7 29.3 30.1 29.9 30.3 33 35.2 38.2 41.2 43.1 44.4 45.5 46.2 47.3 50.3 50.9 51.4 50.9 49.7 46 42.2 38 34.7 31 28.7 26.9 24.8 25 25.3 26.8 27.1 27.7 27.6 27.2 27.9 31.5 33.6 34.5 35.1 35.2 35 33.3 31.4 30.3 29.3 29.1 30.7 35 38.5 38.2 36.3 37.6 41 42.8 44.6 43.9 44.1 44.7 44.9 45.4 47 46.5 45.3 42.9 42.8 43.9 43 42 41.9 41.1 40 40 38.4 37.4 35 33.2 30.8 29.9 25.6 20.9 22.2 27.7 30.4 31.3 31.5 32.2 31.4 32.2 33.2 33.4 32.1 30.2 28.1 26.1 23.9 21.1 3.8 2.4 0.7 2.4 2.5 2.6 2.5 2.7 2.7 2.4 2.4 2.7 2.5 3 2.7 1.5 0.2
50.8 50.4 50 52.6 53.1 55.1 56.7 50.4 42.8 39.7 38.1 40.4 40.2 44.2 43.5 43.1 42.4 40.4 39.6 42.7 44.1 45.4 44.9 43.9 42.4 40.6 38.5 36.2 33.2 31.6 29.4 26.8 25 24.5 22.9 24.6 31.2 33.6 34.8 36.1 36.6 36.1 35.4 31.3 29.1 27.1 24 21.1 20.9 21.8 20.7 23.3 28.5 33.2 38.9 42.5 43.2 42.4 42.7 41.6 41.1 41 39.3 36.8 31.6 31.9 28.6 25.3 22.3 20.7 23.4 26 27.6 29.1 27.8 23.2 21.1 27.8 29.7 29.7 29.5 25.8 29.2 30.9 29.7 28 23.5 25.8 26.5 27 28.3 29 30.7 32.4 34.3 36.3 37.8 38.6 39.9 41.3 43.2 45.2 46.3 50.9 50.5 49.2 46 42.4 39 35.7 32.6 30.2 27.5 25.8 28.2 28.9 30.1 30.5 30 29.5 28.6 28.2 33.1 32.6 34.3 35.2 35.6 34.1 32.7 32 32.4 30.9 31.5 33.5 38.5 41.3 39.7 38.6 40.2 43.2 45.2 46.6 46.8 47.6 48.1 48.4 47.8 48.1 47.5 47.9 48.6 48 47.1 46.5 45.9 44.8 44 41.9 40.7 38.7 36.6 33.5 32.1 29.4 22.3 24.2 29.5 25.6 32.5 35.3 37.1 38.1 38 36.6 35.6 35.4 32.9 30 27.6 24.4 22.3 18.6 4.8 2.4 2 2.4 2.5 2.6 2.7 2.9 2.8 2.7 2.6 2.4 2.6 3.2 2.7 1.5 0.2 -1
54.6 55.9 56.4 56.6 60.6 62.7 59.6 55.1 52.4 46.5 43.2 45.5 48.5 50.3 49.7 47.5 46.3 42.8 41.4 43.5 45 44.1 42.8 41.6 40.9 39.3 37.1 34.8 32 29.9 28 26.3 24.5 23.9 23 27 31.3 33.5 35.9 36.8 37.1 36.3 34.5 31 27.9 25.4 22.4 20.6 23.8 23.3 21.7 23.4 30 37.8 42.2 44.9 45.5 46.5 44.7 42.9 42.2 40.7 37.7 34.2 31 26.9 25.2 23.8 22.2 22.2 27.8 29.9 30.7 30.6 28.9 25.8 22 24.5 29.7 31.3 33.7 27.3 28.6 33.5 32.2 31.5 31.7 31.3 29.7 30.9 30.2 29.5 30.7 32.1 33.9 35.2 36.3 37.2 39.8 41.9 44 45 46.1 47.8 50.4 48.7 45.2 41.5 38.4 35.3 33 30.1 26.6 28 32.1 33 33.1 33.5 33.3 32.5 32.5 32.4 34.4 35 35.7 36.3 36 34.4 34.1 35.6 33.4 33.8 34.5 36.6 40 41.9 41.4 41.1 43.2 45.9 47.8 49.4 49.6 51 51.6 51.9 51.5 52.2 51.5 51 50.7 49.8 48.9 47.3 47.3 46.1 44.4 42 41.3 39.8 38 35.7 33.5 29.1 31 33 35 30.6 37.4 40.5 43 43.8 41.8 39 35.8 31.9 28.3 25.8 24.3 21.6 16.2 7.4 2.4 2.2 1.8 2.6 2.6 2.9 2.8 2.7 2.6 2.5 2.5 2.6 6.9 2.4 1.4 0.3 -1 -2.4
57.9 60.2 62.8 63.7 64.7 65.1 64.7 60.9 55.8 50.8 49.6 52.3 54 55.2 54.5 51.8 49.5 44 47.2 47.2 47.2 44.6 41.5 38.8 36.8 36 34.5 32.6 30.5 28.4 26.8 25.3 25.7 26 27.6 29.4 31.2 33.4 36.2 37.2 37 35.9 33.9 30.5 27.4 23.7 21.6 25.8 26.3 24.3 21.9 25.1 31 38.6 43.8 46.5 47.2 47.8 46.2 43.3 41 38 34.1 31 27.9 25.5 25.3 25.9 23.8 23.6 31.8 33 32.5 31.9 31.1 29.2 26.9 22.8 27.1 31.9 33.9 29.2 28.5 32 32.7 33.4 34.7 35.6 35.4 34.6 32.4 32.1 33.1 34.2 33.4 34.9 36.4 37.8 40.5 43.6 46.5 48.7 51.8 50.9 50.2 47.1 42.8 39.9 37.7 34.8 31.3 30 28.9 31 32.9 35.4 35.7 35.8 34.8 36.4 37.2 33.7 34.6 35.6 37.5 38.1 37.3 35.7 37.5 36.4 35.2 36.4 37.4 39.9 40.6 42.7 43.6 43.9 46 49 51 52.1 52.6 53 54.3 55.2 55.3 52.3 53 52.1 51 50 48.4 48.1 47 45.8 44.5 42.3 41.1 40 38.4 37.2 32.5 35 35.6 37.2 40 36.5 39.7 45.4 46.6 45.6 42 37.9 32.7 23.2 19.6 16.6 15.7 12.4 6.8 2.6 2.5 2.2 1.8 2.6 2.5 2.2 2.8 2.8 2.5 2.5 2.8 5.5 2 1 0.1 -1 -2.4 -2.4
61.4 64.6 68.9 70.7 72.3 73.4 71 66.2 57.8 58.1 60.1 61.6 62.6 61.3 58.7 56.9 52.4 50.1 53.2 50 49.9 46.3 42 39.6 36.2 32.9 31.1 29.3 28.8 27.4 26.5 27.9 28.3 29.3 30.7 32.8 33.5 34 35.7 37.7 36.9 35.3 32.9 29 25.1 22.3 27.3 29.1 27.9 25.8 23.8 28.7 33.2 39.5 43.7 45.4 47.7 48.4 45.7 41.8 38.8 34.3 31.5 28.1 26.7 28.5 28.5 27.1 25.3 25.8 31.5 34.3 34.4 33.9 33.3 31.2 28.8 22 22.1 31.8 35.5 31.1 28.8 31.6 33.2 34.9 38 39.6 39.3 37.6 36.4 35.9 34.8 36.5 36.4 35.9 37.5 38.3 39.9 42.3 45 48.8 51.7 51.3 49.3 45.1 41 37.9 35.7 33.1 34.3 33.4 30 32.6 37.1 37.7 38.3 39.1 37.9 39.5 40.2 39.7 37.7 39 40.8 40.9 39.4 40.9 39.6 39.7 42.4 41.3 40.7 41.5 42.7 44.1 45.3 46.7 49.1 50.6 51.9 53 52.6 54.2 55.1 55.8 55.5 54.4 53.4 52.5 51.7 49.7 47.9 46.4 47.1 43.2 44.2 43 42.1 41.1 41 39.4 37.5 40.5 41.4 41.3 40.9 39.9 40.8 45.9 46 43.9 41.3 35.2 28.9 22 15.3 5.9 4.7 5.5 2.5 2.6 2.4 1.8 3 2.7 2.6 3.1 3.2 3 2.7 3 2.8 1.8 0.8 -0.2 -1.2 -2.4 -2.4 -2.4
61.2 68.8 72.9 76.3 79.5 78.6 78.1 70.8 68 69.8 70.6 70.9 70.2 68.6 65.9 62.7 58.2 58.6 58.8 54 51.6 46.1 42.6 39.9 36.8 32.7 31.4 31.3 28.2 31 31.1 30.2 30.2 31.6 34.6 36.5 36.7 36.4 37.3 37.5 36.8 34.6 31.9 28.1 24.6 27.3 31.5 30.6 29.3 26.7 24.1 31.6 38.5 41 44.3 46.1 47.7 47.3 43 38.5 34.3 32.2 28.9 28.1 30.4 31.9 31.6 28.5 25.9 24.4 27.9 34 35.2 34.6 34.3 32.6 30.4 27.4 23.5 28.6 34.8 32.4 31.2 32.6 34.5 37.5 41.3 43.3 43.4 40.5 40.8 40 38.4 38.9 38.6 37.9 39.3 40.3 40.8 41.6 43.7 46.5 48.4 51.2 47.9 43.3 39.1 36.8 36.8 38.2 36.2 34.2 30.6 33.9 38.3 39.9 40.5 41.1 40.8 42.1 43.6 43.9 41.4 43.6 44.2 43.3 41 40.8 42.9 43.3 44.1 44.5 43 44.4 46.4 47 46.7 47.3 48.8 51.1 50.4 49.9 51.8 54 55 55.4 54.9 54.8 54 53 52 50 47.1 44.1 43.5 42.6 43.8 43.2 43.4 42.7 41.7 41.1 41.6 42.9 43.9 44.3 44 44 44.6 45.7 45.7 44.2 41 36.9 32.3 25 16.3 12.8 5.7 3 2.5 2.2 2 3 3.5 4.1 5.7 4.4 2.7 3.1 6.5 3.1 1.8 0.8 -0.3 -2.4 -2.4 -2.4 -2.4 -2.4
67.7 68.6 74.4 79.4 82.9 84.5 82.3 77.2 76.3 76.1 77.6 77.1 76.8 74.6 72 67.9 66 62.9 63.1 58.2 56.7 48.4 41.1 40.7 35.3 31.7 34.2 36.5 39.4 37.3 34.4 32.9 32.7 33.9 37.4 39.7 39.6 38 36.9 37.7 36.3 33.8 30.6 26.8 24.2 30.9 33.3 32.2 30.2 28.1 25 28.6 38.3 43.5 44.7 46 46.8 43.9 38.9 35.2 32.7 29.9 30.2 30.9 32 34.2 32.8 29.7 26.3 25.6 28.8 31.6 35.4 35.7 35.3 33.9 32 28.2 25.5 30.9 36.6 34.1 31.8 34.5 37.7 40.5 44.1 47 46.3 43.3 44.6 44 42.6 41.4 39 39 40.6 41.9 42.4 42.9 44.6 48 51.5 52 50.2 44.2 41.9 41.1 40.7 40.1 37.2 35.3 32 32.1 36.9 39.6 42.4 42 43.7 44.7 46.1 46.5 44.2 45.6 45.7 43.6 41.8 41.8 43.4 44 44.9 45 45.7 48.6 46.5 39.9 39.5 36.9 42.9 47.2 45.2 47.8 50.9 52.6 53.7 54.4 53.2 54.3 53.7 52.8 50.9 48 45.1 42.5 40.9 42.8 44.1 44.4 45.2 46.4 45.8 45.2 45.6 46.4 47.7 47.1 43.9 47.6 47.6 47.2 46.8 44.5 41.1 37 32.5 28.6 23.3 19.9 10 4.7 2.2 1.9 2.9 6 8.3 7.1 2.4 3.6 3.1 6.4 3.3 2.1 1.1 0 -1.1 -2.4 -2.4 -2.4 -2.4 -2.4
71.6 73.4 78.5 82.1 86.1 88.7 86.9 84.1 83 81.9 81.1 79.3 75.9 72.6 70.9 67.9 64.4 61.1 59.5 55 50.3 46.9 41.8 40.5 36.6 39.2 40.9 42.2 44.7 41.4 38.9 35.7 35.6 37.1 38.8 39.8 39.4 38.7 38.2 37.2 35.1 32.4 29.3 25.9 28.5 33.1 33.9 33.3 31.4 29.1 25.9 34 42 45.3 46.2 45.5 45.2 40.5 36.8 32.8 31.7 31.8 33.5 33.3 34.3 33.7 32.4 28.5 26.8 26.8 29.6 32.1 35.1 37.4 36.7 35.6 33.5 30.1 25.8 31.8 38.8 36.2 32.9 36.4 41.4 44.9 48.5 50.2 49 47.3 48.3 48 46.7 44.1 41.6 42.2 44 45.6 45.1 45.3 47.2 52.4 56.5 56.6 54.4 50.1 47.4 45.1 42.8 41.5 40.5 38.6 35 31.1 32.9 38.5 42.9 44.9 45.8 47.2 47.8 47.7 45.6 47.7 46.2 45.1 44.3 44.7 45.7 46.4 47.9 50 49.1 47.6 41.3 35.8 28.4 35.7 40.9 43 40.1 44.6 45.4 46.4 49.8 48.7 46.7 49 49.1 48.5 46.7 44.3 41.4 39.1 38.2 41.1 44 47 47.1 47.6 47.4 46.8 47.7 48.9 49 48.4 48.5 47.8 48.5 48 47.6 46.4 43.2 40.6 35.1 29.7 24.3 18.1 11.5 3.5 2.2 1.8 7.4 13.4 14.8 2.4 1.8 3.7 6.5 3 2.1 1.2 0.3 -0.8 -2.4 -2.4 -2.4 -2.4 -2.4 -2.4
77 80.6 83.6 86.8 88.5 89.7 87.7 85.3 82.1 81 79.6 76.5 73.7 71.4 67.6 63.7 61.3 59.1 55.2 50.5 46.6 42.4 36.5 34.4 38.1 47.1 49.7 49.7 51.3 45.5 47.4 46.5 42.6 41.4 41.7 40.2 38.2 38 38 36 33.7 30.8 27.5 28 31.7 34.7 35.8 34.3 32 29.6 27.6 35.8 43.6 47.5 48 46.4 45.2 39.8 39.7 37 34.5 35.3 36.9 35.3 34.8 32.6 29.7 28.4 27.7 28.5 31.4 34.5 36.9 37.8 38.5 37.3 34.9 30.1 25.4 36.6 38.9 38.7 35.1 36.3 41.7 46.8 51.9 52.7 50.5 51 51.8 51.6 49.5 44.4 47.6 46.9 47.6 48.8 49.3 50.2 49.1 54.7 60.2 62 59.4 54.9 49.3 47.9 45.3 44.1 42.2 39.7 36.3 33.5 31.7 34.7 39.5 43.1 45.6 49.6 51 49.1 47.3 48 47.9 47.2 47.1 47.5 47.3 48.7 50.1 48 45.8 42.3 32.2 31.4 25.5 30.6 33.6 37.3 35 39 37.6 40.1 42.4 40.7 39.3 42.7 43.7 43.5 42.4 40.3 37.4 34.4 36.2 41 44.4 47.7 48.5 48.8 47.7 47.4 47.4 47.1 47 46.3 45.6 47.8 46.9 47.6 46.3 45.3 42.9 36.4 31.7 26.5 21.1 14.9 3.7 2.6 1.7 2.7 13.5 13.2 3 1.6 3.5 3.3 2.8 2.1 1.3 0.4 -0.4 -1.4 -2.4 -2.4 -2.4 -2.4 -2.4 -2.4
81.7 84.4 87.8 90.3 91.4 88.3 85.2 83.3 80 78 72.8 71.4 69.7 66.9 63.2 60.4 56.6 54 51.6 46.9 43.3 35.8 37.3 38.6 40.7 48.1 55.3 56.9 57.1 51.1 52.6 52.3 49 45.2 42.7 40.9 38.6 36.5 33.4 33.6 31.6 28.8 27.4 31.4 35 36.6 36.9 34.5 32 29.8 31.8 39.2 44.8 48.1 49.6 48 48.4 48.2 44.5 43.5 42.4 40.9 38.4 36.3 34.1 30.9 29.2 30.4 30.3 30.4 32.4 38 39.2 39.4 39.6 38 35.1 29 29.4 42 41.2 42 36.9 36.2 43.1 46.6 51.2 53.1 54.2 54.6 54.7 53.3 50.1 48.4 52.5 51.7 52.8 53.6 55.3 56 56.6 59 64.2 64.8 60.7 55.7 51.5 47.7 44.7 44.6 42.1 39.5 36.7 34.3 32.9 37.6 41.6 44.7 47.7 53.2 55.6 52.8 50.7 48.9 49.1 48.9 48.2 47.9 47.6 46 44.2 43.2 39.4 36.5 28.9 24.1 20 24.1 29.1 25 29.5 32.5 31.8 33.8 35.5 34.6 34.9 36.7 31.8 37.7 37.4 35.8 32.5 30.2 36.6 40.2 43.3 45.8 45.3 43.2 45.4 44.6 43.5 42.9 41.3 39.9 40 41.7 40.7 40.3 40.9 38.8 35.8 31.3 28.3 23.4 17 3.8 2.5 2.5 2.8 2.8 5.7 2.9 0.6 3.1 3.6 4 2.2 1.4 0.7 -0.2 -1.1 -2.4 -2.4 -2.4 -2.4 -2.4 -2.4 -2.4
86.3 88.6 92 93.5 91.7 88.6 85.8 81.3 77.1 74.1 71.5 68.7 65.7 63.5 60.9 57.3 53.1 49.2 46.7 42.4 38.5 38.5 39.7 43.2 44.8 48.6 54.6 60 61 57.5 53.7 52.2 49.2 45.7 42.1 39.3 37.1 34.4 30.7 29.6 28.7 28.9 31.1 35.4 39.3 39.9 37.4 34.5 32.1 31.6 32.9 38.8 42.9 44.5 47.1 49.6 50.4 49.6 47.5 45 42.8 40.1 39.3 39.1 39 35.3 35.9 36.6 33.6 31.6 36.8 41.1 42 41.4 40.6 38.1 33 28.3 32.5 40.4 43.6 44.5 38.9 36.4 44 49 51.6 52.9 53.6 57 56.7 54.2 50.3 54.8 59.1 58.8 60.3 61.4 63.3 63.7 65.3 67.4 67.7 66.1 60.2 54.1 49.3 46 43.4 41.6 40.5 38.8 35.9 34.8 36.1 40.1 45 50.4 52.7 57.9 58.7 57.5 55.7 53.5 51.9 49.5 46.8 46 45.3 43.3 39.3 36.8 33.3 30.1 26.3 22.2 16.9 19.3 23.2 23.1 24.7 26.4 26.3 27.7 29.4 29 30.5 33 33.5 33.8 32 27.2 28.5 30.9 34.6 37.2 38.9 36.3 41.6 40.7 40.4 39.4 38.1 36.8 34.8 31.8 32.1 33.3 33.1 31.7 30.4 32.2 30 27 24.4 19 11.3 3.2 3.2 2.7 2.6 2.9 3.4 0.6 3.1 3.8 6 2.4 1.6 0.9 0.1 -0.8 -1.6 -2.4 -2.4 -2.4 -2.4 -2.4 -2.4 -2.4
92.9 96 96.1 94.7 93.2 89.2 85.4 81 75.3 70.4 65.7 66.5 63.1 58.9 56.8 53.9 50 45.7 42 43 40.1 42.1 43.8 47.4 48.6 51.6 55.3 58.4 59.7 58.5 54.4 49.3 46.8 43 39.4 36.2 33.7 33.8 33.1 33.2 33.8 34.6 36.4 37.7 41 42 38.3 33.3 32.8 35.1 36.3 37.5 39.7 43.3 47.3 52.6 52.5 50.2 47.2 43.9 40 39.1 39.1 39.1 41.2 39.1 41.1 42.1 37.7 34.1 39.8 43.8 44 42.9 40.2 35.8 30.8 27.3 38.8 43.3 46.4 46.4 40.8 38.4 48.3 53.1 54.9 55.1 57.2 59.5 59.5 58.2 51.9 58.5 65 67.6 68.7 72.1 73.6 73.8 72.1 71 69.4 64.5 60.5 54.8 48.6 44.2 41.2 40.2 39 36.9 36 35.2 38.5 42.3 49.7 55.6 57.8 59.5 58.6 55.5 54 52.4 50.1 48.4 47.5 42.7 41 36.5 32.6 28.2 25.7 24.1 22.6 19.9 15.8 15.3 16.5 16.4 15.4 15.2 16.8 18.1 19.5 20.5 22.8 24.8 25.6 25.1 24 17.7 17.5 30.4 31.9 31.7 32.1 32.7 32.5 32.7 33.4 31 30.1 27.1 24.9 21.2 25.8 26.8 23.6 19.9 20.5 19.2 17.5 16.3 13.6 7.2 2.3 2.4 2.5 2.6 2.5 2.8 2.6 3 4 6.5 2.5 1.8 1.1 0.3 -0.4 -1.3 -2.4 -2.4 -2.4 -2.4 -2.4 -2.4 -2.4 -2.4
100 100.8 101.3 96.4 91.7 87.4 82.9 77.6 74.2 71 63.9 62 59.3 56.5 53.4 48.7 45.3 46.7 47.8 46.6 45.6 44.9 48.8 51.5 53.1 55.1 56.4 55.8 54.9 52.9 50.6 45.5 40.8 38.6 38.3 38.1 38.1 37.2 38.5 38.7 39.2 40.7 42.4 44.7 47.2 44 37.8 36.8 41.6 42.9 43.4 43.7 47.6 53.2 56.5 55.7 55.2 50.4 45.1 43.1 43 42.5 41.5 44.3 48.6 49.2 49.6 46.5 40.3 39.3 43.8 45.9 45.4 43.3 38.2 33.6 30 38.3 44 46.6 48.3 47.5 43.1 40.1 48.1 54.1 56.8 58.3 60.7 63 63.5 62.7 56.3 63.6 68.9 72.8 74.4 74 76.2 76.3 73.5 70.5 66.8 61.8 57.2 51.6 47.2 42.2 43.6 42.8 40.6 41.6 38.7 39.8 40.9 43.7 52.6 60.5 59.2 58 54.4 49.3 47.3 45.2 43.4 41.2 38.7 35.1 33.4 30.1 27.2 24.6 22.1 20.5 18.4 17.4 15.9 13.8 13 11.8 12 11.1 11.5 12.5 14 15.5 17.4 19.5 19.9 18.3 17 13.4 14.1 19.3 19.3 18.5 18.3 19 19.5 20.4 20.6 18.5 17.4 16 14.3 13.1 15.7 15.3 11.8 8 7 7.7 6.5 5.2 1.9 3.2 2.6 2.7 2.5 2.9 2.6 2.6 3 4.2 4.5 2.4 1.8 1.2 0.5 -0.2 -1 -1.7 -2.4 -2.4 -2.4 -2.4 -2.4 -2.4 -2.4 -2.4
103.3 104.9 102 95.1 89.1 83.5 78.6 73.2 70.4 68.4 66.1 58.7 54.6 49.1 47.6 50.6 54.9 55.3 53.4 50.8 49.6 51.3 56.7 58 57.3 57.1 56 52.7 50.9 47.7 44.2 42.5 44.5 44.7 44.1 44.1 41.9 41.9 45.1 46.6 48.9 51.6 53.8 53.6 51.9 44.4 37.9 45.1 50.8 52 54 55.1 59.4 62.4 62.9 57.8 55.7 50.4 43.7 47.1 51.3 52.4 54 53.1 54.4 55.6 52.5 49.6 43.4 43 46.6 46.6 45.2 41.4 35.3 31.8 37.1 41.2 44.7 49.1 49.6 47.6 44.7 42.4 41.7 52.1 55.6 59.4 62.1 64.8 66.7 65.7 63.3 60.3 68.5 74.9 77.3 78.7 78.1 75.2 70.6 66.1 61.5 58.5 53.4 47.1 49.1 49.4 51 49.5 45 41.8 42.7 42.3 44.4 45.8 54.8 60.7 57.5 53.1 48.9 43.9 38.2 38 37.3 35.6 33.9 32.8 29.3 27 24.2 21.9 19.9 18.2 17.3 15.9 14.1 12.9 12.6 14.8 14.4 12.2 10.3 10.7 10.7 13.9 17 18.5 17.1 14.8 12.9 10.5 9 10.5 10.8 10 9.4 9.7 10.3 10.4 10.2 8.8 7.7 7.3 7.3 7.2 6.3 5.5 5.2 2.9 2.8 2.9 3.1 3.1 2.9 3.2 2.7 2.3 2.8 3.4 2.6 4 4.7 5.1 2.4 1.8 1.2 0.5 -0.2 -0.8 -1.6 -2.4 -2.4 -2.4 -2.4 -2.4 -2.4 -2.4 -2.4 -2.4
106.4 105.8 99.2 94.2 90.6 86.9 80.9 74.6 69.6 66.4 62.6 56.5 56.4 55.6 56.2 57.3 62.2 62.3 58.1 51.1 53.6 56.5 62.9 65 63.6 60.4 55.1 50.8 50.4 52.1 47.9 46.4 51.5 52 53.9 53.7 48.9 48.6 54.3 58 61.8 64.7 65.1 60.1 52.1 41.9 41.6 50.9 59.4 60.8 61.8 64.3 68.5 68 65.8 61.4 55.9 48.4 47.5 49.5 54.8 61 67.3 65.7 62.3 57.7 55.2 49.3 43.7 47.1 46.8 45.6 42.5 36.8 32 30.4 40.2 43.4 44.6 48.9 49.6 47.3 45.3 45.3 44.7 45.1 52.3 57.6 62.8 67 70.5 69.7 70.1 68.9 68.4 71.4 75.8 80 79.9 76.6 72 66.2 57.4 52.4 52.4 54.4 55.4 54 56.1 52.7 48.5 44.9 44.6 44.8 46.5 49.4 55.1 54.8 50.5 47.1 42.9 41 36.4 33.8 33.1 31.9 32.4 30.6 28.7 26.4 23 20.6 18.4 16.7 14.7 14 13.6 14.9 17.2 20 17.4 14.3 12.2 10.1 9.7 11.5 15.4 14.8 12.9 10.7 8.5 7.9 7.2 6.7 6.5 5.8 5.4 5.3 5.5 5.6 5 4.5 4.7 4.4 4.3 4.1 3.5 3.6 3.4 2.9 3.4 2.7 3 3.4 3 2.8 2.6 2.5 2.7 3.1 3.8 5.2 4 2.4 1.8 1.2 0.5 -0.1 -0.8 -1.5 -2.4 -2.4 -2.4 -2.4 -2.4 -2.4 -2.4 -2.4 -2.4 -2.4
109.3 106.8 105.9 101.1 98.6 95.8 88.5 81.4 75.4 68.9 62.5 63.1 64.7 64.4 66.8 71.1 72.2 69.5 64.3 56.9 61.9 66.3 69.6 70.7 67.2 60.3 58.4 60.9 63.6 58 47.8 52.4 59.8 63.7 64.5 59.9 56.7 57.1 57.8 65.6 69.9 69.1 65.1 59.4 56.5 44.2 42.9 54.5 61.6 64.7 66.3 65.7 69.9 68.8 65.3 59.4 53.3 51 55.6 57.4 57.8 62.8 69.1 68.9 64.5 58.5 53.1 47.1 48.5 50.4 50.2 46.1 40.7 34 37.3 42 43.8 47.9 49.2 50.9 49.7 48.9 50.1 50.2 48.5 47.4 53.1 62.6 68 72.9 75.8 76.7 78.5 82.8 79.9 80.7 86.4 85.8 83.9 79.4 73.8 63.9 62.8 58.9 61.7 61.7 61.5 60.5 58.8 54.8 49.7 48.1 46.4 48.8 52.2 52.3 53.3 49.8 45.2 43.5 40.1 37.1 34.9 31.2 31.1 30 29.4 28.3 28.2 25.9 22.2 19.9 18.1 15.1 14.7 14.1 17.6 21.2 23.1 22.6 21.3 19.2 15.8 12.8 10.4 9 10.3 10.7 8.9 7.9 7 5.4 5 4.8 6.7 5.2 5.8 6.6 6.1 4.9 3.6 3.9 3.8 3.6 3.5 3.7 3.4 3 2.8 3.7 5.4 5.9 5 4.5 3.9 1.3 2.4 3.1 2.9 3.9 4.9 3.8 2.4 1.8 1.2 0.5 -0.1 -0.8 -1.4 -2.4 -2.4 -2.4 -2.4 -2.4 -2.4 -2.4 -2.4 -2.4 -2.4 -2.4
113.2 112.5 113.8 110.8 106.1 101.7 93.6 86.8 80.6 70.3 69 72.9 74.2 75.6 78.1 82 82.7 77.3 68.3 67.8 69.3 73.4 75.9 73.5 66.9 63.2 66.5 70.3 68.2 58 49.8 59 67.9 71.6 70.9 66.1 62.5 65.7 62 67.4 73.1 71 67.3 68.3 58.5 45.8 49.1 56.8 64.6 68.1 71.7 73.8 73.1 69.7 65 59.6 51.3 59.4 61.3 64.3 66.2 64.9 69.5 68.2 64 58.6 55.8 55.2 55.9 55.3 51.8 46.6 36.6 31.2 45 47.3 54.6 56.9 57.9 56.7 54.1 57 60.4 61 54.2 49.6 52.1 65.5 73.4 79.2 83.9 88.7 92.6 94.1 95.8 94.1 92.1 91 85.2 76.2 66.3 65.2 70 65 69.6 72.2 71.9 70.5 68.9 65.3 56.2 52.9 53.2 56.6 54.4 48.4 44.1 43.1 41.6 39.7 37.1 33.3 32.3 30 29.4 28.4 27.6 26.9 26.3 24.2 21.5 18.5 16.8 14.1 16.2 19.9 25.4 29.9 31.8 30.3 29.6 26.1 21 15.2 11.3 9.5 8.7 8.7 6.6 5.4 6.7 7 9 11.3 9.5 7.2 8.4 10.8 9 7.2 8.4 8.4 8.6 8.4 7.9 5.8 4.3 3.4 4.7 8.4 8.9 7.6 6.9 7.2 9.5 9.6 4.7 3.7 3.3 4.6 4.4 2.4 1.7 1.2 0.6 -0.1 -0.7 -1.4 -2 -2.4 -2.4 -2.4 -2.4 -2.4 -2.4 -2.4 -2.4 -2.4 -2.4 -2.4
119.2 121.2 121 116.6 110.3 103.4 97.1 89 78.1 71.5 74.8 78.6 82.9 84.4 87.4 91.1 89.7 84.1 72.6 74.2 78.6 81.4 80.1 73.6 69.5 71.9 74.2 74.3 66.8 52.8 56.4 61.1 67.6 75.8 76.6 71 65.9 72.1 72.5 74.1 75.7 74.4 71.4 66 55.1 44.6 56.8 64.7 67.9 71.4 75.8 76.1 73.9 70.8 67.7 63.3 58.2 66.6 69.3 72.5 72.8 71.7 72.5 71.8 69.4 66.8 65.4 64.8 62.9 57.8 49.1 40.4 35.2 40.8 47.2 53.9 63 66 65.1 56.4 64.5 69.3 73 74 69.7 56.9 51.7 61.8 70.7 76.4 83.5 90.7 95.1 98.5 95.2 98.8 98.7 92.2 82.5 77 72.7 75.7 75.2 72.1 74.2 82.4 87.1 85.2 82 78.9 70.2 68.3 63.9 60.3 49.1 45.1 41.1 35.6 34.6 33.4 31.4 29.7 28.3 26.7 24.6 24.9 23.3 22.2 21.4 20 18.1 17.5 15.6 16.1 18.8 22.9 29.4 33.4 35.8 36.5 34.3 28.9 22.3 18.1 14.2 12.4 9.7 8.6 7.1 7.6 9.7 12.4 14.9 14.7 9.4 10.1 13 14.9 12.5 12 13.9 15 15.9 15 13.2 5.1 4.1 3.8 8.4 11.6 10.7 10.8 10.8 11.7 15.2 17.6 18.6 4.7 3 5.3 2.4 1.8 1.2 0.5 0 -0.7 -1.3 -2.4 -2.4 -2.4 -2.4 -2.4 -2.4 -2.4 -2.4 -2.4 -2.4 -2.4 -2.4 -2.4
127.6 127.5 124.9 119.3 111.1 102.9 95.5 88.4 77.9 79.1 82.8 85.6 88.9 92.5 95.6 98.5 94.2 86.2 80.2 82.6 86.6 86.5 82.2 76.7 79.8 80.4 81.5 75.6 63.5 57.3 62.7 70 73 78 81 76.5 74.8 76.1 81.2 83.2 80.9 78 72.5 62.5 51.8 48.2 63.7 71.6 74.2 76.5 77.8 77.2 76.2 74.4 72.1 64 65.7 72.1 77.1 79.3 78 78.1 79.6 79.3 77.4 74.9 73.3 70.2 63.9 49.8 37.3 37 42.3 45.2 53.3 63.1 70.9 69.3 67.9 61.1 70.6 77.5 81.5 80.8 72.3 61.4 55.4 61.3 68.5 76.3 85.3 91.6 96.6 100.5 103.6 105.7 102.2 97.6 92.2 87.6 88.3 92.1 90.3 85.7 85.9 87.4 86.7 88.7 85.6 81.8 82.1 80.1 75.9 64.2 57.7 53.3 46.9 40.5 36.7 33.9 32.1 30.7 27.9 24.9 23 22.6 20.5 19.7 19.3 18.1 16.9 16.8 17.6 16.6 20.1 24.2 30.1 34.8 36.8 36.9 36 33.8 30.1 24.3 18.2 14.6 11.1 9.3 8 9.6 11.9 15.6 17.1 15.2 12.9 17 19.6 19.2 19.6 17.6 20.2 21.1 19.4 16.7 13.4 5.3 4.7 4.9 11.3 14.9 13.6 17.2 16.7 16.2 19.6 23.8 20.3 5.8 5.7 2.5 1.8 1.2 0.6 0 -0.6 -1.3 -2.4 -2.4 -2.4 -2.4 -2.4 -2.4 -2.4 -2.4 -2.4 -2.4 -2.4 -2.4 -2.4 -2.4
132.2 132 127.5 117.6 109.6 101.5 95.8 89.9 85.8 87.9 88 91.5 94.9 98.2 101.7 102 94.5 91.6 90.9 92.7 92.3 91.3 88.7 86.9 88.4 88.6 83.1 73.7 62.9 63.7 70.8 79.9 82.4 82.4 84.7 84 81.3 84 85.8 88.1 84.2 78.8 67.6 57.2 50.9 53.8 69.4 78.7 80.5 81.9 82 81.6 79.2 79.1 76.8 66.2 68 75.9 81.8 84.6 86.8 88.5 87.1 85.7 83.1 81.9 74.4 64.2 52.2 41.8 39.2 45.4 45.8 53.1 57.9 64.2 73.5 73.6 69 62.9 69.9 76.7 81.6 78.4 74.7 64 58.5 64.2 73.9 82.1 90.4 96.5 101.4 106.9 110.8 110.4 106.2 104.4 100.1 97.4 96.4 97.7 95.6 93.5 93 93.5 91.4 86.8 82.6 81.3 78.1 75.5 74.3 69.8 62.2 56 48.7 43 38.7 34.3 31.6 28.9 27.3 24 22.8 23.2 22.2 21.2 20.3 19 19.6 20 20.2 19.5 19.5 23.8 29.7 34.9 36.1 36.8 36.2 34.8 30.8 24.9 19.8 15.2 12.3 9.7 9.8 11.8 14.3 15.7 16.6 15.8 14.4 18.9 22.8 26 28.2 27 24.9 21.2 17.6 15 10.4 5.7 4.9 6.8 13.1 16 20.4 21.9 23.1 20.4 24.9 28.5 15.9 7 2.7 2 1.3 0.7 0 -0.6 -1.2 -1.8 -2.4 -2.4 -2.4 -2.4 -2.4 -2.4 -2.4 -2.4 -2.4 -2.4 -2.4 -2.4 -2.4 -2.4
136.9 133.7 130.6 122 113.5 107 99.9 91.8 93.1 96.1 97.4 100.1 104 106.4 107.4 104.3 97.9 100.6 97 95.6 95.6 94.2 93.1 93.8 95.1 93.5 86.4 73.2 62.4 70.3 79.8 87.9 89.5 88.8 90 91.7 90.3 90.9 92.9 92.2 87.1 75.7 65.3 57.6 52.9 63.5 71.9 85.3 87.7 88.6 87.9 86.9 85 82.9 78.8 67.9 69.2 77 86.3 91.8 93.9 94.1 92.7 89.1 83.2 77.3 67.1 57.3 43.3 41.8 46.7 47.2 54.3 60.8 68.2 74.5 77 76.7 71.6 69.5 77.5 82.5 86.2 87.8 81.3 68.3 61.7 65.7 69.6 77.6 87.8 95.8 102.4 108.3 113.1 113.8 111.6 108.7 100.5 98.1 95.1 92.9 91.6 88.2 87.9 87 83.8 78.2 74.7 72.9 71.2 66 68.1 65.9 57 55 49.9 44.7 38.9 34 30.1 27.4 24.9 24.5 24.3 24.4 24.9 23.3 22.4 22.9 23.9 23.2 22.1 20.7 18.8 22.6 27.1 30.8 35.2 35.8 35.9 34.4 30.1 25 21.6 16.1 12.6 9.8 10.8 13.9 17.5 17.7 17.8 17.7 16.3 18.4 25.9 30.9 32.6 29.4 24.5 19.1 12.7 10.9 7.1 5.2 5.6 6.9 10.3 13.2 20.8 25 27.8 26.4 28.8 31.5 13.6 3.1 2.2 1.5 0.8 0.1 -0.5 -1.2 -1.8 -2.4 -2.4 -2.4 -2.4 -2.4 -2.4 -2.4 -2.4 -2.4 -2.4 -2.4 -2.4 -2.4 -2.4 -2.4
134.6 134.7 133.4 127.4 120.6 113.8 102.4 97.4 101.7 105.6 108.2 109.2 112.4 113.8 112.3 107.1 100.3 102.9 102.5 100.1 97.2 97.2 97.7 99.6 99.5 96.6 85.6 74.4 72 77.2 88.6 93.4 92.9 93.5 96.7 98.5 97.5 99.6 100.2 96.3 85.6 73.7 66.2 59.4 57.4 69 75.6 92.4 94.8 94.6 94.1 92.1 89.4 87.1 81.6 71.7 76.5 80.5 84.1 93.1 96.6 95.2 89.7 84.5 78 69.6 59.9 47.8 41.4 52.4 47.5 53.3 58.9 63.3 69.9 76.9 82.7 81.6 75.8 78 84.6 90.1 94 93.7 84.8 72.2 64.4 71.9 79.7 86.3 92 98.5 103.8 108.1 113.8 114.2 109.3 104.6 99.2 94.9 91 86.9 84.1 81.4 78.6 75.6 73.1 70.2 66.3 62 60 54.2 56.7 54.6 51.6 48.9 45.9 41.4 37.3 33 29.1 27.3 28 30.7 28.6 29.3 28.4 26.8 26 26.3 26.6 25.3 23.3 21.7 20.9 21.9 23.9 26.9 30.8 33.8 35.2 34.9 33.1 28 22.5 15.3 11.6 10.6 12.1 16 20.1 22.2 21.9 20.3 22.2 25.4 30.7 34.1 32.4 27.9 23.2 19.6 17.4 10.3 4.8 6.2 7.8 11.7 13.1 16 22.3 26.9 30 31.6 32.9 14.6 4.1 2.5 1.7 0.9 0.3 -0.4 -1.1 -1.7 -2.4 -2.4 -2.4 -2.4 -2.4 -2.4 -2.4 -2.4 -2.4 -2.4 -2.4 -2.4 -2.4 -2.4 -2.4 -2.4
139.5 136.4 133.7 129.2 125.4 118.5 109.4 109 114.1 116.8 117.6 118.3 118.3 117.5 113.9 108.2 105.2 104.6 104.7 103.5 101.9 100.5 100.6 101.7 102.3 98.1 84.9 76 77.7 83.1 94.7 97.6 97.6 99.6 102.1 103.8 102.6 105.4 105.7 101.5 85.8 74.7 69.2 60.7 65.2 72.5 78 88.6 101.9 104.5 102.8 99.8 96.8 91.4 82.8 73.7 78.4 83.6 90.8 95 97 93.6 86.2 78 68.6 61.8 53.8 45.1 48 49.9 56.6 56.9 61.6 67.1 71.9 77.4 84.1 83.8 77.5 83.7 91.2 97.7 99.9 96.7 88.6 74.2 68.6 77.2 86.3 94.5 101.5 107.3 111.2 114.8 116.7 115.1 107.2 102.9 97.6 91.2 88.4 85.1 81.1 75.4 71.5 69.5 66.4 64 60 54.8 51.2 47.5 45.1 41.9 40.6 39.3 38.5 36.3 33.7 30.4 27.7 29.8 34.6 36.3 34.2 32.7 31.5 29.5 29.9 29.7 28.5 26.4 24.5 23.2 21.7 22.3 23.2 25 27.8 33.1 35.7 36.4 35.8 30.7 22.6 15.4 11.8 11.2 12.8 15.3 19.4 23.1 24.4 23.6 24.9 29.5 35.3 35.3 30.4 25 22.7 20.2 16.3 10.7 6.5 7.1 11.5 16.7 18.5 20.5 26.4 30.9 34.6 37.4 32.8 3.1 2.5 1.9 1.2 0.5 -0.3 -1 -1.6 -2.4 -2.4 -2.4 -2.4 -2.4 -2.4 -2.4 -2.4 -2.4 -2.4 -2.4 -2.4 -2.4 -2.4 -2.4 -2.4 -2.4
139.4 136 133.7 131.1 124.6 120.8 118.4 118.6 120.1 121 120.9 117.7 116.2 115.2 114.1 111.5 109.4 107.8 107.1 107.8 106.6 104 103.4 103.6 103.2 98.7 86.3 73.3 82.9 91.7 100.3 102.8 103.2 104.3 108 107.9 108.2 109.8 110.3 102.5 89.9 78.1 74.6 71.9 76.9 74.7 82.4 88.8 99 111.1 111.5 104.8 98.9 91.8 82.5 74.9 81.5 92 97.8 96.4 93.8 88.4 82 74.1 65.8 58 51.8 44.2 53.7 55 60 61.5 63.8 66.7 75.5 82.4 86.1 86.2 83.1 87.6 94.3 100.1 101.5 97.4 87 74.7 76.7 84.6 90.6 100.8 108.8 114.5 117.7 120.9 119.2 115.3 106.5 101.2 97.4 93.2 89.1 83.6 78 71.4 67.3 65.1 62.2 58.9 53.3 49.8 44.8 40.6 40.1 39.1 38.9 34.9 33.7 32.7 31.6 30.2 30.5 33.6 39.2 40.4 37.6 36.1 35.2 33.7 32.9 30.8 28.7 27 25.7 24.3 23.2 24 25 25.1 28.2 33.5 35.9 37 36.3 29.6 21.8 16 13.1 12.4 14.9 19.2 23.1 22.8 24.8 27.1 28.6 34 37.5 34.8 27.7 22.5 17.5 12.3 9.3 6.7 7.6 10.1 16 21.5 24.1 24.8 31 36.5 41.4 42.1 26.3 2.5 1.8 1.2 0.6 -0.1 -0.8 -1.5 -2.4 -2.4 -2.4 -2.4 -2.4 -2.4 -2.4 -2.4 -2.4 -2.4 -2.4 -2.4 -2.4 -2.4 -2.4 -2.4 -2.4 -2.4
138.4 136.2 134.1 130.6 127.4 122.7 121.5 118.9 118.9 118 116.4 115.6 115.1 115.4 113.8 113.2 112.3 110.8 110.9 110.8 108.4 103.6 106.8 106.1 104.4 99.3 82.2 86.6 88.7 101.1 104.6 106.9 108.7 110.7 114.1 114.2 112.8 113.6 113.8 108.6 91.8 84.4 78.7 80.4 83.8 84.8 88.1 97.2 101.2 111.3 114.7 108.5 99.4 90 84.2 84.4 89.6 94.6 94.6 92.5 88.7 83.1 78 71.9 64.9 57.5 51.7 43.6 49.6 58.9 63.2 67.3 68.8 70.4 73.7 80.8 87.1 88.6 90.3 90.6 96.5 101.7 102.9 97.6 86.7 74.8 82.5 88 93.5 102.3 113 120.6 123.9 124.7 120.1 112.4 103.8 99 95.5 90.8 85.5 80.9 74.6 69.6 65.1 61.5 58.1 53.8 48.1 43.3 45.2 44.8 43.2 41.1 38.4 36.7 35.1 34 32.9 31.6 32.5 36.3 40.2 42.1 41.2 39.1 37.6 36.2 34.4 32.3 30.3 28.6 27 25.8 25 25.8 26 26.7 29.7 32.7 34.6 34.4 32.1 27.5 21 17.1 15.2 14 16.6 19.7 27.7 28 28.2 32.3 35.3 38.3 39.1 36.2 32.1 28.4 22.5 17.1 11.9 7.7 8.8 14.2 20.7 26 32.2 31.7 37.2 42.6 46 44.7 2.8 2 1.2 0.6 0 -0.6 -1.4 -2.4 -2.4 -2.4 -2.4 -2.4 -2.4 -2.4 -2.4 -2.4 -2.4 -2.4 -2.4 -2.4 -2.4 -2.4 -2.4 -2.4 -2.4 -2.4
136.9 135.8 133.7 129.4 126 123.3 115.9 116.1 117.8 114.5 113.5 112.8 113.2 112.7 112.6 113.5 113.5 113.8 113.5 113.3 111.9 110.3 109.9 107.9 104.4 98.2 93.5 98.4 99.9 105.8 109 112 114.6 116.2 117.7 118.8 117.1 117.3 116.7 110.2 94.8 88.2 83.8 86.2 92 95.8 99.7 103 106.1 111 115.9 107.3 101.6 93.8 90.8 91 95.5 94 89.8 89.3 84 80 74.7 67.9 63.1 58.4 49.3 51.4 56.1 54.9 62.4 69 72.9 74.3 76.6 81.5 86.8 90.7 93.8 96.9 99.6 102.7 102.1 97.3 87 80.2 86.4 90.4 95.3 102.8 113.6 124.8 127.6 123.6 116.3 108 100.7 94.7 91.4 88 81.8 75.8 69.8 64.5 57.8 54.7 53.6 50.2 52.5 53.8 52.4 51.5 50.2 46.4 42.6 40.4 39.2 37.5 34.4 33.7 35.5 38.6 42.8 45.2 44.8 43.7 39.7 37.7 35.8 34 31.7 30.1 28.4 27.6 27.8 28.3 27.7 28 30.2 31.6 33 31.9 30.4 27.3 22.1 18.3 15.9 15.2 17.5 23 29 31.4 32 35.5 38.5 41.1 41.1 39 34.5 26.7 19.3 14.7 9.8 7.9 10.4 16.9 23.8 32.6 39.3 40.6 43.5 47.2 47.3 40.5 2.5 1.6 0.8 0 -0.7 -1.3 -2.4 -2.4 -2.4 -2.4 -2.4 -2.4 -2.4 -2.4 -2.4 -2.4 -2.4 -2.4 -2.4 -2.4 -2.4 -2.4 -2.4 -2.4 -2.4 -2.4
135 134 131.9 128.1 124 117.8 109.8 109.5 111.2 110.7 110 110.2 108.6 111.3 111 112 113.6 114.4 115.4 115.3 114.5 113.2 112.1 109.5 105.9 102.2 103.3 105.2 107.2 107.7 110.9 116.1 118.5 119.7 121.1 122.3 121 119.9 119 109.9 99.1 93.7 90.9 92.9 102.3 107.1 108.4 108.9 110.9 115.2 114.5 110.1 105.5 100.8 98.5 96.3 96.3 92.8 89.9 84.1 79.5 75.9 71.9 67.5 62.7 58.2 47.3 52.8 60.5 61.2 59.4 67.1 73.1 78.1 80.5 83.7 87.8 92.7 96.2 102 105.1 107.2 106.8 100.9 89.1 86.1 86.4 93.4 97.1 103.8 112.2 126.8 127.7 119.5 112.4 104.6 97.4 90.5 84.7 77.8 70.8 66.9 62.1 64.1 65.1 61.6 54.7 59.9 61.6 61.2 58.1 59 59.3 55.3 49.4 47.2 43.3 38.5 35.9 38.1 40.5 41.7 44.8 48.5 48 45.7 42.8 40 38.6 35.8 32.6 31.1 31 30.6 30.2 30.3 30 30.4 31 31.8 32.3 31.4 28.6 26.3 23.4 18.5 16.5 14.3 20.4 25.6 29.6 33 34.7 37.4 40.1 41.6 41.7 38.8 33.4 27.2 20.7 14.8 9.8 8.9 12.8 19.3 26.1 34 42.9 45.5 47.1 48.1 47.9 36 2.3 1.3 0.3 -0.5 -1.2 -1.9 -2.4 -2.4 -2.4 -2.4 -2.4 -2.4 -2.4 -2.4 -2.4 -2.4 -2.4 -2.4 -2.4 -2.4 -2.4 -2.4 -2.4 -2.4 -2.4 -2.4
131.1 130.7 128.9 126 121.7 115.1 109.1 106.4 106.9 106.8 106.7 105.8 105.6 106.9 110.4 111.1 113.1 114 115.8 116.2 115.9 115.5 114.3 111.8 108.4 106.8 109.4 112.3 111.6 112.4 114.3 118.2 120.8 122 123.9 125 122.9 122 121.8 117.7 103.9 99.1 99.1 102.4 108.1 111.2 113.6 115.1 117.2 120.5 118.3 116.7 111.7 112.1 106.5 105.7 100.1 93.3 89.8 84.2 80 73.3 66.4 62 57.1 52.2 52.7 56.6 64.4 67.9 63.5 69.8 74.4 78.3 83.1 87 90 95.5 100.1 105.6 110.4 113.3 111 101.2 95.9 94.5 92.5 99.1 102.4 105.6 111.7 119.1 118.5 114.2 107.7 101.6 95.2 89.1 79.4 82.6 76.5 72.8 73.6 71.4 67.8 62.4 66 69 69.6 68.7 67.3 67.5 68.4 64.1 59.7 52.8 42.5 38.4 39.1 44.8 47.4 46.7 47.7 51.4 50.5 47.7 45 43.5 40.9 36.8 34.2 35.6 34.5 33.8 33.2 33 31.7 32.5 32.3 31.9 31.2 29.1 26.5 23.6 21 18.8 17.7 17.3 22.7 27 30.4 33.3 35.8 39 40.9 41.8 41.3 37.3 32.3 25.5 19.7 14.4 10.9 9.7 14.7 23.6 31.3 39.7 45.4 47.2 48.6 48.7 47.9 6.4 2 1 0 -0.9 -2.4 -2.4 -2.4 -2.4 -2.4 -2.4 -2.4 -2.4 -2.4 -2.4 -2.4 -2.4 -2.4 -2.4 -2.4 -2.4 -2.4 -2.4 -2.4 -2.4 -2.4 -2.4
122.3 123.6 124.9 122.6 117.4 111.3 108.4 105.4 105.5 103 102.4 103.6 104.4 104.2 108.9 109 109.6 112.9 115.4 117 117 117.8 117.9 114.7 111.9 113.3 114.7 115.1 117.2 115.9 118.1 120.9 122.6 123.2 125.7 125.4 123.9 123.7 123 122.6 113.3 106.1 105.2 107 111.4 115 118.5 120 123.6 128.2 126.2 122.4 126.7 125.5 118.3 113.8 102.8 97.3 90.5 86 79.7 73.6 68.4 66.9 63.6 55.4 51.7 62.2 67.3 72.1 73.6 72.1 77.4 82 87.8 91 95.4 99.4 105.3 111.8 117.4 118.3 111.9 103.2 99.8 99.4 97.8 102.2 106.7 110.6 112.3 117.4 117.5 110.3 103.8 98.8 93.9 89.4 82.5 85.5 81.6 80.2 77.3 71.7 67.9 69.5 71.6 74.4 75.6 75.3 74.1 72.6 70.4 66.2 61.3 50.4 43 39.3 46.9 52.6 56 54.5 52.1 54.1 52.8 50.1 48.1 45.6 42.9 39.1 38.6 40.6 39.5 38.7 36.6 35.6 33.8 34.8 34 32.7 30.1 26.5 24.9 24.7 23.8 23.1 20.8 20.1 22.7 25.9 29.8 32.5 37.1 39.3 40.9 41.1 39.4 35.1 28.9 24.3 19.5 14 10.4 12.5 18.6 26.7 38.1 44.1 47.1 48.6 49.2 48.2 39.4 2.7 1.6 0.6 -0.5 -1.5 -2.4 -2.4 -2.4 -2.4 -2.4 -2.4 -2.4 -2.4 -2.4 -2.4 -2.4 -2.4 -2.4 -2.4 -2.4 -2.4 -2.4 -2.4 -2.4 -2.4 -2.4 -2.4
120.1 122.4 123.3 120.2 114.7 109.5 107.8 103.6 101 98.9 100.1 100.1 100.2 100.3 103 108.7 110.5 112.6 115.8 117.5 118.2 118.8 119 118 116.3 115.8 117 120.6 121.1 120.7 122.3 123.3 125.3 126.1 126.2 126 125.7 126.6 126.4 126.2 122.6 115.9 114.3 114.1 116.2 120 122.6 127.5 131.5 136.9 137.8 132.5 133.1 132.1 123 114.8 104.8 98.7 92.7 86.3 78.7 74.5 71.4 68.2 64.2 56.8 54.7 59.8 68.6 74.5 77.7 78.5 80.1 83.1 88.2 93 98.4 101.4 106.8 114.4 120.9 119.4 114.1 108.1 106.4 104.8 103.3 104.7 107 112.4 115.6 117.7 116.2 109 102.3 97.2 93.2 86.8 89.4 89.4 87.8 85.8 78.4 75.7 72.2 75.2 76.1 77.4 80.1 78.1 74.7 71.5 66.9 62.7 54.8 48.5 43.7 43.4 54.5 60.3 67.1 64.7 60.4 58.2 57 54 51.5 48.1 43.8 38.2 42.9 45.3 45 43.4 40.3 38.5 36.6 37.3 35.3 33.2 32.5 31.3 30.1 29.6 28.2 24.8 21.7 21 26.5 27.9 31 34.1 37.2 38.4 38.8 38.7 37 34.2 28.3 21 16.9 13.6 10.9 13.7 21.4 32.2 41.6 45.4 47.7 48.6 48.8 48 35.5 2.1 1 0 -1.1 -2.4 -2.4 -2.4 -2.4 -2.4 -2.4 -2.4 -2.4 -2.4 -2.4 -2.4 -2.4 -2.4 -2.4 -2.4 -2.4 -2.4 -2.4 -2.4 -2.4 -2.4 -2.4 -2.4
111.1 119.1 119.9 118.1 113.1 109.5 105.7 103 99.3 95.4 98.5 98.1 97.9 100.1 104.6 108.6 108.7 111.8 114.5 117.6 119.5 121 121.5 121 119.6 119.5 119.4 121.1 123.3 123.8 124.3 125.1 127.3 126.9 126.3 127.1 128.1 129.1 129.7 130.1 128.7 131.7 131.7 124.9 124.8 128.2 130.9 138.6 143.9 145.7 144 141.5 138 135.4 122.9 113.4 106.9 101 94.1 87 79.9 75.4 72.5 69.6 64.3 56.7 60.2 68.9 67.4 74.3 78.7 82.3 83.9 85 91.1 93.4 98.8 105.3 109 118.1 125.3 123.2 120.8 115.9 114.1 111.1 110.6 111.2 111.4 115.8 117.7 118.4 114.6 106.9 102.1 97.4 94.6 89.1 92.8 93.6 91.8 89 85 81.4 77.4 80.2 83.9 82.2 81.6 78.8 74.9 70.4 65.2 56.3 52.6 48.2 43.7 49.9 57.1 67.4 72.1 71.3 67.1 65 60.4 56.2 52.3 47.9 43.2 42.7 45.7 49 50.1 47.4 44.7 42.9 40.2 39.4 36.8 37 35.5 36.1 35.2 33 29.5 23.7 24.6 20.3 25.4 28.8 32.1 35 36.2 36.8 36.4 36.1 34.4 32.6 31.4 27.8 22 15.7 12 14.4 21.7 33.8 42.3 45.9 48.1 48.7 46.9 41.2 2.7 1.6 0.5 -0.6 -1.7 -2.4 -2.4 -2.4 -2.4 -2.4 -2.4 -2.4 -2.4 -2.4 -2.4 -2.4 -2.4 -2.4 -2.4 -2.4 -2.4 -2.4 -2.4 -2.4 -2.4 -2.4 -2.4 -2.4
110.9 113.5 117.1 115.6 111.5 107.4 103.7 101.2 97.1 94.4 95.4 97.7 97.9 100.1 103.1 106 110.7 111.5 114.6 118.1 120.9 123.2 122.9 122.5 121.2 121.4 121.3 123.3 124.3 125.4 124.9 126.1 128 124.1 127.2 128.3 129.5 131 131.4 132 132.4 136.4 137.2 137.1 137.9 141.2 143.9 149.8 150.9 151.1 150.2 146.4 140.1 131.6 119.7 113.2 108.3 102.6 95 88.9 81.6 76.2 73 70.8 64.3 56.2 66.2 72.1 75 75 80 84.5 88.7 90 92.5 96.4 100.9 107.9 113.3 117.9 126.8 129.3 129 124.7 119.6 115 115.3 115.4 117.4 119.1 120.9 120.3 113.2 105.6 101.5 98.3 93.4 95.5 97 96.2 93.9 89.9 89.7 84.7 83.7 88.8 88.8 86.4 82.7 78.4 72.9 65.9 62.8 60.4 53.6 49.5 50.4 54.4 58 64.7 71.1 72.9 70.3 68.3 62.7 56 51 50.2 53.3 53.5 54.1 56.3 57.3 55.7 54.5 50.4 44.7 41.1 40.8 41.8 40.5 38.6 37.9 34 30.6 30.4 28.1 23.2 26.7 29.4 32.8 35.5 35.5 34 32.8 32.1 30.9 30.9 32.8 27.9 20.1 15.8 12.4 15.8 25.9 34.7 41 44.2 47.8 47.9 44.7 40.7 2.3 1 -0.2 -1.3 -2.4 -2.4 -2.4 -2.4 -2.4 -2.4 -2.4 -2.4 -2.4 -2.4 -2.4 -2.4 -2.4 -2.4 -2.4 -2.4 -2.4 -2.4 -2.4 -2.4 -2.4 -2.4 -2.4 -2.4
104.8 111 113.8 113.3 108.8 105.5 103.1 99.2 95.5 93.2 90.1 95.9 98.8 98.9 101.3 104.7 106.7 108.7 114.4 118.5 122.8 124.4 123.5 122.8 122.7 122.6 122.5 122.1 123.8 125.3 125.2 127 128.5 127.1 127.5 128.8 130 130.9 131.9 133.6 133.8 136.4 138.6 141.1 145.2 147.1 149.2 151.4 153.1 153.6 153.5 149.1 141.5 127.4 118.1 112.9 108 103 97.5 90.4 83 78.7 76 72.7 67 54.1 68 73.8 78 80.5 77.1 85.6 91.4 93.5 95.5 97.7 102.1 108.7 115.9 119.6 126.5 133.4 132.6 132.4 125.9 124.1 119.8 120.4 122.6 124.2 123.7 121.2 113.6 106.9 101 99.9 98.3 98.5 99.3 98.6 96.8 94 92.5 88.5 88.2 93.5 94.4 89 84.6 75.6 70.9 71 68.2 61.6 53.5 55.6 55.7 58.5 63.6 66.8 70.3 73.8 72.8 70.8 65.3 60.4 57.3 57.8 60.2 61.7 60.7 63.7 66.1 66.2 65.5 59.5 51.1 45.8 48.4 48.2 45.3 43.4 39 36.4 35 33 29 25 29.4 32.5 35.2 33.7 32.8 31.3 29.5 28.2 27.2 27.5 28.7 26.5 20.6 15.6 12.8 16.8 25.4 34.5 37.8 40.6 43.4 43.6 40.3 2.7 1.5 0.1 -1.1 -2.4 -2.4 -2.4 -2.4 -2.4 -2.4 -2.4 -2.4 -2.4 -2.4 -2.4 -2.4 -2.4 -2.4 -2.4 -2.4 -2.4 -2.4 -2.4 -2.4 -2.4 -2.4 -2.4 -2.4 -2.4
99.1 104.8 110.2 109.2 106.5 104.7 101.2 98.5 94.9 92.3 89.2 93.2 97.8 99.5 101.2 103 105.9 109 115 119.8 123.4 125.2 122.8 122.8 122.4 122.1 122.6 122.1 123.1 123.8 125 126.6 126.9 126.8 126.8 127.4 128.3 130.1 131.6 134.3 136 137 141.9 144 146.3 148.1 149.9 152.2 154.1 155 153.8 148.6 140 125.3 118.1 112.9 106.6 101.5 98.2 91 85.7 81.5 78.1 72.6 67.4 55.7 65.2 71 77.5 81.4 83.2 83.1 92 95.9 99 101.2 105.1 110.9 117.6 121.9 128.9 134.8 139 136.1 136.8 131.1 128.5 127.8 129.2 128.5 125.4 121.3 114.3 108.4 104.4 102.7 101.8 101.4 102.1 102.1 100 98.4 96.4 92.7 90.6 95.9 97.6 89.1 82.9 79.7 79.2 75.3 69.6 59.1 60.3 61.8 64.6 64.5 67.5 72.8 74.4 75.5 75.6 73.2 68.5 69.2 68 68.1 70.3 71.6 69.2 74.7 76.4 77.2 72.9 65.9 57 51.8 55.7 55.4 53 47.7 42.2 41.3 37.3 32.2 30.1 29.1 30.9 34.8 35 32.4 30.1 28.8 26.7 24.8 23.8 23.4 22.8 19.1 15.9 14.1 13.7 15 21 27.8 31.4 34.6 35.2 17 2.9 1.9 0.5 -0.9 -2.4 -2.4 -2.4 -2.4 -2.4 -2.4 -2.4 -2.4 -2.4 -2.4 -2.4 -2.4 -2.4 -2.4 -2.4 -2.4 -2.4 -2.4 -2.4 -2.4 -2.4 -2.4 -2.4 -2.4 -2.4 -2.4
94.1 99.1 103.8 103.6 102.6 100.3 98.7 95.4 93.8 91.1 88.9 91.7 95.4 97.9 100.5 102 105.2 109.3 113.9 117.9 121.8 122.7 121.7 121.7 121 121.4 121.1 121.4 121.2 122.5 123.2 124.2 123.9 123.3 124.7 125.3 127.7 129.5 132.7 134.4 137 139.4 138.9 143.9 146.3 148.6 150.9 152.6 154.4 155.2 152.9 147.1 138.9 123.9 117.8 112.6 107.6 103 99.4 91.3 87.3 81.4 72.6 71.8 66 60.3 69.6 74.8 78.8 80.3 85.8 88.5 93.2 98.1 101.2 104.2 107.3 112.4 119.2 125.3 129.9 137.1 144.9 144.4 142.9 141.3 137.4 134.9 133.4 133.2 131.4 125.2 115.3 110.4 107.1 105.1 105.7 104.2 105 105.9 104.9 103.4 101.2 99.3 97.5 98.4 96.2 89.5 85.4 85.2 82.9 77.2 69.2 64.6 68.7 68.5 76.8 71.9 73.2 77.6 79.4 80.4 79.4 76.8 74.1 74.5 77.3 76 78.7 81.6 82.9 84.4 86.6 83.8 76.4 66.3 57.6 58.5 61.4 61.6 57.8 51.6 49 44.1 35.5 36.9 34.6 34.8 34.8 36.5 34.8 31.9 28.3 26.4 24.4 22.6 20.5 19.4 17.6 15.5 15.1 16.8 17.1 15 18.8 24.3 26.5 28.2 3.4 2.4 1.4 0.3 -0.9 -2.4 -2.4 -2.4 -2.4 -2.4 -2.4 -2.4 -2.4 -2.4 -2.4 -2.4 -2.4 -2.4 -2.4 -2.4 -2.4 -2.4 -2.4 -2.4 -2.4 -2.4 -2.4 -2.4 -2.4 -2.4 -2.4 -2.4
91.7 94.9 99.8 99.1 98.5 98.2 95.2 93.2 91 89.3 89.4 90.9 92.1 93.9 99.1 101.4 104 108.7 111.9 115.4 118.5 119.3 119.1 118.7 118.7 119.3 118.9 118.2 118.4 119.4 120.3 120.7 121 119.6 119.3 121.8 125.3 127.4 130.6 133.1 136 138.3 141.9 144.3 146.5 148.6 150.2 151.7 153.5 154.5 151.8 145.2 137 123.8 117.5 112.3 107.7 103.4 99.4 91.6 85.6 78.5 78.7 75.5 65.5 63.6 73 78.2 82.5 84.9 87.7 91.2 96.9 99.7 104.4 107.2 109.7 115.2 121.1 128.4 132.9 140.2 147.9 153.6 151.1 149.7 146 142.2 139.1 135.3 132 125.2 119.5 113.8 110.4 108.9 109.5 107.9 109.4 110.7 109.1 107.5 104.4 102.9 102.2 101.6 96.7 91.7 89.6 87.7 83.8 77.7 66.1 73.9 77.3 76 81 81 80.3 83 84.2 83.8 82.9 80 80.3 81 83.6 84.2 87.1 89.9 91.5 93.5 92.9 89.3 81.1 71 67 68.1 68.2 66.5 61.8 58.8 53.9 50.2 46 41.4 38.2 35.9 36.2 35.9 33.9 31.4 27.5 24.4 22.5 20.1 17.9 19.6 21.6 23.4 22.2 20.5 17.8 15.7 17.4 21.1 18 3.9 2.6 1.1 -0.2 -2.4 -2.4 -2.4 -2.4 -2.4 -2.4 -2.4 -2.4 -2.4 -2.4 -2.4 -2.4 -2.4 -2.4 -2.4 -2.4 -2.4 -2.4 -2.4 -2.4 -2.4 -2.4 -2.4 -2.4 -2.4 -2.4 -2.4 -2.4 -2.4
91.4 89.1 95.1 94.5 94.7 94.7 93 91.2 90.5 87.6 88.3 91.4 92.2 93.7 96.1 101 103.8 106.8 110.5 113 115 115.9 115.6 116.1 117.5 117.2 115.6 115 116.9 118.1 118.3 118.6 117.7 111.9 107.5 111 114.9 119.6 125.9 129.6 134.5 137.7 141.2 144.2 146.6 148 149.1 150.5 152 152.2 150.8 143.2 134.1 124.5 118 112.3 107.7 103.1 99.3 93.8 87 83.3 83.4 76.8 72.5 64.2 73.5 80.2 84.1 87.1 90.6 94 100.3 104.6 105 107.1 110.2 116.4 122 129.1 136.1 141.1 148.4 155.6 161.2 159.8 156.9 151.3 146.7 138.3 132.9 131 126.4 120.4 115.3 112.4 112.6 112.9 115.3 115.3 112.9 111.8 109.1 107.9 107.1 103 98.8 95.5 92.6 90.3 85 77.4 72.4 80.3 82.6 82.3 85.5 86.3 87 89 88.5 88.8 89.4 87.7 87.3 89.5 90.8 91.3 93.8 96.4 104.8 104.8 99.2 96.8 91.1 81.9 80 82.7 80.8 74.6 66.9 63.4 56.9 53.8 50.3 45.5 40.5 37.2 35.8 34.1 32.2 29.8 26.6 23.3 20.1 24.5 28.9 31.4 28.8 26.3 23 21.6 18.9 17.7 19.5 20.9 3.8 2.1 1.1 -0.2 -2.4 -2.4 -2.4 -2.4 -2.4 -2.4 -2.4 -2.4 -2.4 -2.4 -2.4 -2.4 -2.4 -2.4 -2.4 -2.4 -2.4 -2.4 -2.4 -2.4 -2.4 -2.4 -2.4 -2.4 -2.4 -2.4 -2.4 -2.4 -2.4 -2.4
92.5 87.9 89.3 91.3 94.1 90.9 90.8 90.4 88.2 84.1 82.4 89.2 91.3 93.4 97.5 100.8 103.3 105.9 108.2 110.3 112 112.5 113.5 115.1 115.7 115.1 110.8 109.7 114.3 117.1 116.6 114.3 106.2 99.1 96.7 100.6 106.3 113 119.1 128.5 134.5 138.6 141.4 141 146.4 147 147.7 148.7 149.6 150 148 141.9 133.7 126.1 118.6 112.9 107.8 103.3 98.2 93 90 87.7 83.1 76.2 72.6 72.5 69 77.5 84.7 89.6 91.6 96.7 103.5 106.6 107.1 110.9 112.7 120 125.2 129.7 137.6 142.6 148.3 155.2 164.5 166.1 165.3 163.5 154.1 141.7 137.4 135.2 132.4 128.1 122.3 119.6 119.6 118.7 119.7 120.7 118.4 118.3 115.8 114.1 109.5 105.2 101 97.7 94.9 91.9 86 79.6 80 84.9 86.6 88.8 92.4 94.4 95.6 97.1 97.6 97.7 96.7 96.4 96.8 97.1 98.8 100.1 103.5 105.8 114.1 111 104.3 101.2 96.8 91.3 90.8 88.3 82.2 76.8 71.8 66 60.3 54.8 50.2 44.6 39.1 37 34 31.4 29.5 26.9 22.8 20.6 31.7 36.3 37.2 34.4 29.9 25.2 22.6 20.5 19.4 19.3 21.5 3.3 2.2 0.9 -0.4 -2.4 -2.4 -2.4 -2.4 -2.4 -2.4 -2.4 -2.4 -2.4 -2.4 -2.4 -2.4 -2.4 -2.4 -2.4 -2.4 -2.4 -2.4 -2.4 -2.4 -2.4 -2.4 -2.4 -2.4 -2.4 -2.4 -2.4 -2.4 -2.4 -2.4 -2.4
90.9 87.9 84.9 87.2 88.3 87.5 88.6 88.1 85.3 81.2 80.6 84.5 87.2 92.2 97.3 99.9 102.7 105.1 107 108.4 110.1 111.2 113.1 114.3 112.4 109.5 104.2 103.7 111.9 113.7 113.1 99.4 93.1 91 88.2 92.1 100.8 110.2 122.8 131.8 136.8 138.7 141.3 142.7 144.3 144.4 145 146.4 147.3 148.3 146.1 140.6 132.9 126.2 119 112.5 107.7 102.8 100.3 96.3 92.4 87.2 80.3 75.2 77.9 76.3 78.6 82 85.6 89.5 93.9 99.5 104.2 107.8 110.1 112.7 121.1 124.3 128.9 133.1 139.7 145.1 149.6 153.3 164.3 168.5 169.6 165.1 154.8 145.7 142.2 138.8 135.2 131.8 128.6 126.1 126.6 125 124.5 126.2 123.6 121.8 120.3 116 113.2 108.8 104.9 99.7 97.2 92.2 86.1 78.4 84.1 89.1 93.8 95.9 97.8 99.7 101.3 102.9 103.8 103.4 102.8 105 104.6 104.4 105.5 109 115.8 116.9 122.1 117.3 109.9 103.2 98.2 93.7 91.6 86.4 81.8 74.8 69.5 64.5 59 52.1 46.9 42.8 38.4 33.9 31.4 28.9 26.5 23.1 26.2 32.8 38.7 39.7 37.4 32.9 27.5 23.6 20.9 20.3 20.5 9.6 3.3 2.3 1 -0.4 -2.4 -2.4 -2.4 -2.4 -2.4 -2.4 -2.4 -2.4 -2.4 -2.4 -2.4 -2.4 -2.4 -2.4 -2.4 -2.4 -2.4 -2.4 -2.4 -2.4 -2.4 -2.4 -2.4 -2.4 -2.4 -2.4 -2.4 -2.4 -2.4 -2.4 -2.4 -2.4
89.6 87.3 82.5 83.3 84.9 85.2 85.2 84.1 83.1 80.9 81.2 84.9 88.6 93.4 97.7 100.3 102.2 103.9 106 107.5 109.2 111 112.5 112 108.2 99.3 92.5 95 107.6 111.6 101.7 90.4 85 82.6 85.3 94.1 101.8 111.4 123.6 132.4 135.1 138.9 140.5 140.6 141.1 140.5 141.9 143.8 145.6 145.8 144 139.6 132.6 126.3 118.1 111.6 109.5 105.2 101 96.2 91.5 86.1 86.1 82.5 83.3 81.2 83.6 80 85.7 90.8 95.9 102.6 106.2 108.8 111.6 118.3 124 129 133.2 135.6 140.7 146.5 147.7 155.8 161.2 168.9 170.3 165.1 156 150.2 144.9 141.5 138.6 136.2 133.7 131.9 131 128.4 129.4 131.1 130.2 128.3 125.8 120.5 116.1 111.3 107.1 101.3 98.3 89.2 84.8 87.6 91.5 94.4 97.2 101.4 104.8 107.6 108.3 109.5 110.1 110.3 109.1 111 113.1 113.9 119.6 123.5 124.4 125 124.5 119.2 112.7 106.1 99 91.4 82.8 81.1 76.4 70.2 64 57 52.3 48.5 44.2 40.7 36.5 33 29.2 27 27.2 32 33.9 38.1 40.9 38.3 34.5 28.8 25.2 23.7 22.5 21.3 6.4 4.2 2.3 1.2 -0.1 -2.4 -2.4 -2.4 -2.4 -2.4 -2.4 -2.4 -2.4 -2.4 -2.4 -2.4 -2.4 -2.4 -2.4 -2.4 -2.4 -2.4 -2.4 -2.4 -2.4 -2.4 -2.4 -2.4 -2.4 -2.4 -2.4 -2.4 -2.4 -2.4 -2.4 -2.4 -2.4 -2.4
87.4 85.9 81.9 78.6 82.2 82.1 81.9 81.4 80.5 76.6 82.4 84.4 88.6 92.4 96.9 98.8 99.8 103.8 105.8 107.2 108.6 109.6 109.9 107.6 101.9 88.9 85.1 86.2 95.9 98 90.8 83.3 78.7 76.5 86.2 93.6 100.7 111.4 123.6 132.1 135.7 138 138.6 137.2 138.2 136.1 136.1 139.1 140.7 141.7 141.5 137.8 130.9 125.4 119.1 111.6 110.9 100.8 97.7 96.1 93.2 87.4 87.9 86.9 86.6 85.5 86.6 87.3 86.7 93.7 99.2 104.1 107 111.9 117.1 122.2 127.4 131 134.4 139.1 142.8 146.6 151.8 158.3 159.7 170 170.6 168 159 153.6 148.3 144.2 141.7 139.2 136.7 135.4 135.4 135.8 135.9 136.8 139.1 138.5 134 127.3 121.4 115 109 105.3 99.3 94.2 92.1 95.1 97.1 101.2 106 109.9 112 116.4 118.1 120.9 119.9 115.8 117.1 119.9 124.3 127.1 128.4 129 129.4 128.1 125.5 118.2 110.2 104.5 95.8 87.6 76.9 71.8 69.5 62.5 55.9 52.1 47.4 44.1 39.3 36.3 30.8 30.3 31 30.9 31.5 34.5 37.9 39 38.2 34.4 29.8 26.3 26.5 26.2 25.6 23.7 2.7 2.1 1 0.1 -1.1 -2.4 -2.4 -2.4 -2.4 -2.4 -2.4 -2.4 -2.4 -2.4 -2.4 -2.4 -2.4 -2.4 -2.4 -2.4 -2.4 -2.4 -2.4 -2.4 -2.4 -2.4 -2.4 -2.4 -2.4 -2.4 -2.4 -2.4 -2.4 -2.4 -2.4 -2.4 -2.4 -2.4
85.2 84 81 76.8 76.8 78 79.1 77.8 77.6 76.7 81.9 84.1 86.7 89.7 92.1 95.2 99.4 103.4 103.9 104.5 106 107.3 106.4 104.4 93 84.1 79.3 78.8 85.2 84.6 80.9 76.2 73.3 78.8 86.7 93.8 99.2 109.7 122.5 130.8 133.1 136.4 133.8 133.3 131.7 128.8 131 134.3 136.4 136.7 137.3 135 132.2 128 122.3 113.9 110.6 105.6 99.4 98.4 96.2 93.9 91.4 90.6 93.2 90.1 89.3 89.9 88.5 96.2 102 105 109.3 116.6 120.5 124.4 128.3 132.2 138.4 141.8 145.6 149.4 153.5 158.6 163.1 170.7 172.1 169.1 163.4 156 150.9 148 146.2 143.1 141.2 140.5 140.5 140.8 141.7 145.7 148.9 148.9 145.1 136.9 126.3 120 113.3 108.7 102.5 99.3 100.6 101.8 105.4 109.8 114.7 118.8 125.1 130.8 135.4 136.2 132.8 130.2 130.4 131.2 133.7 134.5 135.4 137.2 134.6 130.4 123.7 114.2 103.8 96.8 89.8 84.2 75.1 65.7 60.3 55.8 53 45.9 40.6 39.2 38.2 36.3 35.9 35.7 36.8 35.8 33.1 36.5 38.8 37.8 35.4 30.9 28.3 30.7 30.7 30.5 28.6 13.4 2.9 1.5 0.1 -1.1 -2.4 -2.4 -2.4 -2.4 -2.4 -2.4 -2.4 -2.4 -2.4 -2.4 -2.4 -2.4 -2.4 -2.4 -2.4 -2.4 -2.4 -2.4 -2.4 -2.4 -2.4 -2.4 -2.4 -2.4 -2.4 -2.4 -2.4 -2.4 -2.4 -2.4 -2.4 -2.4 -2.4 -2.4
82.7 81.9 80.8 77.4 73.7 74.9 75.4 76.7 76.4 76.2 81.2 83.5 85.8 88.1 91 94.3 99.8 101 101.4 100.9 103.8 104.9 103.8 101.4 88.7 77.8 73.4 70.7 76.8 74.6 72.4 70 70.9 79.6 87 91.5 97.3 105.7 120.3 129.8 131.8 132.4 129.3 127 123.5 121.7 124.3 129.9 130.9 131.7 133 132.2 131.5 129 125.5 117.1 113.9 108.5 103.4 99.4 98.2 97.4 97.9 97.3 96.4 93.8 96.4 97.4 91.2 98 100.9 106.1 111.9 116.6 121.4 124.6 128.1 132.7 137 143.5 148.2 149.5 155.8 160.1 168.5 171 173.1 169.3 164.4 158.2 154.1 151.4 149 147.6 147 146.3 146 146.9 149 151.9 153.3 154.2 151 144.4 135.7 125.8 117.1 113.2 108.7 106.5 108.7 110.7 116.1 120.3 125.9 131.8 137.7 141.4 145.4 147.8 144.7 140.8 140.9 142.8 142.5 142.1 144.7 141.8 136.9 129.6 121 107 100.8 93.9 89.3 84.3 75.5 64.9 56.2 49.6 43.8 43.4 47 48.2 45.9 44.6 43 42.8 41.5 40.8 40 40.2 39.9 37.6 33.6 29.6 33.7 34.4 35.6 34.5 30.4 6.1 2.7 1.1 -0.5 -2.4 -2.4 -2.4 -2.4 -2.4 -2.4 -2.4 -2.4 -2.4 -2.4 -2.4 -2.4 -2.4 -2.4 -2.4 -2.4 -2.4 -2.4 -2.4 -2.4 -2.4 -2.4 -2.4 -2.4 -2.4 -2.4 -2.4 -2.4 -2.4 -2.4 -2.4 -2.4 -2.4 -2.4 -2.4
80.4 79.7 79.7 78.2 73.3 71.9 73.3 74.6 69.8 75.1 79.7 82 84.4 86.4 92.5 96.2 97.5 97.3 97.6 99.3 101.6 102.2 101.3 97.5 84.5 73.8 68.3 68.5 70.7 68.9 66.6 61.8 69.8 78.5 84.7 90.2 99.7 109.4 121.1 128.3 129.1 126.3 122.4 118.4 113.6 112.4 117 120.1 123.3 125.4 126.5 126.5 129 129.8 120.8 120.6 115.2 111.3 110.1 103.8 100.5 100 100.4 98.8 98.7 98.5 98.7 99.2 99.6 100.4 103 103 112.6 116.7 120.2 124.6 128.4 132.5 139.5 144.4 148.2 150.6 157.2 165 168.5 171.4 173.5 170.3 165.6 161.6 157.5 155.3 153.2 152.6 152.5 151.7 152.5 153.5 155.9 157.7 159.9 159.7 156.5 147.2 136.5 128.5 123 119.9 117 115.7 116.4 122.5 128.3 134.9 139.1 142.4 146.6 151.7 155.5 154.5 151.3 149.2 149.2 150.5 149.4 148.2 146.6 142.7 136.6 126 113.4 102.8 95.9 90.7 85 78.4 70.8 61.3 55.2 50 50.1 52.5 55.1 56.2 54.2 51.4 49 48.2 47 45.7 44.8 43.7 41 36.1 33.3 34.8 36.4 38.6 38.7 27.7 5 2.5 1.4 0.3 -1.2 -2.4 -2.4 -2.4 -2.4 -2.4 -2.4 -2.4 -2.4 -2.4 -2.4 -2.4 -2.4 -2.4 -2.4 -2.4 -2.4 -2.4 -2.4 -2.4 -2.4 -2.4 -2.4 -2.4 -2.4 -2.4 -2.4 -2.4 -2.4 -2.4 -2.4 -2.4 -2.4 -2.4 -2.4 -2.4
78 77.8 78.6 77.5 74.1 71 72.1 73.3 65.8 71.8 77.2 80.5 83.7 86.8 90.8 93.5 94.6 95 95.9 98.4 99.5 98.8 97.6 93.7 79.1 68.3 63.3 64.4 64.9 62.8 60.9 61.2 69.4 78 84 91.4 98.6 110.7 117.2 124.1 122.6 116.5 115.4 108.5 104.1 104.9 110.4 114.3 117.8 117.7 121.4 121.2 127.6 127 123.3 120.8 117.8 111.3 110.5 110.7 104 104.2 102.8 100.5 100.2 100.5 100.8 101.8 102.4 102.5 104.9 108.7 112.7 115.6 120.3 124.2 129.1 132 138.6 144.2 146.9 150.8 158.6 164.7 168.1 171.8 174.3 173.5 170.2 167.3 162.6 160.5 158.4 158.2 158.7 158.4 158.4 158.4 161.2 161.6 163.5 163.1 160.8 147.5 137.7 133.5 132.2 133.2 130.3 129.2 126.8 132.1 137.7 143 146.4 151.5 158.7 159.2 159.2 158.4 156.1 154.6 154.1 151.4 149.2 147.8 145.7 141.8 134.3 122.9 109.6 99.3 93 85.5 79.5 73.8 68.2 64.8 57.8 49.8 54.9 58.2 61.6 65.1 65.1 62 58.8 57.1 52.2 48.6 46.9 44.1 39.1 36.5 36.6 39.2 40.3 40.8 41.6 20.8 2.7 1.3 0 -1.2 -2.4 -2.4 -2.4 -2.4 -2.4 -2.4 -2.4 -2.4 -2.4 -2.4 -2.4 -2.4 -2.4 -2.4 -2.4 -2.4 -2.4 -2.4 -2.4 -2.4 -2.4 -2.4 -2.4 -2.4 -2.4 -2.4 -2.4 -2.4 -2.4 -2.4 -2.4 -2.4 -2.4 -2.4 -2.4 -2.4
75.3 75.7 76.5 77 73.6 68.5 69.4 70.8 63.7 72.2 76.1 79.3 82.5 85.4 89 89.7 91.3 91.3 94.5 96.4 97.7 98.1 96.4 88.7 73.6 64.8 58.5 59.1 57.9 53 58.4 65.6 71.7 79.4 83.4 91 96.6 109.5 114.6 115.3 113.4 109.1 102.6 99.1 95.9 99.3 103.7 107.5 110.6 112.3 117.1 121.4 121.3 124.6 124.1 123.1 118.6 117.2 110.7 110.1 108 106 105.4 103.8 102.3 102.6 103.1 104.1 104.2 109.1 110.6 113 114.4 116.9 121.4 124.6 129.1 133.4 136.4 145.1 144.7 149.5 152.1 161 166.1 169.8 174 174.1 172.8 169.1 167.7 166.2 165.3 164.5 164.2 164.1 163.8 163.5 165.1 166.6 164.6 162 159.6 149.7 141.9 139.9 139.8 142 139.9 138.2 137.2 141 145.4 150.2 154.7 160.4 163.4 163 161.6 160.6 156.2 155.1 153.6 150.6 148 145.9 143.9 139.2 131.8 120 109.4 101.6 96.2 88.6 82.1 76.6 71.3 65.9 58.9 52.3 61.3 64.5 69.3 70.6 71.1 68.1 63.5 59.1 54 49.8 46 41.7 39 40.5 41.2 43.2 43.9 44.8 29 3.3 1.7 0.2 -1.2 -2.4 -2.4 -2.4 -2.4 -2.4 -2.4 -2.4 -2.4 -2.4 -2.4 -2.4 -2.4 -2.4 -2.4 -2.4 -2.4 -2.4 -2.4 -2.4 -2.4 -2.4 -2.4 -2.4 -2.4 -2.4 -2.4 -2.4 -2.4 -2.4 -2.4 -2.4 -2.4 -2.4 -2.4 -2.4 -2.4 -2.4
71.7 73.8 75.7 75.4 72.9 68 57.3 65.3 52.8 71 74.6 77.4 79.6 83.2 85.7 86.6 87.3 90.2 92.5 94 94.5 94.3 94.8 82.8 70.1 61 55.7 53.3 49.7 53.2 59.3 67.3 74 77.8 82.8 87.5 97.8 108.8 109.7 109.6 104.6 101.6 94 93.2 89.3 93.1 97.1 101.1 103.3 106.1 112 115.7 116.1 118.4 118.5 121.1 119.8 117.4 114.9 113.3 112.5 110.8 107 106.3 105.8 104.1 105.2 105.6 109 110.5 111.8 114.4 116.4 118.1 122.2 124.2 127.7 130.7 133.9 139.5 142.8 147 149.7 153 162.6 167.8 171 170.6 169.6 169.3 169.7 169.2 168.5 167.8 167.2 167.3 166.8 166.9 168.3 168.7 166.1 161.9 157.4 152.1 152.9 148.9 148.1 146.7 146.7 146.9 147 147.9 152.2 157.8 160.1 161.9 163 163.4 160.5 157.8 156.3 153.5 151 148.9 146.5 143.6 140.4 135.1 128.4 119.6 110.8 105.7 101 90.8 83.4 77.5 71 65.9 58.2 60.5 65.8 69.4 72.1 74.3 71.8 68.2 63 59 53.8 48.8 44.6 41.7 43.7 44.5 44.8 45.8 47.8 42 18.1 2.9 1.1 -0.6 -2.4 -2.4 -2.4 -2.4 -2.4 -2.4 -2.4 -2.4 -2.4 -2.4 -2.4 -2.4 -2.4 -2.4 -2.4 -2.4 -2.4 -2.4 -2.4 -2.4 -2.4 -2.4 -2.4 -2.4 -2.4 -2.4 -2.4 -2.4 -2.4 -2.4 -2.4 -2.4 -2.4 -2.4 -2.4 -2.4 -2.4 -2.4
