ncols 200
nrows 99
xllcorner 120000
yllcorner 924650
cellsize 50
53.9 52.6 50.6 47.4 47.3 51.4 56.8 57.4 55 53.8 50.5 46.7 44.6 43.3 42.9 37.3 36.4 33.3 27.4 31.5 35.8 22.4 13.1 10.1 10.5 12.1 11.5 7.9 7.9 4.7 9.4 9.8 6.9 -1.9 -1.9 -1.9 12.7 13.8 10.4 5.8 2.2 11 13 17 23.8 23.5 25.1 33.3 50.2 54.8 52.9 35.7 16.6 6.7 4.9 8.4 12.3 15.6 26.2 25.4 24.8 27.6 29.3 35.4 53.5 56 48.6 48.1 43.6 33.6 33.6 28.9 21.3 16.7 12.7 12 12.8 18.6 25.1 25.2 24.9 27 24 20.8 20.8 20.8 27 26.1 24.5 23.5 23 22.7 22 19.6 17.4 15.4 17 30.4 31.8 30.1 28.5 27.7 26.9 27.1 29.1 30.9 33.3 34.3 34.1 32.9 32.1 31.8 32.1 34.8 39.1 40.4 35.4 33.9 33.8 32.8 32.6 32.4 32.2 31.5 30.8 29.4 27.5 24.2 24.2 24.2 26.8 30.9 32.3 33.4 34.2 34.7 34.4 34.1 33.8 33.7 33.3 32.6 30.3 30.3 33.5 37.3 39.6 42.6 44 45.3 45.5 45.6 45.3 44.9 43.6 42.7 41.5 42.9 45 45.6 45.9 46.2 46.6 47.4 48 48.4 48.6 48.5 48.1 47.6 46.6 46.2 45.7 42.8 43.7 43.2 44.3 43 42.8 44.2 44.7 46 50.9 52 52.9 52.6 51.6 54.5 55.5 56 57.5 59.2 62.8 66.7 70.3 73.3 75.8 77.3 78.3 78.3
55.2 53.6 56.1 51.6 52.5 52.8 56.7 58.3 58.2 53.6 53.7 47.3 46.3 46.3 41.7 37.3 36.3 31.5 27.6 31.1 26.8 19.7 13.9 8.9 8.5 8.3 8.3 5.7 4.8 10.9 13.4 13.9 10.4 -1.9 -1.9 15.8 17.9 18.6 12.6 9.3 8.4 9.9 15.6 16.9 21.2 26.1 26.6 38 49.5 51.8 51.8 42.5 20.5 7 5.7 12.1 18.1 23.1 31.8 28.7 27.9 30.3 31.6 39 56.4 52.9 46.3 42.8 34.1 30.6 30.9 23.4 22 17.5 12.4 13 15 23.8 26.7 26.9 27.9 29.6 25.2 20.8 20.8 20.8 27.2 27.2 26 25 24.1 23.2 22.8 21.2 18.2 14.9 22.2 34.1 34.5 31 29.8 28.7 28.3 28.3 29.4 32.3 33.6 34.2 35.1 33.1 31.2 31.6 33.5 34.9 33.2 31.5 32.6 33.1 33 32.9 33 32.9 32.4 31.5 30.3 29.4 28.3 26.5 24.2 24.2 27.6 31.6 33.3 35.4 35.5 35.6 35.3 34.7 34.2 34.3 32.8 30.5 30.3 31.5 38.6 40.4 42 43.4 45.7 46.5 46.7 46.5 45.8 45 43.7 41.9 42.7 44.3 45.4 46.1 46.4 46.6 46.9 47.5 48.1 48.4 48.3 48.1 46.5 45.2 42.6 42.6 42.6 42.6 42.6 42.6 42.6 42.6 42.6 42.6 42.6 43.9 46.1 47.1 47.1 48.9 49.8 50.9 52.1 53.3 56 60.4 63.3 66.2 69.2 70.9 71.9 72.6 73.2 74.3
59 57 59.2 56.4 56 53.8 59.9 60.5 55.1 51.6 49.7 45.7 45.3 45.4 41.8 42 35.3 30.1 27 30.7 27 20 10.9 8.7 8.2 7.3 6.4 7.1 9.9 18.1 19.5 18.5 13.7 9.5 16.4 20.7 21.8 24.5 21.5 14.4 7.7 9.2 19.9 19.6 21.4 24.4 28.7 44.3 48.2 51.1 49.3 41.6 29.5 10.4 6.1 14.2 20.1 31.9 35.7 31.3 30.1 32.7 33.4 39.9 47.1 45.3 43.9 39.4 31.9 27.4 23.5 24.2 20.9 15.4 13.4 15.6 17.2 24.4 27.3 30 28.7 26.4 20.8 20.8 20.8 20.8 27.9 28.5 27.8 26.2 25.2 24.6 24 23.5 20.3 15.6 22.9 33.4 32.2 32.5 30.9 29.2 28.1 27.5 29.7 32.9 33.7 34.5 34.3 33.4 31.6 28.8 28.8 31.6 28.8 30.4 31.7 32.1 32.1 31.8 32.3 31.5 31.8 31 29.8 28.8 27.9 27.2 25 24.2 30 33.8 36 36.5 36.8 36.5 36.2 36 36 35.2 33.7 30.3 30.3 38.6 41.2 42.4 43.1 44 47.3 47.4 46.8 46.2 45.6 45 44.5 43.8 43 43.1 44.9 46.2 46.9 47.1 47.4 47.7 48.2 48.2 47.3 47.2 42.6 42.6 42.6 42.6 42.6 42.6 42.6 42.6 42.6 42.6 42.6 42.6 42.6 43.9 44.3 45.5 46.5 48.2 48.4 50.1 52.2 54.2 56.9 59.5 61.7 64 66.4 67.5 66.7 67.3 67.4 69
60.9 58.8 62.6 58 57.1 56.6 61.2 56.3 54.3 48.2 44.4 44.4 49.8 47 43.6 38.1 33.3 28.7 27 19.1 18.2 16.9 11.4 9.8 9.5 8.8 11.8 10.8 17.4 23.6 25.2 23.1 17.3 8.8 22.6 23.6 31.3 29.2 25.9 19.8 9.1 9.4 23.4 21.8 21.8 23.4 29.9 49.4 47.9 47.7 47.7 36.3 26.9 19.1 8.7 19.4 24.1 36 35.9 33.1 32.5 35.4 35.4 37 40.1 41.3 39.8 35 28 25 30.9 26.8 21.9 14 14.6 16.3 17.1 19.4 30.9 31.1 30 24.3 20.8 20.8 21.7 20.8 27.3 29.6 28.2 27.2 26.6 26.3 27 25.2 22.7 16.5 26.8 29.3 32 32.8 31.3 28.3 26.9 27.4 30.1 32.6 33.5 33.6 35.4 34.6 33.3 28.8 28.8 28.8 28.8 31.3 30.3 28.8 28.8 28.8 28.8 28.8 28.8 29.3 30.4 30.5 28.9 27.4 24.2 24.9 33 37 37.7 37.8 37.9 37.9 38.3 38 37.4 35.9 31.7 30.3 30.3 39.7 41.5 42.3 42.9 43.6 47.7 47.7 46.3 46.3 46 45.8 45.5 45 44.3 44.7 44.8 46.2 46.7 47.1 47.4 48 48.1 47.4 43.9 42.6 42.6 42.6 42.6 42.6 42.6 42.6 42.6 42.6 42.6 42.6 42.6 45 44.3 45.3 45.8 47 48.5 49.2 50.3 49.9 51.2 52.9 54.8 56.4 57.4 60.4 61.8 61.6 63 64.1 64.2 66.9
64.5 58.6 61.2 59.8 53.1 51.2 54.5 54.7 53.2 47.1 44.4 46.3 47.3 45 41.2 37.1 33.7 26.8 24.3 18.8 18.2 18.6 11.5 11 8.4 9.5 9.9 10.7 27.6 31.1 31.6 27.9 20.1 14.4 26.9 33.7 37.7 38.2 32 26.1 11.1 9.7 27.3 22.6 23 24.9 36.5 52.6 48.9 47.3 45.5 34.5 28.8 25.9 11 14 25.1 37.1 38.6 34.9 34.7 37.1 37.6 37.8 38.6 38.5 35 28.8 26.3 26.9 32.8 26.9 21.4 13.8 13.3 15.9 17.3 23.7 28.5 31.7 30.4 24.8 22.2 22.4 23.4 22.3 25.4 28.5 28.2 28.3 28.7 30 28.4 24.3 21.3 17.3 25.2 29.8 30.2 34.9 30.9 26.4 25.1 26.5 31.6 33 33.8 34 34.7 34.2 33.2 29.6 28.8 28.8 28.8 28.8 28.8 28.8 28.8 28.8 28.8 30.6 31.7 31.8 32.1 31.9 29.9 27.8 24.2 24.2 32.1 37 37.9 38.7 39.2 40.2 40.1 39.3 37.9 36.3 34 30.3 30.3 36.4 39.9 41.5 42.3 43.5 44 45.7 45.5 46.5 47 46.7 46.4 46.1 45.6 46 45.7 42.6 42.6 47.5 47.9 47.4 45.9 42.6 42.6 42.6 42.6 42.6 42.6 42.6 42.6 42.6 42.6 47.1 47.8 47.9 48.2 47.6 47 47.4 48.1 48.7 49 49.2 48.7 48.8 48.9 50.5 52 52.7 54.6 53.4 55.5 57.4 57.5 60.2 60.7 63.1
65.3 56.1 56.1 58.9 58 50.5 55.8 55.2 53.5 48.1 44.4 44.4 49.5 44.2 40.3 37.6 34.2 23.8 22.7 19.8 16.3 14 12.3 10 13.1 12.9 12.6 23.4 37.2 36.1 37.5 30.7 22.8 24.2 30.2 35.2 41.2 45.3 38.8 29.9 13.7 9.2 18.5 21.7 22.7 28.2 36.6 50.1 46.1 48.2 43.1 35.6 33 30.9 18.7 12.6 23 32.9 34.8 35.6 39.2 39.2 38.3 37.8 36.7 34 31.8 30.9 29.6 30.9 33.5 27.2 20.2 14.4 12.6 12.6 23.8 30.3 29.3 31.3 27.2 24.5 22.1 22 24.3 24.1 25.2 27.2 30.1 30.4 30.4 31.2 29.2 21.9 19 17.1 21.6 25.9 28.9 34 28.9 24.7 25.4 28.7 29.7 32.6 33 33.4 34.1 33.6 32.9 32.6 31.1 29.2 28.8 28.8 28.8 28.8 28.8 28.8 32.8 33.3 33.7 33.8 33.7 33.1 31.2 27.9 24.2 27.6 30.7 34.5 36.7 38.6 41.3 42.3 41.2 39.8 38.2 36.6 34.2 31.6 30.3 33.6 37.4 40.4 41.2 43.3 44.5 45.1 45.4 46.3 46.9 47.4 47.4 47.1 46.7 46.7 45.9 42.6 42.6 42.6 42.7 42.6 42.6 42.6 42.6 42.6 42.6 42.6 42.6 42.6 42.6 47.3 49 49.8 50.1 49.7 49.4 49 48.5 48 48.7 48.4 47.8 47.4 47.7 47.8 48.2 49.2 51 51.9 52.3 52.3 52.9 54 54.5 56.1 58.1 59.8
59.6 56.4 58.1 59.6 58.5 47 52.3 56.9 54.2 49.1 44.4 46.7 55.1 49.9 41.5 39.4 32.2 24.7 24.5 17.8 16.5 14.1 10.9 13.5 15.6 14.3 20.9 34.7 44.7 41.3 43.7 34.6 25 28.3 36.4 38.3 45.7 47 49.7 31.7 17.1 9.9 13.7 19.4 21.8 33.3 33.9 38.2 40 46.6 40.4 37.8 37 34.6 23.4 11.8 25.5 31.4 35.3 41.9 41.9 41.3 39.7 37.2 33.9 33 31.8 34.6 33.6 32.2 30.3 27.3 18.8 14.6 16.4 12.6 27.5 30.2 29.8 29.8 25.1 24.1 23.4 22.9 23.6 24.5 25.6 31.6 32.6 31.5 31.8 31.8 29.1 23.2 20.7 19.7 18.3 27.6 28.5 26.8 24.2 23.1 24.2 25 29.2 30.8 32.3 33.6 34.4 34.2 34.1 33.4 32.8 31.3 28.8 28.8 28.8 28.8 28.8 28.8 32.9 33.9 34.5 35.1 34.9 33.9 31.6 24.2 24.2 24.2 29.6 32.7 37 38.5 43.3 42.8 41.2 40 38.5 36.9 34.2 32.4 31.2 34.4 37.8 39.3 40.4 44.8 45.7 46.7 47.2 47.2 47.9 48.1 47.6 46.4 42.6 45.9 42.6 42.6 42.6 42.6 42.6 42.6 42.6 42.6 42.6 42.6 42.6 42.6 42.6 42.6 48.3 50.1 50.9 51.2 51 50.7 50.2 49.6 48.6 48.6 48.1 47.6 46.9 46.8 46.9 47 47.5 49 50.3 51 51.3 51.5 52.4 53.3 54 54.8 55.9 57.4
56.5 57.3 56.4 60.7 55.3 47.6 48.2 50.1 52.1 50.3 49.1 47.8 55.9 50 46.4 41.5 34.7 26 26.8 17.8 18.3 14 14.3 18.3 18.3 19.5 30.3 45.2 53.1 48.1 46.1 36.3 26.6 34.8 42.8 44.4 46.9 52.7 56.4 36.5 19.9 11.7 15.3 18.6 26.2 40.6 34 35.6 38 45.5 39.2 38.8 39.1 37.5 28.6 13.5 24.4 29.2 40.6 43 43.9 44 41.5 35.1 33.2 32.5 38.2 40.6 37.9 32.7 29.3 26.1 16.8 14.4 13.7 12.6 22.7 29.6 28 24.6 25.4 24.7 24.3 24.3 25 25.4 27.5 33.2 32.8 31.5 32.9 32.3 29 25.6 21.9 19.9 17.4 22.5 20.8 21.1 23.6 22.3 20 21.4 25.5 32.6 33.6 35.8 36.2 35.5 35.2 34.1 32.2 29.9 28.8 28.8 28.8 28.8 28.8 28.8 28.8 33.9 34.5 35.3 35.9 34.1 28.2 24.2 24.2 24.2 30.3 33.4 37.1 38.4 41.8 41.9 41.3 40.2 38.9 37 34.4 32.4 31.6 31.5 37.1 38 41.6 44.2 46.5 47.4 47.7 47.9 48.8 48 47.2 42.8 42.6 42.6 42.6 42.6 42.6 42.6 42.6 42.6 42.6 42.6 42.6 42.6 42.6 42.6 42.6 47.4 50.1 51.7 52 52 51.8 51 50.1 49.5 48.7 48.6 47.6 47.1 46.5 46.1 45.7 46.6 46.7 48.3 49.2 49.4 49.8 51.4 52.2 53.1 54 54.7 55.4 56.9
56.1 59.9 56.5 58.4 53.9 48 43.3 48.2 49.7 50 50.4 48.7 49.1 44.7 42.4 40.5 34.1 24.5 19.6 17.1 15.4 13.3 18.6 20.3 29.3 26.4 31.7 46.2 53.1 50.8 45.4 39.6 30.6 34.6 42.9 47.7 50.9 58.8 55.3 38 23.2 14.2 12.8 19 32.5 38.1 32.8 37.7 38.7 39.3 39.7 39.9 41.5 44.5 36.6 18.2 20.3 26.6 40.3 44.8 46.5 46.1 41.1 35.5 33.6 34.4 41.3 44.3 42.1 35.1 29.4 24.2 15.5 15 12.6 12.6 23.4 23.7 23.8 24 27.1 26.1 26.1 26.2 26.9 27.6 28.6 34.6 31.5 32.1 35.6 30.6 28.5 27.9 23.4 17.4 17.4 17.4 18.7 18.9 19.7 19 21.1 26.2 32.7 35.6 38.3 38.8 37.7 36.2 34.8 33.6 31.8 28.8 28.8 28.8 28.8 28.8 31.2 30.5 28.8 28.8 34.2 37.8 34.9 32.2 27.5 24.2 24.2 24.2 30.9 33.5 37.2 38.5 40.5 41.8 42.2 40.9 38.8 36.8 35 34 32.7 32.2 34.5 36.8 40.4 44.5 47 47.9 48.4 48.4 48.3 48.3 44.2 42.6 42.6 42.6 42.6 42.6 42.6 42.6 42.6 42.6 42.6 42.6 42.6 42.6 42.6 42.6 46.3 49.7 51.5 52.5 53 53 52.2 50.8 50 49.4 48.7 48 47 46 46 45.4 45.1 45.9 45.8 46.5 47.4 49 50.4 51.2 52 53 53.9 54.7 55.4 56.6
54.1 61.4 54.7 57.5 52.2 46.7 40.1 42.8 47 49.6 50.3 48.7 46.7 43 44.6 38.5 35.4 24 21.8 16.8 15.9 12.9 19.7 30.3 36.4 32.1 38.3 44.1 57.8 55.3 53.1 45.8 33.7 32 42.7 46.4 63.8 62.5 56.9 39.1 24.8 16.8 12.2 17.5 25.4 32.5 31.3 41.7 40.1 42 41.8 41.5 42.2 36.2 30.7 18.4 15.2 24.6 36.3 45.6 48.1 47 41.1 36.2 33.7 38.7 43.1 48.2 45.4 35.1 27.1 22.9 16.3 14.7 12.6 12.6 18.4 21.3 23.2 25.3 27.1 27.7 28.3 29.2 29.6 29.1 29.3 30.3 31.3 29.8 32 27.8 27.7 27.6 22.2 17.4 17.4 19.2 20.4 23.2 22.9 20 25.4 32.7 37.3 40.3 40 39.9 38.5 37 34.7 32.9 30.9 28.8 28.8 28.8 28.8 28.8 33 33.1 33 30.3 31.5 39.8 33.4 31.1 25.6 24.2 24.2 24.2 30.1 35.2 37.6 38.5 39 41.5 43 41 38.3 37.2 36 34.9 34.1 33.2 32.7 36.6 40.3 43.9 47 48.2 49 49.1 49 49.1 47.7 46.6 45.4 44.1 42.6 42.6 42.6 42.6 42.6 42.6 42.6 42.6 42.6 42.6 42.6 46.7 48.2 50.4 51.8 53.9 53.7 53.2 51.7 50.6 49.9 49.3 48.6 47.7 46.5 45.4 45.5 44.5 44.5 44.5 46 46.7 46.7 48.8 50.1 51.2 51.8 52.7 53.6 54.5 55.2 55.3
48.2 47.8 47 47.7 46.7 43 39.9 40 45.2 51.9 51.8 47.8 43.3 42.4 44.1 38.9 34.2 23.2 21.9 17.3 15.8 22 25.9 38 45 38.9 43.3 50.6 62.3 59.1 57.2 48.6 39.9 38.2 47.4 50.5 67 61.7 56.4 44.4 26.8 17.3 14.6 13.3 20.2 26.4 33 36.7 39.7 45.6 43.5 43.2 42.6 37 27.9 18.3 14.5 22.3 35.4 40.7 44.6 42 40.9 37.7 35.3 41.3 51.2 46.6 46.4 36.2 29.1 20.9 18.3 15.5 12.6 12.6 15.5 19.1 22.7 25.1 28.1 30 31.4 32.7 31 30.1 29.7 28.9 30.1 27.5 26 24.2 17.4 17.4 17.4 17.4 22.5 22.3 24.7 25.1 20.4 22.5 27.6 41.1 41.8 41.8 41.2 40.3 38.2 36 34 32.7 31.7 30.6 28.8 28.8 28.8 33.4 34.9 34.7 36 34.4 32.7 33.4 33 28.9 24.2 24.2 24.2 24.9 30 34.1 37.6 38.5 39.1 40 41.8 39.9 38.3 38.3 36.9 35.8 34.8 33.2 33.3 38.7 40.6 44 46.6 48 49.1 49.9 50 50 48.9 47.2 43.7 42.6 42.6 42.6 42.6 42.6 42.6 42.6 42.6 42.6 42.6 42.6 46.9 48.6 50 51.3 53.4 54.7 53.7 52.7 51.6 50.5 50 49.3 48.4 47.3 46.4 45.5 43.3 40.7 42.9 44.7 46.4 47.4 47.8 48.5 50 51.2 52.2 52.8 52.9 54 54.7 55.2
44.6 44.7 42.7 41.5 42.6 44.1 38.9 38.2 41.6 46.4 53.9 48.3 43.8 41.9 41.3 41.8 33.2 23.8 20.4 17.2 16.9 27.8 34 41.4 47.3 47.2 43.6 52.8 60.8 61.2 55.4 49.3 43.3 44 50.6 52.3 63.4 60.6 49.4 42.7 27.3 21.1 18.7 15.4 15.9 27 34.1 36.4 43.1 44 43.8 44.9 43.9 35.3 23.5 17.5 15 20.6 31.4 37.6 40.8 43.5 42.2 39.1 36.9 40 51.3 45.4 42.5 37.6 30.8 23.3 27.4 18.9 12.6 12.6 14.1 20.3 23.2 26.8 28.7 30.8 34.6 34.7 31.9 31.1 30.2 27.6 27.6 23.9 20.8 17.4 17.4 17.4 17.4 18.7 23.6 23.2 24.8 22.2 21.2 26.2 31.4 45.7 42.8 42 41 40 37.7 34.4 32.8 32.1 32.5 31.1 28.8 28.8 30.2 34.9 35.9 36.9 39 37.5 33.5 31.4 27.6 24.2 24.2 24.2 24.2 24.2 29.7 32.6 37.2 38.5 39.4 39.7 39.7 38.8 38.9 38.2 37.4 36.1 35.2 32.9 33.9 36.2 41.6 43.7 47 48.1 49.3 50.4 50.6 51 49.9 48.5 45.9 42.6 42.6 42.6 42.6 42.6 42.6 42.6 42.6 42.6 42.6 46.8 48.6 50 50.8 51.7 53.2 53.9 53.5 52.7 51.8 50.9 49.9 48.9 47.9 46.8 45.9 44.4 40.5 40.5 40.5 45.3 46.4 47.5 48.5 49.2 50.1 51.4 52.5 53.3 53.8 54.3 54 53.3
38.8 41.8 39 42.6 42.9 43.2 39.3 39.1 38 44.5 47.6 49.4 45 40.8 40 42.8 32.9 24.5 20.6 16.4 22.5 30.3 41.5 46.9 56.8 54.6 41.4 59 66.5 64.7 60.3 52.2 46.4 47.9 55.4 52.2 59.5 54 45.8 37.8 28.2 26.9 23.7 18.2 15.9 20 30.4 38.4 42.8 41.3 38.8 40.4 39 27.7 23.6 20.6 16.7 20.3 28.5 35.5 42.4 44.6 43.3 40 37.9 37 46.6 45.1 47.7 40.1 28.4 33.6 26.2 20.1 15.3 13.4 17.3 23.4 25.9 26.5 28.7 30.6 36.8 33.6 32.2 29.1 29.8 25.1 19 17.4 17.4 18 27.7 27.7 22.8 22 25.9 24.6 23.7 21.1 24.3 26.8 29.5 40.7 42.7 41 39.4 37.4 34.3 32.7 31.8 31.2 32.1 28.8 28.8 28.8 34.2 36.1 36.8 37.7 41.2 39.1 34.9 29.9 24.2 24.2 24.2 24.2 24.2 24.2 28.3 35.3 37.5 38.6 39 39.5 40 40 39.4 38.8 37.6 36.3 35.5 33.4 34.8 37.7 41.2 43.4 46 48 49.3 50.6 51.4 51.5 50 49.3 47.7 46.8 45.1 42.6 42.6 42.6 42.6 42.6 42.6 42.6 46.5 48.7 49.6 50.7 51.7 52.7 53.3 53.9 53.8 52.9 51.3 50.4 49.4 48.4 47.3 46.1 44.1 40.5 40.5 40.5 42.6 45.2 46.6 47.8 48.9 49.4 49.9 51.3 52.7 53 53.1 53.3 52.6 52
37.6 39.1 36.8 37.2 40.6 38.9 32.9 38.2 37.5 41.8 47.2 47.3 39.7 36.6 36.9 35.8 30.3 25.3 21.9 16.7 24.8 35.2 51.7 59.9 66.4 60 45.5 59.6 66 63.4 63.3 55.2 48.3 47.3 52.1 49.4 50 48 40.3 32 32.9 32.8 29.7 22 18.4 18.5 28.9 37 42.3 37.5 32.1 33 29.8 26.6 25.4 22.2 19.6 20.9 24.6 35.3 43.6 46.4 45.4 43 38.4 37.3 37.7 44.8 44.1 38 29.7 31.8 26.7 20.2 17.3 16.7 19.9 23.6 27.2 27.8 25.5 28.1 32.4 31.8 28.6 27.5 24.2 20.4 17.4 18.5 30.8 32.6 33.3 30.5 24 23.5 25.2 21.4 20.9 23.7 25.4 26.7 30.5 35 41.9 39.6 37.9 36.3 33.9 32.5 31.6 30.8 29.8 28.8 28.8 31.5 34.9 37.7 38.5 39.6 43.1 40.3 34.6 30.2 27.2 24.2 24.2 24.2 24.2 24.2 30.4 36.3 38.3 39 39.6 40.3 41 39.6 39.2 39.6 37.7 36.5 35.4 34 36.3 39.4 42.2 43.9 46.1 47.9 50 51.5 52 51.7 50.9 50.1 48.4 44.9 42.6 42.6 42.6 42.6 42.6 42.6 42.6 42.6 47.2 49.3 50.2 51.3 53 53.7 54.2 54.1 53.2 51.9 50.8 50 49 47.8 46.1 41.3 40.5 40.5 40.5 40.5 44.9 42.6 47 48.2 47.9 48 48.7 50.4 52.1 52.7 52.9 52.6 52.1 50.8
32.8 32.9 34.2 36.5 36.9 32.9 32.9 38.9 40.4 40.4 44 42.1 36 34 31.6 31.5 30.4 25.5 21.6 19.1 33.2 40.8 56 70.2 74.1 65.8 54.2 56.8 64.2 62.8 59.9 52.3 48.2 47.1 50.7 48 47.2 45.7 38.4 37.2 37.6 39.1 34.6 26.7 20.1 17 27.5 31 32.6 31.2 26.9 24.6 24.3 25.7 27.2 25 21 20.3 22.6 35.3 44.7 48 47.7 48.3 45.8 37.9 37.7 38.4 44.5 39.3 31.3 32.1 27.9 20.7 18.5 18.3 20.9 25.2 27.7 27.1 25.5 25.5 28.7 28.5 27 26 23.2 18.6 26.9 24.8 32.2 34.8 36.6 30.3 24.3 22.6 21.8 20.4 21.5 23.9 25.4 27.1 29.9 33.2 35.3 36.9 36.9 35.7 33.9 32.6 31.7 30.4 29.8 28.8 29.4 35.3 37.4 40.3 39.6 40.8 43.9 40.2 36.1 31.2 26 24.2 24.2 24.2 24.2 24.2 31.4 36.8 38.4 39.1 39.8 40.6 40.5 38.4 38.3 39.5 35.6 35.1 32.1 35.4 36.7 39.5 41 43.9 47.4 50.2 51.7 52.8 53.7 53.6 51.6 49.7 46.3 42.6 42.6 42.6 42.6 42.6 42.6 42.6 42.6 46.6 48 49.4 50.5 51.6 53.2 54.2 53.7 53.2 52.5 51.1 50.1 48.7 47.4 46.1 43.9 40.5 40.5 40.5 40.5 40.5 40.5 40.5 42.6 46.4 46.2 46.3 48 50 51.7 52.8 52.9 52.2 51.7 51.1
30.4 36.2 35.5 37.3 39.4 35.5 38.7 38.4 34.5 36.8 39.5 37.7 36.4 36 31.9 33.5 33.1 25.2 18.6 21.9 32.9 49.4 59.5 76.4 79.1 72.5 63.9 57.3 62.6 60.8 56.8 53.7 55 49.1 49.1 48.2 46.9 43.2 42.1 41.1 44 44.2 39.7 33.3 22 16.6 25.5 29.9 26.7 25.8 24.7 22.8 23.8 27 30.6 28.4 21.9 20.5 21.6 35.5 44.6 48.2 49.9 56.1 53.6 41.8 38.2 37.4 40.3 35.2 32.5 30.4 24.3 20.6 19.2 19.1 21.7 28.6 29.2 25.5 25.5 26.9 28 26.1 29.9 28.6 21.9 29.5 32.1 28.2 33.3 36.1 35.2 29.5 25.1 22.8 21.6 21.1 21.7 24.2 25.7 27.4 30 32.1 33.7 35.2 36.4 35.8 34.1 32.1 32.1 31.1 29.7 28.8 33.6 38.1 38.7 39 39.7 40.8 42 40.6 36.6 30.9 24.4 24.2 24.2 24.2 24.2 24.2 34.3 37.4 38.5 39.1 39.8 39.9 38.6 36.7 32.6 33.4 32.1 32.1 34.7 32.1 38.9 39.5 39.2 41.1 45.5 53.4 55.3 56.8 55.2 53.5 50.3 47.9 43.2 42.6 42.6 42.6 42.6 42.6 42.6 43.6 47.4 47.9 48.3 48.7 49.3 50.4 52.9 52.9 53 52.2 51.7 50.1 49.3 47.9 46.5 45.1 44.1 40.5 40.5 40.5 40.5 40.5 40.5 43.8 44.3 45 41.5 42.9 44.9 48.3 51.3 52.6 52.5 51.9 51.3 50.5
34.9 37 35.5 38.5 40.8 40.1 38.4 40.5 34.5 34.5 39.3 35 34.7 35.2 34.1 33.1 29.4 25.2 20.2 24 42.5 52.2 68.4 77 78.7 77.4 67.4 58.8 59.1 57.7 55.3 58.3 56.5 53.7 50.2 49.3 46 43.9 49.3 44.2 50.3 47.3 44.8 39.7 23.3 16.8 17.2 21.8 27 24 22.6 22.9 23.5 30.4 33.6 27.5 22.2 22.8 22.7 33.3 45.1 50.4 56.9 65.4 59.5 48.6 39.3 36.8 34.6 32.1 31.7 31.3 23.8 21.1 21.5 20.7 23.7 33 28.9 26.3 25.5 25.5 25.5 32.9 33.9 29.9 22 33.4 33.4 31.3 31.8 34.7 33.5 30.3 25.7 23.3 21.9 20.6 21.8 23.8 24.6 26.9 28.5 30.6 32.6 34.3 37.2 34.7 33.7 32.1 33.2 31.9 30 33.7 37.2 40.1 40.8 40.9 42.9 43.2 45.7 42.1 36.6 31.3 25.9 24.2 24.2 24.2 24.2 24.2 33.1 37.8 38.2 38.7 38.8 39 38.4 35.7 32.1 32.1 32.1 32.1 33.6 32.1 36.8 34.3 37.1 43.7 48.9 55.7 59.1 57.1 54.1 51.1 48.6 46.7 42.6 42.6 42.6 42.6 42.6 42.6 47.4 47.9 47.4 47 44.4 44.4 44.4 48 49.2 50.7 51.4 50.9 50.3 49.4 48.8 47.3 46.3 43.9 41.5 40.5 40.5 40.5 40.5 42.1 43 45.5 43.5 41.1 39.5 39.5 42 49.2 50.6 51.4 52.1 51.6 51 50.4
33.7 35.6 35.2 37.2 44.1 40.3 37.8 40.7 38.3 34.5 35.7 34.2 34.7 33 29.6 29.7 25.9 26.6 21.1 26.8 44.2 56.9 72.6 76.9 81 73.4 67.9 59.9 59.5 58.1 56.6 58.9 58.4 59.7 51.4 48.2 42.9 47.1 50.8 47 58.4 51.2 43.2 35.4 28.3 19.4 18 18 20.2 23.7 22.8 23.8 26.6 31.8 32.1 27.9 23.4 27.5 28.9 33.6 49 53.6 68.5 69.7 61.3 50.6 41.5 36.4 32.9 31.3 31.6 27.1 23.8 25.1 22.9 21.6 24.1 29.3 28.9 26 25.5 25.5 35.2 35.8 35.1 30.2 25.7 32.5 34.8 33.7 32.1 32.1 35.2 32 28.4 23.6 21.1 22.3 22.5 23.2 24.3 26.4 27.3 32.3 32.7 33 34.1 33.5 33.4 33.6 34.1 32.8 31.3 35.5 37.6 44.5 45.4 45.7 46.7 48.4 46.2 41.9 36.9 33.6 31.2 27 24.2 24.2 24.2 29.8 35.1 40.4 38.3 37.7 37.8 38.7 37.6 35.2 32.1 32.1 32.1 32.1 32.1 32.1 32.1 32.1 34.1 46 50.1 55 56.8 54 50.9 49.7 48.5 46.8 42.6 42.6 42.6 42.6 42.6 46.2 47.2 44.5 45.9 44.4 44.4 44.4 44.4 44.4 44.4 48.1 50.5 50.6 50.6 49.9 49 47.6 46.3 44 40.5 40.5 40.5 45.1 47.2 46.9 45.2 43 39.5 39.5 39.5 39.5 46.1 50 50.2 50.9 51.9 52.1 51.5 50.5
31.9 33.5 32.6 44.2 41.8 40.2 36.8 42.1 39.9 34.5 35.7 34.5 32.4 30.6 27.5 26.6 24.7 21.4 25.6 29.6 45.8 62.1 75.1 80.2 86.8 81.3 77.9 67.1 61.1 59.2 58.8 61.9 60.4 66.1 52.4 44.1 44.3 47 46.2 47.4 57.4 47.7 39.4 35.7 32.4 27.3 21.1 16.7 18.7 21.4 27.3 27.3 30.9 34.2 35.8 29.6 27.7 31.6 32.1 37.4 50.5 58.1 73.1 69.2 63.2 53.7 44.9 38.8 33.3 30 27.2 25.7 25.4 27 23.3 22.2 25.9 30 29.2 30 25.6 31.5 37.9 36 35.1 29.4 29 27.9 35.5 34.9 33.5 33.3 36.4 33.6 28.4 23.9 21.3 22.9 23.6 24.3 25.6 26.1 26.4 30 31.6 32.7 33.4 34.1 34.2 34.4 36.1 36.3 34.2 36.8 39.1 50 48.6 50.7 51.3 47.9 45.6 43.1 39.9 37.8 35.9 32.5 29.3 24.2 24.2 28 36.6 38.4 36.8 36.4 38.9 41.2 38.9 35.8 32.1 32.1 32.1 32.1 32.1 32.1 32.1 32.1 36.3 45.3 49.8 52.6 52.2 50.6 50.1 49.3 48.3 47.1 45.8 42.6 42.6 44.9 45.8 44.1 44.4 44.4 44.4 44.4 44.4 44.4 44.4 44.4 44.4 50 50.9 50.7 50.8 50.4 49 47.6 45.7 40.5 40.5 44.4 44.5 50.6 49.2 45.2 39.6 39.5 39.5 39.5 39.5 39.5 44.7 47.9 50.2 51.1 52 52.3 51.7 50.6
32.2 28.8 34.3 38.5 40.6 35.7 38.5 43.5 37.6 34.5 35 35.5 32.4 29.6 26.9 23.9 22.6 27.9 28.5 32.9 46.5 59 74.7 84.5 83.7 78.7 78.1 71.9 64.1 60.5 60.2 66.3 59.8 64.1 56.5 42.9 43.4 42.9 42.9 54.1 58 46.2 42.6 37.6 37.4 37.5 30.8 21.8 18.9 26.7 30.5 30.7 36 41.9 41.1 32.6 33.1 29.6 31.7 38.3 50.2 61.4 74.9 71.1 66.8 57.9 48.5 41.2 35.1 29.7 28.3 27.2 25.5 21.5 21.9 23 21.4 28.7 33.3 33.4 30 37.2 37.9 36.7 35 32.3 32.5 28.2 32.4 35.8 34.5 36.3 41.1 32.5 27.2 23.9 21.8 23.3 24.1 25 26.6 27 26.8 26.7 29.4 32.2 33.2 34.5 34.9 36.7 41 39.1 35.6 37.6 44.3 46.8 49.7 52 52.1 49.1 47.5 46.1 44.1 42.3 41 35.9 30.4 24.2 24.2 24.2 25.3 31.4 33.7 35.2 38 40.9 39 36 32.1 32.1 32.1 32.1 32.1 32.1 32.1 34.5 39.7 42.3 46 46.9 48.7 49.6 49.1 48.6 48 47 45.7 44.3 46.8 47.4 47.5 46.9 44.4 44.4 44.4 44.4 44.4 44.4 44.4 44.4 46.4 50.2 50.8 50.9 51 50.7 49.1 47.5 45.2 43.8 40.5 41.7 42.3 42.6 42.7 39.5 39.5 39.5 39.5 39.5 39.5 39.5 43.6 49.2 51.6 53.2 53.8 51.9 51.1 50.3
24.5 29.8 31.2 35.2 36.8 35.6 37.1 42.5 36.7 34.7 34.5 36.1 32.9 27.8 27.5 29.4 29.2 29.1 30.7 37.8 48.3 64.3 73.6 81.3 82.4 78.7 78.9 75.5 67 61.3 61.5 65.8 57 60.6 53.7 42.9 42.9 42.9 47.1 51.9 51.3 48.4 42.5 37.9 42.1 43.9 35.8 25.9 19.5 28.6 34.1 34.2 42.1 45.8 46.3 34.4 29.6 29.6 29.7 35.8 52 66.8 76.2 76 71 64.8 54.3 43.5 34.7 29.8 28 25.5 21.4 21.9 21.4 21.4 26 29 36 35.2 33.2 37.2 38.4 37 33.8 35.2 33.3 28.3 35.4 36.7 36.9 38.7 36.4 31.2 27.8 24 23.2 24.2 25.4 27.4 29.7 29.2 27.9 28.1 29.7 31.1 33.6 35.1 36.4 41.4 44.9 41.8 39.7 45.2 48.1 49.8 52.8 54 54.7 52.2 51.7 49.6 47.1 45.6 43.8 39.3 34.3 25.4 24.2 26.3 25.4 28.2 32.6 37.3 41.1 41.5 39.3 36.4 32.8 32.1 32.1 32.1 32.1 32.1 32.5 37.4 40.1 41.5 43.3 45.9 47.8 48.5 48.1 47.7 47.3 46.9 46.5 48.2 48.5 48.7 48.2 44.4 44.4 44.4 44.4 44.4 44.4 44.4 44.4 45.2 47.7 50.4 52.2 52.6 52 51.3 50.3 49.1 48.5 47.7 46.3 46 44.9 43.8 42.6 42.6 39.5 39.5 39.5 39.5 39.5 39.5 42.1 46.3 52.4 53.3 52.5 51.5 50.2 49.1
24.5 24.5 24.5 31.7 32.3 33.2 37.2 37.5 36.4 35.9 33.7 33.1 26.6 25.9 32.1 32.7 32.1 33 34.1 42.1 51.3 68.2 73.6 76.4 77.4 83.9 81.9 74 64.9 61.2 61.6 56.7 53.8 51.2 45.1 42.9 42.9 44 46.7 49.7 51.4 47.3 40 40.1 46.2 48.7 39.5 29.6 24.2 30.3 34.7 37.5 43.9 50.1 47.8 37.8 29.6 29.6 29.6 34.6 47 66.6 82.4 80.8 73.2 67.1 56.6 45.1 36 30.7 27.8 21.4 21.4 21.4 21.4 21.4 26.9 35 36.6 35.4 34.7 35.1 38.4 34.9 35.4 34.9 32.4 30.6 33.4 39.7 39.1 37.3 34.9 32.2 29.6 25.1 25.8 27 27.6 30.2 33.7 32.9 30.6 30.6 33.6 33.5 34.4 35.2 39.8 43.8 46.3 44.6 45.1 47.3 50.6 53.6 54.2 56 57.7 56.7 55.2 52.1 50.4 48.4 46.3 43 39.8 37.1 33.2 29.4 26.8 32 37.5 39.1 41.5 42.8 40.2 36.8 33.4 32.1 32.1 32.1 32.1 32.1 36.4 38.4 39.6 41 43.6 46 47.2 47 46.3 46 46.1 46.5 46.9 48.3 49.7 49.2 48.5 46.2 44.4 44.4 44.4 44.4 44.4 44.4 44.4 45.6 49.4 52.1 53.8 53.7 53.1 53.4 52.6 53.1 52.1 50.9 49.1 47.2 46.5 45.5 44.7 44 42.4 39.5 39.5 39.5 39.5 39.5 43.9 45.8 51.4 51.8 51.4 50.5 49.1 47.7
24.5 24.5 24.5 29.4 28.8 30 36.2 35.6 35.6 37.1 32.7 27.7 26.5 33.6 34.6 34.8 34.4 36.4 37.9 49.9 53 65.1 72.7 77.6 78.1 80.6 78.2 76.1 69.1 59.9 57.7 53.3 51.4 42.9 42.9 42.9 42.9 47.1 49.4 48.8 48.2 46.2 43.9 42.9 50.7 54.2 41.2 32 26.3 29.3 34.3 39.4 49.6 58.9 51.9 41.5 32.6 29.6 29.6 32.7 42 65.3 87.4 82.3 77.5 67.6 54.8 43.3 37 29.6 21.4 21.4 21.4 21.4 21.4 22.1 27.5 38.3 37 36.7 35.7 35.9 39.3 34.8 36.2 36.9 34.6 34.9 35.2 39.2 38 36.9 35 32.5 31.1 27 29.1 30.2 29.1 35.5 38.8 35.5 33.4 32.9 35.9 36.8 36.8 36.2 39.9 46.1 47.4 46.6 49.5 51 54.7 58.4 57.1 61 60.8 62.7 60.4 54.8 57.5 52.5 48.4 45.9 46 42.6 35.1 28.7 27.5 33.4 38 41 42.3 42.8 40.7 38.2 36.2 32.1 32.1 32.1 32.1 32.1 36.6 37.7 38.9 40.8 44.2 45.6 45 44.1 43.6 44.3 45.3 46.1 46.9 49.1 49.6 49.5 47.2 44.4 44.4 44.4 44.4 44.4 44.4 44.4 44.4 47.5 51.9 53.7 54.6 55.5 55.1 55.5 57.3 56.3 54.9 52.8 50.4 48.4 47.3 47.2 45.5 44.1 39.5 39.5 39.5 39.5 39.5 44.4 44.8 44.9 46.3 50.9 49.9 48.3 47.4 46
27.9 24.5 24.5 24.5 25.5 30.3 32.4 33.5 35.2 34.2 32.2 24.7 33 40.6 35.9 35.1 37.2 41.3 40.8 49.2 52.3 62.2 72.5 75.6 78 80 85.6 83.1 73.5 59.8 52 50.3 48.7 42.9 42.9 42.9 48.8 49.1 57.5 51.2 48 48.7 50 48.4 55.6 56.4 44.9 33.9 25.9 28.4 35.4 46 54.7 59.1 57.7 44.2 36.2 30.3 29.6 31.2 38.9 66.3 81 79.1 78.8 66.8 52.3 42.7 34.4 26.1 21.4 21.4 21.4 21.4 21.4 21.4 28.4 33.7 36.6 39.1 37.5 36.6 36.8 38.1 40.2 39 36.8 36 36.2 37.7 36.7 34.2 32.2 30.6 28.4 31 33.4 32.8 34.5 42.9 42.8 39 36 36.3 41.6 43 37.9 36.6 39 46.9 48.8 48.8 56.8 56.3 57.9 61.5 61.3 63 64 65.3 60.2 56.9 56 54.7 51.3 49.4 52.5 44.9 32.1 26.3 30.5 33.5 38.2 41 43.7 42.7 41.3 38.9 36.6 32.1 32.1 32.1 35.1 35.4 36.1 37 37.9 40.4 44.6 41.4 40.1 39.5 41.7 41.7 44.1 45.9 47.2 48.6 49.7 49.1 47.7 46.8 46.2 46.2 46.2 44.4 44.4 45.5 48.5 50 52.1 55.2 57.9 57.2 56.4 57.7 59.9 56.6 55.2 53.7 51.8 50 48 47 45.2 43.9 39.5 39.5 39.5 39.5 43.7 44.6 44 43.7 44.1 47.5 48.3 46.5 44.8 43.9
27.6 24.5 24.5 24.5 29.5 31.1 31.6 32.8 33.2 33.7 33.1 25.3 36.7 37.3 35.4 35.9 41.8 45.3 43.3 48.3 54 59.7 69.4 77.7 79.1 85.2 84.3 80.3 76.7 67.5 53.4 51.3 50.5 49.1 47 42.9 48.8 49.1 56.6 56.7 52.9 53.9 55.9 57.2 61.6 62.4 52.8 32.9 25.1 28.1 37.7 49.7 59.2 60.8 64.7 45.2 39.9 33.8 29.7 32.8 39.8 53.3 73 74 72.2 65.4 54.1 37.7 28.2 25.8 28 22.6 21.4 21.4 21.7 28.3 30.9 33.7 39.6 41.3 39.7 36.8 37.4 44.5 42.2 41.3 39.3 36.8 36.6 37.3 33.6 30.7 27.3 27.3 32 34.1 37.4 37.5 43.2 46.1 46 43.6 41.3 46 49 44.2 39.4 37.7 38.7 44.2 51.6 59.8 60.4 59.7 61.1 64.3 63.3 65.3 65 64.1 60.4 58.6 58.9 56 54.9 53 53.8 40.8 27.7 28.7 29.8 32.5 39.1 44 44.7 43 41.4 38.4 35.5 32.9 32.1 34 34.2 34 34.6 35.3 36.6 41 39.5 37 36.6 37 37.5 40.2 44.9 47.4 48.3 49.5 50.6 50.4 49.9 50.5 50.7 50.2 49.2 48.2 48 47.5 49.4 51.9 53.4 55.7 57.3 57.9 57.5 58 59.5 56.7 55.4 55 54.5 52.4 47.8 41.4 41.4 39.5 39.5 39.5 39.5 39.5 41.7 43.9 41 41.2 41.6 46.2 45.3 43.6 43 42.6
29.1 24.5 24.5 24.5 26.6 30.7 31.3 31.7 32.3 33.7 32.8 25.6 30.5 31.8 34.1 37 45.6 49.7 50.2 50.6 54.7 60.4 67 74.9 78.2 82.1 83.6 79.2 77.3 74.1 55.5 53 53.8 53 50.8 50.4 54.9 50.9 57 55.6 55.5 61.2 62.7 65.2 68.1 63.4 54.5 37.2 24.4 30.1 36.9 44 62.2 62.4 55.5 46.7 43.4 38.4 34.5 35.7 39 43.9 61.7 67.1 64 54.3 46.6 36.3 30.1 33.1 34 25.6 21.4 26.4 28.5 32.1 36.5 38 40.5 41.9 40.6 37.4 43.7 44.6 44 42.5 41.2 39.1 36.2 33.1 31 27.3 27.3 28.5 36.3 41.5 42.9 42.1 46.6 48.2 49.9 49.4 45.8 50.1 53.7 50.3 47 42 48.8 50.5 54.9 66.6 66.2 66.9 65.2 65.9 66.2 67.5 67 62.2 61.3 60.2 62.3 56.5 52.3 50.4 45.7 38.8 26.6 31.3 28.8 32.8 42.6 47.3 46.8 43.8 40.6 37.3 35.6 33.9 34.3 33.2 34.9 35.8 34.3 34.8 34.3 35.4 35.3 35.6 34.3 34.9 35.1 40.1 46.3 48.4 49.9 50.7 51.4 52.6 53.8 53.6 52.5 51.5 50.6 49.9 49 47.4 50.1 54.8 57 58.1 59 59.2 58.6 57.3 57.1 56.6 55.7 55.9 54 49.6 44.2 39.5 39.5 39.5 39.5 39.5 39.5 39.5 39.5 39.5 42 42.3 41.1 41 42 42 41.5 41.3
29.7 24.5 24.5 24.5 27.8 31.6 30.1 30.1 32 32.7 30.7 25.6 28.3 29.5 33.6 39.6 47.1 54 53.2 52.8 55 58.6 63.3 70.8 76.7 82.4 81.8 80.7 78.6 75 60.2 54.9 56 55.9 56.2 55.5 51.4 51.5 57.2 57.6 64.2 66.6 68.3 66.5 64.3 62.3 48.4 35.2 24 27.9 35.8 45.8 62.7 66.2 63 47.1 43.8 39 36.7 36.7 37.9 39 53.1 57.2 51.5 45.3 41.9 36.1 37.6 39 35.9 27 29.5 27.6 34.2 39.7 42 42.5 41.1 40.6 39.2 36.5 43.2 45.3 44 44.4 41.5 37.4 32.8 29.6 27.3 27.3 27.8 33.8 40.1 45.7 48.3 48.7 49 50.8 60 55.4 55.7 66.1 62.8 57.8 57.6 52.6 53.7 56.5 60.2 69.3 73.4 72 68.4 69.5 72.4 68.9 65.4 63.1 63.8 59.6 56.8 53.8 49.5 48.5 45 37.9 29.4 27.1 28.1 29.6 43.2 45.4 47.4 42.2 39 36.8 34.6 33.1 33.3 35 36.1 36.4 36.6 36.5 34.6 33 33 33 33 33.6 33 44.5 47.5 49.9 51.5 52.4 53.2 55.7 55.3 54.6 53.7 52.7 51.6 50.7 49 48.5 50.6 58 59.4 60.2 61.4 60.2 59.3 56.5 55.7 55.9 57.4 50.5 48 44.1 39.5 39.5 39.5 39.5 39.5 39.5 39.5 39.5 40.3 43.7 43.8 43.8 43.4 41.4 42.1 42.6 42.6 42.9
25.2 24.5 24.5 24.5 29.2 29.7 28.3 29.3 32.5 30 26.6 25.6 25.6 30.8 36.4 43.7 52.1 58.6 55.6 54.8 55.7 59.6 60.8 70.3 77.9 84.3 84.6 83.7 78.4 74.9 66 56.3 57.1 56.4 57.7 58.3 55.7 52.8 54.9 60.5 61.2 68.7 71.4 66.7 60.5 55 48.5 34.5 24.8 25.6 33.2 46.7 61 61.8 59.5 46.1 44.9 41.8 39.6 39 39.2 39.4 43.8 46.8 48.9 45 41.4 37.5 39.2 41.8 37.2 28.9 29.2 32.2 37 44.3 48.4 49.8 41.9 39.2 36.4 35.3 36.3 45.1 42.2 42.5 39.7 35.4 30.8 27.3 27.3 27.3 27.3 31.8 45.4 53.5 53.9 55.6 56.7 60.7 60.8 62.3 71.2 72.1 72.6 71 65.3 60.6 58.4 62.8 63.5 77.6 78.3 76.6 72.9 72.1 75.4 72.1 65.2 63.4 63 56.9 56.1 55 50.3 47.5 41.7 36.1 33.2 27 27.1 28.3 39 43.3 43.9 39.4 37.5 36 34.2 32.6 35.7 38.2 38.7 38.2 37.8 37.4 36 33 33 33 33 33 33 42.7 49.7 50.8 51.4 52.8 55 56.2 56.1 55.6 54.8 53.7 52.4 50.7 48.8 49.2 51.2 56.7 58.4 59.3 60.6 60.4 57.9 55.4 53.4 51.4 49.7 47 42.8 39.5 42.2 40.9 42.6 39.5 39.5 41 43.9 43.3 42.8 44.4 44.6 45.3 44.8 44.3 44 44 44 44
24.5 24.5 24.5 24.5 24.5 24.5 24.5 24.5 26.6 25.6 25.6 25.6 31.2 34.2 37.6 54.6 57.6 61.2 57.9 56.4 56.1 57.2 58.7 67.7 75.3 81 83.6 81.4 75.7 72.3 64 56.7 56.4 56.1 62.8 63.1 58.7 54.6 60.7 60.5 63.6 70.1 81.4 74 62.1 54.8 50.8 37.5 23.9 23.3 31.2 43.3 57.8 57 53.6 44.2 45.5 43.1 42.5 41.7 39.9 38 38.6 45.1 44.1 41 38 37.9 39.2 41.4 37.5 30.2 30.5 37 43.5 47.9 52.7 54 43.2 38.5 35.2 33.8 33.8 36.2 39.8 39.5 36.2 32.3 27.3 27.3 28.6 29.6 32.5 40 55 57.3 61.6 64.1 63.7 66 68.1 70.5 82 84.5 85.1 81.3 75.1 73.7 68.3 68.5 70.9 81 85 82.5 77.3 73.9 75.5 73.3 65.4 62.1 59.4 59.5 56.8 54.9 48.1 44 41 37 29.5 27.1 27.2 28.5 33 39 39.2 38.3 36.4 35.2 33.3 33.5 38.5 42 41.1 39.3 38.5 37.7 37.2 36.7 33 33 33 33 33 44.9 47 49.9 51.8 53.3 54.7 56.1 56.9 56.6 55.2 53.3 51.6 50.4 49.8 50.1 51.4 53.5 56.7 59.1 60.3 59.4 59.5 56.1 52.4 49 47.8 43.8 40.3 47.1 47.7 49.7 51.3 51.6 49.1 47 45.6 44.3 43.8 45.5 46.9 47 46.2 45.7 45.3 44.8 44.1 43.5
24.5 24.5 24.5 24.5 24.5 24.5 24.5 24.5 25.6 25.6 25.6 28.7 35.3 36.6 38.8 54.6 60.6 64.3 60.5 56.4 57.4 55.2 55.2 66.2 72.7 77.1 77.7 75.6 73.3 69.4 65 55.9 53.3 55.7 66.9 66 60.2 55.1 61.5 60.5 65.8 75.2 76.4 73.3 63.9 50.8 43.5 36.1 23.3 23.3 26.9 39 46.1 50.2 45.6 42.9 44.1 44.3 46.7 43.4 41.2 35.1 29.6 39.5 38 34.7 37.3 38.7 40.3 39.5 34.9 30.3 32.1 39.7 47.4 50.7 53.6 48.3 46.9 38.3 34.9 33.3 32.6 32.4 34.5 34.9 32.3 28.9 27.3 27.3 29.6 31.9 37.4 42.3 57.6 65.8 69.7 70 69.8 72.1 72.9 81 92.5 93.9 93.5 87.1 85.2 85 76.1 74.7 78.9 88 90 87.8 80.7 75.5 73.7 68.5 65.6 62.8 63.5 59.9 53.2 49.7 47.7 48.1 44.5 38 35.5 29.1 26.6 28 33.7 36.9 37.9 37.2 36.2 35 31.4 39.4 45 43.9 42 40.1 39 38.5 37.8 35.9 33 33 33 33 33 33.8 44 49.2 52.4 53.8 55 58 58 56.4 54.2 52.8 52 51.1 50.8 50.5 51 52.3 58.9 62.9 61.4 60.4 58.7 54.8 51.5 48.7 46.3 44.9 44.1 49.3 54.4 57 55.6 50.8 48.2 46.9 46 45.2 45 47.2 49.1 48.8 47.7 46.5 45.2 44.5 43.7 42.5
24.5 24.5 24.5 24.5 24.5 24.5 24.5 24.5 24.9 25.4 27.1 33.7 37.6 37.1 42.4 52.9 59.5 64.3 62.5 55.9 57.4 53.1 53.8 62.9 71.1 72.2 73.8 68.6 65.7 62.8 60.4 54.3 49.5 58.6 63.9 66 61.9 54.1 53.2 60.8 69.3 73.8 69.5 63.9 53.6 43.5 36.5 30.9 23.3 23.3 24.6 32.5 36.2 37.7 39.1 41.9 43.5 48.4 47.5 43.2 43.5 38.1 29.6 34.3 33.4 32.9 39.3 39.7 41.1 41.4 37 32.3 32.4 41.6 50.3 52.9 49.9 49.2 46.7 36.9 35 35.9 32.5 30.9 31.9 33.4 31.7 27.3 28.8 30.3 29.9 33.5 36.5 42.9 54.7 69.5 75.2 72.1 72.5 73.3 78 93.7 99.3 101.4 98.8 93.1 89.2 88.7 82.7 79.4 83.1 92.6 94.8 90.6 84.6 79.5 72.7 69.8 65.7 66.2 61.3 54.8 53.3 53.4 51.1 50.6 46 41.3 37.9 30.3 27 28 32.5 37 37.9 34.6 34.2 34.9 30.9 40.1 44.1 44.7 43.2 42.2 41.3 40.2 38.7 36.9 33 33 33 33 33 37.5 46.8 51.6 52.4 52.7 56.4 59.7 56.6 54.8 53.4 53.2 52.4 51.7 51 49.6 50.3 53.9 63.1 64.4 64 60.9 58 53.1 50.7 50.1 49.6 48.3 46.2 51 55.3 57.1 51.8 49.6 48.1 47.1 46 46 46 50.5 50.2 49 47.5 46.2 44.9 44 43 41.6
24.5 24.5 24.5 24.5 24.5 24.5 24.5 24.5 25.2 25.5 25.6 33.6 37.2 34.8 41 49.9 55.7 61.8 58.1 54.7 52 50.2 53.1 56.3 63 66.5 66.3 67.8 66.7 61 57.3 54.4 49.5 58.1 69.7 69 62.6 55 53.2 57 65.8 66.5 60.2 57 52.4 38.3 35.4 29.6 23.3 23.3 23.3 25.4 31.4 33.8 33.9 37.9 45.9 52.3 46.4 42.4 43 39.3 31.7 29.9 30.3 37.5 39.6 39.8 45.3 45.4 42 37.1 36.2 38.3 51.2 55.6 51.8 47 41.7 35.9 34.7 34.6 29.9 28.8 27.3 27.3 29.3 27.3 27.6 32 31.5 34 38.9 42.3 58 70.2 71.8 74.7 73.5 75.8 87.8 97.4 102.9 104.8 103.4 97.4 89 91.2 86.1 88 90.3 96.6 94.4 90.4 85.3 76.9 76.6 67.5 63.3 62.2 57.1 55.4 56 55.1 53.6 50.9 45.4 41.3 36.1 30.7 27.8 27.6 29 33.7 34 33.5 32.8 32 30.4 39.1 44.2 45.8 46.4 45.9 43 41.3 39.7 37.3 33 33 33 33 33 38.1 44.5 49.9 49.2 50.4 53.9 56.1 55 53.9 52.8 52.7 52.7 53.5 51.5 46.8 49.5 52 63.1 67.4 63.2 58 53.2 50.3 50.4 48.9 49.3 49.2 48.6 50.3 51.9 52.6 51.4 49.6 48.4 47.4 46.4 46 46.4 48.2 50.1 48.3 47 45.8 44.6 43.5 42.2 40
24.5 24.5 24.5 24.5 24.5 24.5 24.5 24.5 24.5 27.9 29.4 32.9 35.7 32.6 38.2 50.2 56.1 54.6 53.2 53.9 50.6 46.3 48.7 52.3 59 62.6 63.1 62.2 61.6 59.8 57.2 54.8 49.5 56.1 73.7 72.7 68.4 55.4 53.1 54.5 57.8 57.6 54.3 49.5 44.4 37.2 35.3 31.6 23.3 23.3 23.3 23.3 26.6 26.5 30.2 34.2 52.1 51.1 44.9 41.6 40.9 38.4 34.3 28 28.5 37.7 37.1 41.4 48.1 48.2 46.8 40.5 38.4 34.9 56.3 59.3 49.2 45.1 40.7 36.4 35.9 31.5 27.3 27.3 27.3 27.3 27.3 27.3 32.4 32.7 32.9 34.2 40.2 43.6 52.5 68.5 70.5 72.5 74.3 84.9 93.6 99.6 102.1 100.2 99.9 91.3 80.7 89.5 85.6 85.8 90.8 98.9 94.7 85.2 80.5 75 67.2 64.9 62.6 60.6 59.3 57.3 55.2 54.4 53.6 51.1 41.9 37.3 35.6 33.1 28.2 27.6 28.8 32.6 32.1 32.4 31.9 28.3 35.6 43.5 49 50.8 49.5 46.9 44.3 42.4 40.3 36.6 33.9 33 33 33 33 33 41.5 45.8 46.8 48.7 50.8 54.7 53.7 52.7 51.9 52.5 52.5 54.6 49.6 46.8 49.2 51 57.7 61.1 59 49.9 48.7 50.6 50.3 48.2 48.1 49 49.9 51.5 53.1 53.2 51.9 50.3 49 47.5 46.6 45.7 45.9 47.7 49 47.7 46.6 45.6 44.5 43.5 42.5 41.7
24.5 24.5 24.5 24.5 24.5 24.5 24.5 24.5 24.5 24.5 30.2 33.4 35.6 32.6 32.6 50.9 52.7 53.4 53.1 53.3 50.8 46.3 46.3 46.3 56.1 60.3 59.8 60.5 59.5 62.3 58.7 53.7 53.3 51.4 68.3 69.5 62.1 56.3 51.5 51.7 51.2 51.6 48.2 44.6 41.9 37.7 34.1 32.2 26.9 23.3 23.3 23.3 23.3 23.3 26.1 31.7 50.6 50.3 43 41.3 40.3 39.5 34.7 28 30.5 35.2 37.9 41.7 47.7 47.9 44.8 42.7 39.7 34.1 47.5 53.7 48.1 46.2 43.6 38.5 36 30.2 27.3 27.3 27.3 27.3 27.3 27.3 31.6 32.4 34.2 39.5 41.9 46.6 52 62.8 67.3 74.8 83.7 85.1 90.9 99.9 96 95.1 91.4 84.6 76.7 78.2 83.9 83.1 84.7 96.5 83.8 79.3 75.9 72.3 69.6 66.3 63.7 61.3 60.5 58.7 54.9 54.6 52 47.6 40.9 37.3 37.3 30.3 29.6 28.9 27.3 28.3 31.1 31.7 28.3 28.3 39.9 52 54.7 52.8 50.4 48.3 45.6 42.9 40.4 37.7 35 33 33 33 33 34.9 39.6 42.8 44.7 46 47.7 51 51.3 51.1 50.5 50.9 52 52.6 49.1 46.8 46.9 48.1 47.4 47.4 49 47.8 47.7 48.1 47.9 48.2 49.1 50.5 51.2 56.4 56 53.7 52.2 50.7 49.3 47.7 46.1 44.6 46.5 49.1 47.6 47.7 47.6 47 45.4 43.9 43 40.7
28.7 24.5 24.5 24.5 24.5 24.5 24.5 24.5 24.5 24.5 33.6 35.1 34.5 32.6 32.6 42.4 45.5 51.5 51.3 51.8 47.7 46.3 46.3 46.3 51.7 57 56.7 56.5 57.4 56.9 55 54.4 54.2 49.5 63 61.8 60.6 56.8 48.7 47.5 46 46.9 45.2 42.8 39.7 37.7 38.3 40 31 29.8 23.3 23.3 23.3 23.3 23.3 28.8 36.9 45.3 40.5 39.6 37.8 41.9 37 28 28.5 34.3 35.6 44.2 47.3 47.3 44.4 42.9 38.7 34.1 40.8 48.5 49.4 47 46.9 39.5 36.2 31 27.3 27.3 27.3 27.3 27.3 27.3 29.1 32.5 36.2 40.2 46 49.8 50 58.9 69.5 73.6 83.3 87.5 91.3 91.8 88.2 86.1 82.9 77.7 74.5 74.7 81 80.3 80.4 75.9 77.5 77.6 75.2 72.7 72.7 67.2 64 60.2 57.6 52.8 51.7 44.7 40.5 40.1 38.5 37.6 36.6 36.4 32.6 30.7 31.7 28.3 28.3 28.3 28.3 30.6 48.9 59.2 55.1 53.5 51.8 48.5 46 43.7 40.8 37.4 33 33 33 33 35.7 37.7 39.8 42.3 43.3 44 44.7 49.5 50 51.5 49.1 48.7 49 47.5 46.8 46.8 48.7 49.3 48.4 47.4 47.4 49 49.1 48.9 49.8 50.5 50.5 51.5 52 53.7 54.9 53.9 52.5 51 49.5 48 46.2 43.6 42 44.3 48.5 50 49.7 48 46.5 43.9 40.7 37
33.7 29.2 24.5 24.5 24.5 24.5 24.5 24.5 24.5 24.5 34.7 35.5 35.4 32.6 32.6 32.6 39.7 46 47.1 50 48.7 47.5 46.3 46.3 48.5 50.1 52.9 54.5 56.2 54.5 51.4 53.3 53.2 50.7 55.3 54.9 55 51.3 46.8 44.3 43.4 42.5 42.9 41.9 41.3 37.2 44.2 40.8 33.9 29.7 24.6 23.3 23.3 23.3 23.3 28.9 37 40.9 38.5 37.8 37.8 43.1 37.9 28 28 33.1 41.2 41.5 44.2 46.9 45.5 42.1 37.1 37.2 39.8 46.4 48.8 49.4 43.6 39.6 35 28.3 27.3 27.3 27.3 27.3 27.3 27.3 27.3 33.4 37.8 43.9 51.9 53.7 51.3 52.2 64.6 73.1 85.2 87.3 85.2 84.5 85.2 82.7 77.6 73.1 72.8 72.1 74 77.2 77.9 71.8 71.8 72.6 71.7 67.9 65.7 61.4 57.1 50.8 49.8 48.8 47 45.8 43.5 43.6 43.9 46.3 43.9 40.9 35.3 31.7 28.3 28.3 28.3 28.3 28.3 40.6 49.6 52.1 55.5 54.8 50.7 48.5 47.1 43.4 38.7 34.4 35.6 36 34.4 36.1 37 39.6 40.8 41.9 42.3 43 43.3 47.1 46.5 48 47.2 47.1 47.6 46.8 46.8 46.8 48.1 49 49.3 49 50.1 50.3 50.4 50.7 51.3 52.5 53.1 53.8 53.5 54.5 54.3 54.3 52.8 51.3 49.8 48.2 45.7 42.4 41.7 47.9 53.2 52.9 50.9 47.5 43.5 39.8 37 37
35.7 31.3 26.9 24.5 24.5 24.5 24.5 24.5 24.5 24.6 32.3 35.2 35.1 32.6 32.6 32.6 35.2 41.1 45.8 48 48.9 50.1 49.7 48.1 47 47.6 49.4 53.5 54.3 53.7 49.9 52.2 49.7 46.8 45.9 49.4 50.9 47.4 46.1 43 40.3 41 41.7 41.8 42.9 40.7 42.3 44.3 38.7 35.4 29 23.3 23.3 23.3 23.3 24.6 36.5 37.4 37.8 37.8 38.7 38.4 34.3 28 28 28.8 37.3 41.9 45 46.8 47.4 43 40.5 41.2 40 40.4 46 46.6 42 41.9 34.7 27.3 27.3 27.3 27.3 27.3 27.3 27.3 27.3 34.4 42.2 48.4 52.3 53.9 52.2 53.4 57.4 63.4 78.9 79.1 77.4 77 76.9 75.1 70.1 71.8 71.4 68.5 70.9 71.2 70.1 69.7 69.4 69.4 66 63 60.4 58 54.8 52.6 51.1 53.9 53.8 54.3 52 50.8 50.4 49.2 47.2 45.2 38.7 28.3 28.3 28.3 28.3 28.3 28.3 37.9 43.9 47.2 59 51.1 50.7 51.7 46.3 42.3 37.5 34.1 38.6 36 33 33 36.9 39.8 41.3 41.9 42.4 41.9 38.9 40.1 45.7 46 47.4 47.7 46.8 48 47.9 46.8 46.8 47.4 50.2 50.7 51 51.2 51.2 51.2 53 53.7 55.6 57.3 56.3 56.2 55.8 54.6 52.7 51.3 49.8 47.3 42.4 41.5 42 50.2 55.3 51 47 43.6 37 37 37 37
38.6 34.6 30.5 24.5 24.5 24.5 24.5 24.5 24.5 24.5 34.3 37.7 37.8 37.1 35.1 32.9 32.6 40.3 46.2 48.6 48.2 50.4 50.8 49.3 47.5 46.3 47.3 52.5 52.5 51.5 49.9 52.1 48.6 45.7 42.8 45.1 45.8 47.4 46.3 42.1 38.6 40.6 38.9 42.3 43 43 43.4 48.1 42.1 39.9 33.3 24.5 23.3 23.3 23.3 23.3 31.5 38 39.7 42 40.4 36.4 31.9 28 28 29.8 36.8 42 45.8 47.7 49.9 43.5 42.4 43.6 40.5 40.2 41.4 40.8 41.5 43.3 35.3 27.3 27.3 27.3 27.3 27.3 27.3 27.3 27.3 39.9 45.8 50.9 56.2 56.7 53.8 54.7 58.2 63.4 69.9 71.8 70.3 72.7 69.5 65.5 60.4 61.6 62.1 65.3 71.8 70.1 69 67.9 68 66.6 65.4 64 64.8 62.6 57.5 56 55.6 55.3 55.3 54.5 54.8 52.9 52.2 50.5 50.1 47.8 41.8 28.3 28.3 29 28.3 28.3 28.3 42.4 45 45.8 47.5 48.8 49.5 47.5 45.2 41.2 38.3 34.6 38.1 35 33 33 36.4 39.8 42.3 43.2 41 37.6 42.5 43.4 45.9 48 50.8 51 50.5 50.7 50.3 50 50.4 50.5 51.5 51.7 51.9 51.1 49.8 49.7 50.2 52.2 54.5 58.2 57.7 57.2 56 54.4 52.3 50.7 47.4 43.3 42 41.1 42.3 45.1 48.5 45.5 43.7 41.5 37.2 37 37.2 37
42.2 38.5 33.8 27.4 24.5 24.5 24.5 26.5 24.5 24.5 36.9 39.8 40.7 40.4 37.3 34.5 32.2 40.5 47 46.9 43.8 49.7 50 47.6 47 45.6 46.9 49.2 49.4 48.3 50.8 49.3 47.3 44.8 41.5 42.6 45.1 48.4 44.7 41.4 38 38 38 38 48.4 44.9 47.7 50.6 47.1 45.6 38 30.8 27.2 23.3 23.3 24.5 31.6 39.7 45.1 44.8 36.7 34.6 29.9 28 28 32.6 36.4 41.6 51.9 47.9 45.5 45 44.9 47 42.3 38 33.8 38.1 39.7 40.4 33.9 27.3 27.3 27.3 27.3 27.3 27.3 27.3 35.3 40.4 50.9 62.1 64.5 60.1 55.8 55.6 58.6 64.5 65.1 63.3 59.8 61.8 59 59 59 59 63.7 68 71.2 72.4 68.5 67.1 66.9 66.5 66.3 66.1 64.9 62.4 59.1 57.2 57.2 56.8 54.5 56 59.4 54.9 53.3 52.6 54 49.8 41.3 28.3 28.6 28.3 28.3 28.3 28.3 39.4 46.4 47.3 48.6 50.4 50.1 49.1 45.1 40.6 38.5 35.4 33 33 33 36.1 37.4 37.2 43.8 41.7 33 43 45.6 43.7 44.9 47.9 53.4 53.9 52.6 51.9 51.4 50.9 50.8 50.7 51.5 51.3 50.1 48.1 47.7 47.8 48.9 50.9 53.9 57.5 58.2 57.4 55.9 53.9 48.5 45.1 43.4 42.9 41.7 40.5 42.3 42.7 43 43.5 42.1 40.4 37 37 37 37
45.6 41.1 36.2 32.1 27.8 28.4 25 24.5 24.5 24.5 35.7 41.6 42.1 42.1 38.9 34.1 30.5 36.4 39.7 37.8 40.1 43.8 47.8 46.1 44.4 42.8 41.7 45.3 45.4 45.9 48.9 49.5 44.6 43.3 41.2 41.4 43.7 46.5 43.4 39.7 41.8 38.9 38 38 45.8 47.5 54.7 56.8 54.3 48 44.2 36.1 30.4 28.8 23.3 24.7 32.7 44.8 45.2 43.5 33.9 29.9 28 33.6 28 30 35.8 46 48.3 47.2 47.3 50.5 47.4 44.2 43.9 38.4 33.4 33.4 37.7 38.6 33.6 27.3 27.3 27.3 27.3 27.3 27.3 27.3 31.8 48.4 57 66.2 68.4 62.3 58.7 57.3 59.5 63.8 59 59 59 59 59 59 61.7 65.4 66 71.2 75.1 69.4 67.7 66.8 66.2 67.6 68.2 66.2 64.6 62.4 61.2 59 56.7 55.4 55.5 62.5 60.3 56.3 54.3 53.8 54.7 49.7 40.6 28.3 32.3 28.3 28.3 28.3 28.3 34.9 45.6 49.2 55.4 52.9 51.6 49.5 46 42.7 39.7 34.8 33 33 33 33 33 33 37 35 33 37.6 43.1 43.5 48.8 49.5 51.6 52.8 52.5 52.4 51 50.2 49.8 49.7 51.2 48.8 47 46.8 46.7 47.5 48.9 51.6 54.3 57.7 57.7 54.2 51.1 46.6 42.8 41.1 42 42.3 39.9 41 41.6 41.6 41.6 41.6 42.2 41.8 40 37 37 37
52.8 42.5 37.9 34.5 30.9 29.7 28.4 24.5 24.5 24.5 30.8 44.4 43 43.8 36.1 34.5 29.7 30 30.9 32.8 39.2 42.8 45.8 46 43.8 41.2 41 44.3 44.5 45 47.7 45.7 44.4 42.5 42.1 41.6 39.5 45.2 43.2 41.3 42.2 43.3 38 46.8 49.6 53.6 59.8 61.2 55.7 52.7 49.6 42.1 35.4 32.1 27.8 23.3 37.4 41.4 39.5 37 31.5 28.1 28 34.6 28 28 35.6 44 46.6 50.2 51.2 49.8 47.4 43.4 40.6 38.4 33.4 33.4 38.9 34.2 32.9 31.4 27.3 27.3 27.3 27.3 27.3 29.1 32.5 51.1 65.3 71.1 70.9 63.6 62.5 62.8 62.5 62.6 59 59 59 60.6 64 66.4 69.9 67.7 67.1 69.7 69 67.7 67 65.9 64.9 68.8 69 66.1 63.2 64.1 62.1 60.7 56.9 55.8 58.5 63.1 61.9 58.1 54.6 53.5 53.3 49.1 37.6 28.3 30.6 28.3 28.3 28.3 28.3 35.8 43.5 51.2 56.4 57.2 54.5 51.4 48.4 43.8 38.3 33 33 33 33 33 33 33 33 34.1 33 33 41.3 46.6 49.8 50.7 51.8 52.5 52.4 51.2 48.9 47.6 47.2 47.1 47.2 45.8 45.3 45.3 45.9 46.7 49.8 50.7 54.1 58.4 53.9 49.3 44.1 40.2 36.7 36.7 36.7 36.7 40.4 42 42.2 42 41.7 41.8 42.3 42 41.1 38.3 37 37
57.7 45.6 41.1 37 34.2 32.4 30.2 24.5 24.5 24.5 28.8 45.5 42.3 39.5 35.2 33.8 29.9 29.6 29.3 30.4 33.1 41.1 45.9 47.5 43.1 40.9 40.2 43.2 43.8 44 45.7 44.6 44.2 43.3 43.9 40.3 39.5 44.6 44.7 42.2 44.3 46.5 41.2 50.8 54.7 56.1 59.8 64.2 57.1 59.9 56.7 46.1 40.8 35.3 32.3 23.3 35.4 37.4 36.2 32 29.6 28 28 33.7 28 28 32.4 40.9 46.9 51.5 51.4 51.7 47.6 41.8 38.4 36.6 33.4 33.4 33.4 37.2 34.4 32.4 27.6 27.3 27.3 27.3 27.3 34.5 43.6 57.8 68.9 71.7 67.5 63.9 64.2 65.1 62.8 60.7 59 59 65.3 65.8 66.1 71.3 68.3 67 67.7 68.4 67.6 66.5 64.6 63.9 62.3 61.7 68.4 65.7 61.5 60.6 61.8 60.6 55.7 55.2 60.3 61.3 60.3 56.1 54.9 52.4 50.6 45.1 33.8 28.3 28.3 28.3 28.3 28.3 31.6 38.1 48 59.8 63.3 61.1 58 54.8 50.6 44.7 36.6 33 33 33 34 33 33 33 33 33 36.7 42.1 44.2 46.8 51.2 52.4 53.1 52.7 51.3 48.9 47.4 46 45.4 45 44.8 44.2 43 43.2 43.6 45 47.5 46.1 46.7 52 45.8 42.5 41.6 39 36.7 36.7 36.7 40.3 41.9 43.1 43.5 43.4 42.9 42.7 42 41.6 37 37 37 38.9
56.9 48.8 42.7 38.6 36.1 33.9 26.2 24.5 24.5 24.5 24.5 42 41.1 36.7 34.4 33.5 30.6 28.9 28.4 29.8 31.5 43.7 46.7 45.4 42.6 40.6 39.1 40.8 42.3 43.1 43.7 43.4 43.5 44.2 45.9 42.8 39.5 43.9 46 42.6 48.5 47.2 46.4 51.5 56.7 57.2 58.8 60.5 57.9 61.5 56.6 48.5 44.1 38.7 35.4 27.4 34 35.1 32.6 30.4 28 28 28.4 34.9 29 28 34.5 39.6 45.8 48.7 52.2 50.6 46.5 44.1 38.1 33.4 35.8 33.4 36.6 37.8 35.7 33.5 31.5 27.3 27.3 31.1 36.2 38 49.9 60.9 66.4 65.2 63.4 65.2 64.8 62.9 59 60.3 59 60.5 65 64.7 67.5 67.5 67 66.1 67.4 66.6 64.2 60.4 56.5 59.9 60.6 56.5 63.2 63.2 60.3 57.7 58.6 57.4 55.4 55.8 56.2 57.8 55.5 52.5 52.3 47.8 42.6 34.7 32.2 28.8 28.3 28.3 28.3 28.3 33.2 45.2 55.5 66.9 67.2 65 62.5 58.1 52.2 45.7 36.7 33 35.2 33 33 33 33 33 33 39.7 40 42.7 44.4 46.7 51.8 53.8 53.8 52.3 49.7 47.9 46.7 45 43.9 43.6 43.9 43.3 42.2 41.6 41.4 41.4 41.9 41.4 42.5 42 41.2 41.4 42.1 40.4 36.7 36.7 36.7 42.1 43.2 43.9 44.2 44.4 44 43.7 43.5 44.8 43 42.3 41.9 41.6
64.1 54.3 47.9 42.4 37.2 33.3 28.7 24.5 24.5 24.5 24.5 36.9 39.5 35.2 33.7 32.7 31.9 30.2 27.7 27.8 30.7 41.6 41.8 43.1 42.9 40.7 37.9 35.4 39.9 42.9 39.7 43.2 44.4 44.7 45.4 45.3 39.5 43.6 44 43.5 44.4 50.2 50.3 59.5 58 58.6 60.5 59 61.9 67.2 59 52.6 50 44 35.5 27.6 34.2 34.7 32 29.3 28 28 33.1 35 30.8 29.2 33.7 41.2 44.5 46.6 51 46.1 45.3 44 42.1 33.9 37.8 39 37.9 38.6 37.1 34.5 33.9 34.3 30.7 33.7 39.2 46.3 53.7 57.8 66.1 62 59 64.4 59 59 66.4 64.3 62.4 64.1 62.8 62.2 61.1 61.6 62 63.3 65.1 63.5 59.5 56.5 56.5 56.5 59.9 56.5 56.5 59.4 60.4 56.9 61.7 58.9 56.4 54.2 50.6 52.6 51.1 45.9 44.7 42.8 40.5 35 35.5 30.3 28.3 28.3 29.5 33 36.6 50.8 58.3 68.9 70.6 69.8 63.6 58.1 54.2 46.5 39.9 35.1 35.8 34.5 33 33 33 33 33 37.9 40.3 42.9 45 47.3 52.1 55.6 52.2 50.8 49 47.2 45.9 44 42.9 42.2 42.5 42.6 42 41.2 40 39.6 38.4 36.7 39.6 41.2 39.5 36.7 42.6 37.9 36.7 36.7 36.7 36.7 43.1 44.2 45.1 45.1 46.7 48.7 47 45.8 44.6 43.6 43 42.3
62.9 59.5 53.5 47.1 39 34.9 29.6 27.5 28.6 29.3 24.5 34.3 42.3 33.4 33.1 33.3 33.5 30.7 27.2 28.8 28.7 30.6 34.6 42.4 43.9 40.8 35.9 31.7 37.1 37.9 37.6 42.5 43.6 45.4 48 48.6 39.5 44.8 44.1 43.6 45.8 55.2 52.1 62.7 60.3 57.8 59.3 59.6 60.8 68.9 60.3 57.4 56.3 50 39.1 27.7 32.7 32.5 32.6 29.2 28 30.6 35.2 35.2 31.8 30 28.7 42.7 44.1 45.1 47.4 45.5 47 48.8 43.1 38.1 40.2 41.1 39.9 39.8 39.1 36.2 33.1 31.8 33.7 34.4 36.5 47.4 52.8 57.5 59.2 60.8 59 59 59 65.9 62.8 61.3 60.8 60.5 60 59.2 57.1 56.6 57.5 60.9 66.8 61.8 56.5 56.5 56.5 57.4 61.8 57.1 56.5 56.5 56.5 62.3 63.5 58.8 56.6 55.1 50.9 53.1 50.4 47.3 42.5 43.5 42.6 38.4 33.5 33.6 28.3 28.3 35.5 35.9 37.9 52.7 61.1 68.1 76.6 70 61.4 58.5 53.9 50.9 47 43.3 39.7 37 33 33 33 33 34.6 38.9 40.7 42.9 46.2 47.8 49.4 51.5 52.2 50.8 49 47.1 45.4 45.2 44.2 42.5 41.3 41.9 41.4 40.4 39.3 36.7 36.7 36.7 37 40.6 40.1 36.7 36.7 36.7 36.7 36.7 36.7 36.7 45.4 45.6 47 51.6 49.8 51.1 47.7 46.6 45.5 44.5 44.3 43.7
65.6 65.3 56.3 50.8 40.3 35.4 30 29.6 29 28.1 24.5 29.3 32.1 32.1 32.7 40.6 34.7 29.8 27.2 30.5 29.7 28.2 30.8 41.2 43.5 36.1 31.4 29.7 29.8 34.9 36.2 40.1 45.5 46.7 49.8 50.3 39.5 43.8 44.8 44.8 48.3 54.6 52.3 60.4 59.3 57 57.6 56.7 60.3 63.1 64.3 61.6 59.7 56.5 39.8 29.3 28.2 31.8 31.5 31.6 31.1 32.6 37.6 37.1 33 28.3 28 38.9 43.5 44.3 45.3 45.6 48.8 46.5 43.4 42.3 43.1 41.9 40.9 40.5 39.6 34.8 33.7 36.2 35.2 33.9 39.8 49.7 55.6 55.8 60.4 64.9 65.4 62.6 63.8 65.8 62.8 61 60.6 60 59.2 57.3 56.2 56.3 57.2 60.2 67 60.5 56.5 56.5 56.5 58.7 61.3 56.5 56.5 56.5 56.5 56.5 59.8 58.9 57.9 56 52.3 48.1 47.1 47 46.7 47.7 45.1 38.5 34 35.1 36 28.3 34.6 36.7 47.1 56.3 63.8 67.5 72.3 66.5 63.8 64.5 61.1 55.1 49.7 46.2 44.1 39.2 33 33 33 33 33 38.7 40.9 44.9 46.5 47.8 48.3 52.5 52.4 51.2 49.2 47.4 48 46.5 44.9 42.6 40.6 40.3 41.2 36.7 36.7 36.7 36.7 36.7 36.7 36.7 36.7 36.7 36.7 36.7 36.7 36.7 37.9 40.1 44.2 46.6 50.9 53.5 50.3 49.7 46.9 46.7 46.2 45.9 45.5 45
70.3 64.9 57.5 49.8 42.7 35.3 30.7 29.8 29.4 27.9 24.5 24.5 28.8 31.4 40.9 39.6 33 26.5 27.9 30.1 30.5 30.8 29.2 34.2 36.6 30.9 29.7 29.7 33 35.1 35.8 38.9 44 49.9 53.8 49.9 41.8 39.9 44.9 46.8 48.4 53.5 53.4 58.1 58.2 57.5 58.3 55.4 60.2 65.5 70.4 63.4 57.1 50.2 38.9 30.3 28.7 31.3 32.2 32.3 32.5 33.3 40.8 38.9 35.2 30.9 28 30.4 42.3 43 44.8 48.7 49.1 47.6 43.9 44.8 45.1 50.2 42.1 40.5 37.9 38.5 37.8 40.3 38.8 38.1 42.7 47.1 50.2 55.3 65.3 67.3 68.4 66.3 66.2 68.1 63.7 60.9 60.7 59.3 57.2 55.4 55.7 56 57.6 60.6 63.1 61.5 56.5 56.5 56.5 56.5 56.5 59.8 56.5 60.3 60.7 59.9 60.3 59.7 59.6 58 55.4 53.5 52.7 52.3 50.3 47.1 44.6 38.3 36 41.1 40 35.6 31.7 38.1 48.7 61.5 72.2 67.8 70.3 69.6 72.1 70.5 64 54.1 54.8 52.7 47.2 40.4 35.6 33 33 33 35.8 38 40.2 42.4 45.8 47.9 49.2 52 52.5 50.7 49 49.6 51.9 47.3 42.9 39.7 36.7 36.7 36.7 36.7 36.7 36.7 36.7 36.7 36.7 36.7 36.7 37.7 37.2 36.8 38 43.4 42.9 43.4 44.3 47.8 52.1 52.9 48.7 47 45.5 45.6 47.4 47.7 46.8 45.5
74.1 63.8 58.9 47.5 40 33.5 30.6 30.8 32.3 29.3 24.5 24.5 24.5 24.5 40.5 32.8 27.9 24.5 28.6 29.9 31.6 31.9 29 29.8 30.6 29.7 29.7 29.7 33.2 35 36.4 39.6 42.4 46.6 51.9 46.3 43.2 41.2 46 51.2 49.4 52.6 58.2 54 57.1 58.6 55.4 55.4 63.9 70.5 72.2 60.8 55.3 47.5 41.4 31.9 31.2 30.8 32.1 32.7 33.2 35.3 38.9 37.7 36.2 33.5 28 28 33.9 43.6 46 50.6 50.1 46.9 45.7 50.9 47.5 49.4 44.9 40.1 39.4 39.8 39.3 39.6 37.7 39.7 48.9 50.8 55.7 63.6 65.5 67.3 71.3 68.4 64.9 66.3 64.1 61.2 60.1 57.7 55.6 55.3 55.4 55.5 56.4 58.8 63.9 61.5 59.2 63.2 56.5 58.6 63.2 62.8 56.5 60.5 65.3 62.7 62.5 61.5 60.4 57.7 56.2 60.8 61.6 57.2 53.5 49.8 43.9 39.4 42.3 45.1 43.9 38.6 35.1 39.4 51.7 63.5 67.4 69.6 77.5 78.4 77.8 72.6 63.5 56.4 61.1 54.1 46.2 41 37.7 33 33 37.2 36.8 38.2 39.6 42.2 47.8 48.9 50.6 51.9 51.4 50.3 50.1 50.6 49.2 45.7 41.4 36.7 36.7 36.7 36.7 36.7 36.7 36.7 36.7 36.7 40.6 41.6 41.4 40.4 38.2 41 41.3 43.4 43.1 43.5 44.1 46.6 52.3 52.1 47.1 45.2 44.5 44.8 47.7 49.1 45.8 43.4
71.9 62.2 59.4 49.6 38.1 32.4 32.2 33.2 32.1 29.5 24.5 24.5 24.5 24.5 31 30.5 24.5 24.5 29.5 31.4 31.6 32.9 30.9 29.2 31.2 31 30.5 29.7 30.1 35.8 37.6 39.6 42.4 45.2 45.6 44.8 45.1 40.4 43.3 49.7 50.2 54.8 56.6 54.4 54 55.4 55.4 59.3 64 72.8 67.3 61.8 59.6 47.2 41.3 32.3 29.5 30.7 32.5 32.7 33.1 35.9 39.8 36.9 35.5 33.9 30 28 28 42 47.3 47.2 48.8 48.5 51.5 49.8 49.2 51.1 48 41.2 41.9 40.9 38.3 38.3 38.8 51.4 54.2 53.7 58.6 64.9 65.6 65.6 67.4 66.7 65.3 64.9 64.5 61 59.8 56.6 54.9 55.8 55 53.9 52.4 61.1 64 62.9 61.8 62 65.8 66.9 67.3 64.3 58.9 64.5 67.2 66.3 65.5 64.7 61.4 61 65.2 69.7 66.6 60 55.7 51.1 45.3 42 46.3 47.7 46.3 40 37.4 40.4 53.6 68.8 73.4 71.5 74.7 81.2 80 73.1 66.4 59.2 61.4 53.4 45.4 40.4 37.2 33 33.4 38.3 37.7 38.9 39.9 43.5 47.7 51.9 52.2 52.3 52 50.2 51 50.5 48.8 46.9 43.9 40.1 36.7 36.7 36.7 36.7 41.5 41.7 42.3 45.6 45.3 43.3 42.4 40.9 37 37.3 37.5 42.3 41.2 41.5 41.8 46.2 46.7 46.5 45.4 43.6 42.5 44.4 45.5 45.3 42.6 41.5
66.4 61.9 55.1 45.7 37.5 34.9 35.1 35.1 35.1 31.2 24.5 24.5 24.5 24.5 24.5 24.5 27.8 26.3 32.2 35.4 34.8 34.8 32.4 30 32.3 31.9 29.9 31.4 31.8 37.3 38.4 40.4 41.9 43.7 41.1 42.1 45.6 41 43.7 55.2 53.1 53.7 54.6 54.3 54 55.4 57.5 60.5 66.3 69.8 69.4 64 54.8 45.4 41.6 35.4 29 32.9 33.4 32.4 32.4 38.7 40.2 37.5 35.4 34.2 31.5 28 28 36.9 45.3 44.5 45.9 50.3 53.1 49.7 49.1 48 43.8 40.2 40.9 41.7 38.2 39 44.4 56.1 54.7 60.9 60 62.8 65.6 66.1 67.3 65.5 64.1 62.1 61 61.1 59 56.1 54.2 56.4 56.1 52.4 52.4 56.2 64.4 64.2 65.4 65.4 68.3 71 68.9 63.5 62.5 68.5 68.7 67.1 68.3 69.4 63.8 62.1 72.2 71.2 69 62.2 55.6 51.7 48.7 46.2 52.7 49.9 49.5 43.2 38 41.7 64 74.3 73.8 73.5 81.3 78.2 76.6 73.9 71.6 62 58.4 53 45.5 41 38.3 37.7 39.1 40.1 38.4 38 40.7 43.5 48.4 51.6 52.8 53.3 54.1 53.3 53 54.3 56.4 54.3 51.6 48.7 43.9 38.9 38.2 38.6 41.9 44.1 44.1 45.1 44.6 43.2 42.3 41.5 40.5 37 37 37 37 37 37 45.6 45.2 46 43.4 41.4 37 40.8 37 37 39.2 39.4
65.8 62.9 53.7 44 38.2 38.4 38 36.9 33.1 27.8 24.5 24.5 24.5 24.5 24.5 24.5 24.5 29.6 34.5 35.3 37.3 38 36.1 30.3 32.9 32 29.7 29.7 32.5 36.3 38.4 39.2 35.4 35.4 35.4 38.9 41.3 41.8 44.8 57.4 57.3 56.4 56 54.7 54.9 60.5 60.8 64 65.8 66.5 67.4 61.9 52.6 44.4 42.5 36.5 29.1 33.5 32.7 31.5 30.7 35.8 41 37.8 35.6 33.9 32.1 28 28 28 40.3 43.2 49.5 53.3 51.8 49.7 48.2 45.3 44.6 50.7 45.4 41.1 38.2 41 50.4 54.9 54.4 61.5 61.3 62.5 67 69.9 67.6 65.8 63.8 60.5 59.3 59.1 56.5 55.1 54.4 56.6 55.1 52.4 52.4 58.6 62.9 63.7 67.3 71.4 72.3 75.5 73.8 65.9 61.2 60.7 66.2 66.8 66.7 66.5 61.2 67.2 69.9 70 67.1 60.2 56.3 53 49.3 49.6 51.3 52.3 51 42.9 38.9 47 66.6 74.6 73.8 75.2 76.9 75.8 74.3 71.9 68.5 64.3 58.1 52.2 47.2 43.2 42.1 40.5 43.9 39.8 38.8 40.1 40.9 45.2 49.1 54.1 56 56 56.7 60.6 63.4 65.7 63.9 61.2 58.1 53.3 48.5 44.2 43.3 43.9 44.2 44.9 45.9 45.6 45.9 44.8 42.7 41.9 41.1 37 37 37 37 37 37 44.4 43.3 44.4 42.7 40.4 37 37 37 37 37 37
61.2 56.3 51.8 46 39.7 40 40.1 39.1 34.4 30 24.5 24.5 24.5 24.5 24.5 29.2 28.4 30 35.5 39.7 41.8 42.4 35.5 29.7 34.3 32.6 31.2 30.9 31.6 36.1 38.1 37.2 39.6 35.4 35.7 40.7 45.9 43.8 46.7 57.7 60.8 57.7 55.1 56.9 61.5 60.9 60.2 62.5 65.5 65.7 63.7 60.2 54.7 43.1 43.6 36.9 29.8 31.8 32.1 30.7 28 28.3 38.9 40.1 33.9 31.8 30.5 28 28 28 36.1 41.9 52.2 52.2 50.2 48.8 47.7 48 53.2 55.8 47.6 43.1 41.1 44.7 50.1 51.3 55.8 60.8 61.4 61.9 66.2 68.2 67.3 66.6 63.2 60.4 57.1 56.1 55.5 54.6 55.7 56 52.7 52.4 52.4 64.5 62.8 64 71.8 74.9 74.8 76.5 73.6 67.4 62.4 61.7 70.6 69 64.6 63.3 64.5 67.8 68.8 68.2 66.3 60.7 57 53.2 50.1 50 54.5 56.5 52.2 43.2 40.7 51.1 62.3 72.1 77.7 74.8 75.9 76.3 71.9 73.4 64.3 63.3 56.9 50.7 48.2 47.7 42.9 40.5 40.3 40.8 42.4 44.4 44.4 46.8 52.8 57.3 60 66 63.9 64.4 69.3 72.6 68.4 64.7 61.6 58.1 54.4 49.1 47.3 46.5 45.5 45.2 45.8 47 48.2 47.2 45.1 42.4 41.1 40.5 37 37 37 37 37 40 37.8 41.9 42.6 40.7 37 37 37 37 37 37
63.5 58.6 51.7 45.3 39.9 40.4 43.1 44 40.6 34.3 25.6 24.5 24.5 24.5 29.4 33.7 30.5 35.3 43.3 42.6 44.2 42.4 35.8 33.2 33 33.1 33.8 32.9 32.6 39.9 39.7 43 40.7 35.4 38.6 41.1 44 45.3 49.2 57.2 59.4 55.6 55.1 56.2 61.1 61.4 60.2 63.5 65 65.8 61.4 54.5 47.1 41.5 39.3 33.9 28 31.5 28 28 28 28 28 32.4 28.7 28 28 28 28 28 32 39.9 45.4 46.8 48.7 50.4 50.8 51.1 55.6 57 49 45.7 42.3 45.8 49.6 51.1 59.6 63.7 59.9 59.9 61.6 66.7 65.6 62.4 59.6 58 54.9 54.5 55.7 55.1 57 56.4 52.4 52.4 52.4 59.8 61.8 70.7 74.7 76.5 75.8 74.8 72.1 69.9 62.8 61 71.1 70 64.3 63.4 65.1 70.2 71.9 66.8 64.7 63.4 58.3 54 51.5 51.2 55.1 61 55.3 46.2 41 47.4 64.1 76.9 75.1 71.5 70.6 68.7 65.5 62.5 58.6 54.5 53.1 47.8 46 45.7 42.1 41.3 48.3 47.4 48.3 48.5 47.2 48.1 54.8 65.5 72.2 75.9 73.4 68.5 72 73.3 72.4 68.9 65.3 63.2 58.1 52.3 49.1 46.5 46.1 45.7 46.8 48.2 48.6 48.3 46.5 44.1 42.9 42.1 37.5 37 37 37 37 37 38.9 41.9 42.2 40.1 37 37 37 37 37 37.1
58.4 56.6 50.1 44.2 39.9 41.4 45.8 48.5 46.8 37.3 29.3 24.5 24.5 26.6 32 34.9 31.9 36.2 34.7 35.4 40.1 39.2 37.7 36.4 31.1 32.7 33.7 33.4 33.9 37.3 42.2 42.8 41.9 39.3 38.1 40.5 44.1 46.8 55.7 60.2 55.8 54.9 54.1 63.3 62.2 62.9 60.2 61.1 63.1 62.9 60.4 54 45.5 40 33.4 28 28 30.5 28 28 28 28 28 28 28 28 28 28 28 28 28 32 43.3 50.3 51.4 52.8 51.2 52.3 54.2 58.1 49 44 42.2 48.9 48.1 51.9 53.4 54.2 53.2 53.6 55.5 63.4 56.9 56.1 54.7 52.4 52.9 53.3 53.6 56.5 59.2 56.3 52.4 52.4 52.4 52.4 64.8 71.8 77.8 76 74.5 75.3 70.3 68.2 63 61.1 63.6 63.1 60.3 62.2 61.4 61.9 65.1 63.8 64 61.3 58.5 54.8 53.4 53.6 59.8 65.7 58.1 52 44.3 46.5 58.9 68 64.4 71.9 68.9 68 62.3 57.8 54.3 52.5 50.4 47.6 47.4 47 47.5 49.9 53.1 54.3 52.3 50.4 52 51 53.8 65.5 79.6 82.4 77.6 72.5 76.8 77.2 75.7 73 68.1 65.4 60.5 54.7 50.2 46.7 46 45.8 48.6 49.9 49.1 48.9 48.1 45.7 43.4 42.2 38.8 37 37 37 37 37 37 41.3 39.6 37 37 37 37 37 40.7 39.6
58.1 55.6 47.8 41.8 40.1 43.2 50.7 52.1 49.5 40.4 32 24.8 24.5 26 33.4 33.6 31.3 32.5 32.9 33.1 34.1 37.6 40 37 32.1 31.8 33.2 33.5 33.9 37.4 42.3 43.7 43.4 42.6 41.9 43.4 44.8 47.1 54.8 54.9 52.1 53.1 55 57.6 62.2 60.6 59.4 59.5 61.7 59.1 55.6 49.5 40.4 34.4 28 28 28 28 28 28 28 28 28 28 28 28 28 31.1 28 28 28 28 44.2 50.1 52 54.6 53.1 53.2 56.4 57.2 49.3 44.6 42.2 42.5 47.2 51.6 53.1 52.1 51.5 51.1 48 52.5 51.4 48 48 50.2 52.1 55.7 55.7 56.2 59.3 56.8 52.4 52.4 52.4 52.4 71.2 76.2 78.2 77.6 76.4 71.1 69 67.6 66.2 60.9 59.5 58.6 61 63.3 59.1 59.1 59 63.1 60.3 59.9 60 56.8 54.7 54.8 57.9 63.1 58.4 51.5 46.7 46.1 52.8 56.3 59.6 63.6 63.3 62 61.2 60.8 60.6 56.4 55.8 53.1 51.9 50.5 50.9 55 56.6 55.4 53.2 54.3 55 53 54.4 64 80.7 82.4 80.2 78.5 76.9 81.8 79.6 77.3 72.6 66.4 63.6 57.3 52.5 48.4 45.8 45.8 50.7 52.2 51 49.9 49 47.4 44 41.8 40.9 38.7 37.5 37.8 37 37 37 37 37 37 37 37 37 37 37 37
54.5 51.2 45 41.1 41.5 45.5 53.5 57.2 53 42.3 35.8 31.1 24.5 24.5 32.4 30 29.9 30.4 32 32.9 38.8 42.8 44.3 40 32.6 31.9 35.3 37.7 35.4 37.2 41.1 44.2 44.2 45.4 44.5 43.8 45 47.3 51.6 50.9 50.4 50.7 54.9 56.9 59 59.3 56.8 57.1 55.4 54.5 54.2 45.1 38.3 32 28 28 28 28 28 28 28 28 28 28 28 28 29 30.7 29.1 28 28 31.5 42.5 53.3 52.3 53 53.4 53.5 54.5 54.9 49.5 44.4 42.7 44 51.6 51.7 51.6 51.1 48 48 48 48 48 48 51.3 52.3 55.1 57.6 57.2 57.5 58.2 56.7 52.4 52.4 52.4 68.3 79.7 84.9 87.8 82.3 73 69 68.2 68 64.7 60.6 59.4 58.6 61.6 61 59 54.5 52.2 52.2 58.1 59 62.4 59.4 58.2 56.2 57.7 60.5 59.5 55.7 49.8 47.2 47.8 49.8 55.7 59.7 63.5 62.7 63.4 63.5 59.3 58.2 64.3 59.8 56.2 56 58.6 60.1 58.6 55.8 54.4 56.9 56 54.3 54.4 65.4 74.3 84.3 82.1 81.5 83 81.6 82 79.2 75.6 69.4 64.7 58.9 52.7 50.5 45.8 45.8 51.4 52.1 52.4 50.2 49.2 49 45.6 44 45.2 43.5 43 41.3 39.6 37 37 37 37 37 37 37 37 37 37 37
51.1 47.7 43.7 41.6 43.5 49.5 54.9 59.8 52 44 38.3 35 24.5 24.5 24.5 25.2 26.8 30.3 30.3 33.2 47.3 49.6 48.8 40.3 34 33.4 34.9 37.3 37.4 38.5 45 45 47.1 47.8 44.2 41.9 42.6 47.5 48.5 50.3 49.1 50.4 53.7 55.4 56.6 58.4 55.8 54.7 53.2 50.9 47.3 39.9 28 28 28 28 28 28 28 28 30.3 30.6 35 33.5 31.6 28 28 30.2 32.1 28 28 32.9 41.3 51.6 51.5 55 53.7 52.6 52.6 54.6 51 45 44.5 45.7 51.4 50.4 48.5 48 48 50.3 48 48 48 49 52.7 53.1 56.2 57.8 58 57.3 58.4 55.4 52.4 52.4 60.3 73.9 84.4 90.9 92.4 86.8 76.1 66.2 63 63.7 64.2 61.8 60.1 58.9 62.3 63 58.7 52.2 52.2 52.2 56.5 59.1 64.5 61.6 58 57.9 58 60 59.8 57.5 55.2 52 49.1 50.5 58.4 61 64 61.7 63.3 65.6 62.8 61.1 66.6 62 60.3 61.9 64.3 63.1 61.1 57.1 56.2 56.7 55.7 55.3 55.4 61.9 67.8 69.9 78.6 78 79.3 81.6 80.8 78.9 75.7 71.4 64.8 58.8 52.3 48.8 46.4 45.8 48.3 51 49.1 49 49.3 55.7 52.6 49.9 48 47.1 44.9 43.9 42.3 38.9 37 37 37 37 37 37 37 37 37 39.7
52.6 46.3 43.6 44.3 45.9 50 55.6 55.2 52.2 43.1 40.5 35.3 27 24.5 24.5 24.5 24.5 28.7 30.6 32.9 52.3 58.5 45.5 38.6 33.7 34.5 32.7 39.3 37.9 39.1 46.1 46 45.8 43.4 40.9 40.8 41.5 44.6 51.4 48.9 49.1 49.3 52.6 56.3 53.1 53.7 52.9 55.1 51.9 45.2 36.5 33.8 32.1 28 28 28.6 29.2 29.4 30.4 33.6 34.4 35.2 35.2 35.3 33.5 32 29.4 29.4 33.2 28 32.8 36.6 39.9 46 50.5 56.4 54.6 52.7 52.6 52.4 48.7 45.8 47.5 48.3 48.7 48.3 48.7 48 48 49.6 48 48.9 48 51 52.5 52.9 54.5 57.4 57.4 56.6 57.8 52.4 52.4 52.4 70 79.4 86.4 92.6 92.7 84.1 77.8 64.2 60.9 57.9 62.1 61.1 57.5 59.3 59.8 63.3 57.2 52.2 52.2 52.5 55.3 57.8 61 58.1 58.6 58.6 58.2 59.9 58.7 56.6 52.8 51.8 50.6 51.1 56.4 58.4 56.9 59.8 66.7 69.3 66.2 67.9 67.4 64.5 67.2 69.2 69.2 68 63.1 58.2 57.3 57.1 56.2 55.9 56.1 56.8 61.8 65.6 71.3 72.8 72.5 74 71.8 71 69.3 68.4 64.4 55.6 51.2 48.2 46.7 45.8 45.9 47.4 48.1 51 56.9 58 57.1 56.4 55.5 51.6 46.8 43.9 41.7 37 37 37 37 37 37 37 39 39.3 40.2 44
52.4 45.9 44.6 46.3 47.5 50.8 54.3 55.2 51.3 45.6 42.4 35.3 29.8 24.5 24.5 24.5 24.5 30.2 31.4 42.2 47.5 49.5 43.4 37.9 34.7 36.5 32.2 37.8 37.8 39 48.8 45.7 42.6 39.8 39.2 39.1 39.6 47.4 49.7 45.4 47.4 46.6 50.8 54.3 50.5 48.8 48.4 50.5 44.9 38.3 37.3 38.5 33.8 32 33.3 34.7 36.2 35 35.5 34.2 35.9 35.2 35.2 35.2 35.7 34.6 33 33.4 34.5 32 33.7 35.6 37.1 43.9 52.3 59.4 55.1 54.6 53.4 51.8 50.3 46.5 46 47.1 49.4 51.6 50.8 48 51.2 52.6 51.7 52.4 54 52.3 52.8 53.1 54.5 58.5 58 54.6 52.4 52.4 52.4 59.7 70.8 82.6 87.6 89.3 89.3 83.5 73.6 66.6 59 54 52.2 53.9 52.2 52.2 53.6 59.7 52.2 52.2 52.2 54.7 53.9 53.8 53.8 56.9 59.6 59.5 57.9 56.8 56 59.7 64.1 58.9 50.5 49.7 53.9 54.4 55.9 63.4 64.1 65 66.7 68.8 67.5 67.2 74.2 75 73.6 70.4 64.9 60.4 62.6 58.8 56.7 56 56 56.1 56.2 59.7 64.4 67.5 66.6 69.9 63.8 60 59.4 57.2 54.2 52.1 48.9 47.8 46.2 45.9 45.5 46.6 47.8 49.8 61 65.2 65.3 63.2 58.6 53.1 47 43.9 42.1 39.7 41 42.8 41.8 41.7 41.2 41 41.3 41.8 45.8 47.4
51.8 46 44.7 46.3 49.3 53.6 60.5 59.8 53.7 48.5 45.5 38.6 33.1 25.2 24.5 24.5 24.5 27.5 31.6 45.6 46.6 44.5 41.7 36.1 36.2 40.5 33.6 37.2 36.9 37.8 47.1 43.4 41.3 37.5 36.9 37.2 37.7 42.8 45.9 44.2 42 43.8 45.7 46.8 46.5 46.1 45.4 42.6 42.2 42.1 42 40.6 36.4 35.5 35.9 38 38.9 40.3 38 36.7 38 36.9 36.7 37.2 38.3 37.2 33.4 35.3 40.9 35.4 32 32.8 35.2 39.4 54 57.6 54.9 54.1 53.4 56.3 54.1 50.1 47.3 52 54.1 55.5 54.3 54.1 53.6 54.5 54.2 52.6 52.1 52.1 53.7 53.7 56.3 60.6 60 58.5 52.4 52.4 52.4 61 69.4 83.8 85.9 84.9 88.1 80 72.1 66.4 58.2 53.6 52.2 52.2 52.2 52.2 52.2 52.2 52.2 52.2 58.7 54.2 54.6 53.8 53.8 59.4 60.3 62.1 62.3 57.6 56.6 64.3 64.9 62.5 49.1 47.9 50.5 54.4 55.5 63.8 63.6 65.2 67.7 67.5 66 68.6 76.1 80.5 77.4 71.4 64.7 69.5 64.3 60.4 57.1 55.1 51.7 55.6 54.4 51.7 52.8 54 52.6 53.7 53.5 52.2 52.7 53.1 53.3 52.6 50.1 48.1 46.1 46.2 46.9 47.5 52.3 67.5 76.2 74.2 69.8 64.9 58.9 52.9 47.2 44.9 43.5 45.8 45.6 46.6 45.2 43.6 42.7 41.8 42.9 44 49.7 49.9
52.4 46.2 44.9 44.8 52.5 58.2 67.2 69.6 56.3 50.3 49.7 42.1 33.4 28.7 24.5 24.5 24.5 28 31.5 44.2 45.4 44.3 41.6 36.6 38.1 41.5 36.1 35.3 35.6 34.9 40.5 41.7 36 32.7 35.2 36 34 37.1 40.6 37.1 39 40.2 42.6 43.2 43.8 44.2 44.4 44.1 44.6 43.7 42.8 40.7 39.2 40.3 41.6 41.7 43.4 44.6 38.9 41.6 40.8 39 38.5 39 39.3 38.2 33.9 37.7 42.1 40.7 33.7 33.3 37.5 40.6 56.1 54.1 52.5 53.5 54.1 58.3 55.7 51.3 49.3 52 62.5 60.2 59.3 56 54.8 54.6 52.6 52 50.7 51.1 52.3 55 60.4 63 61.4 60.1 52.4 52.4 60.1 62.8 65.8 68.2 75.6 82.7 79.2 77.7 74.4 64.5 59.6 53.8 52.2 52.2 52.2 52.2 52.2 52.2 52.2 52.2 52.2 52.7 55.2 53.8 58.3 60.2 60.9 62.7 60.7 57.6 57.3 62.1 62.6 61.8 47.3 41.7 41.8 52.2 61 63.4 63.8 66.6 66.5 64.1 62.9 71.1 78.6 84 77.8 71.7 65.5 70 63.4 59.3 55.6 51 49.4 49.3 46.3 44.5 42.6 45.9 47.6 50.1 50.3 51.7 51.6 53 52.9 52.9 50.4 49.8 46.5 48.5 48.2 49.1 59.9 76.7 80.4 75.3 69.9 63.7 56.9 50.9 48.6 46.8 46.4 51.7 49.7 48.3 46.6 44.3 43.4 42.6 46.1 47.9 50 49
53 48 46.6 47 50.6 64.1 80.5 78.3 60.5 52.3 56.5 45.3 35.2 30.3 24.5 24.5 24.5 32.2 34.9 44.3 44.9 46 44.5 40.5 38.3 39.1 36.7 32.3 35.3 32.3 32.3 34.5 32.3 32.3 33.2 32.3 32.3 32.3 35.2 32.3 35.9 39.4 41.7 41.9 43.3 43.5 45.7 45.3 46.3 43.8 39.6 39.5 42.1 43.7 45.5 47.4 48.3 40.6 38 39.7 41.5 41.6 41.5 41.6 40.9 38.8 35.9 40.3 42.3 43.4 34.1 36.5 38 40 51.1 50.1 51.4 54.3 55.4 56.2 55.8 51.9 50 58.6 63.8 62.7 62.2 59.5 55.4 53 51.9 51.6 48 51.4 53.3 56.2 61 63.8 63.2 62.2 52.4 52.4 62.4 61.2 68.2 66 67.8 73.5 70.1 68 65.4 64.1 62.7 59.9 55.5 52.2 52.2 52.2 52.2 54.1 52.3 52.8 54.7 54.1 52.1 52.4 58.5 59.2 59.1 61.5 60.2 58.1 57.2 59.5 62.3 56.7 47.1 41.7 41.7 48 59.4 61.8 62.5 64 63.9 61.5 62.1 66.2 73.3 80.6 74.9 71.1 65 63.8 60.1 55.1 52.6 49.6 45.2 44.1 43.1 42.6 42.6 44.6 47.5 49.9 50.6 50.1 50.1 51.5 52.4 52.8 52.7 50.3 45.7 47.7 50.4 50.5 59.9 72.8 80.7 73.2 67 59.8 52.8 49.6 48 47.2 52.4 52.8 50.4 48.9 46.6 44.7 43.9 43.5 44.8 48 47.2 48
53.7 51.2 50.6 49.2 52.5 60.3 82.4 78.5 63 53.5 60.1 44.1 35.2 30.3 24.5 24.5 24.5 33.4 37.2 42.8 46.1 46.5 40.3 36.3 36.2 37.2 36.1 32.3 32.3 32.3 32.3 32.3 32.3 32.3 32.3 32.3 32.3 32.3 32.3 32.3 36.1 37.9 38.8 39.6 41.8 43.7 44.3 45.3 47.1 39.6 39.8 43.3 45.5 49.3 48.7 52.1 48.3 38.8 38 40 44.4 43.5 43.9 46.5 44 40.9 38.1 41.5 43.5 43.7 34.6 36 37.6 38.9 43.3 48.3 51.2 55.9 56.7 58.8 58.1 53.4 51.5 63.4 64.6 63.4 64.2 58.8 53.5 53.8 48.5 49.2 50.9 52.8 55.8 61.7 63.7 64 64.9 64.9 54.2 55 58.7 61.8 66.2 66 66 69.7 68.7 66.9 64.8 64 63.3 62.8 58.7 56.2 52.2 52.2 52.2 52.2 56.1 57.1 56.4 55.2 53.3 49.9 56.3 58.5 57.9 57.4 57.4 58 56.2 55.1 53.9 49.5 44.2 41.7 41.7 46.1 59.7 59.6 60.6 63 65.4 59.3 63.5 62.4 63 69.7 69.2 61.4 61.5 59.7 56.4 50.7 48.8 49 45.8 45.3 43.1 45.7 45.2 46.2 46.2 46.5 46.4 47.5 48.6 50 52.5 55.2 53.4 50.5 46.8 45.3 46.3 52.5 57 71 77.9 68.6 61.2 55.7 50.7 47.4 47 47.2 48.3 52 49.9 48.1 46.3 44.7 43.7 43.3 43.2 44.5 45.1 46.8
55.4 54.2 52.6 51.6 52.8 59.1 70.6 70.7 64 54 52.8 41.6 37.2 31.7 26.6 24.5 24.5 32.6 37 49.2 47.1 42.7 37.2 36.1 35.6 37.6 36.6 32.3 32.3 32.3 32.3 32.3 32.3 32.3 32.3 32.3 32.3 32.3 32.3 32.3 32.3 32.4 32.7 39 43.3 44.2 43.7 41.8 38.4 40.6 43.6 45.1 52.2 53.7 49.2 48.1 38.5 38 38 38 43.5 46.9 48.9 53.3 46.6 40.6 39.8 42.5 43.4 41.8 36.1 38 39 39.6 40.9 45.1 53.9 57.6 59 58.4 58.2 51.9 52.1 59.1 61.3 59.7 57.5 52 53 51.9 48 48 53.2 52.7 59 67.8 66.8 64.6 65.8 67.1 55.6 54.1 59.4 61.3 63.6 66.4 71.3 72.4 70.8 69 66.2 63 62.2 61.6 62.7 63.1 59.6 58.5 59.3 61.6 61.9 60.9 58 54 51.8 49.1 57.1 54.9 54.2 56.4 56.8 57.9 58.5 56.4 52.9 48.7 45.2 41.7 41.7 45.5 52.7 54.8 56.1 57.6 59.1 55.8 60.8 58.7 58.5 58.5 56.9 57.3 61.6 56.2 51.7 50.9 52.7 49.4 47.6 45.3 43.1 43.3 44 43.9 44.8 44.4 44.6 44.7 47.2 49.5 55.8 56.2 53.4 52 48.4 44.7 46.1 52.2 55.3 60.5 63.8 60.2 57.2 52.7 47.8 45.3 45.2 46.3 49.8 50 48.4 47 46.4 44.8 43 42 41.6 42 43.7 45.5
56.3 57 57 53.7 54.4 58.3 70.9 67.6 57.2 52.6 49.4 39.6 36.3 31.3 29.1 24.5 24.5 30.1 36.3 43.7 36.8 35.1 34 34 34 40.3 38.5 32.3 32.3 32.3 35 34.4 32.6 32.3 32.3 33.2 32.3 32.3 32.3 32.3 32.3 33.4 32.8 39.1 43.8 44.1 43.6 40.4 38.1 42.9 44.2 51.2 48.1 47.4 46.6 43.5 44 41.3 42.3 38 46.1 49 50.6 50.5 44.1 41.3 41.2 45.3 45.9 41.7 38.3 40 39.7 40.6 41.9 47 54.8 58.6 58.4 58.5 58.3 51.3 50.9 54.4 53.9 55.4 48.9 49.1 49.9 50.2 48 48 52.8 52.4 63.2 69.4 68.7 63.8 65.9 65 56.6 53.2 57.4 60.4 62.6 69 69.4 69 68.8 71 67.1 64.6 64.4 64.1 68.6 63.5 61.7 61.2 62.4 65.8 64.2 63.5 57.2 52.8 50 47.8 49.5 51.1 52.3 53.5 57.4 59.6 61.6 54 49.9 47.3 46 44.5 41.7 42.5 41 50.2 53.2 52.4 51.7 52.7 57.1 55.5 55.4 53.6 50.2 50.3 47.9 47.9 53.5 52.9 53 48.8 49.5 47.3 42.8 41.6 41.6 40.2 43.3 44.2 44.1 44.3 46.9 49.5 57.6 54 53.1 51.2 47.4 44.5 47.5 49.8 53.1 52.9 53.1 55 55 49 43.3 43.1 43.9 44.9 47.3 48.7 47.5 46.7 46.4 43.6 41.1 40 38 38.6 41.7 44.3
56.7 64 59.3 55.1 55.8 59.2 68.3 69.2 59.2 49.9 47.8 39.2 36.9 30.8 30.4 24.5 24.5 24.5 30.3 38.2 34.5 34.8 36.7 35.3 40.5 43.8 38.7 32.7 32.3 32.3 37.3 36.9 36 35 32.3 32.3 35.9 32.3 32.3 32.3 33.5 32.4 35 38.9 42.1 43.5 41.1 38.1 38.9 44.4 45.1 45 44.4 44.4 45.5 53 49.5 46 44.1 43.3 46 47.6 46.6 43.9 40.8 40.5 45.6 53.6 46.7 43.9 40 39.5 40 41.5 42.6 46.4 51.8 55.5 55.9 55.2 53.2 50.2 48.9 48.1 47.4 46 46.1 47.6 51.4 48.5 48 55.7 55.2 55.3 66.4 71.4 68.3 62.8 62.2 61.8 55 54.4 57.8 62.1 69.5 70.6 69.1 66.8 66.2 69.5 66.2 67.8 65.2 64.1 63.8 62.3 65.5 63.8 63.5 64.3 61.7 57.2 55.5 52.2 49.9 47.7 46.5 49.4 52.6 53.9 57 58.7 59.5 51.5 49 47.1 45.7 44.6 43.5 42.1 39.4 40.5 53.3 50.7 49.5 49.8 52.4 50.9 49.2 46.9 47.7 47.9 60.5 60.8 58.8 55.1 50.9 49 48.5 48.4 44.3 41.3 39.9 39.1 41.2 42.2 44 43.9 43.8 45.3 45.6 51.5 51.8 51.7 47.3 46.6 49.3 49.4 49.3 49.3 49.5 50.6 47.7 42.1 42 40.4 42.9 42.2 43.8 46 46.7 43.2 42.9 41.1 38.8 36.6 35.4 34.7 36.2 39.1
56.3 61.5 56.4 55.8 58.1 62.2 63.6 61.5 50.8 45.9 43.1 39.2 36.1 30.9 29.9 24.5 24.5 24.5 24.5 32.9 37.5 37.9 36.7 37.4 42.9 43.1 36.9 32.3 32.3 32.3 35.6 38.3 37.5 36.7 36.1 35.3 36 32.3 32.3 32.3 33.9 35.6 36.8 38 39.6 41.1 40.7 40.2 45.2 44.7 44.1 43.8 44.5 50 54.1 58.4 52.4 48.7 47.4 45 47.6 50.9 45.2 41.1 41.6 42.4 53.7 50.8 48.3 45.5 40.6 39.8 39.7 41.8 43.8 45.1 51.6 56.5 55.8 54.2 52.7 50.2 48.4 47.4 46.4 44.9 43.7 47.9 49.3 52.9 55.9 56.9 56.9 58.8 65.9 71 68.3 63.1 61.7 57.9 52.6 56.4 57.8 66.3 71.5 70.5 67.7 66.4 62.2 61 63.7 65.9 64.3 64.6 64.1 63.2 65.9 63.3 64 60.8 60.5 55.2 56.6 51.8 49.6 47.9 46.5 50.5 53 50.5 54.6 52.8 51.7 50.2 48.5 46.7 45.5 44.3 43.2 41.9 39.7 38.1 46 46.8 46.4 44.4 44.2 43.9 42.9 45.7 50.2 57.8 67.4 63.4 57.8 55 51.2 49.8 47.5 47.2 45.7 42 40 39.3 39.1 41.3 44.3 42.2 41.4 42.1 42.6 43.7 45.2 47.5 45 44.6 49.3 49.7 49 48.2 46.5 44.5 42 39.3 37.8 37.8 38.7 39.2 39.4 39 39.5 38.8 38.2 36.4 35.2 34.5 33.8 33 32.6 32.1
54.2 55.1 55.4 56.1 61.7 61.5 58.3 55.6 51.6 46 43.2 38.4 37.1 35 26.9 24.5 24.5 24.5 24.5 30.2 39.8 37.9 34.5 36.8 41.8 38.9 36.9 34.3 32.3 32.3 37.4 39 37.7 37.7 39.3 37.6 37.1 32.3 32.3 32.7 34.8 34.9 36.5 37 38.1 39.3 39.7 40.6 41.7 41.8 42.4 43.7 46.7 60.9 62.6 60.5 52.2 51.3 52.8 46.4 45.1 43.9 40.4 41 42.8 45.5 47.1 48.8 48.6 47.4 41.2 38.5 38.4 39.9 44.9 44.9 47.4 52.3 56.6 53.8 52.9 50.6 47.9 46.9 46 43.7 45.6 49.4 54.5 56 58.8 58 57.5 61 63.5 66.6 67.4 62.4 62.7 56.3 52.9 56.5 61 63.8 66.2 63.5 65.3 64.8 61.3 59.4 57.4 58.2 63.7 62.3 61.6 63.3 63.4 62.6 62.4 59.8 56.6 54.8 53.7 51.7 49.8 47.9 46.5 46.5 46.5 46.5 46.5 50.4 50.4 49.3 48.1 46.6 45.4 44.1 42.5 41.7 39.5 39.3 38.6 40 40.4 40.2 41 41.4 44.4 46 56.3 60.6 62.7 63.6 55.8 52.8 51.7 48.3 46.6 45.1 43.2 41.4 40.2 40 39.9 39.2 40.1 40.1 40.1 40.6 41 41.6 42.8 43.5 42.2 46 49.8 50.6 48.9 47.7 45.4 42.2 39.4 37.7 37.1 37.5 38.5 38.1 38 36.5 36.6 35.9 35.6 35 34.7 34.2 33.5 32.6 31.9 31.1
52.3 52.1 53.5 56 60.4 58.6 54.3 52.8 46.4 41.9 43.5 40.1 46 40.9 35.5 30.1 24.5 24.5 24.5 29.9 35.9 34.5 33.2 33 36.7 37.7 38.4 35.5 32.3 32.3 37 38.5 38.3 38.3 38.9 38.1 37.7 32.3 32.3 32.3 32.3 32.3 35.7 35.8 37.1 37.9 39.2 40.2 40.4 40.6 41.7 45.3 55.1 63.6 63 59.4 55.3 55.2 51.3 44.8 40.4 40.4 40.4 42.3 45.1 47.6 48.5 48.8 49.1 46.7 41.9 37.2 34.8 38.9 44.7 43.5 43.4 46.9 53 53.3 53.5 51.6 48.9 47.2 44 43.3 48.2 56.3 56.3 61.3 61.4 61.6 59.2 60.8 62.9 61.9 61 61.2 58.3 55 52.7 56.9 61.8 62.2 61.5 61.5 61.6 64 61.1 58.3 56.5 54.6 55.7 59 61.7 63.4 63.6 64.2 63.6 62.2 59.1 56.5 54.8 51.3 50.2 48.5 46.5 46.5 47.4 46.5 48.8 51.3 49.7 47.5 47.7 46.6 46.4 41.9 39.8 41.7 42.9 41.1 40.1 38.6 36.9 37.6 40.8 45.6 44.1 46.2 53 57.8 57.5 54.8 53.5 50.9 49.2 48.1 45.4 44.6 43.4 42.1 40.1 40.6 41.3 40.4 38.7 40.1 39.1 38.9 39.7 40.1 39.2 39.2 43.1 45.7 47.4 49 49.4 46.6 44 41.4 38.5 36.1 35.8 36.8 36 35.6 34.4 33.8 33.5 33.8 34.5 34.6 34.5 34 33.3 32.3 31 30.6
51.4 49.8 49.3 51.4 54.7 54.5 48.8 45.6 42.7 39.3 38.6 42.9 44.2 41.8 37.8 36.5 24.7 24.5 24.5 29 31.4 32 33.6 33 36.4 38.3 39.4 37.1 33.6 33.5 37.1 38.6 39.6 39.9 39.7 36.8 36.2 32.3 32.3 32.3 32.3 32.3 32.3 32.3 35.5 37.6 38.8 39.1 39.1 39.8 47 53.8 55.8 64.9 60.2 57.6 56.7 58.2 55.3 45.8 40.4 40.4 40.4 46.5 47.9 49.3 49.6 49.1 50.6 47.3 40.1 33.8 31.8 36.8 38.9 41 39.7 45.4 50.1 55.4 54.5 51.9 48 45.3 42.2 45 49.2 55.4 59 64.9 63.2 62.3 58.8 59.8 63.1 59.7 58.9 59.3 55.7 53.5 52.5 59.1 62 61.5 61.5 62.1 62.3 62.8 61.8 58.1 56.5 54.5 54.1 59 59.8 63.1 64 66.1 65.2 63.2 60.2 58.5 53.4 49.3 49.4 47.5 48.7 49.4 51.5 51.7 52.6 51.3 47.8 41.6 45.8 50.6 42.3 41.4 41.4 42.7 43.2 44.1 42.9 39.3 37 36.4 39 41 43.4 47.3 53.1 57 54.6 53.9 53.1 51.4 49.8 48.1 45.3 44.3 43.3 42.5 39.7 39.7 41.7 41.2 39.7 38.2 37.1 37.6 38 37.8 37.5 38.9 41.1 43.1 45.4 47.6 46.9 44.9 42.6 39.7 37.3 34.2 33.3 32 31.6 30.9 29.3 28.3 30.3 32.6 33.3 34.2 34.2 33.8 33 30.9 30.8 31.8
48.1 48.8 46.4 45.9 49.7 50.5 44.6 40.8 36.5 38.1 37.7 43.6 43.5 41.4 40.8 37.6 27.7 24.5 27 29.8 31.3 33.6 35.4 35.2 37.6 40.1 40.3 38.1 36 35.1 37.1 40.8 40.5 40.8 39.5 37.4 35.6 32.3 32.3 32.3 32.3 32.3 32.3 32.3 35.9 37.2 37 36.8 37.7 42.4 51.6 56.5 59.5 63.5 59 58.1 56.6 57.8 54.2 46 43.7 40.4 40.4 49 50.6 53.3 50.2 47.8 46.6 46.1 39.1 32.5 30.2 33 36.7 38.8 38.1 38.4 45.7 55.1 51.7 52.2 47.5 43 44.9 48 51.5 59.1 63 64.4 60.8 60.9 58.8 57.8 60.1 58.4 57.7 55.9 55.2 53.7 52.7 58.6 62.5 63.8 65.1 64 64.1 62 59.8 57.9 54.9 53 52.1 54.8 56.5 63.5 63.5 62.5 64.7 64.3 58.5 54.9 50.4 48.1 45.9 46.6 52.4 54.3 52.3 51.7 52.9 49.6 41.3 40.3 43.2 41.1 46.8 44.8 44.5 50.3 50 47 42.3 39.4 37.2 34.9 38.6 42.1 45.5 51.2 56.1 55.7 54.9 52.9 50.7 50.2 49.1 47 46 44.4 42.5 41.7 39.7 39.7 42.6 42.1 40.8 38.4 36.8 33.9 36.3 36.3 34.5 37.8 39.5 42.2 44.8 45.1 44 42.8 40.7 36.7 35.5 32.7 31.2 30.8 30.4 29.5 29.8 30 29.5 31.2 32.6 33.4 33.1 33.3 31.3 29.9 31.9 32.3
45 46 43.8 44.2 43.8 43.3 40.7 36.8 35.2 30.3 35.2 41 42.1 39.9 40.6 38.2 31.3 25.4 29.2 28.9 31.7 36.9 37.4 37.7 41 43.8 41.8 38.8 36.4 35.9 37.1 40 40.8 43.9 40.8 37.1 35.5 32.3 32.3 32.3 32.3 32.3 32.3 32.3 35.6 35.7 36.9 37.3 37.2 40.4 59.2 60 61.9 65.9 59.6 55.5 56.6 57.7 53.6 46.4 43.9 40.4 40.4 48.3 54.5 57.1 49.3 45.1 42.9 41.1 36.8 32.5 30.8 30.7 35.5 37.9 38.2 38.1 41.7 48 47.5 49.2 44.2 41.1 45.4 49.6 51.4 61.3 64.4 61.1 57.4 62 57.1 54.9 56.1 60.4 56.1 54.8 54.2 53.6 52.3 56.7 64.7 67.1 67.6 65.2 64.3 62.5 59.4 56 53.4 51.6 52 54.2 54.8 58.9 61.7 61.3 60.4 59.4 56.1 50.5 47.2 46.8 44.7 49.8 52.7 54.5 49.4 47.8 46.3 42 40.3 40.3 49 51.5 49.5 46.7 47.8 56.2 52.6 47.2 42.4 38 36.5 34.8 36.6 40.8 53.2 58.8 57.3 56 54.8 50.7 50.1 49.8 47.7 46.6 46.7 44.6 41.3 40 41 42.8 42 42.2 40.7 38.3 36.5 34.3 30.8 30.6 33.9 34.7 35.3 41.3 46 42.3 40.4 37.6 34.5 34.4 33.4 32.2 29.8 29.4 29.3 29.7 30.7 29.8 28.8 29.8 29.7 29.3 28.7 29.3 30.6 31.6 32.2 32.6
41.2 42.2 42.2 42.8 42.1 39.8 40.4 34.8 32.9 30.3 30.3 35.2 37.5 36.1 49.4 40.4 30 31.7 31.7 30.4 30.9 39.3 38.7 38.6 48.2 46.2 45.5 41.8 36.6 35.4 35.5 37.4 42.1 41.5 39.8 35.5 35.7 32.3 32.3 32.3 32.3 36.2 32.3 32.3 32.3 32.3 39.1 39.3 38.1 39.5 55.5 62.3 60.8 59.6 58.1 55.3 57.4 59.1 51.8 47.2 46.5 42.1 40.4 43.8 55.2 54.4 45 43.2 41.5 39.4 37.6 34.8 31.3 30.2 34.4 36.6 39.4 40.8 43.7 44.3 44.9 44.1 41.6 41.4 46.3 49.2 55 56.5 61.4 59 54.9 57.3 54.7 52.1 52.1 56.2 54 54 51.7 50.8 50.2 60.5 69.3 70.1 68.5 66.2 64.5 63.1 59 54.1 52.4 50.5 51.2 53.7 54.8 57 62.9 60.8 59.6 56.7 52.1 46 44.1 40 43.4 48.8 50.4 50.3 46.1 41.9 41.9 41.2 43 53.7 54.8 52.3 49.5 47.5 49.3 57 50.5 45.8 41.2 36.9 36.2 35.4 35.9 43.6 61.4 56.2 54.3 54.1 51.6 48.9 49.5 50.2 45.8 44.9 43.2 42.9 40.4 41.1 44.8 43.1 41 39.6 38.3 37.3 35 33.1 29.8 29 30.4 30.5 30.7 33.8 36.7 34.6 34 32 31.7 32.1 31.6 29.8 30.1 30.9 31.4 31.2 31.1 31 30.3 30.9 31.2 32.7 31.9 32.8 33.2 32.5 32.6 30.9
37.2 39 42.4 43.2 39.7 35.8 34.4 32.6 30.4 30.3 30.8 31.7 35.1 34.4 43.3 33.2 29.2 32.9 32.5 31.6 31.2 38.6 38.3 38.6 41.3 46.7 50.5 44 37.8 35.8 35.5 40.8 44.8 41.8 38.7 32.7 32.6 32.3 32.3 32.3 32.3 36.5 33.8 32.3 32.3 37.3 42.9 41.3 39.1 40.8 47.2 58.6 57.9 57 56.1 53.9 55.9 57.6 52 47.8 52.6 45.5 40.4 42.7 47.5 47 44 42.8 41 39.2 37.9 35 31.6 30.4 30.6 32.8 43.1 44.7 44.3 43.6 42.3 41 40.2 41.8 46 49.4 54.7 56.8 59 53 52.4 52.9 53.9 50.1 47.8 50.1 52.5 53.1 50 47.6 51.2 61.7 72.1 72.8 70.5 67.1 64.9 60.9 56.9 52.9 50.8 51.5 52.3 53.3 55.8 56.8 62.1 62.4 59.2 54.4 48.4 44.4 40 40 44.2 45.7 45.9 45.9 45.6 42.9 43.5 45.2 46.9 51 56.4 53.1 49.1 47.8 47.9 49 48 45.3 41.9 36.9 37.5 36.2 36.9 49 57.5 55.1 57.1 51.8 47 46.6 47.8 46.8 44.8 42.8 42.5 42.1 39.3 40.3 44.1 41.6 39 37.7 35.8 34.9 34.6 31.8 29.2 28.3 29.5 29.5 29.8 30 30.1 31.9 31.8 31.2 30.1 29.5 29.3 28.2 30.5 31 31.7 31.7 31.6 31.5 32.4 33.4 33.6 33.3 32.2 32.9 33.1 33 32.5 30.9
35.5 37 42.4 43.8 37.6 35.5 33.7 31.3 31 30.3 30.9 31.4 29.8 31.9 36.8 31.4 28.8 33.7 33.3 31.8 29.9 32.6 34.6 38 42.6 48.6 48.8 45.2 40.6 36.2 41 44.2 48.7 40.5 37 32.9 32.7 32.3 32.8 32.3 32.3 35.4 32.7 32.3 36.4 43.5 44.9 43.8 42.1 41.6 46.6 53.6 55.7 55.5 54.2 53.7 55.8 54.8 50.6 48.9 48.7 48.2 42.2 42.1 43.7 44.6 44.1 43.4 40.8 38.9 37.6 35.3 31.5 30 31.8 36.9 44.2 45.1 44.5 42.4 40.2 38.8 42.6 43.8 48.4 49.1 55.8 56.9 55.2 50.9 48.8 50 50.8 48.8 47.8 50.2 53.3 51.5 47.2 49.4 50.9 58.3 73.6 73.5 70.6 68 66 59.9 54.5 51.4 50.7 53.3 52.3 51.1 56.8 56.8 59.8 63.4 58.3 50.4 43.7 40 40 44 44.8 46.3 45.7 45.8 45.2 46 46.5 45.9 49.7 51.1 53.7 52.5 48.5 48.1 48.4 47.6 47.1 46.4 43.7 37.1 33.6 34.3 36.4 46.9 51.7 49.9 51.5 49.8 45.6 44.3 44.6 45 43.6 41.2 39.9 38.8 38.3 38.9 40.2 39.4 37.7 36 34.7 33.4 33 30.4 28.9 27.8 28.8 29.1 28.8 29.7 29.9 30.6 31.3 29.9 29.2 29.4 29 31.2 30.9 32 32.8 31.7 32.4 33 34.8 33.7 33.7 32.7 32.6 32.9 33.1 33.2 33.1 32.5
35.5 35.5 43.7 41.1 36.7 35.1 34.4 33.3 34.1 30.5 29.3 29.4 28.3 31.7 31.5 29.6 31 34.1 35.6 32.9 30.9 28.9 32.8 37.6 41.3 50.8 52 45.8 45 36.6 39.8 45.1 47.4 38.5 37 35 32.3 32.3 32.3 33.6 32.3 35.9 32.3 32.3 36.6 49.5 47.5 45.8 45.1 43.5 44 49.4 53.5 53.4 52.8 53.1 54 53.2 51.6 50 49.7 48.8 46.5 43.7 42.4 44 46.2 44.6 39.9 37.6 38.6 35.6 32.2 29.1 32.7 41.1 46.7 44.6 43 39.3 37.3 38.8 39.9 49.8 49.3 50 57.6 53.2 51.9 49.3 46.6 45.9 46.5 47.9 47.9 48.6 50.1 47.5 44 47.9 49.4 53.1 66.5 67.8 67.2 68.8 63.1 57.1 52 49.9 49.6 55 49.4 47.1 50.4 49.3 47.2 41.7 40 40 40 41.6 46.6 47.2 54 54.2 48 49.1 47.7 50.2 48.6 46.1 47.5 54.6 51 50.4 47.2 48 48.8 47.3 46.9 46.6 45.9 40.5 33.6 32.4 37.9 44.7 48.1 45.6 45.1 45.2 43.8 42.8 44.2 41 38.9 37.6 35.7 37.1 36.5 38 37.5 37.7 36.8 34.3 33.3 33 31.9 31 29.6 27.8 28.1 28.3 28 30.1 30.4 28.3 28.2 30 30.2 30.9 30.5 30.2 29.6 28.5 27.5 28.3 32.7 32.1 33.1 32.7 32.6 31.8 32 32.2 32.9 33.4 33.8 34.2
35.7 36.6 39.7 37.5 35.8 35 34 34.1 34.2 27.8 27.8 29.2 27.8 31.3 31.6 30.2 32.5 38.9 38.1 33.9 31.8 29.5 33.9 39.6 40.6 45.2 45.6 45.4 42.5 38.2 42.3 46.3 46.9 37.8 36.5 35 32.8 32.3 32.3 36.3 38.5 35.9 32.3 32.3 36.4 47.9 46.7 46 45.3 44.2 44.4 45.9 51 52 52.3 54.7 56.1 54.9 52.4 52 51.8 50.8 48.5 43.5 41 41.5 46.1 40.6 36.5 36.9 38.7 37.1 33.9 29.1 32.6 44 47.2 45.2 40.6 34.5 35.6 35.1 32.3 46.3 48.6 51.6 51.8 49.6 48.7 46.3 45.6 44.3 44 46.4 45.5 44.3 46.9 43.5 41.2 45.4 47.4 47.3 56.1 59.1 58.3 58.4 56.6 53.4 47.1 48.1 43.4 41.4 42.2 40 40 40 41.5 40 46.2 47.1 49.1 52 51.8 56.6 59.3 59.6 52.8 51.7 56.7 55.5 52.6 48.2 46.9 49.1 46.5 46.5 46.5 50.1 50.3 49 48 48 46.5 43.6 38.5 31.9 36.9 42 41.6 40.9 40 40.4 41.3 40.7 39.7 39 37.5 35.8 32.1 34 35.8 37.7 36.3 36.2 34.6 32.8 32.4 32.2 31.7 30.4 29.8 28.3 27.9 28 27.9 27.4 29.1 29.9 31.1 31.2 30.7 31.5 28.7 27.5 27.5 27.5 28 27.5 29.3 30.8 32.1 30.8 30.6 31.2 31.6 33.4 35.6 36.6 36.3 38.6
37.9 38.5 36.9 34.7 35.7 35.3 32.3 34 32.6 27.8 27.8 27.8 27.8 27.8 27.8 31.8 37.7 41.9 41.8 33.7 32.2 29.7 30.2 39.4 39.3 42.8 45.2 44 41.2 37.7 44.9 46.4 41.1 37.7 36.4 34.8 32.3 32.3 32.3 40.4 40.4 36.2 32.3 32.3 34.6 43.2 46.4 45.7 45.3 45.3 45.3 44.2 46.7 49.4 50.1 56.8 57.8 55.8 53.6 53.8 52.3 50.8 47.9 43.8 39.5 36.6 36.5 35.2 34 37.1 38.2 37.1 32.8 29.1 32.2 41.8 48.2 43 37.5 29.1 31.9 29.1 29.1 42.6 46.8 52.9 48.1 45.6 44.1 42.9 42.1 41.8 41.8 43.3 43.4 41.2 40.7 39.6 42.7 47.9 48.5 47.9 50.7 52.2 50.2 50.7 48.9 46.3 44 41.5 40 40 40 40 40 40 43.4 47.6 50.2 53.9 61.9 64.4 67.5 73.7 68.5 62.1 56.2 58.8 61.9 60.2 53.9 50.5 48 47.1 46.6 46.5 47.6 55.4 53.6 51.9 49.8 48.9 48.3 46.1 41.6 33 34.1 41.7 43.3 41.6 40 41.8 40.5 38.8 37.4 35.7 34.6 31.3 32.6 34.5 36.9 37.4 35.8 34 33.1 31.8 31.3 29 30.1 30.1 30 28.9 27.5 27.7 29.8 31.2 31.2 29.6 29.8 29.4 29.3 27.5 27.5 27.5 27.5 27.5 31.3 32.8 31 30.6 31.8 31.4 30.9 30.7 33.7 35.8 36.5 37.3 38.8 39.8
37.1 38.8 38.4 33.7 27.8 32.7 27.8 32.7 31.9 27.8 27.8 27.8 27.8 27.8 27.8 32.4 38.8 44.3 40.4 34.5 32.4 28.9 28.9 32.5 39 43.7 44.3 43.4 41.8 38.9 44.2 46 41.4 40.3 38.1 32.3 32.3 32.3 38.4 43.8 41.7 36.6 32.3 32.3 37.6 40.5 44 45.4 45.8 45.5 46.8 44.7 45.6 47.6 49.5 54.8 57.9 56.2 54.9 54.8 52.2 48.7 46.1 44.6 39.6 34.2 33.8 31.8 31.9 31.8 35.7 33.8 32.4 29.1 31.2 43.4 47.5 40.9 36.6 29.1 29.1 29.1 29.1 38.9 46.4 51 43.7 42.4 41.5 41.7 40.8 40.8 40.7 42.6 40.7 40.4 39.1 37.5 43.7 47 48.8 49.2 48.6 47.6 47.3 46.1 45 43.5 40 40 40 40 40 40 40 40 44.9 48.7 56.4 62.7 71.3 76 79.2 75 69.7 64.5 57.6 56 58.3 58.7 56.6 53.3 51 50.1 47.5 48.2 50.4 58.1 57.2 58.3 52.4 49.5 47.6 46.1 42.4 35.5 34.9 44 45.3 43.7 42.5 40.4 36.2 34.9 34.7 33.1 26.9 26.8 31.6 33.6 34.7 34.2 31.7 31.8 27.9 30.9 29.1 26.8 27.4 30 31.1 30.3 27.9 27.4 28.4 27.8 28.4 27.8 29 27.9 28.2 28.4 30.6 29.6 27.5 30.7 32.6 32.5 32.2 31.8 34.3 33.2 32 31.1 32.3 35 36.9 38.1 39.1 41.6
36.2 40.5 37.4 32.8 27.8 30.7 27.8 33.1 32.5 27.8 27.8 27.8 27.8 27.8 27.8 29.7 43.9 49.8 44.6 35.3 32.2 28.9 28.9 32.6 36.7 47.3 44 43.2 41.4 40.4 44.5 44.1 42.8 41.7 39 35.7 36.4 37.9 41.5 47.8 42.3 37.4 34 32.3 36.8 38.9 43.1 46.6 46.3 48 47.3 45.3 46.1 49 49.5 51.4 57.5 55.6 57.3 54.1 50.2 46.6 44.8 42.9 40 35.9 31.8 31.8 31.8 31.8 32.3 32 33.4 29.1 29.1 38.2 44.3 36.7 35.4 29.1 29.1 29.1 29.1 37.6 46.8 43.1 41.5 40.8 40.1 40.6 39.6 39 37.9 39.2 38.8 38.9 38.6 37.3 44.5 46.6 48.3 49.3 48.4 46.2 44.9 40.8 40 40 40 40 44.8 40 40 40 40 43 46.1 53.1 62.4 71.4 76.5 82.8 81.1 78.7 70.3 67.3 59.2 55.9 59.6 61.4 59.8 56.1 52.1 50.2 49.1 48.5 52.2 56.4 59.9 60 55.8 49.8 47.1 42.9 40.7 32.4 35.4 39.6 46.2 41.8 37.1 33.5 31.9 32.2 32.3 30.3 26.8 26.8 26.8 31.9 33.1 29.1 26.8 26.8 26.8 26.8 26.8 26.8 27.9 29.4 31 27.9 27.6 27.6 28.1 27.8 27.8 27.8 27.8 28.3 29.5 30.1 31.4 31.5 33.7 33 33 33.5 33.3 32.8 35.7 33.8 32.4 31.8 33.4 34.7 37.1 38.5 42 46.5
27.8 32.6 34 33.5 27.8 27.8 31.5 33.2 32.4 31.9 27.8 27.8 27.8 27.8 27.8 27.8 43.4 53.9 48.3 36.5 32.4 28.9 32.4 34 38.2 42.7 43.9 42.6 42.5 40.7 47.2 44.4 44 43.9 40.9 39.1 39.6 41.6 49 51.5 44.7 38.7 35.7 32.3 35.5 36.5 40.9 46.5 46 46.5 46.2 45.1 45.5 48.2 50.7 50.7 53.4 53.5 54 51.8 48.4 45.1 44.7 45 42.4 38.8 32.8 31.8 31.8 31.8 31.8 32.4 30.6 29.1 29.1 29.1 32.7 31.3 29.1 29.1 29.1 29.1 29.1 36.5 40.6 40.6 39.5 39.3 39.1 39.1 38.8 39.1 37.6 37.5 37.2 37 36.3 39.1 44.4 46 48.6 48.8 47.8 45.2 40 40 40 40 40 40 40 40 40 43.7 45.3 44.5 51.5 54.6 68.4 79.6 83.6 84.7 82.4 77.5 70.3 63.4 61.2 58.8 60.9 63.6 58.9 56.7 55.4 56.4 54.6 52 56.2 56 60.2 62.8 58.8 52.4 46.9 42.7 33.4 26.8 33.2 35.5 40.7 38 32.8 30.2 30.3 31.5 30.4 27.8 26.8 26.8 26.8 29.8 26.8 26.8 26.8 26.8 26.8 26.8 26.8 27.6 28.9 28.1 30 28.9 28.6 27.9 27.8 27.8 27.8 28 28.6 29.1 32.5 32.9 33.6 33.6 34.5 34.3 34.7 34.7 34.8 32.6 30.4 32.2 31.4 30.4 33.2 34.8 37.7 40.5 48.3 50.9
27.8 27.8 27.8 27.8 27.8 27.8 31.2 33 33.1 30.9 29.3 31.1 27.8 27.8 27.8 27.8 35.1 40.9 38.1 34.9 32.5 32.1 34.7 33.6 36.6 43 44.7 43.3 40.1 40.1 42.2 44.4 46.3 44.7 41.8 40.2 41.2 45.1 54.3 53 47.2 40.4 36.6 32.3 35.3 37.2 40.8 44.4 45.9 47.1 46.9 46.1 45.4 47.5 49.8 50.6 50.9 51.5 51.1 49.1 45.6 43.6 44.2 43.7 43 38.9 31.9 31.8 31.8 34.3 35.7 34.6 31.3 29.1 29.1 29.1 29.1 29.1 29.1 29.1 29.1 29.1 29.1 34.2 38 39.4 39.2 38.7 38.7 38.8 38.4 38.6 37.4 36 34.6 34 36.7 40.4 43.7 47.8 47.5 47.5 45.1 42.2 40.5 44.3 46.7 47 46.4 43.7 45.6 44.2 44.7 46.1 47.8 50.4 54.6 60.9 72.7 85.5 92.2 90.8 81.2 75.3 70.4 62.4 60.9 61.6 59.9 59.8 58.8 58.5 58.8 60.9 57.6 55 55 54.4 56.5 60.4 59.6 57.5 51.5 43.5 34 26.8 26.8 26.9 31.9 31.5 30.2 30.1 30 30.6 26.8 26.8 26.8 26.8 36.6 32.1 26.8 26.8 26.8 26.8 26.8 26.8 26.8 27.1 33.2 33.2 32.2 31.7 28.3 28.2 28.2 27.8 30 29.9 29 29.7 33.7 32.9 34 34.5 34.9 35.3 34.7 34.5 34.1 32.7 30.4 30.4 32.7 31.3 33.4 35.7 38.7 48.2 52.9 54.6
27.8 27.8 27.8 27.8 27.8 27.8 28.7 32.2 32.5 32.7 33.1 31.7 31.8 27.8 27.8 27.8 32.7 36.9 36.5 34.7 31.6 31.7 35.8 28.8 32.2 42.5 43.5 39.2 38.1 38.9 41.6 45.3 52.4 45 41.9 41.9 43.9 45.8 52.6 55.8 49.2 41.2 37.2 34.5 36.1 37.5 42.5 44.6 45.5 49 48 47 45.7 46 49 49.5 50.2 50.6 49.6 48.1 45.4 42.7 43.5 44 38 35.3 31.8 31.8 32.7 37.1 38.4 35.4 29.1 29.1 29.1 29.1 29.1 29.1 29.1 29.1 29.1 29.1 29.1 32.3 38.2 39.1 38.8 38 38.4 38.6 38.6 38.2 33.7 32 32 32 35.9 38.3 43.7 47.3 46.1 46 43.7 41.6 45.8 52.4 52.5 50.8 49.4 48.7 48.8 47.3 45.3 51.1 53.3 54.8 57.3 62.7 75.8 87.6 95.9 91 80 75.4 65.8 62.6 62.2 61.9 60.3 60.2 59 62.3 60.5 62.7 59.6 58.6 55.8 54.4 56 58.2 58 54.9 50.2 41.4 35.8 26.8 26.8 26.8 31.2 30.3 30.1 29.8 29 27.9 26.8 26.8 27 33.1 33.1 26.8 26.8 28.4 32.8 31 30.9 28.2 29.5 35.4 33.7 33.4 33.6 30.9 27.2 30.2 29.7 28.6 29.2 30.6 29.8 30.2 32 31.9 34 34.9 35.5 35.1 34.5 33.9 33.7 33.3 30.4 30.4 30.4 30.4 33.4 37.1 40.1 50.7 52.6 52.7
27.8 27.8 27.8 27.8 27.8 27.8 27.8 32.7 32.9 34.9 33 31.6 33.8 27.8 27.8 27.8 29.1 33.7 33.5 32.4 31.7 27.8 32.1 27.8 30.9 37.9 37.2 35.6 36.8 38.9 42.2 48.1 45.6 43.9 42.5 43.5 47.9 48.2 47.5 57.2 51.3 40.6 35.9 34.7 35.9 38.3 47.5 43.9 44.8 47.8 48.6 47.6 45.6 47 48.3 48.4 49.3 49.6 49 49.2 45.6 41.8 41.1 38.9 35.9 34.2 31.8 31.8 33.9 37.4 39.6 34.5 29.1 29.1 29.1 29.1 29.1 29.1 29.1 29.1 29.1 29.1 29.1 33.6 39.3 37.2 36.9 36.9 37.7 38.9 37.4 35.3 32 32 32 32 32.1 36.4 41.8 43.2 43.6 43.6 41.8 44.4 52.3 56.1 54.7 53.8 52 50.3 49.8 45.5 52.7 56.3 58.1 58.2 58.5 63.4 70.1 81.9 84.5 83.3 77.9 70.9 66.8 64.1 62.9 63.8 62.7 61.3 59.5 62.9 60.2 64.6 61.4 59.6 57.7 56 55.2 56.2 53.2 48.9 44.8 39.3 38.2 32.9 26.8 26.8 29.3 29.9 30.3 29.6 31.5 29.8 26.8 26.8 31.9 26.8 26.8 30 26.8 31.7 34 33.7 32.6 29.4 30.2 29.6 32.9 37.9 35 28 27.2 29.5 29.7 29.8 29.6 30.2 29.9 31.4 32.4 32 33.6 34.9 35.4 35.8 34.7 34.6 34.1 33.3 30.4 30.4 30.4 31.7 35.8 37.4 40.7 48 49.9 50.4
27.8 27.8 27.8 27.8 27.8 28.3 32 32.2 36.5 35.6 30.8 27.8 31.8 27.8 27.8 27.8 27.8 27.8 27.8 31.3 30 27.8 30.3 27.8 31.9 32.3 33 33.9 36.9 39.2 41.9 44.2 45.9 44.1 43.7 52.3 51.8 52 47.8 46.1 47.3 38.4 36.4 35.5 35.1 37.2 41.2 41.2 43.4 46.8 48.3 47.5 45.7 48.3 47.5 46.8 47.5 48.8 48.4 47.8 44.8 40.9 39.2 37.4 35.3 35.1 32.9 31.8 32 36 37.9 34 30 29.1 29.1 29.1 29.1 29.1 29.1 29.1 29.1 29.1 29.1 30.7 35.8 34.1 34.9 35.6 37.6 37.7 35 32 32 32 32 32 32 37.5 39.8 41.3 41.2 44.8 48.2 49.1 52.7 56 56.7 55.4 52.9 51.1 48.3 54.7 56.8 59.6 62.2 62.1 60.2 64.5 67.5 73.1 79.6 80.7 77.2 69.7 67.9 65.3 64.8 67.3 64.6 61.5 61.4 62 62.4 66.5 63.4 61.5 58.6 57.3 54.9 53.4 50.8 45.3 40.8 39.1 39.1 37.4 32.9 26.8 26.8 30 29.9 30.7 28.7 27.5 26.8 26.8 27.8 26.8 26.8 27.2 31.9 33.2 35.1 36.2 32.5 31.6 32.3 30.1 33.7 35.6 33.7 27.2 27.2 27.2 30.6 31.6 30.4 30.5 29.5 31.5 32 33.2 34.9 34.9 35.1 35.9 35.3 35.1 34.4 33.4 32.3 30.4 32.7 32.7 34.8 36.3 37 43.3 49.1 48.1
27.8 27.8 27.8 27.8 27.8 27.8 27.8 27.8 27.8 28.9 27.8 27.8 28.5 27.8 27.8 27.8 27.8 27.8 27.8 31.2 27.8 27.8 27.8 27.8 30.1 32.8 33.7 35.3 37.4 39.3 41.1 42.3 45.8 44.6 48.3 54 53.7 52.1 46 43.5 40.3 37.3 36.6 34.7 34.9 35 38.1 40.6 44.7 45.5 45.1 45.2 45.1 45.7 46.6 46 44.2 48.1 48.8 47.5 43.6 40.3 38.4 37.9 37.2 36.9 34.3 31.8 32 35.3 35.9 33 29.1 29.1 29.1 29.1 29.1 29.1 29.1 29.1 29.1 29.1 29.1 29.1 30.2 31.7 34.6 36.4 34.8 32 32 32 32 32 32 32 34.9 37.9 40.2 39.9 42.3 47.9 49.3 50.2 51.8 55 58.6 55.5 52.7 48.8 57.8 57.5 58.4 63.7 67.7 65.4 60.6 60.3 65 68.4 73.4 74.1 75.5 69.2 68.1 67.3 66.8 67.3 65.5 62.7 62.8 65.7 66.4 69.4 67.1 62.9 59.6 56.8 53.8 50.8 46.7 43.5 39.6 39.3 40 39.5 37.5 27.9 26.8 26.8 28.3 30.6 26.8 26.8 26.8 26.8 26.8 26.8 29.7 32.7 34.2 36.3 37.8 38.3 34 32.5 32.2 31.3 29.6 31.2 30.6 27.2 27.6 29.8 30.8 31.8 30.6 29.9 30.4 31.9 33.5 34.2 34.9 34.9 35.1 35.6 35.3 34.9 33.5 31.7 32.3 34.3 34.5 34.9 35.4 35.8 36.3 40.5 43.7 44.8
27.8 27.8 27.8 27.8 27.8 33.1 27.8 27.8 27.8 27.8 28.7 27.8 27.8 27.8 27.8 27.8 27.8 27.8 27.8 28.6 27.8 27.8 27.8 27.8 27.8 32 33.9 36.2 36.6 37.5 45.2 46 46.5 48.7 55.3 59.9 54 50.5 45.7 41.9 38.6 37.1 35.8 35.6 36.7 36.1 37.6 45.4 43.4 43.2 43 44.3 42.3 42.9 44.4 45.5 44.2 47.9 50.1 47 42.1 40.3 39.1 39.1 37.5 36.4 34.2 32.1 33.7 36.4 36.3 35.7 29.1 29.1 29.1 29.1 29.1 29.1 29.1 29.1 29.1 29.1 29.1 29.1 32.6 39.4 38.9 36.2 32 32 32 32 32.5 32 36.2 34.4 33.8 36.8 39.5 40.7 43.3 47.6 51.1 51 51.3 54.7 56.9 55.3 53.1 60 61.6 59.2 59.1 62.1 62.9 61.5 59.5 58.9 59.4 60.4 64.6 69.5 67.7 68.3 69 67.6 66.1 65.5 64.3 63.5 64.4 71.2 70.2 69.8 67.2 62.9 60 56.9 53.8 49.9 45.3 42.1 39.9 38.2 39.5 39.6 36.7 27.4 26.8 26.8 26.8 26.8 26.8 32.2 31.8 26.8 26.8 26.8 32.5 34.4 36.3 41.7 43.4 41.4 33.1 33.6 33.4 33.1 29.9 29.6 29.5 27.2 27.2 30.6 31.1 31.2 30.9 30.7 30.3 33.5 34.7 34.8 34.9 34.9 35 35.4 35.5 34.2 32.8 32.4 32.9 33.9 34.2 34.5 34.6 35.6 36.3 37.3 40.3 41.7
27.8 27.8 27.8 27.8 27.8 32.7 33.8 27.8 27.8 34.3 32.9 34.4 33.2 31.9 27.8 27.8 29.3 27.8 27.8 27.8 27.8 28.2 27.8 27.8 27.8 33.4 36.7 36.2 36.1 36.2 41.4 46.1 49.1 54.7 60.4 59.2 55.8 51.7 47.6 42.9 39.2 37.7 37.2 40.3 39.2 38.5 37 40.9 41.1 41 41 40 39.2 39.2 47.4 44.1 44.2 46.5 49.4 44.6 41.7 39.8 42 39.5 37.3 35.5 33.8 34.1 40.6 42.6 41.4 36.3 29.1 29.1 32.4 29.1 29.1 29.1 29.1 29.1 29.1 29.1 29.1 29.1 36.5 40.4 38.7 34.5 32 32 32 32 32 36.5 35.5 33.2 35.9 36 41.2 42.5 46.1 53.5 51.6 51.6 51.3 55.4 58.7 56.4 55.4 56.1 62.8 59 56 58.8 60 60.3 59.2 58.9 58.5 57.5 59.9 65.2 63.8 65.2 68.7 66.5 65.4 64.6 64 64.2 66.7 74.1 74 72 68.2 65.5 59.3 57.9 52.1 47 44.1 40.1 39.5 38.7 37.2 36.9 33.5 26.8 28.5 26.8 26.8 26.8 26.8 31.7 28.2 26.8 26.8 29.4 33.4 34.2 41.2 46.2 46.2 42.6 33.5 37.8 37.7 34.1 31.1 31.9 28.7 27.4 27.2 30.3 32.5 33.5 33 31.9 31.4 32.9 34.3 34.9 34.9 35 34.7 35.5 35.4 32.8 31.5 31.5 32.2 34.9 34.4 33.8 33.8 34.8 36 37.1 39.3 40.6
27.8 27.8 27.8 27.8 27.8 29.6 35.6 30.3 27.8 37.2 34.5 39.4 36.2 32.9 27.8 27.8 27.8 30.5 27.8 30.1 27.8 27.8 27.8 27.8 27.8 34.4 36 37.1 36.1 36.9 46.1 52.5 57.1 58.5 62.4 62.2 61.1 55.3 49.3 44.9 43.3 40 38 42.5 43 40.7 38.5 38.4 39.3 40.2 40.1 39.2 39.2 41.1 46.7 44.2 44.2 44.2 44.1 42.6 41.1 40.3 42.1 39.2 37 35.4 33.8 35.5 47.3 48.2 45.4 37.6 33.9 35.6 38.8 34.4 30.8 29.1 29.1 29.1 29.1 29.1 29.1 29.1 36.8 40.8 37.4 32 32 32 32 36.4 37.5 36.9 33.2 33.2 33.2 34.5 39.6 43 47.7 51.4 51.6 51.8 52.3 56.5 59.4 59 59.1 57.5 59.9 59.1 57.2 54.7 58.2 59 59.6 59.1 57.7 55 57 54.4 56.9 62.8 64.6 66.1 65.5 64.5 63.4 63 66.3 73.1 73.7 71.4 68.1 66.4 55.6 54 48.7 43.5 39.1 36.2 40.5 39.5 37.4 28.8 35.8 35.4 33.4 32.7 29.2 26.8 26.8 30.8 26.8 26.8 26.8 30.7 35.2 34.2 37.8 44.3 42 35.7 35.9 39.5 38.9 34.3 30 30.7 34.2 28.8 27.2 33.6 36 35.7 34.8 36.1 34.6 33.5 34.3 34.6 34.7 34.8 35.2 35.1 34.7 32.3 31.5 31.5 32.2 36.2 35.8 33 31.6 32.7 34.9 36.1 37.7 39.5
27.8 27.8 27.8 27.8 27.8 31.3 37.1 30.7 27.8 34 35 39.6 40.4 36.2 27.8 27.8 27.8 30.2 27.8 27.8 27.8 29.4 27.8 27.8 27.8 33.2 35.6 35.9 35.1 35.9 48.3 57.7 58.4 62.3 67.8 65.6 65.2 59.7 52.5 49.2 47 46.4 39.2 40.2 47.4 44 41 40.1 40.2 40.9 39.2 39.2 39.2 39.2 45 44.5 44.2 46 44 41.8 40.6 41.2 40.7 38.9 37.3 35.4 33.6 37.1 42.9 48.8 44.6 39.8 37.7 41.3 41.5 37.2 32.4 29.1 29.1 29.1 29.1 29.1 29.1 29.1 43.8 42.2 35.2 32 35.1 35.1 37.2 36.4 37.8 37.2 33.5 33.2 33.2 34.3 39.6 44.4 48.1 50.8 51.7 52.1 52.8 55.6 63.4 61.6 62.3 58.8 61 60.8 58.1 54.7 54.7 58.7 60.6 60.3 57.4 53.9 51.4 50.7 56.5 58.7 62.1 63.8 64.1 63.1 63.4 60 62.7 71.2 69.8 71.2 63.9 59.8 50.4 46.4 44.5 36.7 33.5 33.5 38.3 33.5 35.8 35.2 39 37.3 36.7 36.4 32.9 26.8 26.8 26.8 26.8 26.8 26.9 35.3 36.2 34.2 39.4 43.6 41.4 38.4 40.1 38.9 36.6 34.7 35.5 35.6 38.4 36.7 33.1 36 38.2 37.4 37.3 36.8 34.9 33.6 33.8 33.4 33.9 34.5 34.6 34.5 34 33.8 32.2 31.7 32 35.9 34.2 33 31.5 31.1 32.6 34.2 36.1 37.6
27.8 27.8 27.8 27.8 27.8 30.5 39.9 31.7 31.3 33.6 37.9 40 40.7 35.6 31.2 28.3 27.8 27.8 27.8 27.8 30.4 34.5 30.8 28.7 28.8 33.7 35.5 34.8 34.8 37.4 51.3 56.9 60.7 68.1 69.2 64.9 61 56.7 53 51.4 50.5 51.2 42 40.2 47.1 45 42.2 41.9 40.4 42.1 41.2 39.2 39.5 39.2 43.9 45 45.6 47.2 45.2 41.9 41 40.6 40.5 39.3 37.7 35.9 34.4 40.5 44.4 45.8 40.8 39.6 39 41.3 43.5 38.9 33.5 31.6 31.5 29.1 30.8 29.1 29.1 29.1 42.4 38.5 34.8 34.1 36.4 37.4 40.1 39.7 38 36.6 35.4 33.2 33.2 42.6 43.3 44.2 51.9 50.3 51.7 51.7 52.1 58 61.1 61.3 61.4 57.2 57.2 61.4 58 54.7 55.1 61.5 62.2 61.1 57.2 54.7 52.2 49.9 53.5 55.6 59.9 59.3 60.1 61.1 61.5 57.5 59.6 63.1 63.8 64.5 58 55.5 47 40 36.7 33 30.8 32.4 32.3 37.9 40.1 39.6 40.2 38.7 40 43.6 37.9 28.5 26.8 26.8 26.8 26.8 41.8 45.7 36.8 36.3 43.4 43.1 43.7 39.6 41.8 37.4 37.5 39.6 38.4 37 39 40.5 35.8 36.1 39 39.2 37.4 35.2 34.6 35.4 33.5 30.5 33.1 34.8 34.4 33.6 34.1 34.5 33.6 32.3 32.4 33.8 33.3 32.4 31.6 31.1 32.1 32.6 33.5 36.9
27.8 27.8 27.8 32.4 27.8 31.7 35.2 33.5 34.1 36.1 37.7 39.8 38.8 37.4 34.9 29.8 27.8 27.8 28.5 30.4 31.5 36.6 37.3 31.9 30.8 40.1 37.9 35 35 44 52.9 59.1 66 68.9 67.7 66.3 62.1 59.7 55.3 52.6 54.4 50.7 43 41.6 41.5 41.8 44.2 43.6 41.7 44.1 44 41.5 39.4 39.2 41.7 45.2 46.9 46.5 44.8 43.8 42.6 42.1 42.4 41 38.5 36.4 39.5 47.5 46.9 43.4 41 40.3 39.9 45 42.3 37.1 33.7 32.9 30.9 29.1 29.1 29.1 29.1 29.1 36.7 36.1 33.1 35.1 36.8 39.2 40.4 39.6 38.4 37.2 33.2 33.2 41.7 44.4 43.5 44.5 46.4 53.2 51.8 51.5 51.2 57.9 58.7 59.9 59.7 57.2 57.2 59.6 58.4 54.7 54.7 59.3 61.1 63.1 57.3 54.9 52.8 48.9 49.4 51 53.9 54.8 57.1 58.1 56.1 55.2 55.6 58.2 57.7 57.2 51.6 47.9 42.1 37.6 34.5 31.5 32.3 41 42.8 42.6 42 40.2 37.7 36.7 42.4 48.2 43.6 35.1 26.8 26.8 26.8 35.5 42.2 34.7 45.5 41 45.2 44.3 41.4 38.1 38.9 39 38.7 43.4 43.1 41.5 40.8 40.3 37.3 37.9 40.1 40.2 37.7 35.8 35.3 34.7 33.6 30.5 34.2 33.9 33.5 30.5 34.8 35.2 34 33.1 32.7 33.7 33.3 32.4 31.5 31.6 31.3 30.5 30.8 34.9
32.1 32.2 27.8 32.4 32.2 32.6 35 34.7 35.9 37.9 37.8 38.6 41.3 39.7 35.9 30.5 31 27.8 28.3 31.9 34.7 38.8 40.5 31.4 32.5 37.1 36.7 34.1 37.1 53.8 56.6 61.4 64.7 69.1 68.8 67.6 65.3 66.5 60.7 55.3 52.7 50.1 46.2 42.3 41.9 43.1 48.1 42 41.4 45 44.8 43.9 41.6 41.4 39.2 46.1 47 46.7 45.3 44.3 43.8 45.8 46.4 41.7 39.6 37.9 44.1 47.6 46.5 45.4 41.9 41 40.6 44 38.7 37.1 33.2 31.5 29.1 29.1 29.1 29.1 29.1 29.1 32.4 33.1 33.3 36.1 37.9 40.7 41.8 40.5 38.7 37.5 33.6 37.8 42.8 44.3 43.5 44.5 44.3 50.2 50.2 50.4 50.2 53.3 57.3 58.8 57.4 57.2 57.6 59.5 59.2 55.3 54.7 58.4 59.5 60.3 56.7 54.4 50.5 48.1 48.4 49.5 50.1 50.8 52.8 52.4 52 52.2 52.1 52.6 52.3 49.9 42.4 36 38.2 37.7 31.3 31.5 36.9 42.7 43.7 44 43.3 39.3 36.1 36.1 43.6 48.1 45.5 35.8 26.8 26.8 26.8 26.8 29.2 41.8 49.9 44.7 43 42.5 39 37.5 37.5 40.8 40.2 49.6 50.5 48.7 44.2 37.1 36.2 37.8 44 41.5 39 37.3 36.3 35.4 33.9 30.5 30.5 33.1 30.5 30.5 37.2 34.7 33.8 32.2 32.8 32.8 32.5 31.7 31 30.1 29 27.8 27.5 32.9
33.9 34.6 34.1 34.9 35.6 34.7 36.2 35.6 36.2 37.9 38.7 41.5 42.1 39.7 37.5 35.5 27.8 32.5 33.3 33.3 34 35.1 34.4 30 28.3 28.3 31.7 35.3 38.5 57.9 58.9 64.6 66.7 74 73.5 72 70.7 68.5 62.6 56.8 56.9 57 51 43.8 42.9 48.3 46.7 40.8 39.2 42.6 41.7 43.3 42.3 43.6 42.2 45.6 48.6 48.3 46 44.4 44.3 45.2 46.1 42.5 43.9 43.7 45.5 45.1 45.7 49.9 43.5 41 40.4 39.2 37.9 37.3 33.2 29.1 29.1 29.1 29.1 29.1 29.1 29.1 32.4 33.2 34.8 37 40 42.1 41.3 40.8 40.1 37 35.7 39.3 41.6 43.2 44.1 43 43 48.4 48.5 49.1 51.7 55.6 59.6 58.3 57.2 57.2 57.2 57.2 60 57.7 55.8 58.7 59.1 56.7 58 52.5 48.8 47.1 47.6 47.7 48.7 48.1 49 49 49.4 49 47.1 47.7 46.7 41.9 34.9 33.6 33.7 31.4 36.5 40.7 41.7 44.6 44.2 44.4 45 40.2 37.9 36.1 40.7 43.6 43.5 37.4 38.1 37.7 26.8 26.8 26.8 38.8 43.8 43.9 42.5 43.9 38.9 37.5 37.6 37.5 40.6 47.1 53.2 51.1 45.2 36.2 35.9 36.8 38.9 40.5 39.5 39.5 38.1 37.1 35.2 30.6 30.5 31.5 30.5 30.5 36.2 34.6 33.6 32.6 31.4 31.9 31.7 31.3 30.7 27.1 30.7 29.3 27.1 27.1
39.7 39.2 36.8 35.9 38.6 36.7 38.2 37.3 37.2 41 38.3 45.3 44.1 42.1 40 39.3 27.8 32.6 33.1 33.3 33.9 33.7 33.6 28.3 28.3 28.3 28.3 34.3 38.3 49.9 59 63.9 69.9 80.4 79.4 78 75.5 71.5 69.6 65.8 60.8 61.3 56 48.7 45.5 45.1 39.2 39.2 39.2 39.2 39.2 43 44.7 44.9 46 48.4 52.4 49.6 46.2 43.6 44.1 41.1 43.5 46.6 45.5 52.8 46.8 45.1 49.2 48.6 44.2 42 39.9 38.3 36.6 35.7 34.1 29.1 29.1 29.1 29.1 29.1 29.1 29.9 33.9 34.3 35.8 39.2 40.8 41.8 41.9 40.4 39.7 36.8 37.9 39.1 41.3 43.2 43.2 42.4 41.7 43.5 46.2 47.6 53 54.1 60.9 57.2 57.2 57.2 57.2 57.2 60.4 58.1 56.4 55.7 56.1 53.4 54.1 48.1 47.3 46.1 47.1 47.5 47 46.5 44.7 42.4 44.5 40 39.2 42.1 37.9 31 31 31.6 31.9 40.3 42.6 44.7 44.1 45.6 44.1 43.3 42.6 41.9 39.8 36.1 39.8 44.4 44.4 39.6 40.1 40.4 26.8 26.8 26.8 34.7 39.4 42.4 48.4 44.1 41.2 41.8 40.7 42.4 41.4 45.4 49 51.9 44 36.1 35.6 36.8 38 41.9 43 42.9 41.3 38.6 37.1 32.8 30.5 30.5 30.5 30.5 33.5 34.4 33.3 32.4 30.9 28.3 29.7 27.1 27.1 27.1 27.1 27.1 27.1 27.1
42.5 41.1 40.2 39.8 44.1 39.4 40.6 38.4 40.1 44.7 41.7 47.4 46.1 44.1 39.3 32.9 27.8 33.3 32.7 33 34.2 34.8 32.9 28.6 28.3 28.3 28.3 33.4 39.6 47.2 59.9 64.6 71.8 84.8 81.7 81.6 86.2 81.8 76.6 70.3 63.9 62.3 57.2 50.9 46.2 39.6 39.2 39.2 39.2 39.2 39.2 47.2 47.5 46.4 48.5 49 52.7 48.5 48 39.9 39.2 39.2 39.2 45.8 42.7 44.3 46.4 48.3 52.1 48.7 45.7 46 41.8 39 37.3 39.5 39.2 31.8 29.1 29.1 29.1 29.5 29.1 29.3 33.6 34.3 35.9 38.5 41.5 42.1 42.7 40.1 37.8 37.3 39.8 39.9 42.8 42.7 42.6 42.2 40.7 40.9 45.6 46.9 51.1 54.3 59.8 58.4 58.3 57.2 57.2 61.9 59.7 58.4 55.2 53.1 53.2 50 47.4 47.3 46.5 44 46.3 45.1 43.7 43.9 37.1 32 32.1 31 31 31 31 31 31 33.3 37.9 43.8 47.9 47.1 45.3 44.2 43.6 42.3 43.5 43.7 41.3 36.1 37.8 49.1 47.9 39.9 37.5 37 31 26.8 26.8 37.4 39.2 46.9 50.1 45.3 43.9 42.7 41.3 42 41.9 43.6 45.1 47.1 43.6 35.9 34.8 35.7 38.4 44.6 47.8 44.6 41 38 37.4 34.4 30.5 33.6 30.5 30.5 34.1 34 33 31.2 29.2 28.5 27.1 27.1 27.1 27.1 27.1 27.1 27.1 29.8
46.5 47.8 43.1 41.8 45.3 41.8 43.6 40.9 46 47.5 46.1 52.1 49.6 46.9 42.6 34.4 27.8 27.8 27.8 32.1 33.9 34.6 33.4 30.9 28.3 28.3 28.3 35 40.8 47.2 57.4 65.3 75 84.4 88.1 93.6 90.8 85.1 80 76.7 68.9 64.2 60.9 54.3 46.5 40.3 39.2 39.2 39.4 39.2 39.2 48.3 50.5 46.3 51.6 46.1 44.8 44.9 41.8 39.2 39.2 39.2 40.1 43.1 43.2 44 47.1 48.4 50.9 51.4 48.3 47 43.3 40.1 41 47.3 43.4 29.1 29.1 29.1 29.1 33.7 33.2 33.8 33.7 34.3 38.2 38 41.8 42.9 42.2 40.8 36.7 38.2 37.8 39.3 41.9 42.2 42.1 40.1 39.2 39.6 45 48.2 50.2 52.9 57.9 60 59.8 58.4 57.2 57.5 59.6 56.9 55.2 53.4 50.7 47.2 45.6 45.7 44 41.2 43.6 41.5 37.9 35.5 31 31 31 31 31 31 31 31 31 38.6 38.1 44.2 50.3 49.3 45.7 43.6 43 42.7 43.3 45.6 41.2 36.1 39.7 49.7 48.2 41.7 35.8 32.9 31.4 26.8 26.8 38.1 41.4 53.9 49.9 50.4 44.3 42.9 42.7 42.4 42.3 44.6 43.2 43.9 39 35.3 34.2 34.8 38.6 47.9 47.6 43.2 39.7 37 35.7 34.1 30.5 30.5 30.5 30.5 32.4 31.4 30.3 30.1 27.1 27.1 27.1 27.1 27.1 27.1 27.1 27.1 27.1 29.2
54.9 54.2 47.1 44.8 46.7 44.5 47.5 44 50.2 48.8 51.8 56.5 53.3 50.1 47.3 35 27.8 27.8 27.8 33.3 36.8 34.4 36.5 32.3 28.3 28.3 28.3 32.6 40.8 45 55.8 69.3 77.4 89.3 92 97.5 96.7 92.1 84.5 82.2 78.9 71 65.7 58.1 54.1 42.5 40.4 39.2 40.9 43.2 39.2 48.6 48.6 44.1 42.6 39.2 39.2 39.2 39.2 39.2 39.2 39.3 42.7 45.5 46.6 48.1 49.5 50.7 51.5 53 51.4 52.9 46 42.3 44.8 47.2 35.4 29.1 29.1 29.1 32 38.6 38.4 33.2 30 33 35.5 36.9 39.6 43.1 41 39.5 36.5 39 38.7 39.3 41.7 44.7 39 38.3 39.8 37.5 43.4 49.3 49.9 50.7 59.2 60.7 60 58.7 57.2 61 61 56.6 54.2 51.2 48.5 42.2 44.1 44.4 43.4 39.4 37.3 35.1 31 31 31 31 31 31 39.2 37.4 35.4 31.2 31 36 37.9 47.9 53.6 51.5 47.8 43.2 42.1 42.3 42.7 43.7 36.1 36.1 41.1 47.3 49.8 39.3 34.5 26.8 30.9 26.8 26.8 36.4 45.9 55.8 50 47.3 43.7 42.1 41.9 40.4 39.6 41.8 38 36.4 34.9 34.4 32.3 34.5 37.9 40.5 43.7 38.5 37.1 35.5 35.3 35.2 33.6 30.5 30.5 30.5 34 33.6 32.7 31.8 30.6 27.1 27.1 27.1 27.1 27.1 27.1 27.1 27.1 30.3
55.6 59.1 54 51.1 50 48.7 50.2 47.2 54.4 51.6 55.5 64 59.6 54.9 47.4 37.8 27.8 27.8 27.8 33.3 35.2 32.2 39.3 34.1 28.3 28.3 28.6 35.4 40.4 44.9 56.1 73.2 79.9 93.2 99.7 104.2 101.2 97.5 92.2 87.1 82.2 74.2 66.6 62.5 59.3 46.4 39.6 39.2 40.9 44.3 39.2 39.2 39.2 39.2 39.2 39.2 39.2 39.2 39.2 39.2 39.2 45.7 48.1 48.8 49.3 53.6 49.3 48.3 52.5 50.2 48.5 48.1 47.2 43.8 38.3 36.6 30.3 29.1 29.1 29.1 32.1 38.6 40.8 30.9 29.1 33.7 33.7 35.5 36.6 39.5 38.5 38.3 35.4 38.1 40.5 41.1 41.6 40.6 38.2 36.9 38.3 38.4 48.6 49.8 49.8 50.3 51.7 59.9 62.5 60.2 59.3 59.1 58.2 55.7 51.7 48 44.4 40.8 44.2 45 41.7 36.5 32 31 31 31 31 34.3 31 34.2 42.9 42.9 40 31 31 33.5 38.2 51.4 54.6 50.8 47.8 42.1 40.2 40.5 42.9 43.8 36.1 36.1 36.1 43.9 46.7 38.6 36.6 26.8 31 26.8 26.8 33 43.9 51.8 46.7 46.1 43.5 42 42 38.7 37.7 36.7 36.4 35.2 34.2 33.8 29.8 29.8 34.7 35.6 37.2 36.6 36.6 35.5 36.4 36.8 34 30.5 30.5 33.4 35.1 34.4 33.5 32.4 29.1 27.1 27.1 27.1 27.1 27.1 27.1 27.1 27.1 27.1
