ncols 200
nrows 89
xllcorner 180000
yllcorner 851150
cellsize 50
-2.1 -2.1 -2.1 -2.1 -2.1 -2.1 -2.1 -2.1 -2.1 -2.1 -2.1 -2.1 -2.1 -2.1 -2.1 -2.1 -2.1 -2.1 -2.1 -2.1 -2.1 -2.1 -2.1 -2.1 -2.1 14.9 19.5 15.3 15.9 19.7 32.8 39.9 44.3 36.7 27 17 10.3 4.7 -2.1 -2.1 -2.1 -2.1 -2.1 -2.1 -2.1 -2.1 -2.1 -2.1 -2.1 -2.1 -2.1 -2.1 -2.1 -2.1 -2.1 -2.1 -2.1 -2.1 -2.1 -2.1 -2.1 -2.1 -2.1 -2.1 -2.1 -2.1 -2.1 -2.1 -2.1 -2.1 -2.1 -2.1 -2.1 -2.1 -2.1 -2.1 -2.1 -2.1 -2.1 -2.1 -2.1 -2.1 -2.1 -2.1 -2.1 -2.1 -2.1 -2.1 -2.1 -2.1 -2.1 -2.1 -2.1 -2.1 -2.1 -2.1 -2.1 -2.1 -2.1 -2.1 -2.1 -2.1 -2.1 -2.1 -2.1 -2.1 -2.1 -2.1 -2.1 -2.1 -2.1 -2.1 -2.1 -2.1 -2.1 -2.1 -2.1 -2.1 -2.1 -2.1 -2.1 -2.1 -2.1 -2.1 -2.1 -2.1 -2.1 -2.1 -2.1 -2.1 -2.1 -2.1 -2.1 -2.1 -2.1 -2.1 -2.1 -2.1 -2.1 -2.1 -2.1 -2.1 -2.1 -2.1 -2.1 -2.1 -2.1 -2.1 -2.1 -2.1 -2.1 -2.1 -2.1 -2.1 -2.1 -2.1 -2.1 -2.1 -2.1 -2.1 -2.1 -2.1 -2.1 -2.1 -2.1 -2.1 -2.1 -2.1 -2.1 -2.1 -2.1 -2.1 -2.1 -2.1 -2.1 -2.1 -2.1 -2.1 -2.1 -2.1 -2.1 -2.1 -1.7 -1.5 -1.4 -1.3 -1.2 -1.1 -1 -0.9 -0.8 -0.7 -0.7 -2.1 -2.1 -2.1 -2.1 6.8 7.7 8.3
-2.1 -2.1 -2.1 -2.1 -2.1 -2.1 -2.1 -2.1 -2.1 -2.1 -2.1 -2.1 -2.1 -2.1 -2.1 -2.1 -2.1 -2.1 -2.1 -2.1 -2.1 -2.1 -2.1 -2.1 -2.1 -2.1 -2.1 18.8 22.8 30.6 44.8 53.9 52.9 42 26.5 18.4 10.4 -2.1 -2.1 -2.1 -2.1 -2.1 -2.1 -2.1 -2.1 -2.1 -2.1 -2.1 -2.1 -2.1 -2.1 -2.1 -2.1 -2.1 -2.1 -2.1 -2.1 -2.1 -2.1 -2.1 -2.1 -2.1 -2.1 -2.1 -2.1 -2.1 -2.1 -2.1 -2.1 -2.1 -2.1 -2.1 -2.1 -2.1 -2.1 -2.1 -2.1 -2.1 -2.1 -2.1 -2.1 -2.1 -2.1 -2.1 -2.1 -2.1 -2.1 -2.1 -2.1 -2.1 -2.1 -2.1 -2.1 -2.1 -2.1 -2.1 -2.1 -2.1 -2.1 -2.1 -2.1 -2.1 -2.1 -2.1 -2.1 -2.1 -2.1 -2.1 -2.1 -2.1 -2.1 -2.1 -2.1 -2.1 -2.1 -2.1 -2.1 -2.1 -2.1 -2.1 -2.1 -2.1 -2.1 -2.1 -2.1 -2.1 -2.1 -2.1 -2.1 -2.1 -2.1 -2.1 -2.1 -2.1 -2.1 -2.1 -2.1 -2.1 -2.1 -2.1 -2.1 -2.1 -2.1 -2.1 -2.1 -2.1 -2.1 -2.1 -2.1 -2.1 -2.1 -2.1 -2.1 -2.1 -2.1 -2.1 -2.1 -2.1 -2.1 -2.1 -2.1 -2.1 -2.1 -2.1 -2.1 -2.1 -2.1 -2.1 -2.1 -2.1 -2.1 -2.1 -2.1 -2.1 -2.1 -2.1 -2.1 -2.1 -2.1 -2.1 -2.1 -2.1 -1.5 -1 -0.6 -0.5 -0.4 -0.3 -0.2 -0.1 0 0.1 0.5 0.2 -2.1 -2.1 -2.1 5 7.5 8
-2.1 -2.1 -2.1 -2.1 -2.1 -2.1 -2.1 -2.1 -2.1 -2.1 -2.1 -2.1 -2.1 -2.1 -2.1 -2.1 -2.1 -2.1 -2.1 -2.1 -2.1 -2.1 -2.1 -2.1 -2.1 -2.1 -2.1 7.8 18.4 34.5 44.6 51.7 44.9 26.4 19.6 12.3 1.6 -2.1 -2.1 -2.1 -2.1 -2.1 -2.1 -2.1 -2.1 -2.1 -2.1 0.1 -2.1 -2.1 -2.1 -2.1 -2.1 -2.1 -2.1 -2.1 -2.1 -2.1 -2.1 -2.1 -2.1 -2.1 -2.1 -2.1 -2.1 -2.1 -2.1 -2.1 -2.1 -2.1 -2.1 -2.1 -2.1 -2.1 -2.1 -2.1 -2.1 -2.1 -2.1 -2.1 -2.1 -2.1 -2.1 -2.1 -2.1 -2.1 -2.1 -2.1 -2.1 -2.1 -2.1 -2.1 -2.1 -2.1 -2.1 -2.1 -2.1 -2.1 -2.1 -2.1 -2.1 -2.1 -2.1 -2.1 -2.1 -2.1 -2.1 -2.1 -2.1 -2.1 -2.1 -2.1 -2.1 -2.1 -2.1 -2.1 -2.1 -2.1 -2.1 -2.1 -2.1 -2.1 -2.1 -2.1 -2.1 -2.1 -2.1 -2.1 -2.1 -2.1 -2.1 -2.1 -2.1 -2.1 -2.1 -2.1 -2.1 -2.1 -2.1 -2.1 -2.1 -2.1 -2.1 -2.1 -2.1 -2.1 -2.1 -2.1 -2.1 -2.1 -2.1 -2.1 -2.1 -2.1 -2.1 -2.1 -2.1 -2.1 -2.1 -2.1 -2.1 -2.1 -2.1 -2.1 -2.1 -2.1 -2.1 -2.1 -2.1 -2.1 -2.1 -2.1 -2.1 -2.1 -2.1 -2.1 -2.1 -2.1 -2.1 -2.1 -2.1 -2.1 -1.4 -0.9 -0.4 0.1 0.4 0.5 0.6 0.7 0.8 0.9 1.6 2.3 -2.1 -2.1 1.5 2.7 7 7.9
-2.1 -2.1 -2.1 -2.1 -2.1 -2.1 -2.1 -2.1 -2.1 -2.1 -2.1 -2.1 -2.1 -2.1 -2.1 -2.1 -2.1 -2.1 -2.1 -2.1 -2.1 -2.1 -2.1 -2.1 -2.1 -2.1 -2.1 2.4 20.5 33.5 36.8 34 25.6 22 16.3 11.3 2.9 -2.1 -2.1 -2.1 2.5 6.1 6.3 5.5 6.7 8.6 9.8 5.4 -2.1 -2.1 -2.1 -2.1 -2.1 -2.1 -2.1 -2.1 -2.1 -2.1 -2.1 -2.1 -2.1 -2.1 -2.1 -2.1 -2.1 -2.1 -2.1 -2.1 -2.1 -2.1 -2.1 -2.1 -2.1 -2.1 -2.1 -2.1 -2.1 -2.1 -2.1 -2.1 -2.1 -2.1 -2.1 -2.1 -2.1 -2.1 -2.1 -2.1 -2.1 -2.1 -2.1 -2.1 -2.1 -2.1 -2.1 -2.1 -2.1 -2.1 -2.1 -2.1 -2.1 -2.1 -2.1 -2.1 -2.1 -2.1 -2.1 -2.1 -2.1 -2.1 -2.1 -2.1 -2.1 -2.1 -2.1 -2.1 -2.1 -2.1 -2.1 -2.1 -2.1 -2.1 -2.1 -2.1 -2.1 -2.1 -2.1 -2.1 -2.1 -2.1 -2.1 -2.1 -2.1 -2.1 -2.1 -2.1 -2.1 -2.1 -2.1 -2.1 -2.1 -2.1 -2.1 -2.1 -2.1 -2.1 -2.1 -2.1 -2.1 -2.1 -2.1 -2.1 -2.1 -2.1 -2.1 -2.1 -2.1 -2.1 -2.1 -2.1 -2.1 -2.1 -2.1 -2.1 -2.1 -2.1 -2.1 -2.1 -2.1 -2.1 -2.1 -2.1 -2.1 -2.1 -2.1 -2.1 -2.1 -2.1 -2.1 -2.1 -2.1 -2.1 -1.5 -0.9 -0.3 0.2 0.8 1.2 1.4 1.5 1.6 2 2.7 2.5 -2.1 -0.4 2.7 2.7 6.6 8.2
-2.1 -2.1 -2.1 -2.1 -2.1 -2.1 -2.1 -2.1 -2.1 -2.1 -2.1 -2.1 -2.1 -2.1 -2.1 -2.1 -2.1 -2.1 -2.1 -2.1 -2.1 -2.1 -2.1 -2.1 -2.1 -2.1 -2.1 -2.1 24.4 34.9 28.7 21.3 18.3 17.8 16.4 13.4 5.9 2.7 1.9 -2.1 21.9 23.5 21 18.1 17.4 19.4 16.4 13.5 3.3 -2.1 -2.1 -2.1 -2.1 -2.1 -2.1 -2.1 -2.1 -2.1 -2.1 -2.1 -2.1 -2.1 -2.1 -2.1 -2.1 -2.1 -2.1 -2.1 -2.1 -2.1 -2.1 -2.1 -2.1 -2.1 -2.1 -2.1 -2.1 -2.1 -2.1 -2.1 -2.1 -2.1 -2.1 -2.1 -2.1 -2.1 -2.1 -2.1 -2.1 -2.1 -2.1 -2.1 -2.1 -2.1 -2.1 -2.1 -2.1 -2.1 -2.1 -2.1 -2.1 -2.1 -2.1 -2.1 -2.1 -2.1 -2.1 -2.1 -2.1 -2.1 -2.1 -2.1 -2.1 -2.1 -2.1 -2.1 -2.1 -2.1 -2.1 -2.1 -2.1 -2.1 -2.1 -2.1 -2.1 -2.1 -2.1 -2.1 -2.1 -2.1 -2.1 -2.1 -2.1 -2.1 -2.1 -2.1 -2.1 -2.1 -2.1 -2.1 -2.1 -2.1 -2.1 -2.1 -2.1 -2.1 -2.1 -2.1 -2.1 -2.1 -2.1 -2.1 -2.1 -2.1 -2.1 -2.1 -2.1 -2.1 -2.1 -2.1 -2.1 -2.1 -2.1 -2.1 -2.1 -2.1 -2.1 -2.1 -2.1 -2.1 -2.1 -2.1 -2.1 -2.1 -2.1 -2.1 -2.1 -2.1 -2.1 -2.1 -2.1 -2.1 -1.6 -1 -0.4 0.2 0.8 1.4 1.9 2.3 2.5 2.7 2.7 2.7 -2.1 -2.1 3 3.1 5.2 6.5
-2.1 -2.1 -2.1 -2.1 -2.1 -2.1 -2.1 -2.1 -2.1 -2.1 -2.1 -2.1 -2.1 -2.1 -2.1 -2.1 -2.1 -2.1 -2.1 -2.1 -2.1 -2.1 -2.1 -2.1 -2.1 -2.1 -2.1 -2.1 12.5 22.2 22 20.9 19.1 18.2 17 14.6 10.1 16 14.9 26.1 37.4 36.3 31.2 27.3 27.1 25.2 21 18 9.5 1.2 -2.1 -2.1 -2.1 -2.1 -2.1 -2.1 -2.1 -2.1 -2.1 -2.1 -2.1 -2.1 -2.1 -2.1 -2.1 -2.1 -2.1 -2.1 -2.1 -2.1 -2.1 -2.1 -2.1 -2.1 -2.1 -2.1 -2.1 -2.1 -2.1 -2.1 -2.1 -2.1 -2.1 -2.1 -2.1 -2.1 -2.1 -2.1 -2.1 -2.1 -2.1 -2.1 -2.1 -2.1 -2.1 -2.1 -2.1 -2.1 -2.1 -2.1 -2.1 -2.1 -2.1 -2.1 -2.1 -2.1 -2.1 -2.1 -2.1 -2.1 -2.1 -2.1 -2.1 -2.1 -2.1 -2.1 -2.1 -2.1 -2.1 -2.1 -2.1 -2.1 -2.1 -2.1 -2.1 -2.1 -2.1 -2.1 -2.1 -2.1 -2.1 -2.1 -2.1 -2.1 -2.1 2.1 -2.1 -2.1 2.7 -2.1 -2.1 -2.1 -2.1 -2.1 -2.1 -2.1 -2.1 -2.1 -2.1 -2.1 -2.1 -2.1 -2.1 -2.1 -2.1 -2.1 -2.1 -2.1 -2.1 -2.1 -2.1 -2.1 -2.1 -2.1 -2.1 -2.1 -2.1 -2.1 -2.1 -2.1 -2.1 -2.1 -2.1 -2.1 -2.1 -2.1 -2.1 -2.1 -2.1 -2.1 -2.1 -2.1 -1.4 -0.8 -0.2 0.4 0.9 1.5 2.1 2.6 2.7 2.7 2.7 3.7 -2.1 -2.1 2.7 3.6 5.2 5.5
-2.1 -2.1 -2.1 -2.1 -2.1 -2.1 -2.1 -2.1 -2.1 -2.1 -2.1 -2.1 -2.1 -2.1 -2.1 -2.1 -2.1 -2.1 -2.1 -2.1 -2.1 -2.1 -2.1 -2.1 -2.1 -2.1 -2.1 -2.1 -2.1 14.1 18.5 20.8 21.1 25.7 19.3 16 18 25.5 33.4 48 51 46.8 41.8 38.5 35.1 31.2 27.2 22.1 16.4 6 1.3 -2.1 -2.1 -2.1 -2.1 -2.1 -2.1 -2.1 -2.1 -2.1 -2.1 -2.1 -2.1 -2.1 -2.1 -2.1 -2.1 -2.1 -2.1 -2.1 -2.1 -2.1 -2.1 -2.1 -2.1 -2.1 -2.1 -2.1 -2.1 -2.1 -2.1 -2.1 -2.1 -2.1 -2.1 -2.1 -2.1 -2.1 -2.1 -2.1 -2.1 -2.1 -2.1 -2.1 -2.1 -2.1 -2.1 -2.1 -2.1 -2.1 -2.1 -2.1 -2.1 -2.1 -2.1 -2.1 -2.1 -2.1 -2.1 -2.1 -2.1 -2.1 -2.1 -2.1 -2.1 -2.1 -2.1 -2.1 -2.1 -2.1 -2.1 -2.1 -2.1 -2.1 -2.1 -2.1 -2.1 -2.1 -2.1 -2.1 -2.1 -2.1 -2.1 -2.1 -2.1 5.2 2.7 5.8 2.7 -2.1 -2.1 -2.1 -2.1 0.8 -2.1 -2.1 -2.1 -2.1 -2.1 -2.1 -2.1 -2.1 -2.1 -2.1 -2.1 -2.1 -2.1 -2.1 -2.1 -2.1 -2.1 -2.1 -2.1 -2.1 -2.1 -2.1 -2.1 -2.1 -2.1 -2.1 -2.1 -2.1 -2.1 -2.1 -2.1 -2.1 -2.1 -2.1 -2.1 -2.1 -2.1 -1.8 -1.2 -0.6 0 0.7 1.2 1.8 2.4 2.7 2.5 2.7 2.8 3.1 2.6 -2.1 -2.1 4.2 5.4 5.9
-2.1 -2.1 -2.1 -2.1 -2.1 -2.1 -2.1 -2.1 -2.1 -2.1 -2.1 -2.1 -2.1 -2.1 -2.1 -2.1 -2.1 -2.1 -2.1 -2.1 -2.1 -2.1 -2.1 -2.1 -2.1 -2.1 -2.1 -2.1 -2.1 4.3 19.1 22.4 31.4 37.6 32.3 31.5 23.4 33 43.8 50.4 53.7 51.6 47.9 46.2 42.6 37.3 31.6 25.2 19.6 14.3 7.2 2.2 -2.1 -2.1 -2.1 -2.1 -2.1 -2.1 -2.1 -2.1 -2.1 -2.1 -2.1 -2.1 -2.1 -2.1 -2.1 -2.1 -2.1 -2.1 -2.1 -2.1 -2.1 -2.1 -2.1 -2.1 -2.1 -2.1 -2.1 -2.1 -2.1 -2.1 -2.1 -2.1 11.9 10.9 6.3 -2.1 -2.1 -2.1 -2.1 -2.1 -2.1 -2.1 -2.1 -2.1 -2.1 -2.1 -2.1 -2.1 -2.1 -2.1 -2.1 -2.1 -2.1 -2.1 -2.1 -2.1 -2.1 -2.1 -2.1 -2.1 -2.1 -2.1 -2.1 -2.1 -2.1 -2.1 -2.1 -2.1 -2.1 -2.1 -2.1 -2.1 -2.1 -2.1 -2.1 -2.1 -2.1 -2.1 -2.1 -2.1 -2.1 -2.1 -2.1 -2.1 2.7 5.2 4.7 -2.1 -2.1 -2.1 11.6 10.2 -2.1 -2.1 -2.1 -2.1 -2.1 -2.1 -2.1 -2.1 -2.1 -2.1 -2.1 -2.1 -2.1 -2.1 -2.1 -2.1 -2.1 -2.1 -2.1 -2.1 -2.1 -2.1 -2.1 -2.1 -2.1 -2.1 -2.1 -2.1 -2.1 -2.1 -2.1 -2.1 -2.1 -2.1 -2.1 -2.1 -2.1 -1.5 -0.9 -0.4 0.2 0.8 1.4 2.1 2.7 2.7 1.4 -0.5 -2.1 2.7 3.9 4 -2.1 4.9 5.3 7.1
-2.1 -2.1 -2.1 -2.1 -2.1 -2.1 -2.1 -2.1 -2.1 -2.1 -2.1 -2.1 -2.1 -2.1 -2.1 -2.1 -2.1 -2.1 -2.1 -2.1 -2.1 -2.1 -2.1 -2.1 -2.1 -2.1 -2.1 -2.1 -2.1 6.3 24.1 29.5 40.7 45.9 36.2 28.4 28.6 36.3 43.6 47.4 49.7 52 53.1 51.9 46.8 42.5 36.9 29.5 21.6 17.6 13 7.6 2.1 -2.1 -2.1 -2.1 -2.1 -2.1 -2.1 -2.1 -2.1 -2.1 -2.1 -2.1 -2.1 -2.1 -2.1 -2.1 -2.1 -2.1 -2.1 -2.1 -2.1 -2.1 -2.1 -2.1 -2.1 -2.1 -2.1 -2.1 -2.1 -2.1 -2.1 14.8 15.7 18.1 17.4 13.4 -2.1 -2.1 -2.1 -2.1 -2.1 -2.1 -2.1 -2.1 -2.1 -2.1 -2.1 -2.1 -2.1 -2.1 -2.1 -2.1 -2.1 -2.1 -2.1 -2.1 -2.1 -2.1 -2.1 -2.1 -2.1 -2.1 -2.1 -2.1 -2.1 -2.1 -2.1 -2.1 11.9 15.9 12 12.6 14.5 13.3 8.7 -2.1 -2.1 -2.1 -2.1 -2.1 -2.1 -2.1 -2.1 -2.1 -2.1 -2.1 -2.1 16.1 15.2 11.3 10.2 7.1 4 -2.1 -2.1 -2.1 -2.1 -2.1 -2.1 -2.1 -2.1 -2.1 -2.1 -2.1 -2.1 -2.1 -2.1 -2.1 -2.1 -2.1 -2.1 -2.1 -2.1 -2.1 -2.1 -2.1 -2.1 -2.1 -2.1 -2.1 -2.1 -2.1 -2.1 -2.1 -2.1 -2.1 -2.1 -2.1 -1.8 -1.3 -0.7 -0.2 0.4 0.9 1.5 2.2 2.7 2.7 2.7 -2.1 -2.1 3.6 4.5 4.6 -2.1 -2.1 4.8 6.5
-2.1 -2.1 -2.1 -2.1 -2.1 -2.1 -2.1 -2.1 -2.1 -2.1 -2.1 -2.1 -2.1 -2.1 -2.1 -2.1 -2.1 -2.1 -2.1 -2.1 -2.1 -2.1 -2.1 -2.1 -2.1 -2.1 -2.1 -2.1 -2.1 13.4 29.7 37.5 47.3 45.3 33.6 38.7 49.3 65.4 62 55.7 53.2 54.9 57.2 58.4 52.8 48 44.1 39.2 35.3 24.8 14.9 10.6 4.7 0.4 -2.1 -2.1 -2.1 -2.1 -2.1 -2.1 -2.1 -2.1 -2.1 -2.1 -2.1 -2.1 -2.1 -2.1 -2.1 -2.1 -2.1 -2.1 -2.1 -2.1 -2.1 -2.1 -2.1 -2.1 -2.1 -2.1 -2.1 -2.1 11.3 19.3 23 25.3 26.6 24.2 14.8 -2.1 -2.1 -2.1 -2.1 -2.1 -2.1 -2.1 -2.1 -2.1 -2.1 -2.1 -2.1 -2.1 -2.1 -2.1 -2.1 -2.1 -2.1 -2.1 -2.1 -2.1 -2.1 -2.1 -2.1 -2.1 -2.1 -2.1 -2.1 -2.1 -2.1 -2.1 20.4 28.5 28.4 26 21.4 16.5 10.4 6.1 -2.1 -2.1 -2.1 -2.1 -2.1 -2.1 -2.1 -2.1 -2.1 -2.1 -2.1 13.3 11.8 8.9 7.1 2.7 1.9 -2.1 -2.1 -2.1 -2.1 -2.1 -2.1 -2.1 -2.1 -2.1 -2.1 -2.1 -2.1 -2.1 -2.1 -2.1 -2.1 -2.1 -2.1 -2.1 -2.1 -2.1 -2.1 -2.1 -2.1 -2.1 -2.1 -2.1 -2.1 -2.1 -2.1 -2.1 -2.1 -2.1 -2.1 -1.9 -1.4 -1 -0.6 -0.1 0.4 1 1.5 2.1 2.7 2.7 2.7 2.7 3.8 4.7 4.5 5.7 4.7 -2.1 -2.1 -2.1
-2.1 -2.1 -2.1 -2.1 -2.1 -2.1 -2.1 -2.1 -2.1 -2.1 -2.1 -2.1 -2.1 -2.1 -2.1 -2.1 -2.1 -2.1 -2.1 -2.1 -2.1 -2.1 -2.1 -2.1 -2.1 -2.1 -2.1 -2.1 -2.1 25.2 22.7 24.1 26.1 30.3 37.4 58.8 70.4 71.9 76.5 68.9 61.8 60.6 60.6 62.2 60.3 51.2 47.2 44.4 37.8 25.1 17 12.9 7.6 2.1 -2.1 -2.1 -2.1 -2.1 -2.1 -2.1 -2.1 -2.1 -2.1 -2.1 -2.1 -2.1 -2.1 -2.1 -2.1 -2.1 -2.1 -2.1 -2.1 -2.1 -2.1 -2.1 -2.1 -2.1 -2.1 3.3 -2.1 -2.1 16.4 27.2 33 31.2 31.4 30.6 26.1 15.7 -2.1 -2.1 -2.1 -2.1 -2.1 -2.1 -2.1 -2.1 -2.1 -2.1 -2.1 -2.1 -2.1 -2.1 -2.1 -2.1 -2.1 -2.1 -2.1 -2.1 -2.1 -2.1 -2.1 -2.1 -2.1 -2.1 -2.1 -2.1 -2.1 8.2 27.5 43.8 38.5 26.2 20 17.7 12.2 7.2 -2.1 -2.1 -2.1 -2.1 -2.1 -2.1 -2.1 -2.1 -2.1 -2.1 -2.1 2.5 9.1 7 6.1 2.7 -2.1 -2.1 -2.1 -2.1 -2.1 -2.1 -2.1 -2.1 -2.1 -2.1 -2.1 -2.1 -2.1 -2.1 -2.1 -2.1 -2.1 -2.1 -2.1 -2.1 -2.1 -2.1 -2.1 -2.1 -2.1 -2.1 -2.1 -2.1 -2.1 -2.1 -2.1 -2.1 -2.1 -2.1 -2.1 -1.7 -1.2 -0.8 -0.3 0.2 0.6 1 1.5 2 2.6 2.7 2.7 3.3 4.1 4.7 4.8 5.5 5 5.3 -2.1 4.6
-2.1 -2.1 -2.1 -2.1 -2.1 -2.1 -2.1 -2.1 -2.1 -2.1 -2.1 -2.1 -2.1 -2.1 -2.1 -2.1 -2.1 -2.1 -2.1 -2.1 -2.1 -2.1 -2.1 -2.1 -2.1 -2.1 -2.1 -2.1 -2.1 6.5 14.8 21.4 29.8 38.7 48.7 67.8 72.9 74.4 78.1 77.9 69.7 64.2 62.5 63.6 62.4 55.8 46.7 40.2 35.4 29.7 22.2 15 10.3 5.4 2.1 0.8 -2.1 -2.1 -2.1 -2.1 -2.1 -2.1 -2.1 -2.1 -2.1 -2.1 -2.1 -2.1 -2.1 -2.1 -2.1 -2.1 -2.1 -2.1 -2.1 -2.1 -2.1 -2.1 0.7 8.9 12.7 14.5 20.6 30.5 39.4 39.5 34.3 33.6 31.4 23.9 13.1 -2.1 -2.1 -2.1 -2.1 -2.1 -2.1 -2.1 -2.1 -2.1 -2.1 -2.1 -2.1 -2.1 -2.1 -2.1 -2.1 -2.1 -2.1 -2.1 -2.1 -2.1 -2.1 -2.1 -2.1 -2.1 -2.1 -2.1 -2.1 9.6 29.9 48.1 44.3 32.2 20.9 13.5 12.3 11.2 -2.1 -2.1 -2.1 -2.1 -2.1 -2.1 -2.1 -2.1 -2.1 -2.1 -2.1 -2.1 15.8 20.7 17.1 7.5 -2.1 -2.1 -2.1 -2.1 -2.1 -2.1 0.8 5.9 -2.1 -2.1 -2.1 -2.1 -2.1 -2.1 -2.1 -2.1 -2.1 -2.1 -2.1 -2.1 -2.1 -2.1 -2.1 -2.1 -2.1 -2.1 -2.1 -2.1 -2.1 -2.1 -2.1 -2.1 -2.1 -2.1 -2 -1.6 -1.1 -0.6 -0.2 0.3 0.7 1.2 1.7 2.1 2.6 2.7 3.5 3.6 4.4 4.3 4.4 5.1 4.9 5.2 5.6 5.6
-2.1 -2.1 -2.1 -2.1 -2.1 -2.1 -2.1 -2.1 -2.1 -2.1 -2.1 -2.1 -2.1 -2.1 -2.1 -2.1 -2.1 -2.1 -2.1 -2.1 -2.1 -2.1 -2.1 -2.1 -2.1 -2.1 -2.1 -2.1 -2.1 0.8 9.3 20 30 42 54.9 68.7 75.1 75.2 76.2 76.8 79.2 70.2 65 65.6 64.2 60.9 50.6 45 43.3 41.7 38.2 22.3 13.5 9.8 7.3 4 0.9 -2.1 -2.1 -2.1 -2.1 -2.1 -2.1 -2.1 -2.1 -2.1 -2.1 -2.1 -2.1 -2.1 -2.1 -2.1 -2.1 -2.1 -2.1 -2.1 -2.1 -2.1 1.6 12.3 18 21.3 24.6 34.9 46.6 43.4 37.3 34.1 32.6 27.7 17.3 -2.1 -2.1 -2.1 -2.1 -2.1 -2.1 -2.1 -2.1 -2.1 -2.1 -2.1 -2.1 -2.1 -2.1 -2.1 1.6 5.1 6 2.2 -2.1 -2.1 -2.1 -2.1 -2.1 0.8 -2.1 -2.1 -2.1 -2.1 24.6 36.6 39.7 34.8 24.4 12.2 5.1 -2.1 -2.1 -2.1 -2.1 -2.1 -2.1 -2.1 -2.1 -2.1 -2.1 -2.1 -2.1 -2.1 15.9 22.5 21.1 13.5 5 4 8.3 -2.1 -2.1 0.4 2.7 8.9 9.6 5.8 -2.1 -2.1 -2.1 -2.1 -2.1 -2.1 -2.1 -2.1 -2.1 -2.1 -2.1 -2.1 -2.1 -2.1 -2.1 -2.1 -2.1 -2.1 -2.1 -2.1 -2.1 -2.1 -2.1 -2.1 -1.9 -1.4 -1 -0.5 -0.1 0.4 0.8 1.3 1.7 2.1 2.5 2.7 3.5 4.1 4.7 4.5 4.1 4.7 4.7 5.1 5.6 5.3
-2.1 -2.1 -2.1 -2.1 -2.1 -2.1 -2.1 -2.1 -2.1 -2.1 -2.1 -2.1 -2.1 -2.1 -2.1 -2.1 -2.1 -2.1 -2.1 -2.1 -2.1 -2.1 -2.1 -2.1 -2.1 -2.1 -2.1 -2.1 -2.1 1.4 14.2 31.4 37.5 52.9 62.7 79 82.2 82.6 84.9 83.6 79.1 75.7 71.4 71.9 68.7 64.5 57.4 53.3 50.8 43.9 30.1 20.4 16.2 13.4 11.2 6.7 -2.1 -2.1 -2.1 -2.1 -2.1 -2.1 -2.1 -2.1 -2.1 -2.1 -2.1 -2.1 -2.1 -2.1 -2.1 -2.1 -2.1 -2.1 -2.1 -2.1 -2.1 -2.1 2.3 16.1 26.5 30.2 29.1 36.3 45.3 44.8 41.6 38 35.5 31.5 20.7 -2.1 -2.1 -2.1 -2.1 -2.1 -2.1 -2.1 -2.1 -2.1 -2.1 -2.1 -2.1 -2.1 -2.1 -2.1 2.3 9.3 11.6 12.6 9.3 -2.1 -2.1 -2.1 -2.1 7.5 -2.1 -2.1 -2.1 -2.1 -2.1 26 36.4 36.5 33.7 24.5 16.6 11.8 -2.1 -2.1 -2.1 6.4 -2.1 -2.1 -2.1 -2.1 -2.1 -2.1 -2.1 -2.1 10.9 16.9 17.6 16.7 16.9 15 9.1 9.3 8.9 8.5 13.7 13.6 13.1 10.3 4.5 -2.1 -2.1 -2.1 -2.1 -2.1 -2.1 -2.1 -2.1 -2.1 -2.1 -2.1 -2.1 -2.1 -2.1 -2.1 -2.1 -2.1 -2.1 -2.1 -2.1 -2.1 -2.1 -2.1 -1.8 -1.4 -1 -0.6 -0.1 0.3 0.7 1.1 1.5 1.9 2.4 2.7 3.5 4.5 3.8 4.3 4.3 4.3 4.7 5.2 5.3 5.5
-2.1 -2.1 -2.1 -2.1 -2.1 -2.1 -2.1 -2.1 -2.1 -2.1 -2.1 -2.1 -2.1 -2.1 -2.1 -2.1 -2.1 -2.1 -2.1 -2.1 -2.1 -2.1 -2.1 -2.1 -2.1 -2.1 -2.1 -2.1 -2.1 9.8 27.4 46.7 48.8 59.1 75.1 84.4 92.7 98.3 95.7 92.3 87.2 79.9 76.6 75.4 74.9 70.5 62.9 60.3 52.2 36.4 26.4 21.3 17.3 14.7 11.2 -2.1 -2.1 -2.1 -2.1 -2.1 -2.1 -2.1 -2.1 -2.1 5.9 9.5 -2.1 -2.1 -2.1 -2.1 -2.1 -2.1 -2.1 -2.1 -2.1 -2.1 -2.1 -2.1 14.2 20.3 29.2 32.2 31.4 35 45.7 48 45.3 44.6 42.5 34.5 24.6 8.4 -2.1 -2.1 -2.1 -2.1 -2.1 -2.1 -2.1 -2.1 -2.1 -2.1 -2.1 -2.1 -2.1 -2.1 1.5 9 14.5 17.4 19.6 14.1 -2.1 -2.1 -2.1 13.7 -2.1 -2.1 -2.1 -2.1 -2.1 7.3 22.4 30.6 34.1 33.5 31.2 25.4 17.8 15.4 14.1 8.7 -2.1 -2.1 -2.1 -2.1 -2.1 -2.1 -2.1 -2.1 1.2 11.3 17.3 27.1 30 28.2 18.9 15.4 17.3 23.4 22.3 25.4 23.3 18.2 10.1 4.1 -2.1 -2.1 1.8 -2.1 -2.1 -2.1 -2.1 -2.1 -2.1 -2.1 -2.1 -2.1 -2.1 -2.1 -2.1 -2.1 -2.1 -2.1 -2.1 -2.1 -2.1 -2.1 -1.7 -1.3 -0.9 -0.5 -0.1 0.3 0.7 1.1 1.5 1.9 2.3 2.7 2.9 2.7 2.7 3.2 3.8 4.2 4.8 5.3 5.1 5.6
-2.1 -2.1 -2.1 -2.1 -2.1 -2.1 -2.1 -2.1 -2.1 -2.1 -2.1 -2.1 -2.1 -2.1 -2.1 -2.1 -2.1 -2.1 -2.1 -2.1 -2.1 -2.1 -2.1 -2.1 -2.1 -2.1 -2.1 -2.1 -2.1 12.6 30.6 47.1 52.9 66.6 88.2 99.8 108.1 113.7 105.9 98.7 95.2 82.8 78.6 78.1 75.1 71.7 67.2 61.5 42.6 31.8 24.5 20.1 17 14.8 4.5 -2.1 -2.1 -2.1 -2.1 -2.1 -2.1 -2.1 -2.1 5.8 8.4 -2.1 -2.1 -2.1 -2.1 -2.1 -2.1 -2.1 -2.1 -2.1 -2.1 -2.1 1.6 7.8 17.3 24.7 32.3 36.5 37.4 35.8 43.8 49.6 50.1 47.2 43.5 37.5 31.9 17 1.8 -2.1 -2.1 -2.1 -2.1 -2.1 -2.1 -2.1 -2.1 -2.1 -2.1 -2.1 -2.1 -2.1 1.6 12 17.8 20 22.4 20.9 10.8 -2.1 -2.1 11.8 -2.1 -2.1 -2.1 -2.1 -2.1 11.9 18.8 23.4 35.7 40.6 45.5 44.3 36.2 29.3 19.2 9.5 -2.1 -2.1 -2.1 -2.1 -2.1 -2.1 -2.1 -2.1 -2.1 11.6 24.2 42.5 47.7 47.9 34.5 27.1 33.5 37.2 38.4 43.2 42.8 32.5 23.7 15.3 13.9 15.6 3.6 -2.1 -2.1 -2.1 -2.1 -2.1 -2.1 -2.1 -2.1 -2.1 -2.1 -2.1 -2.1 -2.1 -2.1 -2.1 -2.1 -2.1 -2.1 -2.1 -1.9 -1.4 -0.8 -0.5 -0.1 0.3 0.7 1.1 1.5 1.9 2.3 2.7 2.7 2.7 2.7 3 3.7 4.2 4.5 4.9 5.3 5.9
-2.1 -2.1 -2.1 -2.1 -2.1 -2.1 -2.1 -2.1 -2.1 -2.1 -2.1 -2.1 -2.1 -2.1 -2.1 -2.1 -2.1 -2.1 -2.1 -2.1 -2.1 -2.1 -2.1 -2.1 -2.1 -2.1 -2.1 -2.1 2.3 14.9 30 43.3 54.7 73.6 96.2 108.6 114.4 112.7 108.1 99.6 96 86.6 81.6 78.6 76.2 72 64.4 49.6 38.3 29.3 23 18.5 13.4 -2.1 -2.1 -2.1 -2.1 -2.1 -2.1 -2.1 -2.1 4.8 2.7 5 7.5 -2.1 -2.1 -2.1 -2.1 -2.1 -2.1 -2.1 -2.1 -2.1 -2.1 1.2 14.6 22.3 20 28.4 36.6 40.6 42.8 39.3 38.8 56 55.2 49.1 42.9 40.9 33.1 20 5.3 -2.1 -2.1 -2.1 -2.1 -2.1 -1.4 -2.1 -2.1 -2.1 -2.1 -2.1 -2.1 0.1 2.6 10.7 16.5 20.8 22.7 26.4 14.4 10.2 13.6 13.6 14.6 -2.1 -2.1 -2.1 -2.1 -2.1 -2.1 23.5 26.9 41.4 56.1 61.3 50.5 35.3 22.6 14.2 10.6 6.9 -2.1 -2.1 -2.1 -2.1 -2.1 -2.1 -2.1 21.9 45 60.8 59.1 57.3 57 48.9 42.2 42 44.2 43.4 52.6 46.4 34.8 23.1 17.4 16.7 1.8 -2.1 -2.1 -2.1 -2.1 -2.1 -2.1 -2.1 -2.1 -2.1 -2.1 -2.1 -2.1 -2.1 -2.1 -2.1 -2.1 -2.1 -2.1 -2.1 -2.1 -1.7 -1.2 -0.6 -0.1 0.4 0.8 1.2 1.6 2 2.4 2.7 2.7 2.7 2.7 2.7 3.4 4.1 4.7 5 5.7 6.3
-2.1 -2.1 -2.1 -2.1 -2.1 -2.1 -2.1 -2.1 -2.1 -2.1 -2.1 -2.1 -2.1 -2.1 -2.1 -2.1 -2.1 -2.1 -2.1 -2.1 -2.1 -2.1 -2.1 -2.1 -2.1 -2.1 -2.1 -2.1 8.9 23.8 37.6 46.1 57.2 84.4 100.9 105.9 107.7 107.5 107.1 104.1 96.4 89.1 81.7 75.2 70.2 63.8 54.8 47.6 42.3 35.8 24.6 17.1 7.9 -2.1 -2.1 -2.1 -2.1 -2.1 -2.1 -2.1 -2.1 0.8 1.5 3.1 6.4 -2.1 -2.1 -2.1 -2.1 -2.1 -2.1 -2.1 -2.1 -2.1 -2.1 13.9 21.9 22.5 27.1 29.2 39.4 47.9 55.8 53.8 36.1 48.6 51.2 49.1 47.2 40.6 33 26.7 16.6 5.5 0 -2.1 -2.1 -1.8 0.7 -0.1 -2.1 -2.1 -0.4 0.1 0.7 2.4 7.2 13.8 18.9 23 23.5 23.8 18.6 19 21.5 14 13.6 18.7 -2.1 -2.1 -2.1 -2.1 -2.1 12.8 22.8 30.5 48.4 64.3 51.2 41.8 28.7 18.8 15.7 15.2 12 -2.1 -2.1 -2.1 -2.1 11.4 31.3 49.2 61.8 75.9 82 79.4 79.4 70.8 56 50 47 44.7 49.7 50.4 41.6 31.7 23.3 12.9 3.3 -2.1 -2.1 -2.1 -2.1 -2.1 -2.1 -2.1 -2.1 -2.1 -2.1 -2.1 -2.1 -2.1 -2.1 -2.1 -2.1 -2.1 -1.4 -0.9 -2.1 -2.1 -1.5 -1 -0.4 0.2 0.7 1.3 1.7 2.1 2.5 2.7 3 2.7 0 0 3.7 5.3 6.4 6.8 6.8 7.8
-2.1 -2.1 -2.1 -2.1 -2.1 -2.1 -2.1 -2.1 -2.1 -2.1 -2.1 -2.1 -2.1 -2.1 -2.1 -2.1 -2.1 -2.1 -2.1 -2.1 -2.1 -2.1 -2.1 -2.1 -2.1 -2.1 -2.1 -2.1 8.3 24 30.9 47.1 70.1 96.3 93.7 100.1 107.1 110.2 114 106.8 96.6 88.4 82.4 76.2 69.2 63 54.7 47.5 41.6 35.1 28.2 20.7 10 1.7 -2.1 -1.2 -2.1 -2.1 -2.1 -2.1 -2.1 -2.1 -2.1 2.2 3.9 -2.1 -2.1 -2.1 -2.1 -2.1 -2.1 -2.1 -2.1 -2.1 7.4 16.9 20.8 23.9 27.9 32.8 42.6 52.8 57.9 54.6 37.2 34.5 45.6 43.9 42.4 37.6 37.2 33.9 26.1 12.9 -2.1 -2.1 -2.1 1.3 2.1 2 2.2 2 2 2.4 4.6 8.2 13.2 17.5 21.3 22.2 24.1 22.9 21.3 22 22.5 18.1 12.4 10.2 -2.1 -2.1 -2.1 -2.1 -2.1 13.5 23.2 30 38.3 35.9 27.8 31.9 28.7 17.2 11.9 10.2 2.7 2.7 -2.1 -2.1 29.6 41.4 54.4 65.7 76.5 81.9 87 88 89.6 83.6 72.4 66.5 57.1 54.6 48.1 50.6 47.5 38.7 30 17.8 6.3 -2.1 -2.1 -2.1 -2.1 -2.1 -2.1 -2.1 -2.1 -2.1 -2.1 -2.1 -2.1 -2.1 -2.1 -2.1 -2.1 -2.1 -0.8 -0.4 -1.2 -2.1 -1.9 -1.3 -0.7 -0.2 0.4 0.9 1.5 2.1 2.6 2.7 2.8 2.7 1.3 1.8 4.9 7.4 10 7 13.4 17
-2.1 -2.1 -2.1 -2.1 -2.1 -2.1 -2.1 -2.1 -2.1 -2.1 -2.1 -2.1 -2.1 -2.1 -2.1 -2.1 -2.1 -2.1 -2.1 -2.1 -2.1 -2.1 -2.1 -2.1 -2.1 -2.1 -2.1 -2.1 13.9 34.2 32.7 46 78.4 102.9 100.4 93.3 97 118 120.3 109.3 95.8 88.1 83.1 78.9 72.4 64.9 56.8 44.8 36.8 29 23.1 16.4 11.2 7 5 2.2 -2.1 -2.1 -2.1 -2.1 -2.1 -2.1 -2.1 0.6 5.9 -2.1 -2.1 -2.1 -2.1 -2.1 -2.1 -2.1 -2.1 0.8 11.2 19.3 23.7 28.4 32.5 38.4 51.4 57.4 51.7 44.7 39.5 31.2 34 39.4 37.2 38 38.6 31.4 23.8 10.4 -2.1 -2.1 4.2 5.7 8.4 13 15.6 16.5 17.9 18.7 18.9 18.9 18.2 20.4 22.5 24 23.7 23.8 23.5 23.1 23.2 22.7 21.3 13.3 9 -2.1 -2.1 -2.1 -2.1 13.4 28.6 40.9 38.3 39.8 37.5 21.1 14.4 8 2.7 2.7 2.7 13.4 31.3 42.4 46.6 61.2 68.2 76.4 87.8 88.5 90.6 91.3 93.5 91.5 85.1 77.4 72.2 64.8 61.6 54.7 54.2 43.4 32.8 19.4 4.1 0.4 -2.1 -2.1 -2.1 -2.1 -2.1 -2.1 -2.1 -2.1 -2.1 -2.1 -2.1 -2.1 -2.1 -2.1 -2.1 -0.5 0.3 0.2 0.1 -1.4 -2.1 -1.6 -1.1 -0.5 0 0.6 1.2 1.7 2.7 2.7 3.3 2.7 2.7 4.8 6.8 13.1 18.2 15.5 22.2 22.2
-2.1 -2.1 -2.1 -2.1 -2.1 -2.1 -2.1 -2.1 -2.1 -2.1 -2.1 -2.1 -2.1 -2.1 -2.1 -2.1 -2.1 -2.1 -2.1 -2.1 -2.1 -2.1 -2.1 -2.1 -2.1 -2.1 -2.1 -2.1 15.9 24 38.8 38.4 56.3 68.9 67.8 72.1 83.8 112.4 117.2 109 103.3 94.1 86.8 76.6 70.7 65 54.1 40.2 29.3 20.4 14.9 11.9 9 6.5 4.6 5.3 1.5 -2.1 -2.1 -2.1 -2.1 -2.1 -2.1 -2.1 7 7.8 4 -2.1 -2.1 -2.1 -2.1 -2.1 -2.1 1.1 12.6 20.9 26.2 30.7 37.3 45.6 54.5 57.6 56.2 50.2 44.6 36.4 29.7 29 33.5 32.7 29.9 23.9 15.6 6.1 -2.1 -2.1 16.7 19.9 21.3 23.9 24.7 25.9 27 26.9 30.6 33.4 31.2 25 25.3 28.6 29.3 29.5 27.2 24.9 24 24.2 27.5 25.1 22.8 12.1 -2.1 -2.1 -2.1 5.7 26.7 41.8 46 34 33.9 21 23 15.2 7.6 4 16.6 31.6 46.1 54.4 57.9 69.8 77.8 88.9 93.9 94.8 92.7 95.2 98.2 98 96.4 90.6 88 77.2 69.6 65 57.2 43.7 36.7 22.3 10.7 2.6 2 -2.1 -2.1 -2.1 -2.1 -2.1 -2.1 -2.1 -2.1 -2.1 -2.1 -2.1 -2.1 -0.8 -0.3 0.5 1.3 0.9 1 -0.1 -1.6 -2 -1.4 -0.9 -0.3 0.3 1.1 2.1 2.8 3.5 4.8 5.1 5.2 8.7 11.1 17.2 21.2 24.9 33.8 38.9
-2.1 -2.1 -2.1 -2.1 -2.1 -2.1 -2.1 -2.1 -2.1 -2.1 -2.1 -2.1 -2.1 -2.1 -2.1 -2.1 -2.1 1.2 -2.1 -2.1 -2.1 -2.1 -2.1 -2.1 -2.1 -2.1 -2.1 -2.1 8.5 16.6 28.6 41.6 37.4 34.3 42.2 52.9 69.3 100.8 101.9 100.4 104.8 107.8 93.8 72.1 68.6 61.4 52 35.9 23.7 16.2 10.6 8.9 6.4 5.5 4.6 -2.1 -2.1 -2.1 -2.1 -2.1 -2.1 -2.1 -2.1 -2.1 -2.1 3.8 8.6 8.8 3.9 2 -2.1 -2.1 -2.1 3.4 15.6 23.8 30.5 37 44.3 53.3 59.9 63.8 59.1 56.5 47.2 41.6 34.9 28.5 29.6 31.1 29.5 22.8 13.9 7 -2.1 22.4 22.2 22.9 25.1 34.2 41.3 38 34 35.9 33.2 33.7 36.7 39.4 35.3 37.3 39.6 33.7 28.6 25.6 25.3 27.5 34.4 36.9 28.2 20.5 -2.1 -2.1 -2.1 -2.1 8.5 26 31.4 33.9 25 25.5 22.1 20.5 14.8 18.8 35.1 49.2 57 68.8 89.2 90.5 88.8 86.1 94.6 100.3 97.5 98.9 99.6 98.4 98.2 97.6 96 89 76.1 70.7 57.5 49.4 43.5 33.6 22.2 15.6 7.2 1.9 -2.1 -2.1 -2.1 -2.1 -2.1 -2.1 -2.1 -2.1 -2.1 -2.1 -2.1 0.1 1 1.5 2.1 1.9 1.8 1.2 -0.4 -1.9 -1.8 -1.2 -0.5 0.3 1.2 2.4 3.1 4.6 6.1 12.1 11.6 16.2 20.3 23.3 27.2 30.3 38.1 43.4
12.9 1.9 -2.1 -2.1 -2.1 -2.1 -2.1 -2.1 -2.1 -2.1 -2.1 -2.1 -2.1 -2.1 -2.1 -2.1 -2.1 10.2 9.2 -2.1 -2.1 -2.1 -2.1 -2.1 -2.1 -2.1 -2.1 -2.1 -2.1 4.8 17.2 36.5 32.2 29.8 34.3 44.2 65.6 82.4 80.5 87 93.4 91 79 69.3 63.8 54.9 45 35.3 25.5 13.6 6.8 6.2 6.1 5.3 -2.1 -2.1 -2.1 -2.1 -2.1 -2.1 -2.1 -2.1 -2.1 -2.1 -2.1 1.9 7.6 9.8 10.8 14.5 12.4 -2.1 0.6 7.9 17.8 26.8 36.1 43.2 54.5 57.2 58.1 59.4 58.1 56.3 52.4 44.5 38.6 32.8 27.6 28.9 28 20.7 14.1 7.1 12.8 18.7 20.8 22.5 27.8 40.3 42.6 39.8 36.4 34.4 33.9 34.6 39.8 42.5 38.7 42.2 46.8 40.6 31.9 27.6 26.6 27.6 33.2 39.5 36.4 28.4 18 -2.1 -2.1 -2.1 -2.1 3.9 15.3 22.5 24 24 22 23.9 30.3 35.5 49.1 60.4 71.6 86.5 90.6 92.1 97 97.2 94.4 94.1 90.9 92.5 99.3 99.1 99.7 101.9 99.6 94.2 78.3 72.4 66.1 60 51.5 44.6 31.9 21.8 17.8 12.4 27.3 21.5 11 4.2 2.6 0.5 -0.2 -2.1 -2.1 -2.1 -2.1 -0.1 2.2 2.7 2.9 2.9 2.6 2.4 0.9 -0.6 -2.1 -1.5 -0.4 0.9 2.1 2.7 5.1 8.5 12.2 18.6 24.9 29 30.1 30.6 37 38.7 46.7 47.6
19.2 18 12.2 -2.1 -2.1 -2.1 -2.1 -2.1 -2.1 -2.1 -2.1 -2.1 -2.1 -2.1 -2.1 -2.1 -2.1 17.9 21.3 23.2 23.2 -2.1 -2.1 -2.1 -2.1 -2.1 -2.1 -2.1 -2.1 -2.1 -2.1 18.7 32 27.6 31.6 48 60.2 64 68.9 71.5 71.8 68.7 66.6 65.1 55.5 47.6 38.8 31.5 20.5 8.6 5.2 5.9 6.2 -2.1 -2.1 -2.1 -2.1 -2.1 -2.1 -2.1 -2.1 -2.1 -2.1 -2.1 -2.1 0.1 4.7 9.8 12 14.9 16.3 4.3 5.7 12.9 20 29.6 40.2 46.2 52.4 57.7 57.7 57.2 56.7 56.4 52.6 49.1 42.3 40.3 30.6 22.1 23.5 18.3 12.1 5.7 11.2 14.6 18.2 22.3 29.3 37 37.1 36 35.2 35.1 35 36.7 39.4 39.6 39.8 42.3 43.1 32.6 30.4 28.4 27.6 27.9 30.1 35.9 38.8 34.6 27.4 13.5 -2.1 0.4 5.4 12.8 17.2 19.4 23.3 25.2 27.2 30.8 36.9 45.8 58.7 72.2 86 102.6 108.5 111.7 105.3 103.6 102.5 97.5 95.7 93.6 95.8 96.2 96.1 95.8 91.3 89 86.2 82.7 68.6 65 54.8 46.2 33.2 29.3 28.3 28 35.5 32.8 22.3 11.6 2.7 2.7 2.1 0.1 -2.1 -2.1 -2.1 -2.1 2.9 4.6 4.6 4.4 4 3.2 2.3 1 -2.1 -2.1 0.3 1.6 3 6.8 13.9 20.5 23.6 27.9 38.3 44.8 46.2 49.6 54.6 65.4 67.1 68.1
22.8 18.6 16.3 -2.1 -2.1 -2.1 -2.1 -2.1 -2.1 -2.1 -2.1 -2.1 -2.1 -2.1 -2.1 -2.1 -2.1 -2.1 25.3 27.7 29.6 24.9 -2.1 -2.1 -2.1 -2.1 -2.1 -2.1 -2.1 -2.1 -2.1 5 18.7 28.9 37.3 51.5 64.7 65.3 55.2 55.2 54.1 55.4 57 54.6 51.8 42.8 25.9 16.8 10.2 5.9 4.1 5.1 5.9 -2.1 -2.1 -2.1 -2.1 -2.1 -2.1 -2.1 -2.1 -2.1 -2.1 -2.1 -2.1 -2.1 0.9 7.3 10.6 13.7 16.4 12.4 12.5 16.7 23.5 33.9 43.7 49.3 56.1 60.2 61.7 58.7 54.5 53.1 51.2 48.7 45.8 41.4 37.3 23.8 17.5 13 9.8 8.8 11.2 13.7 19.1 29.3 32.3 34 34.6 35 35.6 35.6 36.2 39 40.9 41.9 40.8 38.8 34.5 31.5 29.7 28.7 28.3 29.8 32.9 36.6 41.3 44.4 41 26.1 14.6 10.3 21.9 30.4 40.8 51.2 49.7 54.6 47.4 56.1 57.7 55.2 63.8 76.1 88.6 100.8 116.9 119.2 118.8 112.2 107.9 105.5 101.8 99.1 98.5 99.9 99 92.6 90.4 91.7 87 78.4 66.6 61.3 56.6 45.1 41 47.1 48.3 42.8 36.8 33 20.3 18.2 12.2 9.2 2.6 1.1 0.3 0.4 1.9 -2.1 4.8 6.3 6.8 6.4 5.3 4.3 3.6 2.8 -2.1 1.1 2.6 7.7 15.5 18.7 25.1 34.8 39.4 43.6 49.8 55.8 59 61.8 68.6 77 81.6 84
18.1 19.6 16.8 7.9 -2.1 -2.1 -2.1 -2.1 -2.1 -2.1 -2.1 -2.1 -2.1 -2.1 -2.1 -2.1 -2.1 -2.1 25 26.8 29.6 25.7 -2.1 -2.1 -2.1 -2.1 -2.1 -2.1 -2.1 -2.1 -2.1 -2.1 14.6 27.1 41.1 52.5 56.8 55.6 48 46.7 44.5 41.1 40.7 40.6 32.8 24.7 24.5 19.4 12.4 6.5 2.7 1.5 -2.1 -2.1 -2.1 -2.1 -2.1 -2.1 -2.1 -2.1 -2.1 -2.1 -2.1 -2.1 -2.1 -2.1 0.4 6.1 11.1 13.9 15.2 14.1 15.3 19 26.4 37 45.4 53.9 63 66.7 59.2 56.2 55.9 57.9 56 49.7 44.6 38.1 34.9 24.6 16.6 13.1 10.8 7.2 9.9 11.5 15.8 24.1 30.8 33.2 34.4 34.4 34.5 35.5 39.7 42.4 43.3 45.3 42.9 39.1 34.6 31.2 30 29.3 28.8 30.5 35.4 40.7 45.6 49.9 52.3 38.8 28.4 26.9 31.4 43 55.3 64.9 73.6 83.6 80.9 76.7 80.1 85.4 89.9 89.6 91.7 98.6 108.9 118 122.6 117.4 112.1 112.4 113.3 110.7 107.1 100.4 99.1 101.4 104.4 99.3 96.9 89.5 78.8 65.4 57.6 52.8 57 59.3 63.3 59.4 39.5 30 23.3 17.8 11.6 7.6 4.3 2.5 2 2.7 3.8 4.9 6 7.2 8.9 7.7 6.6 5.4 5.3 4.5 -2.1 8.9 17.8 27.2 34.4 35.7 34.8 43.9 48.2 50.5 55.6 59 63.4 72 77.4 83.5 94.1 104.5
15.3 14.3 12.5 5.4 -2.1 -2.1 -2.1 -2.1 -2.1 -2.1 -2.1 -2.1 -2.1 -2.1 -2.1 -2.1 -2.1 -2.1 20.5 23.7 29 26.8 16.5 -2.1 -2.1 -2.1 -2.1 -2.1 -2.1 -2.1 -2.1 -2.1 13.6 23.3 35.2 48.2 45.2 42.7 38.3 38.5 31.3 32.9 33.8 33.5 32.8 33.1 33.4 27.9 15.7 8.3 2.2 -0.3 -2.1 -2.1 -2.1 -2.1 -2.1 -2.1 -2.1 -2.1 -2.1 -2.1 -2.1 -2.1 -2.1 -2.1 -2.1 8.6 11.6 14.1 16.5 15.7 17 21.7 31.4 38.9 46.1 51.6 55.8 58.5 57.7 58.7 59.2 58.4 59.1 54.2 42.1 35.6 28.2 21.9 15.4 11.9 10.4 9.2 8.6 9.8 10.9 14.6 21 29.1 33.2 33.4 33.9 39.1 42.6 47.3 47.3 50.7 49.9 47.9 44.6 38 33.4 30.9 31.4 32.3 35.8 40.4 45.2 50 49.3 43.6 38 38.8 42.3 56.4 65.9 74.9 82.8 89.3 94.9 94.7 92.3 89.8 95 101 100.7 99 107 111.6 116.8 117.1 112.7 113.7 116.7 118.3 109.3 105.3 106.8 112.8 120.8 112.1 104.8 96.5 85 76.4 64.6 66.1 69 67.7 67 62.8 54.4 43.3 26.9 20 17.9 17 17.5 17.6 10.8 8.4 8.2 6.8 7 8.6 9.9 9.3 8.2 6.8 6 6.7 18 31.2 36.4 40.2 47.1 51.8 48 52.7 54.8 55.7 61.5 66.8 70.7 80.2 93.3 109.6 127.6 134.2
20.5 20.7 13.7 2.7 -2.1 -2.1 -2.1 -2.1 -2.1 -2.1 -2.1 -2.1 -2.1 -2.1 -2.1 -2.1 -2.1 -2.1 -2.1 17.6 27.5 28.7 17.1 -2.1 -2.1 -2.1 -2.1 -2.1 -2.1 -2.1 -2.1 1.9 12.2 22.4 24.4 29.7 34.2 32.5 27.2 26.5 27.2 27.8 32.5 34.2 44.7 32.5 29.6 24.3 17.9 14.4 10.4 0.6 -2.1 -2.1 -2.1 -2.1 -2.1 -2.1 -2.1 -2.1 -2.1 -2.1 -2.1 -2.1 -2.1 -2.1 -2.1 8.1 13.3 14.2 16.3 17.9 21.3 27.6 38.7 47.3 49.4 51.6 56.9 58.7 61.9 62.7 61.3 58.3 55.5 50.3 41.3 36 30.9 24.4 15.9 14.2 12.4 10.3 9.3 10.1 12.1 12.7 14.1 18.4 24.8 29.8 32.8 37 43.8 47 47.2 49.8 54.8 54.4 51 47 41 37.6 39.1 40.1 42.1 43.4 47.5 49.7 49.6 47.3 47.2 50.9 56.8 65.1 74.8 82.8 92.7 101.9 103.8 102.8 103.6 101.3 97.4 99.6 102.2 100.5 100.8 106.3 110.9 111.8 114 114.5 113.8 111.9 112.5 118.5 117.2 110.6 115.2 116.7 111.7 103.3 96.9 94.6 79.7 77.3 78.5 80.4 73.9 71.8 63.8 46.7 29.7 24.8 27.5 27.4 26.3 27.9 27.8 24.9 19.8 14.7 11.4 11.4 10.3 11.4 10.2 7.9 6.9 9.6 21.4 29.1 36.9 43.4 47.6 52 52.7 59.1 66.5 78.5 86.5 91.6 95.2 102.3 121.6 136.9 152.6 158.7
20.5 18.1 15.9 2.8 -2.1 -2.1 -2.1 -2.1 -2.1 -2.1 -2.1 -2.1 -2.1 -2.1 -2.1 -2.1 -2.1 -2.1 -2.1 -2.1 26.7 29.5 20.1 -2.1 -2.1 -2.1 -2.1 -2.1 -2.1 -2.1 -1.5 4 10.9 21.6 21.8 22.6 23.3 24.3 25.1 26.4 28.8 28.1 30.7 38.6 35.4 32.4 27.5 25.8 22.4 22.4 24.1 7.3 -2.1 -2.1 -2.1 -2.1 -2.1 -2.1 -2.1 -2.1 -2.1 -2.1 -2.1 -2.1 -2.1 -2.1 -2.1 -2.1 6 13.2 17.4 21.3 25.9 32.6 45.8 54.3 55.2 55.3 58 64.9 65.2 67.6 67.1 64.7 63.5 60 46.7 38 30.8 23.1 20.3 19.1 15 13.7 10.1 9.9 12.1 13 13.6 14.7 17 21.4 26 31.2 39 39.7 39.3 41.3 47.3 51.3 50 48.2 46.9 45.4 45.7 51 55.7 61.1 65.8 67.4 64.5 62.2 62 65.8 70.8 75.8 77.1 82.9 91.7 99.6 105.9 109 108 109.6 111 105.1 103.5 102 101.3 105.4 110.6 117.3 122.6 126.7 125.1 124 137.4 143.2 142 127.7 121 116.7 113.1 112.5 102.3 95.5 89.8 86.9 82.1 78.1 76.5 72.5 62.8 46.2 40.8 37.7 39.3 39.1 37.1 38 39.3 36.7 33 28.6 22.4 16.4 14.7 13.6 12.2 9.9 9.2 15.7 24.7 32.8 42.7 49.9 53.4 59.6 67 76.9 87.5 96.7 102.2 111 123.1 133.9 158.3 167.2 176.2 180.3
21.8 21 16.4 8.8 -2.1 -2.1 -2.1 -2.1 -2.1 -2.1 -2.1 -2.1 -2.1 -2.1 -2.1 -2.1 -2.1 -2.1 -2.1 -2.1 -2.1 24.5 24.4 -2.1 -2.1 -2.1 -2.1 -2.1 -2.1 -2.1 1.2 5.1 10.3 19.6 21.6 22.2 23 23.9 25.2 25.7 27.1 34.5 43.3 42 37.4 34.8 29.1 26.5 22.8 29.7 21.5 12.1 -2.1 -2.1 -2.1 -2.1 -2.1 -2.1 -2.1 -2.1 -2.1 -2.1 -2.1 -2.1 -2.1 -2.1 -2.1 -2.1 -2.1 11.2 18.5 23.9 29.7 38.8 50.6 49.3 52 57.3 67.3 75.4 67.3 65.5 66.8 71.8 65 61.9 50.6 42.1 33.6 23.2 21.3 19.4 20.4 17.8 10.7 8.3 12.5 13.5 14.1 15 16.1 17.2 20.3 27.1 28.8 30.8 32.3 34.8 39.8 44.6 46.9 47.1 47.6 51.3 51 59.8 67.4 77.5 84.3 89.5 93.3 90.7 82.9 83.4 90.9 92.8 93.2 89.2 95 103.5 111.5 119.9 120.6 117.4 117 114.5 113.8 116.2 115.1 120.3 121.2 124.2 128.6 133.1 137.1 144.7 157.9 165.7 153.7 139.6 130.3 125.7 119.6 115.3 105.6 104.5 95.1 88.7 85.1 82.5 76.6 74.1 68.4 63.8 56.4 53.5 50.6 50.4 49.4 49.3 48.9 46.6 44.4 41.2 34.7 22.9 18.6 17.1 15.3 14.1 19.9 28.6 39.6 44.5 49.4 56.8 64.2 72.3 85.6 95.4 99 111.6 125.4 141.8 150.3 167.6 185.5 188.5 194.2 198.1
27 25.3 24.2 21.1 4.1 -2.1 -2.1 -2.1 -2.1 -2.1 -2.1 -2.1 -2.1 -2.1 -2.1 -2.1 -2.1 -2.1 -2.1 -2.1 -2.1 18.7 18 -2.1 -2.1 -2.1 -2.1 -2.1 -2.1 -2.1 4.1 8.6 20.5 20.4 20.7 21.7 22.7 24.5 28.6 33.2 37 40.7 52.2 43.6 39.7 36.4 32.8 25.9 24.6 23.5 19.2 12.6 -2.1 -2.1 -2.1 -2.1 -2.1 -2.1 -2.1 -2.1 -2.1 -2.1 -2.1 -2.1 -2.1 -2.1 -2.1 -2.1 -2.1 8.4 19.6 25.2 31.3 39.7 47 54.1 62.2 70.8 67.3 66.3 68 67.3 70.7 65.5 62.7 58.4 49.2 39.7 33.3 24.6 20.1 20.5 20.6 20.8 9.5 10.8 12.4 13.9 14.4 15.7 16.6 17.5 19.7 22.4 26.6 30.6 36.1 38.4 36.7 38.5 42 43.7 47.8 52.7 55.7 61.6 77.9 86.4 96.2 100.1 104.2 106.6 106.7 103.1 107.1 114.6 114.8 104.9 106.6 114.4 121.2 125.7 127.3 124.8 125.5 131.4 139.2 145.4 148.6 152.4 151.3 146.3 149.4 150.2 158.7 170.9 175.2 177.4 169.6 155 139.2 141.9 131.6 117.1 116.1 118.1 103.1 95.1 96.2 98.7 97.6 100.4 86.7 82.3 79.8 80.7 74.3 71 60.9 60.9 62.3 58 53.5 47.4 38.6 30.9 23.5 23.5 20.3 23.3 34 43.5 53.7 63.5 74.4 78.4 82.2 92.8 100 106.4 122.9 137.4 148.3 156.3 157 175.8 190.5 198.3 203.7 204.3
29.8 30 34.3 31.1 17.5 -2.1 -2.1 -2.1 -2.1 -2.1 -2.1 -2.1 -2.1 -2.1 -2.1 -2.1 -2.1 -2.1 -2.1 -2.1 -2.1 -1.3 -2.1 -2.1 -2.1 -2.1 -2.1 -2.1 -2.1 -2.1 5 9.7 20.5 20.3 20.9 21.8 23.2 32.7 40.8 43.6 60.8 56 54.8 50.4 42.5 38.3 34.5 37.3 36.3 31.5 20.5 10.1 -2.1 -2.1 -2.1 -2.1 -2.1 -2.1 -2.1 -2.1 -2.1 -2.1 -2.1 -2.1 -2.1 -2.1 -2.1 -2.1 -2.1 8.2 20.5 24.9 37.8 47.8 60.6 69.1 83.9 82 70.2 66.4 67.3 73.4 83.9 75.9 62.4 53 44.4 34.6 27 22.3 21.5 21.3 21.3 21.5 11.3 12 12.2 14.1 14.9 17.1 17.2 17.6 22.1 23.6 26.7 30.2 37.4 41.6 38.1 37.5 40.1 41.7 43.7 47.1 56.2 64.5 77.7 87.2 97.4 105.6 107.9 115.7 125.1 125.3 118.5 119.5 123.6 128.2 137.6 144.9 146.5 146.5 147.1 146.7 145.3 150.8 159.7 164 165.3 165 168.8 171.6 175.9 177.8 179.8 183.2 185.5 182.7 178.7 169.4 157.8 154.4 139.2 134.4 123.8 117.9 105.4 105.3 108.7 110.7 108.5 109.9 107.7 100.3 90.7 90.3 86.9 79.4 73 73 68.4 63.5 61.2 58.3 53.9 43 27.2 25.7 31.3 39.7 51.8 64.5 79.6 89.7 96.2 99.2 106.6 111.5 118.4 134.6 148.6 163 186.8 182.8 173.4 194.8 209.8 217 213.1 214.1
32.1 29.6 34.7 32.6 23.9 23.7 19.8 17 -2.1 -2.1 -2.1 -2.1 -2.1 -2.1 -2.1 -2.1 -2.1 -2.1 -2.1 -2.1 -2.1 -2.1 -2.1 -2.1 -2.1 -2.1 -2.1 -2.1 -2.1 -2.1 5.1 9.9 20.4 20.1 21.1 22.3 28.9 40.5 47.9 57.6 63.8 76.2 63.8 60.8 49.5 42.7 46 43.9 39.9 35.2 21.3 -2.1 -2.1 -2.1 -2.1 -2.1 -2.1 -2.1 -2.1 -2.1 -2.1 -2.1 -2.1 -2.1 -2.1 -2.1 -2.1 -2.1 -2.1 10.4 21.7 29.4 43.3 59.5 70.2 89.7 110 90.7 76.4 71.6 68.6 70.2 78.6 75.9 63.8 51.2 41.9 33.6 24.3 22.5 22.4 22.5 22.4 22.1 10.6 12.6 13.1 15.2 15.8 18.2 18.2 20.3 29.3 35.2 40.5 41.6 47.5 46.4 46.3 42.6 42.6 42.9 42.3 43.2 50.6 62.1 73.3 85.9 94.1 104.7 116.6 126.9 134.1 134.2 140.9 144 151 167.4 173.9 169.8 164.8 168.1 179.4 182.1 173.3 162.5 165.3 172.5 175.5 181.3 183.2 182.7 185.7 191.8 195.4 194.2 193.3 188.5 182.5 182.5 167.1 159.7 158.8 150.1 136.3 119.2 117.4 120.6 121.8 119.2 113.7 113.8 115.2 112.8 103.4 99.8 94.3 88.7 83.4 82.1 76.4 71.4 70.1 69.1 56.9 33.7 35.2 36 46.2 59.4 74.5 93.6 118.3 140.7 120.7 133.3 139.6 131.4 137.4 159.6 174.5 191.8 202.7 198.5 194.1 209.4 218.6 220.4 219.5 216.6
38.9 31.3 30.7 30.2 30.4 34.3 32.6 30.1 -2.1 -2.1 -2.1 -2.1 -2.1 -2.1 -2.1 -2.1 -2.1 -2.1 -2.1 -2.1 -2.1 -2.1 -2.1 -2.1 -2.1 -2.1 -2.1 -2.1 -2.1 3.4 5.8 13.4 20.4 20.2 21.2 22.7 32.6 44.6 47.9 58.4 71.7 80.5 70.2 61 51.7 57.9 53.4 42.8 29.4 17.6 10.1 -2.1 -2.1 -2.1 -2.1 -2.1 -2.1 -2.1 -2.1 -2.1 -2.1 -2.1 -2.1 -2.1 -2.1 -2.1 -2.1 -2.1 -2.1 14.8 23.9 33.1 49.4 65.1 81.9 106.1 117.2 96.2 85.9 79 76.8 68.5 65.1 65.9 63.1 57.3 45.2 35.6 27.3 23.7 23.3 23.5 23.6 22.4 21.5 12.6 14.8 16.8 20.6 19.9 19.3 24 35 40.2 45.5 51.8 54.7 50.9 44.7 46.1 47.2 47.4 43.1 43 47.9 60.9 74.6 88 100.5 112.9 125.1 138.5 152.6 170.3 178.8 177.4 178.3 178.5 180 181.2 185.2 197 202.3 201.4 195.9 184.2 174.5 181.6 188.5 199.2 196.1 203.8 205.9 201.6 202.4 205.6 200.8 198.8 190.5 187.6 174.4 174.8 168.2 158.5 148.5 137.6 130.7 132.5 135.6 136.1 130 128.8 120.7 118 116.7 113.6 104.7 100.5 102 96.4 87.6 81.1 78 67.1 43.4 44.8 44 53.6 69.8 81.9 98 120.8 161.1 167.1 168 177.3 170.6 159 183 192.3 197.8 210.2 213.9 210.1 218 227.4 232.2 223.7 222 209.9
46.9 42.2 32.2 31.1 41.6 42.4 42.8 41.8 24.7 -2.1 -2.1 -2.1 -2.1 -2.1 -2.1 -2.1 -2.1 -2.1 -2.1 -2.1 -2.1 -2.1 -2.1 -2.1 -2.1 -2.1 -2.1 -2.1 1.7 4.3 9.4 19.8 19.9 20.3 21.5 23.3 26.8 39.1 50.1 58.4 87.1 84 78.7 66.6 56.9 60.8 49.7 38.6 28.4 18.8 13.4 -2.1 -2.1 -2.1 -2.1 -2.1 -2.1 -2.1 -2.1 -2.1 -2.1 -2.1 -2.1 -2.1 -2.1 -2.1 -2.1 -2.1 -2.1 14.8 28.4 41.5 56.6 72.3 99.2 108.9 104.6 105.6 90.9 83.4 83 78.9 69.6 62.7 61.8 57.1 45.9 36.6 31.2 26.6 24.3 24.4 24.5 23.7 22.8 23.5 23.2 15 22.1 21.3 23.2 25.7 36.9 43.6 49.9 56.5 57.3 54.9 45.9 46.5 49.2 48.4 44.5 45.8 52.9 63.9 81.8 95.1 108.8 127.7 144.1 161.7 184 200.8 203 198.4 197.2 196.4 198.3 209.7 215.6 209.9 213 214.7 205.8 200.6 194.3 191.3 203.7 211.1 211.1 212 216.9 213.8 208.4 207.6 206.5 201.1 192.4 187.6 181 178 178.4 179.7 168.8 165 161.9 147.5 151.5 148.8 144.7 143.7 137.5 133.3 126.3 118.2 111.7 109.3 107.1 103.7 94.2 85.4 63.7 50.3 50.2 58.1 64.6 75.9 94.6 108.9 118.8 141.4 182.1 201.2 208 207 193.5 189.3 197.3 203.5 216 222.4 225.3 219.3 222 229.7 234.3 230 221.8 198.2
58.4 52.7 44.4 35.9 42.7 45.8 46.9 46.7 33.5 -2.1 -2.1 -2.1 -2.1 -2.1 -2.1 -2.1 -2.1 -2.1 -2.1 -2.1 -2.1 -2.1 -2.1 -2.1 -2.1 -2.1 -2.1 -2.1 4.6 8.9 17.6 19.5 19.2 20.4 22.1 23.7 26.9 41.2 58.8 66.9 85.9 86.1 79.5 69.7 69.9 64.9 55.4 47.3 41.6 35.4 26.9 16.6 8.7 -2.1 -2.1 -2.1 -2.1 -2.1 -2.1 -2.1 -2.1 -2.1 -2.1 -2.1 -2.1 -2.1 -2.1 -2.1 1.7 18.8 33.1 50.1 69.5 89 111.4 114.8 118.3 123 108 90.3 85.3 80.8 76.1 69.5 64.1 61.2 51.3 40.2 33.2 27.7 25.1 25.2 25.3 24.3 25.8 26.5 25.8 20.4 17.9 26.3 29.3 30 38.4 48.3 57.1 62.8 59.6 55.7 48.9 47.8 48.8 49.8 48.3 52.1 60.2 73.7 90.5 108.2 124.2 145.3 171.6 195 210.2 221 219.6 207.4 209 216.4 224.4 231.3 236 235.4 225 220.5 218.6 218.3 218 212.3 207.2 216.4 215.9 212.4 216.8 218.6 217.5 215 206.7 202.6 200.9 191.8 188.2 190.4 191.7 187.5 186.7 185.4 183.2 172.4 171.9 168 164.4 159.7 154.7 147.7 139.3 129.1 123.5 120.1 114.7 106 95.3 80.2 72.8 66.8 70 78.3 95.9 113.6 129.8 152.1 164.1 164.9 201.2 214.8 215 210.3 215.6 204.1 202.7 209.7 223.7 228.2 229.8 221.5 219.8 227.6 228.2 219.6 196.9 182.2
61.5 56.1 55.6 49.5 46.7 51.4 50.2 50.1 40.6 13.5 -2.1 -2.1 -2.1 -2.1 -2.1 -2.1 -2.1 -2.1 -2.1 -2.1 -2.1 -2.1 -2.1 -2.1 -2.1 -2.1 -2.1 -2.1 5.2 10.4 16.2 18.1 19.3 21.2 22.9 24.7 28.1 44.6 61.1 72.7 86 91.2 83.5 78.6 77.2 72.6 64 55.3 51.6 48.8 44.8 37.4 29.3 23.3 21.1 19.6 17.4 15.6 13 4.1 1.1 -2.1 -2.1 -2.1 -2.1 -2.1 -2.1 -2.1 6 19.7 38.4 60.5 80.6 99.2 117.9 132.1 139.8 124.7 111 108.5 96.1 93.9 92.4 81.2 68.3 56.7 54 47.5 36.6 28.4 26 26.2 26.3 25.8 26.8 30.1 27.8 27 24.9 33.2 42.8 40.3 46.6 54.9 62.4 68.9 62.8 57.4 51 48.2 49 50.3 51.3 55.1 62 76.9 95.7 117.7 139.5 163.8 187.7 210.3 222.6 223 219.7 219.6 230.4 239 251.2 264.2 267.3 260.1 246.5 234.7 232.5 237.2 238.2 232.4 220.4 216.4 221 218.4 217 217.2 219 216.7 209.5 202.9 201.8 211 213.2 205.8 206.3 204 208.7 206.5 200.2 193.1 187 188.4 182.4 174.3 168.7 159.7 151.2 143.2 138.5 135.1 122.4 111.3 91 73.1 83.1 85 90.7 104 123.9 141.7 162.1 175.1 182.6 186 213 217.8 218.8 218.5 222 221.6 215.3 216.8 227.5 230.5 226.9 218.3 216.1 212.3 208.1 207.5 211.1 203.1
61.1 62.1 63.2 62 53.2 55.5 56.3 56.1 45.4 26.1 17.4 -2.1 -2.1 -2.1 -2.1 -2.1 -2.1 -2.1 -2.1 -2.1 -2.1 -2.1 -2.1 -2.1 -2.1 -2.1 -2.1 -2.1 6.9 9.7 12.7 16 20 22.1 23.7 25.6 27.9 43.3 62 81 93 92.3 93.2 91.3 83.3 77.3 70.6 68 63.8 59.2 55.3 53.8 51.3 46.2 43.1 40 36.8 32.3 25.5 21.3 16.6 12.6 2.4 -2.1 -2.1 -2.1 -2.1 -2.1 12.8 24 43 69.8 91.7 107.7 129.3 142.2 131.1 128.1 120.3 115.3 116.9 117.5 101.6 93 82.4 59.9 45.8 43.7 35.7 29.9 27.9 27.4 27.5 26.8 28.6 29.3 30.1 29.5 27.9 26.9 48.4 53.4 55.4 61.3 66 74.5 67.6 61 52.2 50.9 50.7 53.6 53.8 59.8 69 81.8 98.7 119.9 143.5 166.3 192.5 212.6 220.4 231.9 233.1 236.6 245.4 260 266 267 265.9 265.4 262.1 251.6 246.4 244.6 245.1 246.7 237.3 225.6 222.8 221.6 219.1 217.3 216 213.2 208.3 209.9 218.3 227 228.3 225.4 217.7 219.1 227.5 225.5 222.7 213.1 204.1 199.3 193.7 185.7 178.3 171.1 163.6 157.5 149.8 145.1 128.9 106.8 85 100.3 101.4 106.7 113.3 130 144.4 156.9 176.5 182.2 193.6 200.5 213.4 220.8 221.4 223.2 225.1 226.7 226.9 227.9 231 233.6 226.8 213 206.2 206.2 206.2 211.5 219.8 213.1
62.9 64 66.2 67.6 63.7 58 60.6 54.1 48.9 44 35.3 24.1 9.4 -2.1 -2.1 -2.1 -2.1 -2.1 -2.1 -2.1 -2.1 -2.1 -2.1 -2.1 -2.1 -2.1 -2.1 -2.1 4.7 6.5 6.4 18.8 21.7 23.7 26.1 28.1 30.9 40.1 66.2 81 93.1 100.1 106.6 93.2 84.9 83.1 82.7 81.8 78.6 84.9 83.9 78.3 73.2 69.3 67.7 64.7 64 58.8 55.6 43.5 37.3 29.4 20.6 7.4 -2.1 -2.1 -2.1 9.7 23 31.8 51.5 78.1 101.5 123.2 144.2 153.6 141 138.6 120.7 126.2 134.3 117.9 105 92.9 78.7 62.3 47.9 38.7 40 34.9 33.1 30.5 30.6 28.2 32 31.6 32.6 32.4 30.6 33.4 38.2 55.7 59.4 62.9 66.5 71.1 69.8 65.5 55.4 52 52.5 57.6 61.3 65.2 70.9 85.1 101.7 118 133.3 157.5 183.9 204 217 230.5 237.5 244.5 259.5 261.9 259.8 264.7 266.5 267.4 265.6 259 256.4 258.2 265.2 265.6 255.2 246.1 235.2 230.5 231.1 225.4 218 214.5 216.3 219.2 226.2 233 239.7 238.8 231.7 235.1 242.4 236.5 235.4 227.4 220.1 218.1 205.3 196.9 190 180.6 172.6 166.1 153.9 141.2 120.6 93.2 112.8 120 121.6 130.5 139.9 159 169.2 168.3 184 192.3 209.3 219.6 222.9 225 230.1 235.5 234.9 232.8 235.3 244.6 238.9 231.5 218.7 212.9 213.1 209 214.5 237.7 235 230
59.7 64.8 67.5 67.2 60.7 58.4 63.2 64.7 64.6 62.2 49.8 29.9 16.1 -2.1 -2.1 -2.1 -2.1 -2.1 -2.1 -2.1 -2.1 -2.1 -2.1 -2.1 -2.1 -2.1 -2.1 -2.1 -2.1 4.1 4.4 19.5 25.4 29.5 37.7 42.2 46.9 55.6 71.9 89.3 103.5 108.5 107.5 102.2 103.6 108 109.3 110.3 113.7 127.7 121.4 116 106.8 106 105.9 110.7 111.5 109.5 109 94.2 80 62 46 28.2 13.3 8.5 10.8 19.4 32.3 42.6 60.2 88.1 116.4 135.6 152.9 168 165.8 143.6 134.5 143.4 150.3 126.3 103.5 95 79.8 62.8 50.4 39.8 38.2 38.7 39.7 37.6 38.2 33.8 34.8 36.8 36.7 35.9 32.7 35.6 35.3 50.2 56.6 64.4 68.5 70.6 70.8 69.9 59.5 51.8 57.2 65.3 68.9 74 73.3 83.5 99.5 114.7 122.4 143.6 166.7 185.1 201.3 215.2 229.2 248.2 259.4 263.5 266.2 274.5 290.1 291.4 282.1 273 273.9 285.9 299.8 299.3 285.9 276.3 263.7 243.3 236.3 229.9 224.2 228.2 231.2 237.5 251 259.1 256.7 244.4 238.1 237.6 252.8 250.7 242.2 236.8 227.9 222 218.3 210.8 195.5 187.6 178.1 170.6 155.7 138.8 121.9 101.5 131.3 141.8 145.8 152.6 158.6 173.3 184 186.2 194.5 208.8 223.3 231.9 235.4 243.1 246 244.6 242.8 243.6 246.4 245.6 242.1 239.3 246.7 239.5 227.6 226.7 237.3 254.8 261 264
61.2 61.8 67.2 64.3 62 58.3 59.5 65.6 65.8 64.1 57.1 34.3 15.8 -2.1 -2.1 -2.1 -2.1 -2.1 -2.1 -2.1 -2.1 -2.1 -2.1 -2.1 -2.1 -2.1 -2.1 -2.1 -2.1 -2.1 1.4 8.6 20.9 40.6 56 67.5 73.4 77.4 86.7 101.1 119.4 125.3 126 130.6 139.8 150.2 152.1 159.1 163.7 163 171.9 161.9 149.3 141.9 136 144.7 151.2 154.8 147.3 133.3 128.5 113.3 82.7 61.5 47.2 33.8 24.4 26.1 37.9 50.7 68.7 95.4 122.3 146.8 162.8 170.9 162.4 144.9 154.2 150.2 150.1 120.6 114.7 101.4 89.3 63.7 51.7 43.2 40.1 38.7 41.2 45.7 48.3 42.2 40.1 40.5 39.9 41.7 40.8 39.8 40.5 44.5 57 60.4 72.9 75.7 74 71.6 58.7 55.4 58.5 69.1 77.6 82.5 81.2 81.9 94.6 106.7 116.7 130.5 146.9 164 181.4 200.6 218.6 242.1 257.9 269.6 285.9 305.4 307.6 304.9 303.5 298.7 300.4 311.2 311.5 311.5 302.9 291.5 282.2 259.6 247.3 239.3 235.5 237.8 244 250.5 270.1 273.6 274 270.6 255.3 245.8 252 255.1 252 248.3 237.7 228.9 220.7 214.1 202.8 191.9 183.9 177.3 168 148.6 142.1 106.6 152.1 162.9 171.1 177.2 177.1 181.9 191.3 200.2 206.1 219.8 234.5 238.4 245.7 252.2 253.4 251.9 246.8 243.4 238.8 239 248.1 266.9 267.4 255.5 242.6 241.9 252.9 272 286.3 293.7
71.1 69.9 67.9 62.5 59.5 56 54.8 58.5 63.1 60.4 55.6 36.6 17.4 -2.1 -2.1 -2.1 -2.1 -2.1 -2.1 -2.1 -2.1 -2.1 -2.1 -2.1 -2.1 -2.1 -2.1 -2.1 -2.1 -2.1 -2.1 4.8 22.3 38.4 62.5 83.1 94.8 101.5 110.4 121.6 141 147.5 161.2 173 186.8 198.5 208.5 207.6 211.8 214.3 202.6 196.3 181.8 168.9 169.3 190.2 193.8 184.7 173.1 165.6 164.7 151.4 137.2 111 80.8 66.2 51.6 42.2 45.9 62.6 81.3 105.9 131.8 154.4 159.9 160 163.3 150.6 159.5 149.2 136.5 128.6 122.9 114.2 98.9 71.3 56.8 52.3 47.3 47.2 44.9 47.5 49.8 42.5 41.7 41.8 42.5 43.4 47.4 41.2 43.9 38.7 52.9 63.6 71.2 79 80.1 75 66 60.9 63.8 68.9 78.4 84.7 83 82 89.1 103.5 117 130.6 139.8 151.3 169.3 188.3 212.6 237.2 257.6 280.3 304.4 320.4 336.1 331.6 326 314.2 320.6 325.3 322.1 321.8 313.9 302.5 288.2 268.7 261.3 254.9 248.4 249.2 254.4 273.7 273.3 280.7 283.4 283.6 274.2 269.3 265.3 264.2 261.1 259.1 251.4 240.8 228.8 219.7 208.7 198.5 191.2 189.7 178 161.3 156.3 118.6 171.1 180.3 187.3 191 193.5 197.2 204.9 212.9 221.3 230.6 240.2 243.4 250.9 256.8 257.9 257.8 250.1 239.9 238.8 244.9 259 277.6 282.6 272 260.3 263.7 291.2 303.2 308.1 307.8
78.4 78 76 74.9 67.1 52.4 48.1 47.9 52.4 48.8 42.9 39.4 22.3 -2.1 -2.1 -2.1 -2.1 -2.1 -2.1 -2.1 -2.1 -2.1 -2.1 -2.1 -2.1 -2.1 -2.1 -2.1 -2.1 -2.1 -2.1 -2.1 18.6 37.1 61.4 93.7 103.3 108.4 124.5 143 162.5 176.4 184.8 199.5 232.2 237.3 234.1 240.9 240.3 234.1 228.3 213.6 207.5 207.9 224.6 230 228.9 224.3 216.6 205.8 199.4 182.3 165.9 150.4 134.9 113.7 89.9 83.7 67.5 73.1 94.3 122.2 155.3 168.3 156.8 160.3 163 155.9 151.6 149.7 140.9 133.7 128.6 121.6 100.9 78.6 60 57.9 56.4 56.5 55 47 46.8 46 44.1 42.5 42.9 44.3 46.5 42.9 43.8 41.7 45.9 55.7 65.7 73.1 78.2 76.2 68.6 63.5 67.5 73.6 76.3 80.9 81.7 83.7 89.7 102.8 118.6 132.4 136 144.1 163.6 183.8 210.1 237 263.6 292.9 323.5 348 351.6 350.5 349.9 333.8 330.7 331.4 331 326.8 322.2 311.9 294.1 281.3 275.8 272.1 265.6 264 268.8 278.5 280.3 292.6 295.3 295 290.3 287.5 287 281.7 279.5 269.1 261.2 252.5 240.2 227.2 214.8 207.3 202.7 200.6 186.3 174.2 173.7 151.4 180.3 188.6 196.9 206.3 210.9 210.8 220.2 232.7 240 242.1 249.9 258.7 261.5 263.3 263.4 261.9 256 250.7 249.4 260.7 276.9 286.7 286.8 285 279.5 283.3 303.3 309.6 311.6 315.3
84.7 80.4 78.7 83.3 72.2 55 40.9 40.3 41.1 37.8 32.4 22.7 15.6 7.9 -2.1 -2.1 -2.1 -2.1 -2.1 -2.1 -2.1 -2.1 -2.1 -2.1 -2.1 -2.1 -2.1 -2.1 -2.1 -2.1 -2.1 -2.1 13 35.7 65.2 95.3 109.7 112.6 129 153.1 182 193.3 208.5 242.2 249 257.6 259.7 261.4 259.9 255.9 245.9 241.3 245.8 252.4 254.9 249.8 245.5 240.9 239.3 238.4 229.3 221.7 207.9 189.7 169.9 154.2 132.8 126.4 118.6 91.6 104.3 135 163.7 178.5 172.6 164.9 157.8 156.2 156.1 167.9 160.9 146.8 130.5 124.8 107.1 79.6 66.3 64.1 66.5 69.4 68.4 59.2 53.2 50 50.7 45 43 43.8 48.9 48.8 43.2 42.8 42 48.4 59.9 68.7 71.4 70.2 65 64.7 70.2 78 81.9 79.4 82 83.7 89.6 101.1 115.9 128.1 132.5 140.7 162 182.9 207.2 237.9 276.2 314.3 346.3 360.9 373 381.3 385.3 364.2 348 338.4 335 332.4 326.6 314.7 304.9 296.9 295.4 293.5 286.8 281.1 279.3 283.8 291.1 306.4 308.1 307.4 301 308.7 300.1 295.3 297.5 291.6 272.5 256.5 244.5 231.1 222.5 221 214.2 207 190.4 187.6 160.5 168.6 189 192.3 205.6 219.5 222.7 223.4 226.9 241.5 252.8 254.9 266.7 275.4 282.1 284.3 274.7 270.9 265 269.3 269.8 279.6 291.5 299.7 305.7 301.3 298.8 308.3 320.6 320.4 320.3 324.1
89.5 83.7 81.8 82.3 69.8 51 35.3 29.4 26.8 26.6 26 16.4 11.8 7.2 -2.1 -2.1 -2.1 -2.1 -2.1 -2.1 -2.1 -2.1 -2.1 -2.1 -2.1 -2.1 -2.1 -2.1 -2.1 -2.1 -2.1 -2.1 9.8 36.6 58.5 84.1 98.8 114.7 129.3 154.7 186.8 212.6 249.9 263.3 270.7 279.3 291.5 299.5 297.6 284.5 267.9 275.1 282.5 288.6 297.3 290.3 274.4 264.9 263.2 262.6 255.3 250.3 243.6 228.5 210.4 188.8 165.9 163.1 147.2 119.6 118 145.5 162.3 170.5 185.5 171.1 161.9 168 177.2 185.8 173.8 147 133.2 121.7 106.1 86 72.7 73.7 77.9 82 80.8 73.8 66.5 62.9 56 48.3 43.7 44.2 47.1 56.8 45.1 41.4 40.5 44.4 54.9 67 65.8 62.5 62.9 66.2 74.1 80.8 86.1 83.7 82.4 83.7 92.7 104.3 113.7 126.3 134 146.7 163.8 181.6 209.3 250.4 296.5 329.6 356.4 385.6 397.5 389.2 384.5 375.9 370.3 355.8 351.1 348.7 331.9 323.8 321.9 324.1 324.4 317.5 311 313.4 299.3 296.4 314.4 318.2 320.3 324.3 318.5 321.7 316.3 306.8 301.9 297.9 285.2 264.2 248 239 234.6 233.3 224.1 213 198.5 196 160.5 192.3 196.6 199.5 212.1 227.9 230.4 232.5 235.8 246.7 259.3 272.5 282.4 292.3 300.4 315.1 305.2 289.7 291.8 290.8 292.4 304.5 316.1 320.6 321.9 323 329.3 324.4 331.6 337.6 342.5 346.2
86.5 86.9 86 78.4 64.9 54.8 33.6 22.5 18.1 15.4 17.8 16.5 12.2 7.6 -2.1 -2.1 -2.1 -2.1 -2.1 -2.1 -2.1 -2.1 -2.1 -2.1 -2.1 -2.1 -2.1 -2.1 -2.1 -2.1 -2.1 -2.1 5.3 41.3 59.2 75.8 91.8 111 130.2 156.3 187.3 227.3 267.6 277.5 308.9 339.3 349.7 346.2 334.1 315.8 315.1 315.1 311.4 318.8 335 332.4 319.4 301.3 292.4 291.2 282.6 274.3 266 257 244.4 225.9 195.8 187.3 174.9 151.3 135 152.1 158.6 168.2 177.8 179.5 185.2 185.6 189.1 192.2 173.9 152 144.7 131.9 107.1 92.1 84.9 84.4 91.2 95.8 94.2 90.8 83.8 74.5 64.1 47.9 44.3 44.2 44.3 48 44.9 42.3 40.5 40.5 47.3 64.3 61.3 59 60.5 68.2 73.5 82 84.5 84.8 88.3 91.4 97.4 107.4 113.6 122 131.3 143.3 159.3 178.4 208.6 265.6 302.8 335.4 364.1 397.6 402.4 400.5 395.2 385.5 380.3 371.3 358.8 351.7 347.5 349.3 346.6 343.3 339.4 337.5 327.3 325.6 320.8 317 330.5 332.3 332.1 330.2 329.6 327.4 325 321.8 313 299.2 283.6 268.6 252.5 245.1 243.5 237.3 231.2 219.5 211.7 207.7 183.3 192.8 201.4 206.5 213 234.5 240.1 243.5 245.6 252.3 265.4 283.1 291.9 301.5 321.8 326.6 323 316.9 318.9 314.5 319.6 332.6 341.5 334.4 334.6 340 343.8 340.6 353.4 361 364.3 363.6
93.9 88.4 85.2 77 69.2 53.6 36.5 27.9 23.7 18.1 12.8 11.5 10.2 -2.1 -2.1 -2.1 -2.1 -2.1 -2.1 -2.1 -2.1 -2.1 -2.1 -2.1 -2.1 -2.1 -2.1 -2.1 -2.1 -2.1 -2.1 -2.1 -2.1 42.3 63.2 78.1 95.6 106.7 128.3 151.1 184.6 232.7 269.7 298.6 366.9 376.9 378.6 375.7 367.1 359.7 359.9 369.6 363.3 369.8 376.1 368.4 365.5 351.8 333.9 325.3 311 303.2 293.1 288.5 271.9 250.6 234 232.2 210.8 179 156.3 159 162.8 170.9 182.8 197.4 210 218.7 206.4 200.7 175.9 180.2 163 139.9 112.5 98.9 99.2 98.2 105.2 108.8 116.1 117.8 104.2 87.5 73.4 52 44.3 44.2 44.6 44.5 45.1 43.7 40.5 40.5 40.5 54.8 55.9 56.3 57.4 64.8 73.1 77.8 79.8 87.7 91.3 92.9 96.5 105.8 112.1 119.5 128.4 141 154.1 180.1 213.3 269.7 303.4 332.2 367.6 399.5 407.1 407.9 397.4 392.3 388.4 372.2 360.8 363.3 368 372.7 370.4 368 369 358.7 345.2 338.3 332.7 329.1 332.5 338.9 338.2 334.9 332.9 330.2 326.4 325.1 315.4 304 284.6 264.4 251.9 250 246.3 241.7 239.4 227.8 228.8 219.4 206.6 198.7 207.1 214.9 225 240.3 249.2 254.7 257.2 259.4 269 286.5 299.1 306.9 326.2 332.8 329.8 330.8 335.9 335.6 338.2 349.6 356.9 354.2 351 349.4 349.4 353.5 364.2 372.5 378.4 378.6
94.3 87.3 85 79.3 69.5 58.2 45.3 37.3 32.3 33.5 26.2 13.9 5.8 -2.1 -2.1 -2.1 -2.1 -2.1 -2.1 13.4 -2.1 -2.1 -2.1 -2.1 -2.1 -2.1 -2.1 -2.1 -2.1 -2.1 -2.1 -2.1 -2.1 27.3 62 81.3 91.6 97.7 117.7 142.8 177.2 224.5 264.7 297 365.9 396.4 407.7 407.1 410.2 435.3 434.9 427.5 415.7 414.6 413.9 409.2 404.9 397.7 373.9 362.7 350.2 336.1 326 319.6 304.5 271.1 253.3 249.2 236 213.3 182.7 181 191.9 193.6 191.8 201 223.2 223.2 207.7 196.9 190 185.5 180.8 158.1 126.9 114.5 116.1 113.6 121 122.1 129.5 129.3 133.4 103.9 78 55.8 47.2 44.1 42.6 45.2 47.7 46.8 40.3 40.5 40.5 45.1 51.8 53.4 56.4 63.7 72 74.7 77.7 86.5 91.8 90.5 92.8 100.3 109.4 118.3 128.3 137.6 155.1 180.3 213.5 274.1 299.1 327.8 368.9 396.9 416.1 417.2 405 397.3 394.5 381.5 376.3 386.4 395.1 404.8 388.1 379.4 383.7 375.5 361.4 355.6 348.4 339 335.6 339.4 342.2 341.5 342.6 343.5 332.7 316.9 308.8 294 271.6 261 255.6 251.6 248.1 246.8 240.8 239.8 237.7 225.8 215.9 203.9 212.6 218.6 228.2 245.3 249.5 257.1 261.3 264.1 272 287.4 302.4 309.2 314.6 329.9 334.1 334.4 343.8 346.9 350.4 357.6 362.1 360 354.2 358.4 362.9 370.5 377.5 387.4 395.9 396.2
96.8 85.3 83.5 83 72.9 64.1 52.7 48.2 42.1 41.1 37.8 27.3 13.8 8.6 5.6 1.5 -0.5 0.4 7.4 21.3 22 -2.1 -2.1 -2.1 -2.1 -2.1 -2.1 -2.1 -2.1 -2.1 -2.1 -2.1 -2.1 5.6 49.6 67.7 77.6 85.3 103.1 126.6 174.4 207.1 258.5 281.8 351.6 379.8 409.8 419.8 438.2 447.1 448.7 446.7 445.9 446.6 447.3 448.4 446.5 430.7 420.9 408.9 387.1 371.4 361.8 346.9 326.2 302.2 272.2 260.1 253.2 235.4 213.5 212.1 211.9 207.4 200.7 196.4 206.3 215.7 210.5 205.4 208.2 204.3 190.2 167.7 145.5 134.6 137.7 129.4 139.4 133.1 136.3 136.7 133.8 113.1 85.3 68.8 56.3 40.5 40.5 40.3 46.3 41.3 40.5 40.5 40.5 41.1 45.8 49.9 55.1 60.1 68.2 71.9 74.7 84 88.5 88.5 90.7 97.6 105.7 114.6 125.4 134.7 155.3 179.8 211.6 272.8 294.7 326.7 363 384.8 414.3 421.1 411.7 398.4 397.6 392.1 405.6 420.1 425.4 415.9 416.3 409.8 393.7 389.6 377.9 368.9 366.4 360.1 360.3 356.6 344.8 337.8 345 343 331.3 315.8 299.7 283.8 273.2 265.5 257.8 252.7 248.9 247.7 245.2 246.4 243.1 232 224.6 212.9 214.4 223.6 231.1 246.8 257.7 259.5 265.1 267.7 274 284.5 297.5 301.8 309.3 321.7 325.3 328.2 336.2 346.5 355.2 363.6 372.6 378.5 381.4 386.2 388.6 392.6 397.8 405.2 411.9 417.3
96.4 84.9 85 84 74.1 64.3 63.7 53.3 47.2 45.5 42.8 37.1 25.7 17.3 11.3 2.7 2.1 5.4 16.4 29.7 27.1 18.7 14.6 -2.1 -2.1 -2.1 -2.1 -2.1 -2.1 -2.1 -2.1 -2.1 -2.1 -2.1 32.1 47.9 58.4 76.7 91.6 112 161.7 195.8 231.2 272.3 315.6 358.1 385.9 414.9 439.2 448.9 451.2 455.8 467.7 475.5 477.2 488.5 491.7 489.4 482.2 472.2 457.8 445.9 426 388.4 362 332.3 301.5 283.2 268 255.3 246.7 232.9 226.2 217.6 214.7 207.5 203.8 210.3 219.2 217.7 219.4 209.8 191 167.2 165.6 153.6 159 145.9 147.5 135.4 134.4 133.8 133.9 114.2 96.9 77.6 65.4 48.8 40.5 40.5 40.5 40.5 40.5 40.5 40.5 40.5 43.7 48.9 56.2 59.5 64.4 66.8 69 78.6 83.7 86.5 88.9 91.5 100.5 109.8 120.3 135 156 178 211.4 263.9 291.1 326.1 356.2 372.7 397.6 417.2 415.1 404.7 403.3 412.3 429.2 457.3 460.3 448.9 430.2 423.9 415.6 400.1 400.5 398 391.1 380.3 374.2 373 359.7 342.8 335.3 334.6 325.6 306.5 290.7 289.3 279.5 275.5 267.5 256 249.8 247.3 245.5 246.7 246.4 239.3 229.3 220.3 215.2 225.6 234.7 242.2 257.2 264 271 270.8 274.4 281.1 296.2 298.5 304.4 312.6 316 324.4 338.2 354.6 368.1 386.3 415.7 423 432.8 459 465.6 459 437.8 441.5 455.6 461.1
96.3 87.8 87.6 78.4 71.1 69.9 63.6 52.6 48.8 50 46.7 41.8 37.4 24.9 15.9 6.9 15.7 21.1 25.6 29.1 30.2 27.7 26.4 -2.1 -2.1 -2.1 -2.1 -2.1 -2.1 -2.1 -2.1 -2.1 -2.1 -2.1 15.3 31.1 41.9 56.9 78.7 104.6 161.2 204.9 219.1 251.9 294 338.7 364.3 392.5 428.6 445.3 453.3 466.4 483.5 489.9 490.3 495.7 499.7 499.2 494.1 484.8 474 460.2 448.9 439.5 419.1 379.9 335.6 323.4 327.4 296 270.1 266.2 255.8 243.7 232.9 224.1 217 212.4 218.5 220.2 222.2 210.6 189.5 173.5 172.2 169.3 168.6 160.8 154.4 135.9 138.3 140.8 120.7 108 98.9 83.1 70.7 53.2 40.5 40.5 40.5 40.5 40.5 40.5 40.5 40.5 44.7 48.4 54 55.3 57.5 60.6 66.4 74 79.1 85.3 86.6 88.3 97.2 106 115.5 133 155.1 177.7 210.8 261.6 280 314.2 343.2 359.6 384.4 404.8 413.6 418.4 422.5 434.3 458.7 477.9 480.4 477.2 468.7 443.6 429 419.3 407.1 405 404.8 396.9 388.9 385.9 378.2 353.2 333.6 329.6 318.9 310.9 308 301.4 290.6 277.9 272.7 265.1 255.8 251 248.6 248.2 248.4 241.1 233 220.5 221.5 230.7 237.2 247.3 255.3 260 271.2 275.5 282 284.2 290.7 295.9 300.2 309.2 322.1 335.8 348.8 363.4 372.1 385.6 411.5 426.4 441.7 465.8 476.6 480.8 482.7 482.7 486.3 487.3
104.4 91.8 90.4 78.9 73.6 71.6 63.3 55.9 51.8 53 53 43.9 38.2 29.7 16.8 21.8 25.1 39.3 32.3 31 34.6 29.1 29.5 29.9 -2.1 -2.1 -2.1 -2.1 -2.1 -2.1 -2.1 -2.1 -2.1 -2.1 2.1 14.3 34.5 50 70 98.3 152.8 217.8 226 244.7 274.2 309.4 342.3 369.9 403.1 442.7 454.2 464.1 486 492.7 496.9 504.1 510.5 508.8 501.3 494.5 484.1 474.7 460.2 452.3 443.9 424.7 374.6 376.5 373.3 325.8 314.2 295.4 287.1 276.4 265.7 245.8 232.9 228.8 222.7 229.7 236.4 215.8 193.9 183.8 180 179.7 187.1 177.8 159.2 142.5 132.9 129.4 116.6 103.6 103.2 84 70.1 55.4 40.5 40.5 40.5 40.5 40.5 40.5 40.5 40.5 40.5 45.3 47.8 50.6 53.4 55.2 63.7 70.8 75 82 82.8 82.4 93.8 101.8 111.2 132.1 155.1 174.1 204.1 253 267.2 296.5 328.1 344.7 366.1 390.6 410.3 430.4 436.1 446.8 473.2 496 500.5 486.1 478.5 467.4 446.9 434.3 427.6 422.4 413 406.8 395.8 389.1 380.9 366.6 341.2 333.7 329.4 324.7 318 311.2 295.1 285.1 274.4 266 260.9 253.1 256 250.7 248.3 242.3 231.6 216.8 229.3 228.5 237.4 247.1 258.5 261.9 265.1 277.7 291.1 294.3 290.2 291.6 295.1 307.1 321.4 338.3 352 363.3 373.4 390.1 416 429.8 442.7 468.8 493.1 509.9 510.1 510.8 521.4 523.1
111.4 99.9 99.7 88.2 75.4 71.8 60.1 58.2 59.3 51.6 53.3 46.1 35.6 26.9 32.4 33.7 34.1 39.5 46.2 39.9 34 28.7 30.1 31.6 21.8 -2.1 -2.1 -2.1 -2.1 -2.1 -2.1 -2.1 -2.1 -2.1 0.1 7.2 32.9 52.3 69.5 92.1 138.1 200.7 235.5 245.1 258.8 278 307.7 341.9 377.2 435.5 458.3 460.6 482.4 495.3 503.2 508.6 513 513.4 506.3 500.5 493.9 484.9 473.6 459.2 454.7 444.7 418.8 412.9 397.1 372.4 361 340 329 311 292.2 271.4 262 255.5 244.6 240.7 246.9 236.2 203.4 190.2 188.1 188 187.1 174.8 159.1 146.6 136.3 125.6 114.1 102.7 90.8 79.7 67.8 51.1 40.5 40.5 40.5 40.5 40.5 40.5 40.5 40.5 40.5 41.3 44.4 47.5 48.9 48.2 56.2 64.8 71.1 74.9 75.8 78 87.1 96.7 106.8 130.7 149.9 169 195.9 235.6 256.6 277.9 305.7 333.3 352.3 379.7 429.4 440.7 454.5 469.1 496.7 511.4 521.3 520.3 511.3 487.9 466.1 450.6 442 436.4 429.3 419.5 409.5 396.5 386.8 366 349.5 346.7 343.2 334.8 327.4 316 300.6 292.3 279.8 269.5 260.2 253.7 256.6 253.3 247.4 240.7 232 219.5 236.3 234 238.5 246.4 256.2 264.1 267.6 273.6 291.8 293.3 291.3 288 290.1 304.4 319.4 336.4 352.2 370.2 378.7 392.1 414.6 434.6 444.8 465.3 475.9 492.4 511 524.5 537.5 542.3
112.3 108.1 105.5 96 86.2 76.5 62.8 60.4 58.3 52 46.4 40.9 30.7 34.1 41.1 40.3 44.3 46.6 49.9 49.6 37.7 30.5 28 32.1 25.8 -2.1 -2.1 -2.1 -2.1 -2.1 -2.1 -2.1 -2.1 -2.1 -0.1 2.7 27.9 46.8 65.3 89.1 126.5 183.3 229.4 243.5 246.6 263.1 287.9 318.7 359.4 421.1 448.5 458.7 473.6 489.9 500.2 507 514.4 518.2 511 504.7 498.1 494.6 483.8 466.3 455.6 447.7 438 429 418.8 407.1 402.1 386.2 367.5 343.6 325 303.7 287.9 283.4 277.8 270.4 260.1 251.8 224.3 204 198.7 196.2 194.6 176.9 160.2 143.4 131.6 121.8 111.6 96.9 83.4 69.6 57.9 45.8 40.5 40.5 40.5 40.5 40.5 40.5 40.5 40.5 40.5 40.5 42.5 43.9 40.3 43.4 50.4 56.3 69.8 74.7 72.1 73.6 78.8 89.1 102.6 125.9 145.7 164.3 187.8 222.2 246.4 263.4 286.3 317 346.9 392.8 425.5 446.3 465.8 503.9 535.5 547 547.3 548.7 540.9 522.4 509.4 479.4 455.5 455.6 444.5 433.8 424.2 409 393.1 368.8 362.2 358.8 348.9 343 329.4 314.4 306.6 295.1 282.8 270.9 262.6 257.5 256.7 252.7 248.6 240.7 233.8 225.5 230.1 236.9 242.8 246.2 251.2 259.2 266.1 271.7 283.7 282.8 284.8 289 289.9 300.3 313 326.2 345 362.8 378 391 406.1 430.4 446.4 464.9 479.8 488.8 501.3 518.6 532.5 542.5
116.3 120.8 113.9 104.9 90.9 84.9 69.2 63.2 55.9 49 43.9 42 48.2 43.9 51.1 54.3 55 61.5 56.7 55.2 46.4 40.1 34.2 27.3 20.7 7.4 -2.1 -2.1 -2.1 -2.1 -2.1 -2.1 -2.1 -2.1 0.4 2.4 22.3 39.5 68.7 91.1 121.5 175.8 215.6 228.2 227.8 245 266.4 299.1 345.1 399.1 424.8 449.5 465.4 479.6 488.9 499 509.5 515.8 518.4 515.6 501.2 499.4 500.8 491.3 477 457.6 461.7 460.7 445.9 448.2 445.3 428.2 413.5 390.1 367.2 350.2 331.1 316.6 308.5 299.6 295.8 278.6 245.7 223.2 214.9 209.4 217.4 188.3 168.5 153.5 131.9 116.3 105 96 82.6 61.5 50.6 44.5 40.5 40.5 40.5 40.5 40.5 40.5 40.5 40.5 40.5 40.5 41.2 41.2 40.5 43.1 49 51.3 62.8 69.3 68.2 68.4 73 84.6 101.2 119.2 140.6 157.3 180.9 210 234.8 252 275.5 303.3 346.1 382.3 417.4 444.5 470.4 512.4 544.6 576.9 588.4 588.2 574.3 559 530.1 512.7 471.5 459.6 456.6 446.1 433.5 416.2 390.1 385.9 371.4 359 347.7 343.5 326.8 314.7 306.7 297.1 284.9 277.2 266.9 262.9 261.6 254.6 250.9 244.6 234.9 226.6 231.5 238.2 246.7 246.5 247.3 252.2 258.2 265.9 271.5 279 283.1 287.9 293.5 299.5 312.8 325.2 336.7 354.2 369.8 385.4 398.2 416.9 441 454.1 470.2 485.1 501.2 517.1 530.6 541.5
123.1 123.1 117.7 113.8 95.9 86.2 69.3 62.6 55.2 56.6 53.3 43.6 51.8 54.7 53.8 64 64.8 66.1 67.5 60.8 60.9 55.4 44.5 30.4 19.4 15.2 -2.1 -2.1 -2.1 -2.1 -2.1 -2.1 -2.1 -0.8 0.7 2.4 21.2 36.5 64.3 88.1 117.5 152 195.9 207.3 203 221.2 246.6 291 335.1 387.6 412.6 429.1 452.2 464.7 476.1 486.1 493.3 499.4 514.1 522.8 518.6 509.4 507.4 502.1 485.6 476.2 475.6 473 466.3 462.4 462.1 459 449.9 434.6 412.2 399.3 383 370.1 363.9 335.8 318.3 294.2 260.7 229.9 219.6 209.7 202.4 181.3 164 147.6 131.1 116.7 98.7 85.9 71.9 59.6 53.3 47.2 41.5 40.5 40.5 40.5 40.5 40.5 40.5 40.5 40.5 40.5 40.5 40.5 40.5 40.3 42.9 48.2 56.8 63 63.2 63.8 70.5 80.9 98.9 116.3 132.9 151.8 172.8 196.6 219.5 241 267 314 337.9 369.4 401.9 436.1 472.9 517.9 548.5 585.8 623.4 628.5 612.2 602.1 565 526.4 492.8 482.8 460.5 450.4 436.5 412.1 409.5 401.2 380.5 364.2 350.6 344.6 326.8 320.8 308.3 299.2 288.2 277 270.5 268.4 261.7 256.1 252.7 247 239.6 230.8 229.4 234.5 242.2 246.1 246.9 253.6 255.9 262.9 271.7 278 282.6 290.3 299.5 306.3 313.6 325.4 336.6 347.1 362 380.4 400.7 418.4 432.5 449.8 473.2 490.8 503.6 519.2 529.6 543.7
128.3 125.2 122.7 114.4 100.9 80.5 75.6 71.6 64.6 73.8 68.9 59.4 61 69.8 66.6 70.8 75.6 75.8 70.4 65.7 70.4 70.1 56.7 37.2 22 16.6 12.3 -2.1 -2.1 -2.1 -2.1 -2.1 -0.8 0.1 1.1 2.5 20.4 35.7 53.1 71.8 95.6 131.6 179.1 187.5 184.1 206.2 231.1 281.4 324.8 370.7 396.8 416.9 436.1 457.4 464.9 472.5 480.5 484.3 510.2 526.3 526.3 515.2 505.5 503.5 490.7 485.3 480.9 478.8 477.9 482 480.1 475.8 471.7 465.2 454.6 448.7 442.3 439.5 412.1 380.3 336.1 300.7 264.1 236.5 222.6 200.5 182.7 167.1 155.5 141.2 124.7 110.7 94.9 78.3 72.3 70.4 60.9 51.6 44.5 40.9 40.3 44.8 40.5 40.5 40.5 40.5 40.5 40.5 40.5 40.5 40.5 40.5 40.5 44.2 53.3 55.8 56.5 58.9 64.1 74.7 94.6 109.7 125.7 144.5 163.6 186.8 209.3 233.6 263.4 309.6 329.3 361.3 392.7 430.1 478 513.9 548.9 585.5 645.3 657.5 652.8 627.5 594.8 549.9 512.5 499.9 480.3 455.8 436 431.5 434 413.4 394.1 371.8 357.8 351.9 337.9 328.6 317.4 306.8 291.9 279.5 278.8 275.8 269.2 261 257.3 250.5 242.1 233.8 234 237.2 238.1 243.7 246.5 252.6 259.3 266.6 275 282.5 287.4 294.8 304 311.3 317.2 324.7 336.4 347.6 360 377.8 402.5 421.5 432.5 445.2 469.1 487.9 503.9 523.2 539.5 546.7
129.1 124.3 123.1 113.3 101.3 89.6 88 85.6 78.8 71.6 68.4 61.6 69.4 75.6 76.1 83.4 81.9 83.1 78.1 71 71.7 73.1 66.5 44.2 28.9 26.3 15 -2.1 -2.1 -2.1 -2.1 -0.6 0.4 1 1.8 4.2 19.4 33.9 46 59.4 77.8 117.3 150.6 161.5 166.9 187.7 213.1 267.8 302.4 342.7 373.3 402.3 422.5 435.5 451.3 460.7 472.5 482.9 504.2 519.7 524.1 516.7 509.2 502.9 490.1 489.1 489.2 488.7 482.5 486.3 490.5 486.9 482 478.1 471.5 465.4 456.4 444.7 433.9 399.6 353 302.8 274.4 246.5 223.9 200.6 178.7 158.6 147.9 134 120 108.5 97.5 88.5 77.4 74.8 66.5 57 50.4 44.9 44.6 45.7 40.3 40.4 40.5 40.5 40.5 40.5 40.5 40.5 40.5 40.5 40.5 40.5 45.7 48.3 52.9 56.4 59.7 69.2 87.3 104 118.6 136.9 156.1 178.1 202.2 232.1 267.9 303.2 318.2 357.7 388.4 428.8 477.9 513.3 545.7 585.8 652.7 679.3 671.9 644.1 610.1 569.2 531.7 514 488 459.6 451.5 453.6 450.5 430.6 409 387 368.7 357.9 351.6 335.8 322.9 311.3 293.3 289.1 285.4 278.4 268.3 264.4 260.8 252.4 245.6 244.9 237.2 238.2 238.9 245 254.6 263.7 266.2 271.4 274.1 281.3 289 297.8 308.1 314.5 320.8 327.3 332.4 346 360.7 375.8 400.1 419.3 434.4 448.1 456.4 482.8 500.9 520 540.9 552.6
127.1 124 119.7 106.5 103.4 98.6 93.5 98.1 87.2 77.7 70.4 68.3 72.1 78.9 80.8 88 90.2 87.8 87.2 80.4 75.7 74.1 65.8 46.6 37.7 33 20.1 5.2 0.7 -2.1 -2.1 0.2 1.6 2.2 2.7 10.1 20.9 28.8 39.4 60.8 74.6 94.2 118 128.6 149.5 171.4 194 248.6 280.4 318.8 353.1 389.9 407.4 422.1 433 449.9 460.6 470 491.9 510.3 515.3 516.3 513.5 506.5 495.1 495.9 499.1 497.2 491.9 493.5 494.7 492 486.5 482.8 479.9 470.1 460.1 445.1 431.8 400.7 350.9 303.8 283.4 258.3 227.6 203.3 180.1 157.7 143.2 130.3 120.4 109.1 101.9 99.4 89.8 82.4 72.4 63.6 56.7 49.2 45.6 44.1 42.6 42.3 40.5 40.5 40.5 40.5 40.5 40.5 40.5 40.5 40.5 40.5 42.2 46.4 48.3 51 57.4 64.1 79.2 98.1 114.2 130 150.2 172.5 206.5 239 276.9 297.9 313.6 347.8 381.4 423.1 476.7 512.7 539.9 592.1 653.2 681 684.7 658.7 626.2 585.9 544.8 515.4 494 477.6 471.2 466.3 456.5 443.6 422.4 402.7 384.6 371.6 359.1 342.3 331.8 317.4 304 298.5 293.8 284.7 275.5 272.5 262.4 253.5 248.6 246.1 241.5 239.6 242.2 243.9 259 264.8 269.8 270.7 273.5 279.2 287 297 304.5 312.1 320.6 327.4 334.4 341.6 357.3 373.4 398.2 419.2 434.5 448.5 459 468.3 492.7 510.9 529.8 541.7
129.2 123.1 119.6 107.6 112 109.5 100 102.9 93.8 83.5 72.9 77.1 74.8 80.7 83.1 89.4 93.5 98.1 92.5 89.7 82.1 78.9 68.1 61.1 51.7 45.8 32.2 11.3 0.4 -2.1 -0.5 1.3 2.9 2.7 2.7 12.4 21.1 22.9 27.1 48.5 70.5 80.1 92.6 109.4 131.9 156.1 179.3 214 253.7 288.6 330 366.8 385.1 400 419.7 431.9 445.8 461.6 478.1 501.6 507.9 508.5 510.4 507.9 502.5 498.2 497.3 498.3 494.2 491.2 494 494.7 489.8 485.3 480.5 473.1 460.6 448.1 430.6 391.8 346.4 308.2 288.5 259.2 234.6 212.8 184.6 161.4 143.9 131 120.5 111.2 105.7 101.7 97.6 90.6 80.8 67.6 59.6 51.7 46.2 44.2 42.7 40 40.5 40.5 40.5 40.5 40.5 40.5 40.5 40.5 40.5 40.5 40.5 44.4 46.3 49.5 54.8 59 71.9 90.5 108.2 123 146.2 173.8 215.9 242.7 265.6 291 310.1 343.6 380.2 425.2 478.8 505.6 534.1 584.8 630.2 663 683 661.6 629.6 587 552.3 533.8 530.4 510.1 494 489 470 457.1 439.7 417.7 398.4 379.7 364 349.9 339.1 324.7 315.5 311.8 300.4 289.7 282.4 276.1 264.5 255.9 253 246.3 243 241.2 246.5 253.3 258 262.6 268.7 271.9 275.5 281.5 291.6 298.3 304.7 312.2 318.5 325.9 333.7 342.7 349.8 369.3 392.9 410.9 430.8 446.1 460.5 469.9 488 505.7 521.8 536.4
130.8 123.9 126.4 128.5 118.5 116.3 107.8 100.1 94.2 88.7 78.3 84.7 87.6 82.5 88.3 91 92.2 96.3 95.6 92.8 88 84.2 70.5 66.8 64.2 51.1 50.1 28.7 1.8 -0.3 1 2.7 7 8.2 7.6 2.7 16.9 16.4 18 32.5 54.6 74.5 78.4 92 113.4 140.3 167.6 195.7 239.4 266.1 294.6 323.5 354.6 378.1 408.1 419.7 430 449.2 469.3 490.2 498.3 500.9 504 503.5 500.9 502.4 499.6 491.2 492.6 491.2 494 491.2 495.6 494.1 489.9 478.2 463.6 450.1 424.8 388.2 342.3 313.2 293.8 268.9 240 219.2 197 170.2 152.1 137.2 124.3 114.5 106.9 102.4 97.3 92.3 84.8 72.3 60.5 52.6 47.8 45.7 41 40.5 40.5 40.5 40.5 40.5 40.5 40.5 40.5 40.5 40.5 40.5 40.5 40.5 40.7 47.1 52.7 55.4 65.1 85.2 101.5 116.9 146.7 179.9 222.5 242.1 259.9 285.6 303.8 339.2 388.1 429.7 476.6 502.2 527.2 571 607.9 649.8 675.6 653.1 625.4 599.3 579 566.4 557 540.5 526.3 527.2 500.6 479.9 459 435.5 413.7 387.6 372.2 363.2 344.4 335.2 328.9 321.9 309.1 300.3 289.6 279 267.1 265.4 257.6 249.8 248.8 251 257.4 263.2 262.2 266.9 270 274.6 278.9 285.8 292.5 300.4 307.7 317.2 320.5 326.8 333.5 339.6 344.9 358.5 380.2 401 417.2 438.7 455.7 472.9 488.7 504.3 516.7 526.8
127.9 126.1 134.9 141.5 128.7 123.3 113.6 99.5 97.6 96.8 90.5 93.6 92.7 86.9 92 96.8 97.8 95.7 96.8 94.9 93.6 88.3 76.7 75.9 70.4 56 52 45 14.8 2.7 2.7 8.7 12.1 14.4 18.6 16.6 3.2 13 9.8 17.8 31.8 52.9 66.4 75.8 94.3 122.9 152.2 201.4 234.6 253.5 281.2 315.5 349.9 367.4 386.5 400.6 413.5 426.9 451.3 473.9 485.7 490.6 496.7 497.4 501.8 503.6 502.5 491.2 491.2 491.2 491.2 491.2 494.3 498.3 493 481.1 459.3 441.6 412.9 379.5 340.2 316.8 300.5 271.5 242.8 220.1 200.5 179.9 159.9 142.3 130.8 118.2 108.3 101.9 98 93.5 86.2 74.6 69.3 56.7 49.2 46.9 40.5 40.5 40.5 40.5 40.5 40.5 40.5 40.5 40.5 40.5 40.5 40.5 40.5 40.5 40.5 45.8 50.4 53.2 61.4 77.9 91.9 116.8 149.8 178.4 218.5 235.7 253.9 282.1 298.1 337.2 386.5 432.2 470.8 498.1 520.5 556.6 585.2 633.1 658 632.9 628.9 625.5 617.2 601.1 591.2 580.7 566 559 540.9 506 481 455.6 431.1 402.9 385.6 370.5 358.6 349.3 344.6 328.7 316.6 306.7 294.2 281.2 272.1 275.5 266.2 261.6 264.2 262.7 262.6 269.9 268.4 270.2 275.5 277.5 281.3 289.6 295.1 300.8 305.5 313.7 320.4 326.9 332.6 339.3 346.9 353.7 367.3 391.8 411.8 429.4 450.8 469.3 488.5 498.1 512.2 528.6
131.7 132.1 141 145.1 136.4 130.2 117.1 102.1 101.3 98.9 102.7 103.7 99.5 92.8 99.4 104 104.4 101 93.7 94.9 98.1 87.5 83.1 81.1 76.5 68.4 55 47.8 33.9 2.7 2.7 12.1 19.7 19.5 20.7 20.1 17.9 5.9 9.1 10 15.4 33.4 55.9 68.5 77.6 100.7 140.9 188.5 219.3 240.2 265.1 304.8 337.6 349.1 365.6 380 398.5 409.8 437.7 457.9 471.9 486 486.5 489.3 498.8 506.9 512.3 508.5 499.3 491.2 491.2 494.9 493.9 492.9 487.1 470 450.9 429.7 401.8 368.2 341.1 320.5 299.7 274.1 246.6 225.8 203.8 182.3 163.8 148.2 136.3 124.6 112.9 103.9 99.5 93.6 86.6 81.6 78.7 65 53 47.2 42 40.5 40.5 40.5 40.5 40.5 40.5 40.5 40.5 40.5 40.5 40.5 40.5 40.5 40.5 40.5 49.4 52.9 57.3 70.1 87.6 115.5 143.1 169.5 203.5 226.1 244.6 275.3 294.6 339 387 444.8 469.4 490.5 513 543.8 576.7 620 635.4 616.3 617.4 629.9 640.9 632.7 618 613.3 604.4 591.9 568.5 539.4 510.4 483.4 451.5 422.8 400.7 384.7 373.9 363.5 353.8 336.1 321.9 310.9 297.2 286.7 285.8 286.1 284.6 281.4 277.3 274.7 269.3 274 274.2 274.5 278.7 280.4 282.7 290.3 296.5 299.6 305 312.3 317.6 323.7 328.8 335.5 345.9 355.3 364 378 398.5 416.1 433.5 462.1 475.7 489.8 510.2 526.1
147.4 136.9 141.9 144.8 138.1 132.5 117.7 114.6 118 114.9 108.9 111.3 104.7 98.5 106.7 111.2 110.2 107.9 96.6 92.2 94.1 83.9 87 87.8 77 73 61.4 50.7 36.1 2.7 3 13.5 24.6 21 21.6 22.7 23.2 21.3 13.2 12.9 11.5 22.3 37.6 64.3 71.9 83.9 113.8 149 189.4 215.1 236.3 274.2 304.1 323.5 337.9 361 388.5 400.8 423.2 440.7 455.7 466.3 476.9 482.9 490.8 504.3 529.4 527.7 517.7 506.6 505.8 503.5 502.7 493.2 485.6 459.2 435 410.5 386 360.8 337.4 319.4 299.1 275.2 250.4 229.5 208.9 188.2 172.2 164.2 145.7 130.5 118.3 107.1 100.6 95.1 87.1 87 82.7 72.9 58.1 50 45.6 40.5 40.5 40.5 40.5 40.5 40.5 40.5 40.5 40.5 40.5 40.5 40.5 40.5 40.5 40.5 42.5 50.2 54.8 67.1 82.5 106.7 131.2 158 184.3 215.9 235.5 265.8 293.3 340.8 382.1 431.8 461.8 483.9 504 530.3 562.3 588.7 599 590.1 597 615.8 631.9 646.1 652.5 644.8 640.6 625.2 594.4 566.2 539.1 507.8 472.4 440.3 416.7 398.1 386.3 377 363.3 341.4 335.7 318.9 305.6 301.5 300.2 298.2 296.1 293.3 287.7 289.6 282.7 279.8 280.5 281 283.3 283.8 283.2 287.1 291.2 297.7 306.1 311.4 316.4 322.8 329.8 337 345 352.6 360.4 366.6 387.5 405.3 421.4 438 458.8 482.2 506 523.9
161.7 147 143.6 143.7 142.6 139.3 138.6 127.3 124 122.4 113.8 113 109.2 108.4 112.8 114.4 113.9 112 99.8 90.3 88 87.7 89.5 88.2 80.4 73.1 66.6 52.6 36.3 16.2 6.3 12.3 20.9 22.5 23.9 25.7 28.1 27.3 23.7 15.9 11.9 15.3 25.9 48.2 64.6 69.4 89.7 119.6 147.9 182.1 207.8 237 265.5 293.7 318.4 348.7 370 391.8 406.2 423.6 435.9 449.5 457.8 474.5 484 508.7 526 531 526.7 520 514.2 511.6 506.5 496.6 484.2 463.6 433.2 407.6 386.7 363.6 340 319.9 298.5 277.1 253.3 231.8 215.2 196.4 180.9 170.2 153.7 136 120 109.8 102 96.6 90.1 89.4 83.1 75.4 65.8 57.6 50 40.5 40.5 40.5 40.5 40.5 40.5 40.5 40.5 40.5 40.5 40.5 40.5 40.5 40.5 40.5 40.5 42.3 51.8 62.4 75.5 94.8 120.9 146.7 168.4 198.8 224.2 254.5 292.1 339.1 376.4 416 446.3 474 490.9 516.8 542.6 569.3 567.7 560.3 573.9 597.4 622.4 646.4 658.7 660.4 658.8 640.3 606.8 578 548 518 486.4 456.7 428.2 411.3 397.6 386.7 362.7 355.2 342.8 327.5 319 316.5 312.8 308.2 305.1 301.2 299.7 295 293.7 288.4 289.4 284.8 289.4 288.5 289 291.1 295.6 296.5 303.6 311.7 317.6 322.7 329.5 337.7 344.5 353.1 360.7 366.3 376.3 393.1 412.5 431.1 450 475.1 509.6 522.4
167.7 158.1 145.5 147.1 156.1 155.7 148.9 137.9 131.6 129.1 118.6 113 114 119.5 117.2 119.7 117.4 115.7 108.9 92.7 91.6 96.6 92.3 91.7 84.4 75.7 69.3 57.4 38.6 26.6 17.6 13.7 20 23.2 29.4 28 28.5 30.8 32.3 28.3 15 14.2 23.9 30.2 50.8 60.2 67.7 90.5 113 147.6 178.9 212.2 235.9 260.2 293.9 323.5 347.6 369.9 390.2 407.2 422.7 436.4 445 460.4 475.2 500.2 518.7 523.7 527.9 522.4 518.4 510.6 508.6 507.9 490 459.6 428.7 403.3 386.2 365.9 342.2 319.3 298.8 280.5 259.6 239.7 219.3 200.8 185.4 173.5 164.9 143.9 125.4 114.8 103.8 98.1 95.3 95.4 89.6 76.8 68.9 62.6 54.1 48.7 40.5 40.5 40.5 40.5 40.5 40.5 40.5 40.5 40.5 40.5 40.5 40.5 40.5 40.5 40.5 40.5 46.8 61.4 71.4 85.1 107.8 133.1 156.9 183.4 214.8 244.8 286.9 330 367.2 399.6 429.3 458.7 473.7 494.5 516.5 536.2 538.6 534.8 550.8 575 604.8 634.8 654.1 666.5 668.5 639.5 609.1 576.6 548.1 520.5 491 460.1 437.1 421.8 405.8 383 380.1 366.3 352.8 343.7 335.9 331.9 326.2 320.8 314.5 308.2 306.5 303.2 299.3 296.9 294.5 293.2 292.1 292.1 290.7 295.3 299.3 301.2 302.5 311.7 316.6 324.3 329.5 336.2 342.8 348.9 356.7 366 378.6 391.9 408.1 427 446.9 466.7 496.5 521.6
177.3 160.1 147 156 164.5 162.1 149.3 138 131 128.6 128.1 120.8 122.3 137.9 135.6 124.7 121.2 117.1 113.4 94.3 93.8 101.6 96.3 94.4 90.2 79.7 74.3 68 47.1 40.6 24.7 14.8 21.4 23.8 28.2 31 28.6 30.1 31.6 32.2 25.2 15.7 18.1 28.3 35.5 46.4 56.9 71.1 91.2 119 150.1 188.8 210.8 233.7 260.1 293.4 316.1 341.2 371.7 395.7 408.6 423.6 430.4 449.5 466.6 479.6 506.2 516.7 521.4 523 520.5 516.8 508.6 505.4 492.3 456 420.4 398.6 381.8 361.3 340.8 320.8 301.8 284.2 260.5 239.9 219.2 204.7 195.8 180.1 162.7 150.5 132.7 119.8 108.1 103.5 99.7 96.9 92.2 78.3 71.2 63.4 55.7 51.7 41.1 40.5 40.5 40.5 40.5 40.5 40.5 40.5 40.5 40.5 40.5 40.5 40.5 40.5 40.5 40.5 41.3 57.1 69.4 77.6 96.2 117.3 144.3 169.1 204 241.4 274.2 312.1 351.8 383.3 413.9 437 454.1 469.4 491.5 509.4 511.4 510.5 527 553.7 587.5 624.9 649.7 667 666.3 635.8 608.6 576.6 548.4 522.5 491.7 463.1 444 427.9 407.6 405.6 395.1 384.3 374.4 363 354.2 348.2 340.3 332.1 323.5 317.7 313.6 313.6 306.1 305.2 301 299.4 296 295.9 294.9 294.7 301.1 303.5 302.1 310.2 314.9 318.4 323.9 331.1 339.8 346 353.8 366.1 381 388.3 402.2 419.3 437.4 455.7 478.3 509.8
181.2 168.9 159.6 167.1 170.5 164.6 152.2 148.3 135.6 133.6 130.8 124.4 131.5 140.9 143.1 133.5 126.1 120 112.5 99.8 96.9 102.3 100.7 97.4 94.1 90.1 79 68.7 52 51.3 33.6 21.8 24 24.9 26.8 29.9 30.4 36.7 40.4 39.2 37.4 29.2 13.8 24.2 30.3 37.2 48.8 66.8 81.8 111.4 135.1 166.8 190 212.6 247 267.9 294.3 320.4 349.4 377.1 393.6 406.4 416.8 434.8 453.9 465.1 477.8 502.2 515.9 518.3 520.5 518.7 516.7 507.3 490.7 451.8 415.7 393.3 375.7 357.1 341.1 323.1 304.3 283.9 261.6 244.9 234 213.6 206.4 194.1 176.4 161.9 142.9 129.6 117.3 109.9 103 99.1 92 85 78.1 68.5 57.8 50.8 44.8 40.5 40.5 40.5 40.5 40.5 40.5 40.5 40.5 40.5 40.5 40.5 40.5 40.5 40.5 40.5 40.5 52.2 63.7 70.2 86.2 105.8 134.8 157 189.4 222.6 258 292.5 329 364.4 391.1 418.2 434.1 447.7 464 482.5 485 487.7 505.3 534.2 566.1 616.2 636.8 665.7 660.6 633.4 605.9 574.8 548.8 521 490 463.9 450.9 434.1 427.9 425.7 419.2 409.6 396.6 383.4 374.6 363.9 354.2 345.4 335.6 327.9 323.8 322.9 316.6 312.8 307 306.8 300.5 302.9 302.1 300.1 301.7 301.5 304.6 306.3 309.9 316.6 321.5 328.1 334.2 341.8 350.5 362.4 377.7 388.3 397.6 413.4 431.1 445 470.5 498
199.8 187.5 171.8 172.7 174.9 164.5 158 148.5 149.3 146.3 143.2 135.5 146.6 145.4 145.1 141.2 130.2 124.9 115.8 111.3 105.6 109.8 112.7 109.2 100.5 97.7 90.2 76.2 59.9 61.2 45 25.5 26 26.5 28.9 31.4 33.3 41.9 42.2 42.4 42.7 36.2 27.6 16 30 39.1 47.8 67.3 87.8 103.6 125.3 152.7 172.8 200.3 237.5 250.5 280.6 301.6 322.8 349.7 375.8 387.8 399.4 418 436.4 455.5 474.6 498.3 507.4 512.4 516.6 515.7 516.4 507.1 487.2 447.4 412.8 390.7 375.3 359.6 344.7 324.5 306.6 290.7 273.1 263.5 247.8 232.7 223.8 208.8 191.6 171.3 154.1 141.1 128.1 118 108.3 102.4 96.7 92.2 84.4 74.6 63.8 51.1 42.4 40.5 40.5 40.5 40.5 40.5 40.5 40.5 40.5 40.5 40.5 40.5 40.5 40.5 40.5 40.5 40.5 49.6 60.3 67.2 77.4 96.9 122 145.1 173.4 203.2 233.4 264.4 296.9 327.9 358.8 379.7 401.9 419.2 436.8 456.1 463.2 462.7 484.7 512.6 543.4 583.3 620.8 655.1 657.8 629.2 603.5 574.7 551.6 520.5 489.6 469.6 455.1 440.9 448.5 446.2 441.1 432.8 419.5 404 393.7 381.3 369.3 359.3 349.6 342.1 335 332.5 327.6 322.6 315.4 311.2 306.6 304.5 304 301.5 299.8 301.3 302.4 304.8 310 316.8 321.4 329.8 336.2 339.9 347.2 357.6 371.9 384.6 393.9 403.7 422.9 440 465 490.5
221.3 209.3 186.9 179.9 177.8 167.6 161.9 158.1 159.8 158 156.3 149.2 158.9 158.9 153.2 146.5 142.5 130.2 120 119.5 118.1 122.8 123.5 122.7 115.8 106.4 98.1 81.9 63.9 67.6 53.6 31.3 28 30.5 34.8 37.1 38.9 39.5 40.4 40.7 40.3 36.7 31.3 26.5 25 40.7 45.7 60.3 90.5 97.1 107.4 130.2 151.4 179.4 207.6 231.2 251 273.6 306.7 327.9 351.7 372.3 382.6 399.8 432.3 460.4 469.9 493.9 495.3 503.9 509.6 510.5 511 506 479.7 440 410.7 389.2 374.9 364.7 349.4 329.6 318.8 303.4 288.5 278.5 275.2 262.2 248.7 228 203.4 183.7 167.1 152.9 139.5 131.5 119.9 110.7 103.8 97 90.8 80.7 69.8 57.5 46.9 40.5 40.5 40.5 40.5 40.5 40.5 40.5 40.5 40.5 40.5 40.5 40.5 40.5 40.5 40.5 40.5 44.9 56.3 62.4 71.4 87.3 106.1 127.4 151.2 178.9 208 227 254.6 283.2 308.8 335.1 361.9 396.8 415.1 430.2 437.7 441.1 463 490.2 521.4 556.9 593.1 621.5 648.9 623.3 599.2 574.4 554.7 524.3 492 476 462.5 459.8 463.5 464 462 455.2 442.2 426.4 411.3 401 388 377.6 366.7 359.4 353.3 346.6 341.3 334.9 329.6 321.9 315.7 311.5 309.7 304.1 305.4 302.7 303 306.6 311.5 316.3 323.9 331.2 335.9 340.8 346.4 353.9 366.1 376.2 389.7 400.8 413.3 437.4 458.1 476.4
237.2 225.5 204 187.2 187 175.7 168.3 168.6 169.4 166.4 165.6 165.5 170.9 165.4 163.5 157.1 147.5 142.7 126.7 122.9 129.7 133.9 134 131.3 127.8 120.7 106.7 90.4 68.9 64.8 59.8 40.9 30 36.3 42.4 43.2 45.8 45.6 42.8 42.7 40.3 36.2 33 28 20.7 32.1 43.5 57.6 86 93.5 98.1 118.4 137.2 160.4 185.2 213 228.1 249.9 282.8 305.6 325.4 350.9 374.3 399.7 436.4 452.4 460.3 473.1 487.4 491 498.1 502.6 503 495.1 471.9 438.6 409.6 390.6 376.4 366 359.2 339 326 312.6 299.8 290.2 287.6 275.4 266.2 248.6 229 203.8 184.8 169.4 156.4 144.7 132.6 122.1 112.6 102.7 94.2 85.3 74.9 63.6 49.9 40.5 40.5 40.5 40.5 40.5 40.5 40.5 40.5 40.5 40.5 40.5 40.5 40.5 40.5 40.5 40.5 40.5 53.4 60.5 64.1 76.7 93.4 112.2 132.8 160.1 185.5 209.7 230.5 260.2 288.4 320.7 359.4 394.4 408.9 410.2 413.1 418.3 443.8 473.1 503.3 533.7 568.9 609.2 638.6 619.5 596.6 575.1 555 527.7 498.5 484.7 472.8 468.7 477.9 476.8 475.9 472.4 462.1 449.3 435.7 425.6 414.8 399.5 389.6 383.1 379.8 371.6 362.6 355 345.5 335.8 325.8 321.9 315.4 310.7 312.6 310.1 305.3 306.6 312 318.1 324.4 329.2 335.1 341.1 348 353.8 359.7 368.8 382.8 398.1 410 437 454 471.8
249.9 235.8 222.3 199.3 194.7 187.1 186.7 186.1 179 173.4 170.6 172.9 180.8 176.7 167.1 165.6 157 146.8 135.3 130.5 137.9 138.7 143.6 141.7 137.5 131.2 116.2 96.4 79.2 70.9 64.6 49.3 33 43.3 49.5 51.3 47.7 46.3 48.2 46.9 44.4 39.8 37.3 32.7 30.7 26.6 37.3 46.1 64 79.8 90.4 104.2 121.1 145.4 165.3 196.6 211.3 240.3 273.7 295.2 312.8 335.1 362.4 384 418 437.9 447.2 458.9 474.9 486.5 489.8 492.7 492.3 484 466.9 441.3 408.4 391.3 379.6 380.7 376.2 360 343.3 326 311.8 302.9 309.2 307.3 298.2 285.5 254.5 226 206.5 190.9 175.3 159.4 147.8 136 124 111.3 102.1 89.7 77.5 66.5 54.3 44 40.5 40.5 40.5 40.5 40.5 40.5 40.5 40.5 40.5 40.5 40.5 40.5 40.5 40.5 40.5 40.5 45.7 58.8 62.9 70.1 83.8 98.4 116 138.1 161.3 187.6 214.9 245.9 270.1 300.7 344.6 377.2 395.6 393.4 392.4 403.3 427.7 456.6 483.9 515.4 547 597.5 627.3 615.9 596.2 578.6 557.9 532.1 508.7 489.2 477.7 478.7 486.4 489.8 488.7 485.1 481.2 472.8 467.8 462.5 452.2 436.3 426.7 418.7 404.1 391.1 378.6 372.9 362.9 349.1 336.9 330.4 321.3 314.9 312.1 313.6 312.8 311.9 309.8 318.3 321.5 327.4 332.7 339.1 344.2 351.7 356.8 363 376.1 393.1 407.3 422.8 440.6 463.2
258.2 242.6 234.9 214.5 199 194.4 191.9 199.1 193.1 175.9 174.3 179.1 184.6 180.6 175.9 168.9 167 153.9 141.4 143.6 144.2 146.2 150.9 152.5 146.6 136.6 128.3 106.9 97.6 77.9 70.3 54 41.8 52.2 64 62.1 55.3 47 49.1 49.5 45.9 43 40 38.9 33.5 30 27.8 37 42.7 62 79.5 90.1 103.9 123.2 145.1 171.9 194.4 231.4 254.7 274.1 290.9 316.9 352.9 369.7 394.3 423.7 436.8 446 453 464.6 477.1 480.3 485.4 481 466.9 447.4 422 404.2 392.2 392.8 387.9 377 374.8 360.1 338.6 325.8 331.8 326.6 317.3 309.6 285.4 254.6 233.2 213.3 194.6 179.6 165.1 151.2 139.8 125.9 112.6 97 82.8 71.7 64.6 55.8 43.2 40.5 40.5 40.5 40.5 40.5 40.5 40.5 40.5 40.5 40.5 40.5 40.5 40.5 40.5 40.5 40.5 55.3 64.5 67.9 76.3 88.5 102.1 122.5 142 168.6 198.4 224 252.1 280.3 315.8 350.7 373.5 376 373.5 389.8 410.3 437.3 466.1 495.5 529.1 583 622.2 611.9 595.5 581.3 566 543.7 517.1 494.1 483.9 483.6 490.9 498.3 502 500.2 498.6 497.4 500.1 503.5 504.7 499.8 477.6 456.6 442 418.3 398.8 388.1 377 362.1 350.4 340.5 330.6 321.9 316.7 318.3 320 318.9 313.7 316.3 322.6 326.2 330 334.4 341.2 353.1 362.4 366.7 372.7 385.1 400 413.3 432.5 457.1
266.6 254.5 243.4 224.7 207.1 200.6 202.6 215.6 210.8 199.8 175.9 178.4 184.1 181.4 179.9 179.6 174.4 162.6 155.8 160.8 157.1 154.1 157.6 158.4 154.2 147.6 139.4 123.9 101.2 81.7 71.9 60.2 45.5 57.4 68.4 71.2 63.5 51.7 49.7 50.1 48.3 44.1 42.7 45.6 39.1 37.2 35 28.4 31.8 44.8 68.2 78.3 95.4 109.2 126.9 148.3 174.1 197.6 233.1 256 268.4 297.5 323.4 352.6 368.3 388.4 417.9 429.6 441.1 447 457.4 464.7 467.3 469.6 463.1 450.6 430.2 421.3 410.8 408.9 402.9 403.7 397.3 383 369.8 355.9 350.4 349.4 344.9 341.9 321.9 294.2 258.5 234.4 215 202.2 186.6 170.9 158.7 141.6 123.2 108.8 98.6 83.3 74.3 63.8 52.6 40.1 40.5 40.5 40.5 40.5 40.5 40.5 40.5 40.5 40.5 40.5 40.5 40.5 40.5 40.5 40.5 46.6 59.3 65.5 69.5 81 94.7 111.4 127.6 147.8 181.3 205.9 232.9 263 295.6 320.7 343.6 347.5 354.2 377.7 398.1 419.3 446.8 476.8 510.9 550.8 587.9 605.4 592.3 583.7 573 553.3 527.4 503.9 489.5 485.3 490.8 500.9 510.6 516.4 518.3 520.9 529.9 549.3 574.8 577.5 562.7 514.1 491.5 472.5 440.7 413.8 399.7 380.6 363.1 349.4 339.8 329 323.1 324 323.7 319.6 313.5 315.3 318 323.7 327.3 334.8 340.6 349.3 356.1 365.6 372.4 380.2 392.5 408.5 429.1 450.3
281.5 266.9 254 237 222.9 210.1 211.8 228.5 229.6 214.9 186.6 182.5 189.3 186.1 186.2 182.9 176.1 174 177.9 175 173.2 169.2 168.2 165.5 163.2 154.4 148.3 134.1 117.3 93 78.8 72.9 55.8 52.3 69.2 72.5 70.2 60.5 53 53 49.9 45 43.7 43.7 40.4 36.3 41.6 32.7 25.4 29.5 50.7 65.5 84.9 96.6 109.9 129 154.8 173.8 206.2 235.5 249.9 272.5 298.4 322.6 346.5 367.6 381.9 405.7 421.3 435.2 440.4 445.5 448.7 452.1 452.9 446.5 434.9 435.8 426 430.3 424.2 425.6 408.5 393.2 384.6 372.8 371.4 369.6 364.1 359.1 342.9 313.8 295.2 275.9 246.2 231.3 214.8 196 178.6 167 156.7 142.5 122.8 107.2 90.7 74.2 60.4 50.1 40.9 40.5 40.5 40.5 40.5 40.5 40.5 40.5 40.5 40.5 40.5 40.5 40.5 40.5 40.5 42.9 53.3 65.4 66 74.9 87.3 101 118.2 134 155.2 185.6 213.8 240.7 268.1 289.6 312.5 309.4 332.6 361.7 385 400.1 428.8 459.3 495.9 526.8 557.6 588.6 589.7 584.6 577.9 564.5 542.2 517.9 496.2 486.1 488.9 501.8 515.7 528.2 535.2 540 549.4 569.3 591.1 607.9 601.2 566.1 529.6 508.1 486.4 457.6 429.9 402.8 376.5 358.1 347.8 334 329.8 325.2 320.8 318.1 315.4 315.6 316.4 320.7 322.7 328 337.1 345.8 351.9 356.1 365.8 372.7 386.8 404.6 422.3 442.6
293.3 282.8 266.6 248 234.5 224.8 225.7 235.1 238.8 228.9 200.9 190.5 194.5 195.1 189.7 186.9 180.1 187.2 191.8 190.7 187.7 185 185 180.4 169.2 161 153.8 142.8 132.4 122.1 93.2 87 64 50.6 71 73.3 73.3 69.7 61.7 57.4 53.4 48.4 47.1 47.6 41.6 34.9 35.3 37.8 25.4 25.4 31.7 47.3 61.8 82.1 95.3 112.6 133.1 154.8 174.3 207 229.3 251 268.5 294.1 321.9 335.6 357.4 375.7 399 413.6 426.5 433.4 440.4 444.2 441.5 442.8 438.5 442.4 442 441.1 438.6 441 433.9 417.7 406 405.8 394 380.9 379.7 382.3 377.8 359.3 329.8 299.8 281.2 267.8 243.2 220.1 205.6 195.9 178.8 168.9 161.7 152.1 120.3 92.6 69.9 59.6 52 45 40.5 40.5 40.5 40.5 40.5 40.5 40.5 40.5 40.5 40.5 40.5 40.5 40.5 43.4 48.8 58.1 62.2 67 80.6 93.6 107.4 121.6 137.5 161.7 187.7 210.5 239.3 261 285.5 285.1 313.1 338.4 365 383 410.3 437.5 470.7 500.4 534.3 568.2 585 585.8 583.1 573.3 555.5 532.9 504 487.5 486.1 500.6 518.9 533.6 545.6 555.6 564.2 582.5 605.4 623.8 625.4 608.8 581.1 543.5 510.4 480.5 445 420.5 393.9 371.2 354.6 341.2 331.8 326.1 322.5 316.8 315.9 318.8 318.5 320.8 320.6 325.9 333.8 342.9 348.3 351.1 362.3 370 381.5 401.7 417.9 436.8
299.2 296.4 276.8 259.1 242.3 229.3 233.7 239.3 241.9 236.6 218.5 202.3 198.6 200.8 201.8 196.5 198.5 202.4 200.3 201.5 200.4 198.5 198.9 194.3 182.5 168 161.3 150.8 150.6 143.4 121.4 90.1 68.2 54.8 73.3 75.2 74.9 73.2 66.4 60.8 56.7 49.4 50.8 48.9 45.5 35.3 34.6 34.1 29.3 25.4 25.4 30.7 44.5 67.8 82.3 100 114.9 135.4 156 185.9 209.4 232.4 253.6 273.4 294.4 306.4 322.7 339.8 355.7 370.6 393.3 412.3 422.7 424.9 423 436.7 436.3 437.4 443.1 445 445.9 449.2 441.9 442 444.2 437.2 427 399.2 401.9 407.7 403.7 383.2 361.9 343.4 326.6 302 272.4 249.6 239.4 229.4 224.9 241.2 234.7 223.1 172.6 117.9 87.5 71.6 56.5 48.5 44 40.5 40.5 40.5 40.5 40.5 40.5 40.5 40.5 40.5 40.5 40.5 40.5 41.6 46.4 52.8 60.7 62.8 71.2 85.7 96.9 108.8 124.1 143.6 169.9 186.1 210.5 232.1 249 267.8 289.9 313.2 339.8 365.6 390.9 420 450.8 480.8 512.3 540.7 574.3 584.9 585.5 580.1 565.8 545 517.8 493.1 486.5 497.8 518.9 535 547.5 558.3 569.4 583.6 609.5 629.4 646.3 633.6 605.1 573.8 531.6 495.7 460.3 432.8 405.9 381.2 362.4 346 335.1 328.1 325.1 319.5 318.1 323.7 324.4 318.7 323.5 330.1 332.2 336.7 345.8 356.1 367.2 375.2 383 393.2 411.7 431.1
300.3 296.9 283.8 276.7 249.9 242.9 248.8 248.8 248.4 240.8 223.5 212.1 205.9 204.9 210.4 212.1 215.7 219.3 217.3 214.7 209.8 208 205.7 202.2 194.5 186.3 174.9 163.2 160.8 153.5 137.5 97.5 71.1 59.8 69.1 75.5 74.8 72.8 69.4 61 57.1 53.8 54.4 53.5 47.2 37.2 35.2 40.1 33.3 25.4 25.4 25.4 30.7 46.8 64.2 82.7 101.5 116.9 134.7 154.2 181.5 201.8 221.5 247 267.4 285.6 298.4 321.2 332.8 350.2 369.4 384.3 397.2 404.7 412.7 422.5 425.5 429.6 441.5 447.7 461.2 458.2 464.4 459.9 460.5 457.4 440.8 416.8 415.3 416.4 416 409.5 397.8 378.6 346.5 321.6 302.2 302.3 287.2 277.9 295.6 298.6 295.2 262 209.8 162.1 110.6 85.1 66.3 51.4 43.8 40.5 40.5 40.5 40.5 40.5 40.5 40.5 40.5 40.5 40.5 40.5 40.5 40.5 40.1 49.1 58.2 62.3 63.5 77.3 89.1 100 111.7 128.6 149.6 169 187.7 212.7 233.2 248.7 270 292.9 319.9 347.2 374.3 400.7 430.2 460.4 489.3 521.7 545.1 578.1 586.1 584.1 576.4 557.5 532.7 505.3 491.7 498.5 518.8 534.1 546.9 557.5 569.5 585.5 605.3 628.6 643.1 647 623.8 585.4 541.9 502.8 468 440.9 414.4 386 364 348.3 338.9 329 324.9 322.2 319.5 320.2 320.5 321.7 322.5 326.5 331.8 341.1 344.4 352.3 361 371.6 379.5 391.2 401.5 428.5
302.9 304.8 299.7 290.9 269.5 249.3 260.8 257 259.4 251.3 233.9 217.7 211.1 206.4 216.7 232.1 235.1 234.8 232.2 233.7 230.4 228.4 222.1 212.7 205.7 200.9 190 182.1 176.1 165.8 149.7 113.9 76.9 63.1 64.4 71 71 68 68.7 59.6 55.9 55.3 56.2 54.5 48.9 40.8 36.5 40.7 36.9 29.1 25.4 25.4 25.4 31.3 49.2 64.5 80.5 98.1 115.7 132.4 149.4 167.7 192.1 216.7 237.5 260.2 274.4 290.7 313 330.2 350.8 365 383.2 390.8 405.7 410.7 412.3 416.7 432.9 442.8 467 463.8 468 468.6 463.5 459.7 452.4 430.3 436.9 430 424.1 423.3 418.5 403.7 387 363.3 343.3 354.3 354.3 338.6 335.8 339.2 319.3 280 234.6 174.7 131.9 100.6 74.4 55.9 49.2 40.5 40.5 40.5 40.5 40.5 40.5 40.5 40.5 40.5 40.5 40.5 40.5 40.5 40.5 43.8 55.5 59.1 61 68.9 80.2 93.3 105 120.5 136.1 157.5 180.3 203 222.4 233.8 253.8 278.7 306.9 332.5 352.1 378.9 409.6 440.6 465.9 499.4 539.3 579.2 587 586.5 582.6 567.4 544.8 516.8 501.3 504.3 518.4 532.9 547 557 566 581.3 602 626.6 650.3 665.3 649.2 609.9 575.7 521 479 449.6 420 391.5 368.3 356.1 343 333.1 326.2 324.6 321.6 321.9 321.1 321.1 321.5 326.7 330.8 333 334.8 341 352.9 364 374.9 387.6 403.6 421.3
303.2 307 309.5 302.9 286.1 264.8 258.7 257.8 265.2 261.7 247 226 215.1 210.4 230.5 249.2 248.9 247 245.5 245.3 241.7 236.8 235.8 228.1 214.2 207.6 206.9 194.9 192.3 180 163.5 125.6 87.6 65.9 62.2 65.6 66.9 66.6 67.5 57.9 58.5 58.2 57.8 56.7 50.7 44.9 40.8 41.9 44.9 39.7 29.6 25.4 25.4 25.4 32 48.5 62.3 75.4 93.8 108.7 122.5 141.2 161.5 190.7 209.9 235.7 250.2 269.9 289.8 307.1 327.6 341.2 361.4 371.4 380.2 389.8 404.5 408.3 423.9 445.6 465.8 463.7 465.7 467.3 462.3 455.5 445.9 433.7 433.6 437.3 440.4 432.5 433.4 429.7 413.7 399.4 389.7 388 387.6 383.4 371.1 354.5 329 298.9 257.9 189.5 148.6 118.3 85.8 61.9 52.2 40.5 40.5 40.5 40.5 40.5 40.5 40.5 40.5 40.5 40.5 40.5 40.5 40.5 40.5 45.6 53.4 56.7 58.8 62.6 71.4 85.6 97.3 110.9 127.6 144.8 162.7 187.6 208.4 222.1 240.7 265.6 294.2 317.1 338.5 365.2 393.7 424.6 454.9 491.8 526 564.5 596.1 592 587.9 578.4 560.4 533.1 513.7 511 521.3 533 545.1 555.2 564.5 575 595.4 620 646.7 673.6 684.4 645.9 613.6 578.1 508.3 467 433.1 400.1 376 368.5 350.3 338.9 330.6 327.7 323.2 322.7 321.5 320.7 320.8 325 324.2 325.5 327.5 333.7 342.3 355.3 368 379.2 395.9 415.4
304.4 307.8 310 305.1 293.7 285.6 264.7 260.9 264.8 264.6 256 232.3 221.7 217.9 245.5 257.7 263.8 264.8 263.4 257.9 251.1 244.3 238.1 230.7 223 212.7 208.4 209.3 204.1 191.2 173.8 137.4 99.6 72.3 63.6 65.8 66.8 66.3 64.5 62 58.9 58.4 57 55.4 52.7 47.7 43.6 43.5 44.1 45.5 35.1 25.4 25.4 25.4 25.4 33.4 50.3 58.4 70 83.7 96.4 114.4 137.9 161.9 184.4 214.1 234.4 257.9 278.1 295.2 312.1 320.7 335.3 347.1 366.2 379.2 392.4 404.9 415.8 443.5 456.7 460.6 462.3 461.5 460.2 453 437.6 434.1 430.7 438.1 440.6 438.8 437.1 434.2 424.7 418.9 407.7 407.3 404.7 401.5 380.4 358.7 340.4 312.4 280.7 211.4 170.6 145.3 103.8 69.7 49.2 40.5 40.5 40.5 40.5 40.5 40.5 40.5 40.5 40.5 40.5 40.5 40.5 40.5 40.5 43.1 48.9 55 58.7 64.1 70.6 78.8 91 101.2 116 131.3 150.2 171.1 193.5 211.5 226.4 252.1 279.9 306.2 324 349.9 380.2 411.1 441.2 474 508.3 544.8 598.5 602.9 598.2 592.7 579.8 556.7 536.4 523.4 526.1 535 544.8 554.3 563.7 574.2 590.4 611.6 640.2 669.6 692.2 687.9 661.1 606.2 543.5 493.1 449.1 418.3 389.3 375.3 356.4 344.8 337.1 330 324.8 323.3 322.1 323.3 324 322.1 324.1 325.2 326.5 331.8 339.7 348.2 360.5 372.3 389.7 409
305.8 311.6 315.1 307.9 294.1 290.6 276.1 272.1 267.9 267.3 256.3 241.2 228.2 227.7 249.4 259.7 262.8 268 267.2 265.4 258.3 252.1 246.6 234.6 226.4 217.5 208.4 214.3 212.6 199 181.1 150.6 122.1 90 70.3 67.5 67.3 66.8 65.3 66.5 62.9 58 56.7 57.2 52.8 49.4 44.7 43.2 43.9 44.3 37 25.4 25.4 25.4 25.4 25.4 35.3 46.1 54.5 62.4 74.2 90.4 109.4 138.5 160.1 191.7 218 233.3 256.7 277.4 284.8 293.4 306.4 324.3 352 371.7 387.1 404.9 415 444.5 456.7 467.8 468.5 469.3 464.5 457.3 440.8 430.7 430.7 437.2 446.9 446.3 443 440.4 434.4 433.5 427.9 419.4 411.9 404.8 388.7 369.8 347 317.2 288.1 240.5 203.6 166.8 116.9 79.6 48.6 40.5 40.5 40.5 40.5 40.5 40.5 40.5 40.5 40.5 40.5 40.5 40.5 40.5 40.5 40.5 46.6 54.4 58.3 62.7 66.2 72.7 81.5 92.3 107.5 120.7 137.1 154.5 174.9 196.2 212.7 237.7 265.6 290.7 310.3 332.2 360.4 392.5 425.6 458.8 493.9 547 599.7 611 609.6 608.7 603.6 587.7 562.7 544.3 538.7 540.6 546.7 554.2 562.9 573.1 587.4 608.9 634.4 665.9 698 719.4 688.1 645.8 587.1 519.2 477.1 443.5 414.2 390 368.5 352.9 343 334.1 331.9 326.3 323.6 326.1 326.3 324.9 327.8 325.9 329.5 336.5 342 350.5 361.3 370.1 384.6 398.9
305.6 312 317.2 314.5 303.4 297 290.6 287.9 272 264.3 255.4 245.8 232.2 234.2 253.7 263.4 264.3 267 269.7 267.2 262.1 259.4 249.8 243.2 234.9 223.5 213.2 214.9 212.3 201 187.9 160.7 137.1 106.8 79.7 72.8 72.3 67.9 70.1 73.6 74.2 65 56.9 59 58.5 48.8 45.4 43.7 42.8 41.8 38.7 30 25.4 25.4 25.4 25.4 25.4 33.7 45.1 51.3 56.6 69.9 86.4 108.2 138.9 167.9 200.5 211 224.2 244.4 262.3 277.5 288.5 308.4 330.4 353.1 374.4 397.8 410.8 435.9 453.8 462.5 475.7 474.9 475.9 474.5 460.9 436.7 430.7 437.8 448.7 445.7 442.5 439.5 442.4 443.6 438.7 431.8 414.2 403.2 391.2 372.9 344.6 318.7 273.5 243.5 206.2 175.3 125.9 83 51.4 40.5 40.5 40.5 40.5 40.5 40.5 40.5 40.5 40.5 40.5 40.5 40.5 40.5 40.5 40.5 43.8 50.4 56.4 59.4 62.1 66.6 73.7 84.9 99.7 109.6 122.6 139.1 156.9 176.9 196.5 218.5 239.6 272.9 295.7 314.3 343.9 377.1 409.3 443.1 477.8 522.8 570.2 607.1 617.1 622.7 624.3 619.4 593.1 574 562.4 552.6 552.2 556.3 564.7 576.9 589.9 609.1 634.2 668.1 703.3 728.1 719.6 666.6 614.6 549.5 511.3 479.8 446.5 409.7 382.1 365.4 353 342.2 335.8 331.9 330.8 333 330.6 333.6 327.9 328.9 339.3 346.5 347.8 355.8 363.5 368.7 382.9 395.3
305.2 310.2 313.5 314.7 315.2 304.9 307.1 307.6 287.2 266.4 257.2 251.1 235.4 237.1 256.1 264.6 262.9 262.9 266.5 265.5 261.2 259.6 256.5 249.2 240.6 228.4 218.7 218.5 217 207.4 192 166.9 150 128.4 95.3 84.6 84.3 74.7 71.6 77 81.4 78.8 69.3 56.1 54.2 48.9 45.7 43.9 45.5 41.9 40.2 31.5 25.4 25.4 25.4 25.4 25.4 25.4 30.7 43.2 47.6 53.7 65.3 82.6 105.8 136.3 158.7 177.6 194.4 220.9 234.5 252 271.5 287.2 308.4 327.7 354.8 384 400.2 424.9 439.6 458.3 471.8 473.5 475.7 473.9 467.7 457.8 452.5 437.1 442.8 442.6 441.5 439.7 444.7 445.4 438.3 427.5 415.9 400.2 388 367.1 342.7 309.6 266.4 236.7 199.8 162.8 119.1 84.8 57.7 44.2 40.5 40.5 40.5 40.5 40.5 40.5 40.5 40.5 40.5 40.5 40.5 40.5 40.5 40.5 41.3 44.8 50 55.2 60 64.3 69.8 77.6 88.6 100.4 111.8 124.6 139.7 159.1 177.7 203 227.4 256 281.8 298.5 328.8 360.7 392.4 422.8 466.9 505.7 548.1 586.8 613 637.7 646.4 650.9 637.7 618.9 590.2 572.4 564.5 566.1 573.9 585.5 599.4 615.6 641 675.7 713.4 745.5 738.7 690.7 636.9 577.4 529.7 497.1 455.7 422.3 392.7 374.5 361.9 350.1 343.8 339 337.3 336.8 338.1 339.6 331.8 335.8 343.3 347.1 351 358.4 365.7 370.6 378.9 389.5
306.1 308.6 312.4 315.8 314.2 314.1 314 316.9 300.9 272.6 260.3 251.9 240.4 241.2 254.1 263.3 262.8 260.5 255.2 255.1 256.1 252.6 249.1 244.6 240 228.6 220.1 219.4 215.2 210.6 197.2 170.5 155.5 138.3 109.1 95.7 99.6 89.1 76.1 81.6 83.6 78.8 74.6 63 52.2 48.4 44.8 42.3 42.1 40.1 40.4 34.2 25.4 25.4 25.4 25.4 25.4 25.4 25.4 31.6 39.7 46.3 53.8 65 84.4 105.2 126.3 148.2 169.9 193.7 213.4 235.1 252.2 269.4 286 316 341.7 373 386.2 413.7 429.9 454.2 471.8 476.8 481.4 478.5 468.7 459.5 471.1 457.7 437.7 438.8 440 440.6 441.5 446.1 441.8 427.6 413.4 397.7 378.1 360.7 333.6 295.1 260 226.9 192.9 155.2 116 88.4 65.4 49.3 40.5 40.5 40.5 40.5 40.5 40.5 40.5 40.5 40.5 40.5 40.5 40.5 40.5 40.5 40.5 40 48.8 54.3 55 58.3 65.4 71.8 81.9 91.9 103.4 113.5 125.5 141.6 159.6 184.5 209.1 235.9 260 281.5 309.9 341.5 369.3 396.5 453.1 492.2 534.2 543.9 597.4 634.9 659.5 676.9 681.3 664.3 634.4 604.4 588.6 587.4 592.3 602.8 613.9 630.2 655.6 689 726.7 762.5 759.6 699.3 639.7 592.6 559.1 518.4 477.4 441.6 411.2 390.2 371.5 358.1 350.5 345.8 342.7 342.2 345.8 347.9 338.6 341.6 346.4 348.8 351.8 355.2 360.6 368.9 376.1 390.3
311.5 312.8 315.3 317.4 316.4 323.8 318.5 320.1 309.9 287.7 269.2 258.8 246.2 249.9 260.4 264.9 266.2 263 255.1 255.1 256.8 255 250.4 239.6 236.9 228.4 221.7 221.9 216.7 212.6 204.1 177.7 172.8 152.6 121.2 114.2 111.6 97.5 81.8 80.5 82.6 82.6 77.1 71.1 60.7 54.9 49.6 43.8 39.6 38.4 37.8 35.1 30.5 25.4 25.4 25.4 25.4 25.4 25.4 29.4 33.4 42 46 51 67.5 87.1 110.3 131.6 148.7 168 194.7 213.4 229.2 251.8 267.4 300.1 325 359 377.3 408.1 427.2 465.2 477.7 486.8 489.2 485.6 478.5 459.5 471.3 466 451.4 437.7 445.1 446.3 443.9 439.9 435.2 424.8 409.5 393.6 371.5 353.6 325.4 289 256.7 225.8 193.9 154.8 120.1 92.8 70 53.5 45.8 40.5 40.5 40.5 40.5 40.5 40.5 40.5 40.5 40.5 40.5 40.5 40.5 40.5 40.5 40.5 43.4 47.5 51.7 53.7 61.8 65.6 75.6 83.2 92.6 103.9 115.2 127.4 143.3 164.5 187.8 213.2 236.2 259.2 288.8 318.4 343.5 383.2 439.3 477.1 494.3 522.6 582.9 618.6 654.7 682.5 703.8 717.3 684.1 648.5 636.4 627.9 622.5 627.2 636 652.1 677.2 709.7 745.5 779.8 757.5 700.3 665.5 653.5 605.8 543.8 497 455.9 427.8 399.1 379.3 369.6 359.2 352.9 347.4 346.5 348.3 349.8 345.6 341.6 345 348.4 351.5 354.8 362.4 373.9 383.7 393
317.5 321 320.8 318.8 325.9 331.5 325.4 324.6 314.7 299.8 276.6 263.2 255.9 265.1 274.3 278.9 284.2 282.1 269.5 266.7 274.1 274.3 274 260.5 248.1 238 228.5 225.6 221.8 213.3 206.7 190.5 181.8 166.1 129.2 111.6 110.3 102.8 86.1 81.7 79.3 79.6 80.9 74.4 71.1 70.7 62.7 54.4 47.2 41.2 36.9 32.9 28.5 26.1 25.4 25.4 25.4 25.4 27.8 29.3 30.9 38 42.1 47.1 56.1 74.1 96 112.1 132.3 153.7 171.9 196.5 212.3 233.9 250.4 272.5 302.9 331.5 366.2 398.3 430.1 450.4 465.8 481.1 489.6 490.9 484.2 459.5 463.7 464.8 456.1 441.6 440.5 446.5 444.1 436.8 430.5 418.4 402.5 382.3 371.4 344.9 311.5 281.6 252.9 221.1 194.4 153.3 125.5 99.4 76.5 63 52.7 44.3 40.5 40.5 40.5 40.5 40.5 40.5 40.5 40.5 40.5 40.5 40.5 40.5 40.5 40.5 40.5 42 44.9 47.5 53.9 60.1 66.8 74.8 84.1 95.1 104.5 111.6 125.7 142.7 163.1 188.3 213.4 241.1 268 293.5 325.5 371.5 422.1 448.8 459.4 503.6 559.9 606.7 647.5 684.9 710.7 732.3 726.6 692.3 689.9 670.5 665.3 663.5 668 684.5 708 739.3 770.7 798.4 812.3 766.8 718 684.8 626.3 574.6 526.4 476.1 440.5 409.4 394.2 381.4 369.5 360.8 351.9 352.4 352.7 350.5 348.1 343.8 347.3 352.5 355.9 361 364.8 373.3 382.8 391.6
329.3 331 325.1 322.1 336.9 336.3 332.6 331.9 321.3 304.9 283.5 281.4 267.4 274.2 278.6 282.3 293.5 298 296.8 301.4 302.6 287.1 283.2 279.5 270.7 257.9 250.4 244.3 234.2 223 204.5 196.9 187.2 172.1 143.5 115.7 109.5 106.3 97.3 83.1 78.2 77.2 76.5 74.2 72.4 72 69.6 60 52.7 45.3 39 34 30.2 25.4 25.4 25.4 25.4 28.7 31.8 32.2 32.9 36.1 45.6 47.4 49.9 62.8 81 101.3 123 140.5 157.6 175.5 197.8 219.1 236.4 256.1 276.8 310.2 347 380.9 413.4 432.9 441.8 464.4 481.9 483.8 481.9 472.6 471.3 461.6 454.7 446.9 437 440.3 437.7 433.7 427.8 413 393.9 384.9 366.2 333.5 301.9 274.6 240 210.2 182.3 153.6 131.2 110.6 88 72.6 60.6 54.6 46.3 40.5 40.5 40.5 40.5 40.5 40.5 40.5 40.5 40.5 40.5 40.5 40.5 40.5 40.5 40.5 40.5 40.1 48.2 60 67.9 76.6 79.2 82.9 91.9 98.5 108.2 125.3 140.4 163.2 192.7 220.1 245.2 274.4 305.5 342.9 377.6 406.9 464 506.9 551.4 601.7 646.2 685.9 707.5 728.2 742.5 737.1 741.5 745.4 727.1 710.8 712.8 724.9 745.8 770.9 803.4 815 821.8 811.5 765.6 699 666.7 626.9 568 500.1 462.8 428 409.3 389.9 375.6 366.5 359.7 358.4 360.2 358.3 355.7 353.9 351.1 357.2 359.6 362.3 367.9 375.7 382.7 390.2
333.9 335.8 330.1 336.2 343.2 340.9 333.8 332 324.2 308.9 298.3 297.4 281.3 285.7 287.7 289.1 301.8 307.1 309.7 308.9 304.8 300.1 291.3 281.2 282.1 281 273.9 270.1 253.2 234.6 212.1 203.5 189.6 177.9 148.2 123.2 120.9 117.4 109.8 95.6 86.2 79.6 79.5 78.4 76.9 73.7 71.9 73.8 66.5 57 48.1 38.4 32.1 26.1 25.4 25.4 27.4 29.4 36.5 36 35.6 34.3 40.6 44.4 46.5 55.7 67.9 88.4 112.7 131.1 144.4 161.8 186.7 203.3 222.3 241.8 259.4 286 322.6 353.1 385.1 409.2 419.9 442.7 469 472.3 468.9 465.3 467 461.4 457 449.9 445 431.5 430.2 429.2 423.3 414.2 392.3 381.4 358.1 326.8 293.7 264.4 229 203.6 178.8 154.2 132.5 113.9 99.6 82.6 74.6 63.5 53.5 45 40.5 40.5 40.5 40.5 40.5 40.5 40.5 40.5 40.5 40.5 40.5 40.5 40.5 40.5 40.5 40.5 40.1 51.8 58.7 68.4 74.1 72.9 79.6 86.5 92.5 106.5 121.8 146.7 174.4 198.4 224.8 259.1 288.5 322.6 376.6 418.5 459.1 490.6 536.1 593.5 638.7 680.5 702.3 722.8 739.1 750 764.6 776 775.9 773.5 765 778.2 790 803 812.5 828 837.9 811.8 796.2 755.3 702.6 652.5 576.1 512.5 483.4 445.4 416.2 396.7 382.4 374.1 367.8 367.2 366.4 363.8 362.9 360.7 354.5 361.6 364.1 364.8 371.7 379.6 382.3 388.9
