ncols 200
nrows 83
xllcorner 220000
yllcorner 795450
cellsize 50
186.9 187.9 189.6 191.5 193.5 194.8 197.7 196.4 206.4 200.6 198.9 199.2 201.4 203.4 205 207.9 210.9 214.6 218.1 220 223.4 226.9 230.3 233.8 237.9 240.5 242.7 249.5 251.5 256.6 263 269 274.1 278.8 287 287.8 291.8 296.2 299.5 304.3 309.8 307.7 306.7 308.2 308 309.5 302.7 296.2 286 274 262.1 247.9 236.6 227.4 221.5 217.6 212.1 216.1 221.7 223.9 227.9 233.8 238.8 245.5 252 257.2 263.4 268.3 273.5 277.5 285 293.1 303.2 314.1 328.2 341.2 352.9 360.1 364.3 371.7 376.5 383.7 390 391.1 401.3 405 413 404 389.9 385 378 373.3 368.5 361.1 356.2 350 349.1 349 344.7 340.8 340 336.9 330.9 324 317.2 310.3 305.5 298.2 296.5 296.2 298.7 305 310.4 315.5 320.1 320.7 324 328.2 327.6 322.2 325.3 330.7 331.6 337.6 329.8 319.6 307.5 293.9 281.3 268.1 255.4 249.5 245.8 241.5 238.2 234.2 231.1 229.1 226.1 222 218.1 205.9 196.5 205.9 214.4 216.2 214.6 213.1 209.2 214.4 219.7 222.2 221.9 220.7 220 219.5 220.7 220.5 219 220.4 223.2 223.3 224.7 225.5 223.8 223.7 224.2 223.2 223.5 221.9 225.4 227.3 226.5 225.1 226.8 227.6 225.7 224.3 222 222.3 222.8 228.9 234.4 235.7 238.4 240.9 242.5 242.9 242 241.9 238.8 236.9 236.1 237.4 241 249.1 251.2 252 251.5 248.1
190.4 196 200 201.7 199.2 198.4 200.8 201.8 203.4 202 201.5 203.2 204.5 206.9 208.7 213.1 216.4 219.6 222.3 224.2 226.8 229.9 233.6 237.2 240.1 245.5 251.6 258.8 261.9 267.4 273.1 278.6 279.8 282.9 290 297.4 301.4 305.2 309.5 313.8 317.9 315.1 314.2 313.4 317.5 313.1 307.8 301.1 289.3 273.6 258.9 245.7 235.2 226.8 222.1 219.4 218.3 220.6 225.1 229.7 235.1 240.9 246.7 253.9 260.1 266 272.2 276.2 282.4 289.4 295.4 304.4 316.7 330 344.1 357.2 366.7 371.3 373 378.7 389.1 389 390.1 390.5 395.5 393.7 387 386.5 379 374.4 368.8 364.2 359.3 356.9 352.3 349.3 349.2 349.4 348.2 347.2 346 343.1 332.7 323.7 317.1 313.3 313.3 314.4 310 303.5 310.1 316.3 321.6 325 326.7 327.9 332.8 339.9 336.9 333.2 335.1 336.3 337.2 339.5 337.4 328.3 313.5 300.2 284.6 270.6 258.9 253.8 250.7 247.5 243.8 239.5 234.9 232.4 229.2 225.2 220.1 210.4 200.7 213.1 221.4 222.8 221.1 217.5 211 218 221.2 224.8 223.5 223.4 220.5 219.1 220.5 220.8 222.2 225.4 226.3 225.7 226.6 226.5 227.2 229 226.9 225.5 226.8 225 225.9 227 227.5 227.7 228.5 229.1 226.9 224.1 226.9 229.1 235.4 239 242.2 244.5 244.7 245.7 245.8 246.5 246.7 244.8 244.3 243.1 241.5 243.3 247.2 253.3 258.3 260.7 254.1 248.7
197.3 200.4 205.7 206.6 203.4 203.7 203.8 205.4 205.3 204.4 204.8 206.5 207.9 210 213.7 217.4 220.4 223.5 226.1 228.5 231.2 234 238.1 242.4 248.3 252.3 259.2 264.6 270.1 275.5 279 284.5 288.8 291.7 298.9 305.7 309.2 314.1 317.8 321.8 323.2 321.8 319.5 318.2 320.2 324.9 315.3 304.1 289 267.7 252.3 242.6 232.9 226.7 222.3 222.5 223.7 220.7 229 234.5 241.1 247.6 256.2 263.4 268.9 275.5 283.7 290.4 298.2 302 307.8 317.7 330.2 343.8 357.3 369.1 376.4 380.4 385.3 384.1 386.5 386.5 382.3 383.9 387.7 388.1 386.6 377.4 369.5 364.3 360.7 358.6 360.5 356.7 353.9 354.8 353.6 352.8 353.9 357.9 353.5 344.3 333.5 330.1 330.8 331.9 329 326.7 317.9 316.6 321.7 325.5 328.1 331.6 332.5 333.4 338.1 346.6 345.2 343.1 344.5 345.2 344.7 346.7 345.7 332 319.4 305 289.8 275.2 263.8 259.4 256.1 252.3 248.7 244.3 239.1 233.7 231.6 228.1 222.7 215.1 203.3 217.7 225.4 226.2 224 221.1 215.2 218.5 219.4 221.6 223 224 221.6 219.6 220.6 224 226.3 229 226.6 229.2 228.6 228.6 229.3 230.5 230.2 229.6 229.5 228.7 228.4 227.3 229.7 229.3 229.6 228.3 227.3 226.4 233.4 240 245.1 247.1 250.9 252.4 252.5 250.9 253.3 253.3 252.1 252 251.2 247.5 248.8 249.3 252 255.1 258.9 259.4 254.9 245
202 206 207.5 208.5 206.5 206.1 207.6 209.7 211.5 211.2 211 214.9 213.2 215.7 218.5 221.9 224.8 227.3 229 230.7 236.2 238.6 241.8 247.9 256.1 260.2 266.6 272.4 277.7 282.8 288.6 293.6 298.8 301.7 308.1 312.1 317.8 322.8 323.6 326.8 329 325.3 324.4 321.4 326.7 323.3 316.6 301 275.3 260 247.4 237.2 229.5 226.5 224.9 226.1 228.9 222.4 232.8 239.9 246.7 253.9 265.6 274.5 277.9 285.3 293.3 301.2 309.3 315.5 324 333.1 345.8 358.5 374 385.6 390.7 392.7 392.3 385.6 380.4 377.9 379.6 385.7 393.1 394.1 383.8 372.4 364.2 361.4 360.8 362.5 365.1 362 358.6 358.1 357.5 357.5 359.3 358.1 353.3 351.9 349.9 348.3 340.8 342.3 335.6 330.8 323.6 325 330 331.7 333.5 336.3 337 340.2 341.8 346.6 348.7 350.9 353.7 355.1 351 349.1 350.2 336.9 321.5 307.5 295.1 280.6 272.2 264.3 261.4 256.6 251.9 247.3 241.9 238.3 235.6 231.7 225 217 204 226.9 229 228.1 226.1 224.6 224.2 224.4 224.2 225.4 225.6 226.8 224.7 223.4 225.1 226.7 229.4 230 228.4 229.9 232.3 232.3 233 233 232.9 233 232.1 230.9 231 232.3 230.4 230.5 230.4 231.2 229.7 235.6 242.7 248.5 252.3 253.7 255.1 258.9 258.3 255.8 256.2 256.4 252.4 251.1 250.1 250.1 251.6 254.1 256.2 257.4 256.5 254.8 247.6 235.9
204.6 206.9 208.7 208.4 208.2 209.6 212.9 215.8 216.6 215.9 216 218.1 219.7 220.7 223.3 225.9 228.3 230.5 233.1 237 240.4 243.7 245.3 253.8 261.3 267.1 271.2 277.7 284.4 290.4 302 306.3 309.4 314.4 316 320.2 322.3 325.2 326.6 331.5 333.6 322.6 320.4 320.7 318.6 315.9 300.5 281.2 262.1 250.7 241.3 235.5 229.8 226.6 229.3 231 229.6 231.3 240 246.1 252.8 261 271.1 278.3 285.6 293.3 301.8 311 320.3 332 342.2 351.9 361.2 372.8 384.9 396.1 400.4 398.4 398.6 387.8 380.4 377.7 379.1 393.8 395.8 388.3 378.1 369 362.9 361.2 362.6 365.6 368.5 365.7 366.3 367.7 366.3 365.8 369.6 371.4 372.6 373 371 362 352.4 352.2 344.8 336.4 329.5 331.7 336.1 338.3 339.8 341 344.6 347.8 350.7 353.7 356.5 356.3 360.2 362.9 360 355.7 347.2 339.6 326.3 312.4 301.2 290.1 280.7 272.8 265.9 260.6 255.9 252.1 248.4 244 239.8 235.7 225.7 214 218.3 229.5 231.3 231.1 229 224.8 227.2 228.8 228 230.7 230.7 229.9 228.2 228.4 229 229.4 231.3 232.6 230.7 232.1 236.6 235.8 235.3 235 234.5 234.8 234.7 233.5 233.1 234.4 233.3 231.6 231.9 234.2 238.9 243.6 248.5 255.8 258.3 258.3 259 260.6 261.9 261.6 259.4 258.7 253.4 252.3 251.1 251 252 252.8 256.4 257.2 253.7 242.7 235 224.2
206.5 208.9 211 212.5 212.8 213.9 217 219.2 218.8 218.2 219.7 220.5 221.8 224.4 226.6 229.2 231.6 234.5 238.5 242.1 244.9 248.1 251.7 258.4 263.7 269.7 276.2 281.7 289.1 296.2 306.2 309 311.7 317.9 323.4 327.7 329.3 328.1 327.6 327.3 324.4 315.4 311.6 311.6 308.7 301.6 284.4 267.4 255.6 246.3 240.2 236.6 230.8 231.5 233.5 235 231.1 239.6 245.4 252.4 258.5 267.8 274.8 283.3 293.5 301.5 311.2 321.3 332.9 344.4 355.2 364.9 376 383.9 402.7 410.8 409.8 411.1 398.8 389.7 382.1 377.1 381.5 392.6 387.8 379.7 373.6 365.9 362 362.7 364.5 366.8 367.8 371.2 374.3 376.6 380.5 382.7 385.1 389.7 386.2 383.4 377.8 369 362.4 355.5 350.1 340.5 332.6 336.7 341.4 344.7 347.2 350.4 352.9 356.6 359.9 362.5 363.3 363.6 367.2 369.4 367.9 362.1 352.9 345.9 334.2 322.2 312.4 301.7 288.9 279.9 269.2 264.8 260.5 256.6 253.4 248.2 243.4 237.1 226.1 216.1 221.7 228.5 231.6 232.5 232.1 229.3 227.6 230 234.7 234.7 236.2 238.7 235.1 234.8 231.7 233 234.5 234.3 233.8 236.2 238.6 238.1 236.9 235.9 235.5 236.4 236.2 236.2 236.3 234.7 234.7 234.3 236.4 242.5 247.3 252.1 252.7 257.1 261.6 262.2 261.7 262.3 264.2 264.7 262.6 261.9 256 254.5 252.2 252.6 253.6 252.4 251.7 250.1 243.1 233.6 223.7 212.7
209.1 211.8 214.3 216.6 217.2 217.6 219.8 221.4 221.1 220.3 221.6 223.1 223.8 226.4 229.3 232.9 235.3 237 241.3 246.6 249.5 252.5 255.5 261.9 267.4 273 278.2 284.3 291.8 299.6 304.9 307.8 313.2 319.2 326.3 332.9 335.9 326.1 324.2 322.6 317.3 308.7 306.1 302.3 292.9 282.1 268.3 258.9 247.9 243.5 239.7 236 234.4 234.4 234.1 228.6 237.8 244.3 250.9 257.4 264.9 274.9 283.5 292.4 304 313.8 322.1 334 346.9 358.7 370.6 386.9 398.9 403 413.8 416.9 409.8 398.7 391.3 384.3 376.5 375 376.1 378.2 380.6 378.6 375.8 364.7 362.7 363.4 365.7 367.5 371.3 377.6 387.9 389.6 392.1 396.7 397.9 402 397.6 390.7 379 371.8 361.6 354.9 347.5 338.9 335.6 339.4 344.3 348.6 352.2 355.2 359.2 364.2 369 372.8 373.5 372.9 374.7 378.4 376.3 375.3 368.9 356.6 346.3 338.5 325.9 309.8 294.3 283.3 275.2 270.1 265.6 260.8 256.2 251.7 246.2 239.5 229.6 217.1 223.5 229.9 232.4 233.8 233.9 231.8 232.6 231.6 240.6 240.2 238.2 237.5 237.7 236.3 236.2 235.9 237.8 237.8 236.7 237.7 239.6 238.9 237.6 237.6 237.3 237.4 238.5 237.3 236.9 236.2 237.3 238.7 243.7 248.5 252.5 254.6 256.6 258.4 260.3 261.6 261.3 262.2 263.8 266.1 263.1 261.7 258.3 255.6 254.9 255.5 257.7 253.8 249.2 242.8 234.7 223.6 212.1 201.3
213.4 216.4 218.6 219.9 220.9 221.7 223 223.6 223.6 222.5 224.1 226.1 227.4 229.5 232.1 235.7 238.9 240.6 245.4 250.4 253.6 256.6 260.3 265.5 271 276.1 281.2 286.6 292.1 296.2 301.3 305.4 310.6 317 319.3 316.7 313.2 309.9 311.1 314.1 306.2 298.4 295.3 290.6 281.3 271.6 261 249.3 245.3 242 239 238 236.5 232.5 233.8 238.1 244.4 250.7 256.5 264.3 271.9 281.6 291.7 301.4 313.5 326.5 335.9 348.5 360.8 377.2 391.4 410 420.5 419.7 420.2 410.5 400.2 395.3 386.7 376.2 376.3 375.5 375.8 380.9 383.9 382.5 371.6 366.9 364.4 365.2 369.6 373.8 382.8 390.2 396.3 398.5 396.1 401 404.6 406.9 401 387 383.2 373.4 359 350.3 342 336.2 335.9 337.7 343.4 348.8 356.1 360.1 364 370.8 378.1 385.2 391.2 389 382.7 384.6 386.5 387.6 383.6 374.1 364.2 356.8 335 322.6 302.9 289.8 282.9 277.2 271.2 264.9 257.9 252.6 247.3 240.6 222.9 220.3 228.2 233.5 235 235.9 237.1 236.9 239 238.4 235.5 239.4 239.1 239.3 239.4 239.9 240.2 239.4 240.4 240.8 239 239.4 239.8 238.9 239.4 239.8 239.5 239.4 239.7 239.6 238.9 238.2 240.1 245.5 250.2 252.7 255.5 258.5 260.5 260.9 262.4 262.4 262.3 261.7 262.4 266.3 264.5 261.5 257.5 256 253.7 253.1 250.7 246.2 240.7 231.8 222.4 212.7 201.3 189.9
218 220.9 222.9 223.4 224.1 225 225.3 225.7 225.8 227.2 229.3 231.1 234.3 236.1 239.5 241.5 244.2 245.9 250.8 254.6 258.6 262 265.6 268.9 274 278 282.8 286.4 289.7 293.5 296 299.3 303.6 305 302 301 298.9 297.5 298.3 297.9 293.5 288.8 285.9 278 271.2 265 257.4 249.9 245.5 242.4 241.1 236.9 234.8 236.9 240.6 242.9 248.9 256.1 262.2 268.4 277.1 287.6 298.5 309.5 321.6 333.5 344.6 357.5 373.5 391.6 404.6 416.6 422.2 426.4 418.8 405.5 393.3 383 374.5 376 376.2 375.2 374.4 380.8 386.1 381.5 377 372.8 371.4 373.6 378.9 388.1 397.6 405.1 408.3 403 407.7 406.1 404.8 403 390.8 382.3 367.9 352.7 345.9 340.7 335.2 335.3 337.4 342.1 347.7 355.1 362.3 365.9 369.1 376.4 387.9 404.7 404.1 401.6 394.9 398.5 399.9 403.9 403.2 395.7 377.9 358.4 343.5 332.3 312.6 297.8 289.7 281.9 275.4 269.7 262.7 254.3 248 242.1 228 231 233.6 238.3 239.6 241.7 240.3 238.2 241.2 242 241.1 244 241.6 242.6 242.9 243 243.1 241.9 243.2 243.4 242.2 240.6 241.3 241.7 243.1 241.7 241.2 241.4 242.2 242.4 241.7 243.2 246.2 250.8 253.7 256.2 259.8 263.6 264.6 264.8 263.2 263.5 264.6 263.3 262.9 263 261 256.7 252.3 250.2 250.3 245.2 241 235 226 219.3 209.7 201.1 192 180.9
223.7 225.5 227.2 227 226.5 227.9 228.5 234 232.8 232.1 232.1 235.5 240.1 243.9 244.5 246.7 249.1 252.9 256.4 259.7 263.5 265.9 267.9 270.2 275.3 278.4 281.7 283.5 286.1 287.6 289.5 288.7 290.4 290.4 289.7 288.6 286.7 285.7 286.5 286.2 281.1 277.3 273.6 269 265.9 259.6 254.9 248.3 245.4 242.7 238.1 238.4 239.1 240.2 244.8 246 251.7 259.5 266.1 272.7 282 292.4 304 315.8 326.9 337.7 350.2 362.6 376.9 393 402.5 408.3 416.5 417 411.5 389.1 373.7 371 374.4 376.9 378.9 375.6 374.4 382 386.5 390.4 386.9 387.2 384.8 389.7 397.3 401.7 410.1 417.5 417.8 413.1 404.1 401.5 401.6 393.4 384.5 370.9 353.8 342 335.2 335.2 335.2 336.1 341.2 348.3 353.3 359.5 366 370.1 375.2 385.8 401.9 411.2 412.9 415.5 409.4 409 410.2 413.3 407.5 394.3 374.7 357.9 344.4 336 316.5 301.5 293.6 285.2 279.4 273.9 264.4 255 247.9 238.3 227.2 236.6 239.6 243.3 245.1 246.8 245.7 246 249.2 244.6 244.2 244.1 245.5 246.2 245.5 245.5 246.2 244.9 245.8 246.4 246.4 244.9 245.5 244.1 245 243.1 243.2 243.9 244.7 245.3 248.5 249.8 251.6 253.3 257.2 260 263.5 265.9 267 268.1 267.4 266.1 266.5 266.5 266.7 264.7 260 254 250 245.1 242.7 240.5 234.7 229.7 220.9 209.2 199.1 190.8 182.6 173.4
227.6 229.6 230 229.8 229.2 231.6 232.6 234.4 234.8 235.9 235.3 239.4 244.5 248.5 248.4 249.5 250.9 254.1 257 261.7 265.8 268 270.2 272.4 275.4 277.6 279.7 281.6 282.1 282.9 283.9 282.7 283 283.4 282.6 280.8 278.6 277.9 277.9 275.1 271.7 268.2 263.9 262.2 259.4 255.5 251.8 245 241.7 237.8 237 237.6 241.6 245 249.6 251.9 255 262.1 269.2 276.8 287 299 309.3 321.1 329.9 339.1 350.6 364.3 380.7 390.3 388.2 392.1 380.6 374.6 378.9 369.8 360.8 366.2 369.1 376.6 382.3 375.2 375.5 385 396.3 400 403.6 407.9 405.9 410.3 418.7 423.7 424.5 428.4 425.8 422 415 412.9 403.9 394.7 373.9 356.9 344.1 336.6 335.2 335.2 335.2 338.2 345 352.5 356.1 364.4 368.8 373.9 379.2 392.4 411.1 419.4 422.7 427.2 423.3 421.4 418.3 413.1 397.3 374.9 354.4 344.9 332.9 323.2 313.3 305.4 295.5 287.6 282.6 276.5 267.2 255.2 236.7 235.3 236 242.2 247.3 248.5 249.2 249.3 248.1 250.2 247.7 247.1 248.2 246 246.6 248 248.6 248.4 250.1 249.8 248.2 249.1 248.8 249.2 247.9 245.3 246.7 245.2 245.6 247.8 250.3 253.4 255.1 256 255.4 256.3 259.8 264.1 267.1 268.4 269.2 268.8 269.5 268.5 265.8 266.1 266 261.8 259.4 253.4 246.9 242.3 238.3 233.6 225.1 219.2 209.3 199.9 190.9 182.9 174.7 166
230.6 232.1 231.2 231 231.4 232 233.4 236 236.9 238.1 239.6 242.8 247.3 250.3 251.8 252.5 253.8 257 260.4 263.9 267.9 270.2 271.7 273.6 274.6 275.5 276.7 277.6 278.3 278.4 278.6 278.4 278.8 278.7 277.2 275.1 273.2 271.9 269.8 266.4 262.8 259.2 256.6 254.6 252.2 249.3 245.6 241.6 240.7 239.2 239.8 238.6 245 248.7 251.4 253.1 258.9 265.8 272 279.8 289.6 300.3 311.4 321.5 329.9 339.3 348.9 361.1 365.8 365 358 359.7 353.2 349.4 348.6 347.4 350.6 352.9 359 369.8 367.9 363.5 376.1 386.3 398.7 410.2 418.4 420.5 422.4 436.1 437.9 433.4 427.1 432.9 431 422.5 412 405.8 396.1 382.2 362.9 348 339.6 336.7 336.3 335.2 335.8 344.3 350 355.9 359.6 366.2 371.7 377.9 385.1 391 408.6 424.8 428.9 437.5 434.4 431.5 424 411.1 387.3 366.3 344.1 331.9 321.9 314.9 309.4 302.9 293.2 287.2 282.7 278.4 267.2 251.9 244.5 248.7 249.8 251.5 252.8 253 254.5 252.9 250.9 250 247.9 251.6 252.1 249.3 249.2 250.1 251.2 251.8 251.6 251.8 249.9 252.7 251.4 251 250 249.3 248.7 248.3 250.5 252.8 255 258.4 260.8 260 257.8 258.8 260.8 267.1 269.8 271.2 271.9 270.5 269.3 267.9 266.6 263.5 263 258.2 256.2 250.2 244.8 238.6 234 226.5 221.1 210.6 203.5 193.9 184.9 175.7 166.9 157.8
232.6 232.7 233.5 233.4 233.2 233.7 237.8 240.4 240.7 242.6 244.5 246.4 249.6 254 255.1 256 258.7 261.5 264.6 267.8 270.8 272.2 273.1 274.7 273.8 273.9 274.9 274.9 274.7 275.1 274.5 274 274 273.9 272.2 270.1 267.9 265.9 263.9 259.9 256.2 253.6 252.3 249.7 246.8 243.6 243.1 242.3 241.4 240.3 240.4 240.8 246.4 250 252.8 255.5 261.1 268.2 274.6 281.6 289.4 299.4 308.5 318.2 324.2 331.4 335.1 338.6 342.7 337.1 331.7 327.9 326.6 329.5 332.4 332.2 335.1 338.5 341.8 344.7 348.4 355.1 362.5 374 382.1 389.7 395.6 398.2 413.9 427.6 433.6 421.9 428.5 432.4 419.3 403.8 396.3 392.8 381.6 367.8 354.9 343.7 338.7 336.7 337 340.5 344.7 349.5 354.9 360.1 366.2 373.2 379.3 383.5 389.6 397 404.6 423.2 427.6 440.2 442.4 437.5 425.2 404.4 383.8 362.3 341.1 325.4 316.7 311.7 305.7 300.4 293.8 286.9 281.9 276.5 264 248 254.5 257.1 258 258.5 257.8 257.3 259.5 256.8 256.1 251.9 253.7 257.9 256.7 255.5 254.1 255.8 255.3 254.9 254.4 254.3 252.7 254.6 254.2 252.4 252.7 251.1 252.1 253.1 254.8 256.9 259 260.9 262.9 260.7 259.9 260.2 262.4 267.4 272.6 274 273.9 272.4 271.1 269 265.1 261.6 258.5 254.1 252.3 247.9 239.6 233.5 225.8 219.8 206.5 200.4 194.3 186.5 176.7 167.1 158.5 148.6
232.4 235.9 237.2 237.7 237.2 238 242 245.9 245.6 247.1 248.1 249.9 252 254 257.5 259.8 262.2 264.7 267 268.4 269.6 271.1 272.6 273.6 272.6 272.3 272.4 272.1 271.6 270.7 269.3 268.7 268.9 269.1 267.1 265 263 260.2 257.7 254.4 252.5 250.7 249.2 247.6 244.9 245.2 244.2 243.9 242.7 241.6 241.2 242.2 246 249.7 254.1 259.2 264.6 270.7 274.5 282.8 290.2 295.5 302.8 308.4 310.6 314.1 315.4 314.6 314.7 313.3 309.6 309.1 311.1 313.5 315.6 317.9 319.1 321.8 325.8 331.6 336.8 342.2 347 353 360.5 364.3 369.5 378.7 386.9 397.5 401.9 405.2 416.7 413.2 396.4 387.8 383.2 384.3 379.5 364.5 358.9 346.3 338.7 337 338.7 343.3 348 354 359.2 365.3 373.3 381.8 388.7 395.6 401.6 404.1 403 403.3 402.9 408.6 423.4 415.4 404.2 392.8 374.4 354.7 339.4 326 316 311.7 306.2 300.3 294.9 287.4 281.8 274.3 260.1 259 262.7 265.5 265.3 264.4 262.2 262.2 262.1 261.5 259.1 257.6 256.8 261.1 258.3 260 259.1 259.1 258.4 257.7 256.9 257.5 256.3 255.2 255.5 255 254.7 253.5 255.7 256.4 257.4 259.2 262.1 263.6 263.6 261.8 260.8 261.7 265.4 269.7 272.2 275.1 275.2 274.6 272 267.3 263.5 261.7 255.1 246.7 244.9 239 232.2 227.3 217.3 212.9 204.9 192.6 185.4 177.3 167.6 157.8 148.2 137.7
233.6 235.8 238.6 240 241.1 242.4 249.5 250.4 250.3 249.9 250.8 252.8 255.9 257.9 260.3 264.4 265.9 266.8 268.1 268.5 269.2 270.5 271.5 272.6 271.6 271.4 270.7 269.7 269.5 268.7 268.1 269.1 269.3 268.1 266.6 262.9 261.4 258.6 255.6 254 252.2 248.8 248.9 247.3 246.2 246.5 245.8 244.8 243.1 242.3 243.2 244.6 248.9 252.1 256.3 261.5 265.9 269.4 274.5 280 287.2 291.3 295.5 302 303.5 303.3 302.8 301.6 301.5 299.8 301.1 303.4 304.8 304.7 308.1 309.9 311.5 314.1 317.7 321.4 327.3 331.9 336.3 339.7 342.9 348.9 354.8 363.3 370.1 376.5 382.5 387 388.2 382 380.1 376.9 375.1 373.8 364.1 353.8 344.2 337.6 336 336.8 339.4 344.5 349.1 354.4 360.5 370.7 380.2 391.3 400.7 407 409.6 405.8 399.2 393.5 388.5 386.2 377.4 378.5 375.4 374.5 367.8 348.9 338.8 326.5 317.3 311.4 306.1 300.9 295.6 289.3 282 272.9 260.8 264 268.8 270 270.2 270.3 266.9 265.3 264.8 263.1 262.4 261.2 262.9 262.8 260.2 260.8 261.5 262.3 262.2 261.2 259.6 260.3 258.9 258.6 258 256.8 258.2 257.8 258 258.5 258.7 259.6 262.1 263.6 264 262.8 261.5 262 266.7 268.7 271.8 274.3 273.4 274 272 264.8 262.1 258.6 252.5 240.9 234.8 228.3 221.3 218.3 209.3 201.7 193.7 183.6 175.1 168.4 157.4 147.8 138 125.4
235 236.2 240.2 242 243.2 246.8 250.9 252.8 254.8 254.4 254.2 256.8 259.9 261.1 266.2 268.9 268.5 269 269.5 268.9 268.5 270.4 271 271.4 271.7 271 269.9 269.7 269.9 269.7 269.8 270.7 271.8 271.8 270.9 267 263.3 259.6 256.3 254.5 253.4 250.8 249.9 248.2 247.4 247.4 246.5 245.3 244.4 245.4 246.9 245.5 250.7 251.7 257.3 261.4 265.6 268.2 271.3 275.7 282.4 286.7 290.5 295.1 296.2 295.5 293.9 293.5 294.6 295.9 298.5 301.5 302.6 301.8 303.9 307.7 308.7 311.8 316.1 320.1 324.5 324.6 329.4 332 334.2 339 344.9 349.3 355.7 361.9 368.8 372.8 368.3 367.7 365.3 362.4 359.8 355 348.9 341.8 336.8 335.2 335.4 337 339.3 342.8 347.3 353.1 358.6 369.6 383.5 392.6 397.4 395.9 398.5 397.4 388.5 381.8 369.9 368.1 362.4 355.3 354.4 355.3 352.4 346.3 333.1 322.9 314.3 309.5 306.4 301.5 296.3 290 283.4 271.8 264.9 273.2 271.9 272.7 272.1 271 269.8 268.6 267.1 265.3 266.3 263.4 265.9 265.9 262.3 262.7 264.4 264.3 264.2 263.6 262.7 261.7 260.8 260.8 260.1 260.1 261.2 261.2 262 260.3 259.6 259.3 262.9 263.4 262.9 262.4 259.8 261.8 266.5 268.2 271.3 269.9 270.3 269.6 266.2 263.7 259.2 253.4 246.3 233.6 223.2 218.7 214.4 210.3 199.9 193.2 184.4 176.1 166.4 157.5 147 137.3 126.5 113
236.4 238.1 240.5 244.1 246.8 248.9 251.9 254.3 256.3 258.3 259.2 261.1 264.8 266.7 268.1 271.1 270.5 271 270.7 269.5 268.3 269.5 270.3 271.6 273 271.2 270.3 272.4 272.3 272.1 271.9 272.7 274.2 275.1 274.8 271.1 265.4 260.8 257.1 255.9 254.7 253 251.6 249.9 248.5 247.7 246.8 246.8 246.1 246.5 248.9 247.9 251 254.8 255.8 258.1 260 264.5 267.2 271.9 276.9 280.9 284.9 287.1 287.8 291.2 291.2 291.8 292.6 292.7 295 297.6 300 302.5 307.7 313.4 317.2 321.7 322.9 322.2 323.6 323.9 325.9 328.2 329.5 331.3 334.8 338.7 341.9 345.5 349.1 351.4 351.9 351.7 350.2 349.4 348.2 346.1 341.1 338.2 336.1 334.7 335 335.8 337.4 339.8 344.2 349.2 353.9 360.7 365.1 366.6 371 373.9 371.1 365.8 362.7 361.5 357.4 352.6 349.5 345.6 343.4 341.5 337.8 332.6 324.9 315.9 310.8 306.6 304.1 301.2 296.1 288.9 282 267 275.8 276 275.7 275.2 274 272.4 272 269.9 270.2 268.8 270.7 265.9 267.7 268.2 265.2 266.6 268.3 269.8 266.4 265.5 265 264.9 264.1 263.1 263.5 263.7 264.2 265.1 265.6 262.9 260.2 259.6 261.8 262.4 260.8 258.9 258.1 259.8 264 268.3 269.1 266.8 264.5 262.6 262.8 259.4 256.8 243.6 238.3 225.4 219.3 211 206.1 199.1 193.6 187.6 177.3 168.6 158 147.9 137.1 125.3 111.7 97.5
238 240.9 247.4 252.5 256 251.6 251.7 254.6 259.5 261.3 261.6 263.8 267.7 268.5 270 272.3 272.5 272.9 272.1 270.8 269.7 269.3 270.9 272.9 274.9 272.5 272.2 274.9 274.7 274.5 274.2 274.7 276.4 275.6 274.2 270.8 266.2 261.1 258.4 256.7 255.5 254.8 253.5 252.1 249.9 248 248.1 248.7 248.6 246.6 249.1 251.1 253.8 255.9 259.1 262.9 265.2 268.1 269.5 270.6 274 278 283.9 284.9 286.8 289.6 292 292.3 292.2 295.9 299 302.3 306.6 310 315.5 319.8 324.4 328.2 329.3 327.4 327.2 328.8 329.2 328.8 329 329.6 330.3 332.4 334.7 338.6 341 341.7 342 341 342.5 341.6 342.5 340.6 338 335.1 335.2 334 333.9 335.3 336.2 337.1 339.6 343.5 346.9 348.4 350.7 353.5 355.2 357.7 355.6 352.5 350.6 348.7 345 340.7 337.9 335.8 332.8 329.1 323.7 318.8 313.1 309.8 307.7 304 301.3 299 294.1 282.2 273.2 278.4 280.7 280 279.6 278.5 275.9 275.9 274.7 272.6 273.9 276 274.9 270.5 270.4 270.8 270.3 271.1 271.8 271.2 268.9 267.5 266.8 267.2 266.9 266.9 265.7 267.1 268 268.9 269.4 268.8 260.5 259.2 258.7 260.6 259.6 255.2 255.9 256.5 262.1 263.5 261.5 261.1 256 255.1 253.1 249.1 243.8 238.8 232.9 224.6 212.7 205.9 197.8 193 186.9 180.2 172.5 161 149.8 141.6 133.8 112.6 96.9 81.8
241.2 243.5 250.5 250.9 254.3 254.1 254.1 256 261.2 264 263.5 266.4 269.4 270.8 272.6 274.1 274.3 274.1 273.4 272.3 271.9 271.5 272.9 274.8 276.2 276.2 276.4 277.5 276.8 276.6 276.4 275.4 275 273.5 271.5 268 264.9 262.8 260.5 258.2 256.2 256.8 257 254.7 253 252 250.7 251.1 251.2 249.5 250.7 253 257.4 258.6 262.2 264.7 267 269.8 271.9 273.2 275.9 276.2 282.8 288 288.5 290.5 293.7 294.1 296.3 299.4 303.7 307.6 312.3 317 321.2 325.3 329.3 331.8 331.3 330.4 330.1 331.5 332.4 333.9 333.9 332.3 331.9 332.8 334.4 335 335.6 337 338.2 336.8 337.1 336.4 337 336.5 333.8 331.8 331.8 332 330.2 331.4 332.4 333.8 335.6 336.5 338.2 340.2 341.9 341.2 341.3 342.9 340.6 339.9 339.8 337.5 335 329.5 326.7 323.9 319.6 315.3 311.9 309.6 306.5 304.4 301.7 300.3 297.8 294.1 284.4 276.5 282.6 285.2 285.6 283.6 283.2 281.8 278.7 277.9 277.6 277.8 278.6 278.5 279.2 274.6 271.6 275 273 273.5 276.2 274.5 272.4 270.2 269.6 269.1 268.9 269.3 269.8 270.6 270.7 269.6 268.7 267.2 263 258 255.2 257.8 255 251.6 253.5 254.8 257.7 260.9 257.2 250.2 248 243.8 241.6 240.5 238.2 233.1 227.4 220.5 206.4 197.7 194.4 184 177.7 172.2 163.9 152.7 141.8 133.1 120.1 102.4 83.7 65.9
244.4 246.4 247.6 249.5 251.8 256 259 260.1 261.4 263 265.5 268.6 271.4 273 274.4 275.4 275.4 275 275.5 275.8 274.3 274.8 276.1 277.8 279.9 279.9 280.1 279.3 278.9 278.9 278.3 276.8 274.6 272.9 271.5 269.5 266.7 265.9 263.9 262.2 261.1 260.7 260.1 259.4 257.7 256.6 254.3 253.7 253.4 252 253.6 256.3 259.8 262.4 264.4 265.5 268.4 269.6 271.6 275.6 279.9 282.8 286.2 288.8 290.8 292.4 294.9 296.9 300.4 303.3 306.8 312.9 317.8 322.6 325.9 327.7 329.7 332.9 332.9 332.7 332.7 335.9 337 337.3 337.2 337.4 336.7 337 336.4 336.7 335.1 334.7 335.2 334.3 332.9 332.2 331.9 331.3 330.3 330.6 328.7 328 327.2 328.4 329.9 330.3 331.4 330.8 331.7 332.7 332.8 332.5 330.3 330.6 329.1 328.8 329 327.3 324.8 321.6 318.4 315.2 311.7 309.7 306 303.8 302 298.4 294.4 282.7 281.5 280.9 280.6 285.1 288.8 290.5 289.5 288 285.8 283.5 282.2 279.7 279.6 280.7 280.8 279.9 279.6 278.2 272.3 278 276 276.1 277.2 275.9 275 272.9 272.8 271.3 271.5 271.8 271.9 272.1 271.6 271.2 269.1 265.8 263.3 258.3 253.2 250.3 250.3 247.5 250.2 252 253.2 255.8 246.8 244.7 241.3 238.3 235.2 233.2 231.1 225.9 216.8 208.5 198.7 190.7 184 177.5 172.7 164 155.5 145.5 133.8 121 106 88.1 67.7 50.2
247.3 248.5 249.5 251.3 253.7 258.4 260.5 261.7 263.3 265.6 268 271.2 272.3 273.1 274.7 276.3 276.2 276 276.5 278.4 277.1 278.3 279.1 280.1 281.7 282.1 282.2 282.3 282 281.6 281.8 280.5 279.3 277.2 276.6 273.3 270 268 266.9 265.9 264.7 263.6 262.9 262.3 261.7 260.6 258.2 256.4 254.9 252.8 255.4 258.3 260.1 261.5 265.1 268 268.7 272 275 278.7 282.4 285.1 287.5 289.7 292.9 295.7 298.6 302 306.3 309.6 312.4 318 322.9 327.6 330.4 333.4 334.3 337.5 336.3 336 336.5 338.8 339.7 339.2 341.5 341.8 343.3 342.6 340.8 337.2 335.8 334.6 333.8 331.7 330.6 329.6 329 328.4 329.4 327.6 328 328.2 325.6 326.3 327 328.5 330.3 327.1 327.5 329 328.6 328.8 326.5 326.2 324.1 322.1 320.8 318.1 316.9 314 311.2 307.8 305.5 304.4 301.8 297.2 295.6 290.1 285.1 288.5 290.5 292.3 295 295.1 294.6 294.2 291.1 290 287.9 286.3 285.8 285.3 283.2 282.9 284.5 282.4 280.1 280.7 279.2 279.8 279.2 277.2 277.1 276.2 276 275.6 275 274.5 273.2 273.1 272.4 272.4 271.7 271.1 265.7 262.9 258.4 255.7 253.5 248 245.9 242.7 247.4 248.8 246.9 246.7 244 240.6 236.1 231.3 228 224.9 219.7 212.8 205.6 197.4 189.5 184.9 178.3 173.4 165.9 156.5 148.2 135.2 123.2 110.4 93.4 71.9 50.9 41.7
250.6 252.6 253.4 255.7 257.9 260.1 262.1 264 266.6 269.1 271.5 272.7 273.1 274 274.9 275.7 276.9 278 278.2 279.3 280.5 280.9 282.1 283.3 283.6 284.3 285.5 285.7 284.8 284.4 284.5 282.8 283.3 282.6 281.1 277.7 274.2 271 269.7 268.6 267.4 266.6 265.7 265.1 264.4 263.2 261.5 259.2 255.3 256.7 258.9 260.8 263.2 264.8 266.7 270 272 275.2 278.4 281.6 285.8 288.2 289.7 291 296.1 299.7 303.1 305.8 308.9 314.7 319 322.9 328.1 334 337.1 338.3 338.6 339.3 338.7 339.8 343.4 346.4 347.8 350.1 351.4 353 354.8 351.8 346.5 341.6 336.8 334.8 332.7 331.1 330.1 329.1 328.1 326.7 325.7 325.6 324.5 324.8 324.9 323.9 324.5 324.6 326.1 325.6 324 324.9 326.7 325.9 325.2 324.4 321.4 319 316.2 314.6 310.8 306.9 307.3 304.4 300.8 296.4 290.7 291.6 286.7 287.6 293.5 297.9 300.2 299.8 300.4 299.5 298.8 297.8 295 293.9 294 291.1 290.3 289.7 285.2 283.3 285.2 283.9 282.1 283.5 282.9 281.3 281.2 279.9 278.2 277.6 279.1 276.7 275.8 277 273.7 272.6 271.9 270.3 269.7 268.3 263 259.6 256.4 252.7 249.9 247.9 241.2 235.6 244.1 243.9 243.5 242.3 238.5 233.9 228.5 222.9 220.8 213.9 212.1 200.7 193.5 185.3 182.4 177.4 170.9 167.1 156.9 146.1 136.8 125.5 112.2 96.7 75.9 54.7 43.4 41
253.3 258.5 256.2 258.1 259.9 262.2 264.9 267.6 270 272.5 274.4 275.4 275.8 276.1 276.5 276.7 277.2 279.3 280.6 281.3 282.7 283.8 285.1 286.3 287.6 290.1 290.8 291.8 290.5 289.5 290.7 289.7 289.7 287.8 285.7 282.4 278.8 275.4 274 271.8 269.7 269 268.6 267.4 265.9 264.2 261.9 260 257 258.9 260.9 262.8 264.9 267.8 269.8 273.3 276.1 278 280.6 285 289.1 291.4 293.1 296.4 299.4 303.4 307.7 312 316.2 320.3 325.4 329.4 334.8 338.2 339.6 341.3 341.7 343.9 345.4 350.2 356.6 361.4 363.7 365.4 369.5 370.4 367.8 361.4 351.6 344.2 340 338 335 332.9 331.2 329.9 328 326.8 325.2 324.8 323.9 323 321.9 322.1 323.4 326 322.7 322.6 321.9 323 325 322.7 322.9 320.6 318.8 315.2 313.2 310.9 307.5 301.6 299.2 298.5 294.8 295.4 301 300.4 299.7 300.8 302.8 303.7 308.8 306.8 304.3 303.1 301.4 300.3 299.2 299 298.4 299.2 295.9 294.2 289.1 287.2 286.4 284.4 284.2 284.4 285.1 284.2 286.1 283.3 280.9 278.8 277.2 277 275.4 275.3 273.4 271.1 270.5 267.8 269.8 266.3 261.6 256.8 252.9 250 246.1 242.4 235.7 231.7 238.7 237.6 236.8 234.6 232.1 224.7 216 210.5 206.6 202.5 195.8 189.3 182.5 178.9 171.7 168.4 164.3 158.3 149.5 139.1 126.2 111 95.7 77.6 56.6 46.2 41.4 38.7
255.2 258.2 259.3 260.8 262.8 266.2 268.5 270.9 273.2 275.2 277.1 277.9 278.7 279 279.2 278.6 279.2 280.8 282.6 284.3 286.7 288.1 288.2 291 294.6 297.1 298.2 298.6 296.9 295.9 297.2 296.8 296.2 294 290.6 287.3 282.7 278.7 276.4 274.1 271.7 270.4 269.6 267.5 265.4 263.5 261.3 260.9 259.3 261.3 262.5 265.4 268.4 270.6 273.4 277.3 280 282.6 284.7 288.8 293.1 295.9 299.2 302.3 305.1 308.9 314.7 319.7 326.1 327.3 331.3 335.5 339.2 341.1 343.2 347 349.8 354.8 362.1 369 376.5 382.5 386.4 388.2 393.1 390.6 384.1 372.8 357.7 346.7 340.4 338.3 336.1 334.6 332.2 330.1 328.4 326.7 325.8 326.1 324.7 324.7 323.5 323.3 321.3 322.1 322.8 319.4 318 317.9 319.4 320.3 316.8 316.8 316.4 313 309.6 302.8 300.2 301.7 298.9 297.1 300.3 304.4 304.9 305.5 305.1 305.5 307.7 311.8 316 314.6 310.8 305.7 303.3 302.5 302.8 301.2 303.2 300.6 299.9 296.1 291.3 292 287.9 287.4 286.4 288.1 285 283.7 284.2 284.6 286.2 278.3 275.2 274.9 274.3 272.5 271.3 268.5 266 263.6 261.7 262.7 258 251.5 247.6 244 239.5 234.1 229.1 224.8 227.3 226.7 225.8 222.8 218.1 212.6 207.2 205.7 198.9 192.8 186.3 181.9 175.3 169.8 168.2 163.1 158.3 150.4 141 132.6 110.2 91.3 76.4 59.3 44.1 42.3 39 35.5
258 260.6 262.5 264.9 267.7 269.9 271.7 271.6 274.4 277.3 279.4 281.2 281.4 281.8 280.5 280.6 282.9 283.9 285.6 289.5 292.3 294.3 293.3 297.4 301.1 303.4 305.1 305.5 304.6 304 304.9 304 303 299.6 296.2 291.2 287.1 283.1 279.5 276.3 273.9 271.6 268.4 266.4 264.4 263.1 260.6 261.7 264.1 266.1 266.4 267.8 271.8 274.6 277.7 281.3 283.9 287 290.7 295 298.2 300.9 305.6 308.6 310.6 314.8 320.6 326.6 332.2 333.7 336.8 340.6 343.3 346.6 351.1 356.5 366 373.2 383.5 394.2 407.4 411.9 416.7 421.1 422.8 417.7 406.6 390.9 367.4 350.9 341.1 338.7 337.6 335.6 334.1 332.1 328 326.2 327.1 326.5 327.1 328.6 327.5 326.6 325.6 324 319.3 317.1 315.9 315.5 313.8 312.9 310.8 309.5 308.4 305.6 308 308.4 308.2 304.7 305.1 306.7 307.5 309.7 310.5 309.5 309.9 311.3 313.4 316.7 318.8 320.1 318.7 312 305.6 306 306.2 307 305.5 304 302.6 296.8 294.8 294.6 291.6 291.3 290.3 290.6 286.4 283.7 281.9 283.4 283.3 277.1 274.7 274 272.5 268.1 264.3 266 264.9 261.8 258.2 251.8 250.3 251.1 246.1 241.4 238.9 233.1 232.8 231.1 222.8 216.7 210.1 208.2 199 203.1 196.5 196.6 192.7 186.2 178.7 172 167 161.8 160.3 156.4 150.5 139.2 129.6 112.3 93.1 75.5 60.7 45.5 42.8 43.3 41.2 36.8
259.9 263.8 266.1 269.3 271.7 273 273.5 273.6 276 279.9 284.2 284.4 284.3 282.8 282.1 283 285.4 286.9 290 294.8 297.5 298.4 300 304.4 307.8 309.5 312 312.8 312.5 312.2 312.4 311.2 308.9 305.2 300.4 295.8 293.4 286.9 281.9 278.6 275.5 271.6 267.4 265.3 264.8 261.1 264.7 267.1 269.8 271.3 272 273.4 274.5 277.1 281.8 285.2 287.8 290.2 295.6 300.8 303.6 307.1 311.8 315 316.7 322.6 329 335.5 338.8 340.1 343.1 347.5 352.3 357 365.8 375.7 384.2 394.9 404.5 424.2 439.8 447.1 455.5 460.7 457.1 444.7 435.8 407.6 381.1 358.8 345 339.2 336.2 334.2 333.4 332.4 328.2 327.5 327.3 326.9 327.8 328.8 328.2 326.9 326.5 324.9 321.8 319.9 318.7 316.9 318 316.4 315.8 313.6 314.4 313.9 314.8 313.1 310 309 310 310.4 310.3 311.2 313.7 313.7 313.1 317 318.4 319.7 321 320.6 319.2 314.7 311.4 309.5 308.4 305.8 304.4 303.1 300 297.6 296.6 294.9 295.7 294.8 292.4 289.1 289 289.6 289 287 282.7 279.6 279.5 278.9 276.3 274.2 274.1 271.9 268.8 265.6 263.5 259 254.9 253.3 250.8 245.6 240.5 236.5 239.5 234 228.1 221.4 218.7 217.3 214.4 205.9 204.9 188.2 174.7 174.9 169.8 163.9 159.6 154 150.4 146.2 138.6 127.1 112.2 93.9 76.1 59 46.1 43.3 41.3 42.9 41.5 32.9
265.3 266.4 269.3 272.1 274.6 276.2 276.5 276.6 278.8 282.2 285.2 286 285.2 285.3 286.1 286.4 291 295.1 299.8 301.2 302.5 304.9 307.5 311.2 315.5 318.3 319.7 320.1 320.6 319.9 319.6 317.1 313.7 309.1 303.1 297.6 291.8 286 281.2 277.4 274.6 271.4 268.9 267.8 268.3 269.7 270.9 271.7 274.5 276.3 276.7 277.6 280.3 279.8 284.5 288.7 296.6 294.7 300.4 306.5 310.5 314.3 318.4 322.3 324 328.6 334.7 341.2 345.3 347.7 353.1 361.1 365 374.2 383 393.7 404.7 417.4 431.9 451.8 470 485.4 496.6 501.9 492 479.8 453.1 415.4 388.4 366.4 346.5 339.2 336.3 335.2 335.7 331.3 330 330.5 330.5 328.9 328.1 329.3 330.7 330.4 330.3 328.4 324.7 322 320.5 320.3 320.6 319.7 317.3 318.9 320.2 319.3 316.3 314.1 314.4 313.3 313.1 315.2 319.3 320 318.2 315.8 315.8 318.4 320.5 321.5 321.4 320.2 318.9 317.6 315.7 312.2 310.8 310.2 306.3 301.9 303.4 298.5 300.6 299.4 299.5 298.1 296.5 293.9 291.8 290.2 288.1 286.3 284 283.6 279.8 277.4 276.9 274.9 273.9 272.8 270.1 266 262.5 258.3 254 249.9 248.4 242.3 238.3 238.6 239.2 235.8 231 220.7 214.9 214.1 214 212.8 210.3 198.5 179.4 169.2 159.9 147 139 142.8 138.8 132.4 124.1 112.2 96.4 78.9 60.7 48.2 44.2 37.2 33.2 35.7 34.2 34.5
268.9 269.7 270.4 273.7 277.1 278.3 279 279.3 281.1 283.2 286.1 287.2 288.3 289.2 292.2 294.3 297.6 301.7 303.9 305.1 308.5 313.9 315.2 318.7 322.5 324.8 325.9 330.8 330.6 327.9 323.5 318.9 314.4 308.2 301.5 295.1 290.1 285.8 281 275.2 271 270.1 271.6 272.6 273.5 274.5 274.9 276.5 279.4 279.9 280.7 282.4 283.4 285.5 286.1 292.4 293.8 301 305.9 311.8 317 321.9 326.1 329.6 331.9 336.4 340.4 346.8 353.2 363.3 367.9 376.1 386.2 393 403.8 418 433.5 443.7 468.4 486 509.1 533 534.2 527 511.8 487.2 453.8 436 405.1 374.2 353.1 344.9 340.3 338.1 337.7 336.4 338.3 338.3 339.6 337.2 331.9 334.9 337 336.3 335.4 332.2 329.3 327.2 328.5 328.3 327.1 327.9 326.8 325.2 324.8 323.1 324.7 324.9 323.2 321.9 321.6 326.7 325.2 323.9 324.1 320.4 321 322.1 323.8 324.7 324.5 323.8 324.1 322.2 318.8 315.7 312.6 310.9 305.6 305.6 304.1 301 301 300.7 302.6 300.8 297.2 297.6 294.4 291.2 291.1 287.1 285.2 283.4 281.3 281.2 279.5 276.6 275.6 271.6 267.3 265.7 263 256.8 250.9 246.3 241.1 240 240 239.2 238.9 237.6 231.4 220.7 210 209.4 205.8 204.2 204.5 186.8 176.2 165.8 161.5 152.6 146.5 139.4 125.2 120.8 109.9 98 83 65 49.5 45.7 44.7 33.4 33 33 32.6 36.5
273.2 273.8 274.5 276.5 278.2 280.4 281.3 281.9 283.7 285.5 290.3 292.6 292.6 293 296.9 300.5 305.3 306.7 307.8 309.8 314.5 319 322.5 325.4 328.8 331.1 331.5 334 334.2 333.7 326.6 319.1 312.4 306 299.4 293.1 287.4 283.1 277.3 272.9 276.9 275.1 276.2 277.4 278.4 279.2 279.6 281 282.7 285.1 287.1 289.5 290.1 290.2 292.9 296.4 302.9 310.9 314.5 318.7 323.7 328.6 333.6 336.6 339.4 342.9 347.4 353.3 361.7 373.6 384 389.2 403.4 415.3 429.8 446.8 459.7 478.5 498.9 519.9 551 551.1 544 530.8 513.8 494.9 484 455.4 412.9 385.6 365.7 355.9 351.7 347.8 345.9 345.5 346.8 350.5 350.8 348.8 342.3 341.6 343 342.6 343.4 342.8 342.1 342.1 340.4 338.9 336.2 337.1 339.2 335.3 334.6 333.3 335.4 333.9 330.5 330.6 330 329.8 329 329.7 327.5 325.6 325.6 325.2 327 327.1 329.4 330.7 328.7 326.4 322.8 318.8 315.2 312.9 307.5 305.5 304.7 303.5 304 303.3 303 301.9 297.5 296.8 295.1 292.8 291.8 292.5 289.1 285.9 282.8 282.5 281 278.6 278.1 276.1 274.4 269.6 264.5 256.3 252.1 247.9 241.1 236.9 238.9 238.8 235.6 232.9 226.6 219 208.8 203 201.9 195.8 188 177.5 170.7 162.4 156.8 154.3 145 136.9 120.8 92.3 97.8 85 71 48.8 45.1 46.3 41.3 35.9 33.7 33 38.4 36
276.3 276.5 275.3 277.2 279 281.9 283.7 285.5 287.8 290.5 291.2 293.9 295.4 297.6 302.5 306.8 311.3 311.6 314 316.4 319.1 324 328.6 331.1 334 333.5 334.8 337 334.5 331.3 325.2 318 310.4 304.6 296.3 290 285.2 276.1 278.8 281.3 281.4 280.4 281 282.1 283.2 284.2 285 285.9 287.9 290.7 292.2 295.1 298.3 299.3 297.5 301.2 310.6 319.8 324.7 326.2 330.2 335.6 341.2 343.7 345.9 349.5 357.6 364.8 373.2 387.5 398.4 411.2 422.3 438.1 453.9 468 482.6 505 528.8 541.6 548.3 540.1 528.7 518.5 498.8 479.7 462.4 442.5 421.1 398.8 381.2 372.6 365.6 363.8 359 360.2 360.6 359.4 359.9 357.9 357.8 354.2 355.5 359.4 356.7 358.6 358.7 356.5 350.3 346.6 347.2 346.5 345.9 346.3 347.9 349.3 350.1 349.6 344 339.7 334.9 332.8 332.8 329.4 328.7 329 328.8 328.2 328.8 330.1 330.9 333.2 332.5 330.2 326 321.6 316.6 312.4 308.6 306.7 310.5 305.6 304.2 304.9 303.7 301.1 298.5 297.4 296.7 295.2 292.7 294.4 292.2 289.1 284.4 281.5 281.6 280.6 279.7 278.2 274.6 272.6 267.9 261.1 255.5 251.2 240.9 235.1 234.9 233.3 228.5 225.3 218.5 213.9 206.8 196.5 188.1 181.1 176.9 169.3 163.2 158.3 153.2 146.1 140.5 127.6 117 104.3 84.5 67.9 54.8 46.8 43.4 39.5 39 34.2 32.4 35.8 37.7 34.8
279.8 278.5 280.4 281.5 281.4 284.5 287.2 287.5 290.2 293.4 295.2 295.8 300.9 304.9 308.3 312.1 315.6 317.8 320.6 323.8 326.9 328.4 333.1 336.1 336.7 337.1 337.6 337.6 337.4 332.8 329.1 319.8 310.9 301.8 292.1 286.2 281.1 279.7 283.9 285.8 285 285.6 285.6 286.6 287.5 289.4 290.2 292.2 294.1 296.2 296.9 299.1 302.6 303.9 305 307.2 316.9 327.7 335.2 333.8 337.2 341.8 348.2 350.6 354.2 362.5 369.8 380.8 387.7 402 415.2 427.8 443.3 460.5 475.4 490.2 507.2 525.2 538.9 541.6 531.2 519.7 512.7 505.6 492.7 480.3 463.4 451.3 436.4 420.3 403.9 393.1 383.5 382.3 380.6 379.1 379.1 380.7 381.7 379.1 372.2 371.3 371.3 372.1 372.4 377 376 373.1 364.6 359 359.3 358.1 357.8 356.5 361.8 364.1 366.4 363.3 354.4 348.6 343.2 340.6 337.7 334.9 334 332.8 331.6 331.7 334.3 335.5 336 335.7 333.2 330 326.6 321.5 316 313.1 309.6 310.2 309.4 305.2 305.1 305.6 305.5 304 301.7 298.7 295.8 296.3 294.5 293.9 290.4 287.5 285.9 279.8 282.6 282.9 279.3 277.2 274.2 270.9 266.2 262.6 256.6 245.4 240.7 234 231.9 224.3 216.1 210.6 207.4 202.7 197.5 185 178.6 169.3 157.5 153.1 157.3 151.2 147.9 141.4 130 115.4 103.1 89.5 81.5 59.2 45.2 42.1 40.6 38.1 38.2 36.1 32.4 37.6 35.7 34
283.9 283.9 283.6 285.1 285.5 287.5 290.7 291.5 293.9 296.7 298.5 300 305.3 311.9 313.5 315.3 318.9 322.5 325.6 329.1 332.5 332.4 335.4 336.7 338.3 339.9 337.7 338.1 333.9 329.5 324.2 314.7 304.8 298.4 290.5 283.5 280.3 285.2 290.1 291.4 292 292.2 291.3 290.8 293.3 295.4 297.4 299.3 301.2 302.8 303.3 304.2 308.8 311.8 313.4 315.3 320.3 335.8 339.7 341.5 344.9 346.8 351.6 358.8 366.2 373.6 386.5 398.1 407.9 419.4 433.5 450.6 466.4 483 499.2 512.2 535.1 551.5 555 546.1 534.6 527.2 520.8 516.7 511.8 505.3 489.1 473.2 467.3 452.2 439.9 425.4 407.8 399.6 399.7 399.5 404.2 409 407.1 406.2 393.5 390.9 387.6 390.5 392.2 396 397 393.4 389.7 380.7 374 374.7 373.6 373.6 373.4 373.6 371.4 364.8 359.4 355.3 350.8 346.7 343.6 341.7 340.3 338.9 337.2 337.1 338.9 340.5 338.4 336.7 335.4 330.7 326.4 321.9 316.7 313.6 312.7 312.1 309.5 306.7 308.2 308 308.1 306.8 304.7 301.9 298.7 296.5 295.8 294.2 291.1 288.9 284.2 279.2 279.5 281.5 278.7 277.3 273.2 268.9 263.9 262.6 258.2 242.1 238 235.2 230.4 224.9 220.8 214.1 202 191.6 187.6 180.4 174.1 165.2 151.7 145.3 144.6 140.2 138.6 129 119.3 107.6 97.5 81.9 60 46.7 42.5 39.7 38.3 37.7 37.4 34.2 35.2 38.4 33.9 34
289.4 288.8 289.2 288.8 290.4 291.7 293.6 296 298.4 300.5 303.9 306.7 311.4 317.2 322.6 319.3 322.4 325.4 328.4 331.4 333.6 333.9 335 334.9 336.2 335.9 333.5 333 327.1 318.7 312.6 305.8 299.7 295.6 283.9 284.4 286.4 291 294.3 296.7 298 298.2 297.5 296.7 300.1 302.6 304.5 306.5 308.1 310.1 311.1 311.9 315.3 318.1 322.4 323.8 324.9 338.2 345.2 347.4 354 354.7 363.1 368.4 379.1 391.5 404.4 418.1 435.8 453.4 463 482.2 497.1 508 516.4 532.1 558.8 570 571 560.7 554.4 548.4 542.3 545.6 541.4 532.4 517.4 508.3 501.2 482.4 466.8 460.3 438.7 430 428.1 429.4 430.2 431.7 429.8 428.5 418.5 417.3 414.3 414.8 421.9 426 430.9 429.3 426.4 410.6 390.4 393.7 394.7 403.8 399.8 394.7 387.6 375.9 364 362 355.9 352 350.1 349.2 348.6 346.1 345.4 344 343.1 342.8 341.2 338.3 334.8 330.4 326.9 324 317.3 314.8 313.8 312.7 311.4 312.5 313 312.8 312.8 311.5 306.9 302.7 300 297.4 295 293.4 291.4 287.8 285.8 283.4 281.2 276.6 277.4 274.5 271.2 265.6 259 254.9 244.1 244.1 242.6 239 237 232.2 227.4 215.4 205 195.1 190.4 182 175.1 169.8 166.4 154.9 141.7 134.2 122.6 117.2 108.2 98.5 89.9 70.9 47.9 41.5 39.2 39.1 40.3 37.9 36.7 32.7 36.7 35.7 35.4 34.6
294.1 292.5 290.8 293.2 294.9 297.3 299.7 302.6 304.3 304.6 307.8 312.7 317.1 321.4 324.6 324.2 327.3 330.1 331.6 333.9 334.4 334.7 334.6 333.1 331.1 330.4 327.6 326 320.3 311.5 304.9 299.8 296.4 286.2 280.8 290.7 292.4 294.4 298.4 301.1 302.5 303.9 304.4 304.4 307.1 309.5 311.3 313.2 314.9 317.2 318.4 320.2 323.3 327.6 332 334.2 335.1 343.2 351.2 354.9 356.3 364 374.8 382.2 393.7 407.8 424 445.3 464.9 481.6 490.1 504.5 518.2 530.9 534.7 552.4 579.6 583.4 582 578.2 572 568 565.3 565.2 556 546.8 538.7 528.5 524 518.5 504.1 490.1 476.3 472 473.8 469.7 460.4 457.1 468.3 467.1 463.3 453 448.8 448.1 459.7 464.2 462.5 456.6 462.1 438.3 411.2 411.6 421.2 426.7 414.1 406.8 397.9 381.9 375 365.9 361.3 357.2 356.2 355.6 353.9 352.4 350.9 347.7 347.6 345.3 343.6 341 336.7 332.7 328.1 325.1 323.4 318.4 315.7 313.9 312.4 316.6 316.2 315.9 316.3 314.1 309.5 303.4 301.4 296 295.5 294.7 290.8 289.3 288.8 286 280.8 273.2 272.5 274.5 265.9 259.7 255.8 249.3 246.3 249.4 245.8 241.4 239.4 240.5 227.7 219.5 208.2 196.4 192 184.1 178.1 173 168.5 160.1 151.6 142.5 124.6 94.9 90 81.8 76.2 61.2 45 41.7 41.5 43 41 38.1 37.5 32.5 36.6 35.6 35.4 35.3
298.9 296.9 296 296.4 300.5 305.3 307.7 308.9 310 310.6 314.6 318.2 321.5 324.7 328 329.4 332.3 334.1 335 335.7 335.8 335.2 334 331.1 325.9 322.9 320.3 315.9 310.1 307.7 301.7 296.5 287.4 288.9 290.7 295.1 296.5 298.2 302.5 304.8 307.3 309.6 310.6 312.1 314.2 316.8 317.3 319 321.4 324 326.5 329 332 337.8 342.4 344.5 345.3 348.1 357.9 365.8 367.5 374.8 384.7 396.9 410.5 428.4 447.7 468.8 492.2 507.4 520.1 528.2 540.9 540.1 553.3 571.8 593.2 595.9 593.1 594.6 595.9 593.1 586.2 581.8 574.8 569.8 565.6 564.5 557 548.4 529.5 521.5 502.2 495.4 503.8 498.9 494.5 487.4 502.1 499.7 505.7 498.9 502 494.5 489 493.6 488.3 489.1 492.2 460.2 434.8 445.6 451.1 444.4 423 408.7 399.3 390.1 383.9 376 370.5 364.6 362.2 361.8 360.7 359.7 356.4 352.6 348.9 348.2 346.9 342.9 338.3 334.7 329.9 328.1 326.3 325.7 321.4 316.1 316.4 318.3 319.2 318.8 318.4 315.7 310.6 305.7 300.7 298.3 297.1 293.4 290.6 289.5 289.8 286.7 284.7 279.3 270.3 263.1 262.8 253.6 249.3 248.5 248.3 249.8 247.9 243.9 239.9 233.9 228.3 222.7 206.2 195.4 193.4 187.6 181.6 176.2 168 158.3 147.7 137.8 124.3 110.6 86.7 67.5 60.3 52.4 46.3 42.4 42 40.6 38.8 37.2 34.8 33 37.6 35.9 36 36
304.4 302.3 300.5 302.3 306.4 308.8 310.5 313.4 316.5 319.1 322.2 324.8 327.3 329.4 332.8 335.4 335.3 335.4 335.9 336.9 336.6 334.5 331.4 326.9 322.2 318.3 314.3 310.6 305.6 305.1 300.8 292.4 288.7 295 298.9 297.9 299 302.7 306.9 310.3 313.7 315.5 316.8 319.4 321.7 323.4 324.1 326 329.1 332.5 336.6 339.5 342.9 346.9 350.5 352.8 355 356.8 360.6 372.7 378.9 388.3 398.5 412 429.1 448.2 472.3 493.5 511.6 525.5 538.6 547.9 550.9 561.7 573.1 594.2 607 609.4 610.4 616.7 617.6 617.6 610.4 604.1 595 595.9 592 591.9 584 573.3 562.1 556.6 540.8 534.4 525.6 521.7 524.8 528.8 547.8 549.6 542.9 537.7 532.2 529.5 519.4 525.6 519.6 527.9 511 482.2 470.1 479.4 476.7 463.5 436.1 419.9 407 398.6 392.2 384.4 378 372.7 368.3 367.5 366.2 363.1 359.4 355.9 351.7 350.4 348.9 344.8 338.5 335.8 332.3 330.4 329 327 319.3 316.1 321.6 321.3 321.5 321.6 321.1 316.9 312.1 309.1 304.8 301.6 296.6 293.9 292 292.5 293.4 290.8 288 284.1 276.7 272.1 261.3 259.6 253.1 250 251.8 251.3 250.6 246.7 236.6 233.3 231.5 220.6 208.1 200.8 198.1 190 185.5 175.5 166.3 153.4 140.9 126.9 120.2 103.8 85.1 58.2 52.1 49.4 44.7 41.6 40.8 39.3 38.7 36.4 32.7 33.2 36.3 36.4 36.4 36.5
309.9 308.3 307.8 310.1 314.5 314.3 316.1 318.8 320.6 325.7 325.2 329.5 332.6 334.6 337.3 337.4 336.3 336.1 336.8 336.7 335.2 331.6 327.6 322.9 318.3 315.9 311.9 308.3 302.9 298.9 291.4 293.1 296.8 301 304 304.6 303.6 307.8 312.5 316.4 320 321.2 323.4 326.2 328.3 329.7 333.2 335.7 338.3 341.5 345.5 349.7 353.3 356 358.3 361.1 364 368.9 370.1 376.3 392.2 399.1 412.9 428 445.4 467.5 497.4 514 523.7 539.3 554.9 560.3 565.7 576.1 595.1 612.1 616.6 622.4 626.9 634.9 634.5 634.7 632.5 625.4 621.9 616.8 617.8 616.2 609.7 609.6 602.3 587.4 570.8 566 549.1 554.7 552.2 561.1 576.6 585.8 589.3 593.1 568.2 557.5 556.5 552.1 550.3 550.8 527 499.7 503.7 501.3 499.6 473.2 448.1 429.6 411.3 405.9 399.6 391.8 386.1 380.4 376.4 373.1 370.3 365.9 360.4 357.1 353.7 351.6 348.7 343.4 339.1 337.1 331.8 330.2 329.1 324.6 322.5 321.7 322.7 323.7 324 323.4 322 318.4 313.8 309.5 307.2 302.9 297.2 295.3 296.6 295.7 292.9 292.3 291.1 286.6 280.3 272.5 263.6 260 255.1 253.2 254.1 253 248 242.5 239.7 233.2 228.3 218.5 213.2 207.9 200.1 193.3 187.6 173.3 161.8 149.7 134.1 122.4 114.3 100 82.4 59.6 48.4 44.7 43.8 41.2 40.1 38.8 36.1 32.4 32.7 36.5 38.3 37.4 37.1 38.3
315.6 314.2 315.5 317.4 323.6 320.1 321.7 325 325.2 328 331.4 335.1 336 338.4 339.9 338.5 336.7 335.6 336.6 336 333 329 323.8 318.7 315.6 313.5 308.3 305.4 302.4 293.6 296.8 299.7 303.8 307.4 310.2 311.4 312.1 315 318.8 322.9 326.2 328.2 330.3 332.6 335.2 338.4 341.7 344.8 347.7 350.6 353.7 357.3 361.4 362.4 365.5 368.1 372.1 378.5 382.6 384.7 399.2 410.9 424.4 439.8 458.8 482.4 515.4 530.9 542.5 551.4 568 573.4 580.1 602.1 621.4 628.4 629.9 639.5 645.2 648.3 655.2 660.3 662.8 659.3 645.3 641.8 644.8 643 644.4 637 631.3 626 609.3 595.5 586 586.1 587.4 602 609.3 619.2 623.7 626.4 622.5 601.6 592.6 582.6 571.6 565 544 527.6 535.7 529.9 509.5 484.4 456.2 436.8 424.5 407.6 399.9 396 391.9 386.8 380.4 376.5 372.3 367.9 361.9 357.1 353.6 349.4 346.6 341.9 339.1 334.9 332.5 330.9 330.8 325.7 328.6 326.7 324.2 325.8 326.6 324.3 321.6 317.6 316.2 312.3 308.3 303.3 300.1 300.6 301.4 297.2 294.4 292.4 294.4 290.7 284.7 274.3 265 261.4 258.9 262.3 260.5 259.5 255 246.1 242.1 234.2 226.9 221.4 213.8 207.2 200.9 194 187.8 173.1 157 143.7 127.8 115.7 102.3 89.3 68.4 48.2 44.5 43 42 40.5 37.6 34.2 32.4 33.5 36.5 38.6 40.7 38 37.3 45.4
318.9 319.2 320.4 323 329.4 324.5 326.2 328.2 329.2 331.8 336.5 337.9 339.5 340 340.3 339.1 336.6 335.5 334.4 333.2 329.7 326.5 321.3 317.5 314.9 311.5 307.7 297.4 297.9 303 305.1 307.9 310.7 313.2 315.7 317.5 317.4 321 325.9 330.5 333.2 335.2 337.2 339.9 343.3 347.1 350.1 353.3 356.3 359.2 363.4 366.4 368.3 369.7 374.8 379.5 384.4 389.1 397.5 400.6 404.9 421.3 432.4 449 466.7 495 528.8 545.5 558.6 567.2 584.9 592.6 609.3 627.9 638.1 645.6 653.1 660.5 661.5 665.9 677.1 677.7 680.5 683.1 681.1 677.7 674.4 673.1 667.8 660.5 656.2 653.6 642.8 627.8 618 621.1 623 633.3 640.7 644.8 648.7 651.7 650.4 644.5 625.4 613 593.5 576.5 560.2 561.8 556.1 534.9 513.4 490 469.9 452.3 436.7 419.3 407.8 404.1 399.5 393.4 385 380.8 374.7 369 363.8 356.7 351 347.9 343.8 341.4 335.9 336.2 334.5 333 330.1 330.8 330.9 329.5 327.9 327.9 327 324.9 323.4 322.1 319.6 314.3 309.8 305.5 304.1 306.5 307.7 302.1 296.2 292.3 292 290.1 288.7 270.3 264.4 260.7 265 268.9 271.9 266.8 258.2 249.4 244.2 236.2 230.3 223.3 218.8 211.5 199.1 192.3 185.1 166.4 150.3 137.6 123.3 107.7 89.9 70.3 51.7 43.5 41.7 41.2 40.3 38.8 34.2 32.6 34.5 37.5 38.3 39.2 38.7 38.1 38.9 60.9
325.6 326 325.5 328.1 332.1 330.2 328.4 330.1 332.5 334.3 337.9 339.4 339.7 339.6 339.3 337.8 336.1 333 331.2 329.2 325 323.8 319.8 316 311.8 304.1 298.4 304.2 307.3 309.7 312.8 316 318.6 321 323.3 325.6 327.1 328.1 332.5 336.6 340.9 343.2 346.1 349.3 352.4 355.8 358.5 361.5 364.9 368.1 372.3 376.7 377.3 380.9 386.2 392.2 397.4 403.8 411.1 418.1 411.2 427.7 440.7 456.5 473.8 501.8 535 559.4 576.9 582.5 595.6 615.4 634.5 645.2 667 670 681.5 681.3 683.2 680.9 686.8 694.3 701.3 709.8 709.9 708 699.5 699.9 697.3 690 687.1 681.2 679.7 672.6 655.3 654.2 655.6 654.9 659.1 659.8 662.9 661.7 656.9 652.8 640.8 623.3 605 589.4 581.8 577 562 539.3 523.8 503.5 481.5 462.8 447.2 431 419.6 411 404.7 399.7 390.6 383.5 377 370.2 365.2 358.3 350.5 344.2 342.8 340.4 336.4 333.8 335.5 333.1 330.9 329.9 331.2 332 330.9 329.2 327.7 326.7 324.2 324.7 324.4 316 312.1 308.4 307.5 311.5 312.9 306.8 300.4 294.9 288 283.6 277.8 269.3 264.7 263.6 270.9 276.1 276.8 265.4 256.2 251.1 247.7 241.1 234.6 226.9 217.5 204.2 195.8 188.3 174.1 158.3 142.4 121.2 112.8 89.9 74.5 56.3 44.8 40.8 39.8 38.1 35.6 33 34.8 37.5 38.7 38.4 38.6 39.6 38.9 40.3 50.8 75.7
328.1 328 328.1 330.4 333.4 332.9 331.6 332.2 333.7 336.7 339.3 339.7 339.4 339.7 338.6 337.2 333.9 329.9 327.9 325.1 321.3 318.7 314.7 309.4 306.2 301.3 306.7 312.6 315.4 317.7 320.8 324 326.4 328.7 331 333.1 334.8 336.2 340.3 344.4 348.6 352.4 355.4 358.7 362.1 364.9 366.9 369.8 373.2 377 381.4 387.1 392.8 395.9 400.6 406.5 412.5 419.3 425.3 429.6 425.9 429.4 447.9 463.1 480.9 507.5 543.8 569.6 586.8 601.6 614.6 632.5 656.4 675.4 686.5 699 701.9 704.4 707.2 710 715.8 718.4 723.4 737.5 739.2 735.5 728.5 722.8 718.6 714 710.8 702.8 698.7 690 674.1 673.1 671.8 671.4 671.3 670.9 671.2 671.4 663.6 651.9 640.8 624.7 609.9 598.6 589 580.1 561.6 543.9 528.1 506.9 492.4 473.1 451.3 441.6 430.2 420.4 410.5 399.9 393.8 384.6 378.8 371.5 364.8 357.7 351.2 346.8 343.8 340.9 334.9 334 332.3 332.1 330.6 334.8 334.8 332.4 331 329.3 328.9 328.2 327.5 324.4 322.9 316.2 313.5 309.8 309.9 316.1 318.2 309.3 301.8 292.5 284.5 276.5 269.9 267.3 264.5 265.5 274.5 276.5 275.7 266.3 256.8 251.9 250.8 245.4 244 233 214.8 202.5 194.6 182.8 164.9 151.9 132.7 109.5 90.2 75.1 60.7 47 40.3 38.8 36.8 35.1 32.5 35.9 41.4 39.8 39.7 39.9 40.1 39.6 40.2 45.3 66.6 89.1
329.2 329.1 329.3 334.1 333.1 333.6 334.8 336 337.5 340 340.9 341.5 340.1 339.2 338.1 335.6 331.2 326.9 323.4 320.7 316.5 312.1 307.5 304.8 300.5 312.3 316.3 320.6 323.3 325.7 328.9 331.8 334.1 336.4 338.6 340.7 342.4 345.1 348.3 351.2 356.1 361.7 365.4 368.9 372.3 374.6 376.4 379.4 383.3 388.7 395 399.7 407 413.7 419 423.7 431.2 435.3 442 442.8 445.1 441.5 450.8 470.7 486.8 509.9 542.9 572 594 609.7 633.1 650 681.9 707.2 710.1 722.1 724.7 729.7 738.1 740.5 743.2 743.6 750.5 762.2 766.3 757.5 752.8 745.7 738.9 737.2 729.8 723.9 717.5 703.6 694.1 691 688.8 686.6 683.9 680.4 673.9 667.7 658.5 647.9 635.4 621.6 608.7 598.5 589 575.3 560 544.6 525.5 509.7 490.7 471.5 459.4 449.7 439.6 427.1 414.7 399.4 392.5 386.5 377.7 368.8 361.8 357.5 355.8 349.5 346.3 343.4 335.7 333.1 332.5 331.9 331.6 337.4 337.4 335.7 333 331.2 330.4 331.1 332.3 324.8 319.9 315.1 312 309.5 310.8 314.7 317.5 311.2 303.2 291 281 269.5 265.9 264.4 264.7 268.8 274.2 275.6 274.1 267.2 257.2 253.2 251.2 248 247.8 236.1 209.8 198.5 192 172.6 154.6 140.5 121.4 103.9 82.2 63.1 50.8 42.8 39.6 37.2 34.3 32.4 36.1 40.9 40.6 40.6 40.4 40.5 40.5 40.8 43.8 59.2 80.7 102.5
332.1 330.4 330.7 332.4 333.8 336.3 337.7 339.2 339.9 341.4 341.8 341.4 340.6 339 338.6 333.3 327.3 322.8 316.9 313.4 309 309.3 312.9 316.4 321.5 325.1 326.9 328.5 330.6 332.8 336.3 339.4 341.7 344 346.3 348.2 349.4 352.3 356.4 359 365.2 371.2 375.4 379.2 382.5 384.5 387.5 391.6 396.6 407.4 413.3 418.7 425.1 434.8 440.4 443.4 447.1 452 454.2 457.1 458.9 458.6 456.3 476.3 494.3 512.4 540.7 574 598.1 622.3 645.6 667.3 694.1 718.3 732.2 746.8 756.5 758.6 764.3 770.2 773.5 776.8 779.5 783.3 787.7 779.4 772.2 767.3 764.6 753.9 744.6 738.4 725.8 711.2 703.9 697 692 690.5 688.9 681.8 670.2 659.8 650.2 639.2 629.2 617.9 604 592 582.4 568.5 555.1 540.7 524.3 507.8 490.7 475.3 461.7 451.7 442.6 431.1 416.9 399.3 393.1 382.4 374.7 368.5 362.5 359.4 357 351.4 346.6 341.6 337.5 331.9 330.9 329.6 329.6 334 339.7 337.4 334.6 333.9 333.2 333.3 334.9 325.9 317.8 314.5 311.1 309.5 309 313.8 314.3 308.5 298.5 285.3 274.6 268.9 267.4 268.9 269 273.1 272.5 273.4 272.4 267.6 257.3 253.7 253.1 253.8 249.9 230.3 208.4 191.8 179.4 162.9 148.6 126.8 103.3 91.6 66.9 50.8 42.8 39.5 37.1 33.1 32.8 36.1 39.7 41.3 40.3 41.6 42.2 42.2 41.5 43.8 52.9 72.9 94.3 114.4
334.9 332.6 333.7 334 337.6 338.6 340.9 342.3 341.4 342.5 342.5 340.2 338.5 335.7 333.6 328.1 322.3 315.3 311.1 313.1 312.4 316.5 321.2 325.8 329.2 332.5 334.6 335.8 337.7 339.8 343.7 346.8 349.3 351.8 355.4 357 358.7 362 365.5 366.8 374.3 381 385.8 390.2 393.6 397.1 402.1 406.9 413.3 421.5 433 440.7 446.1 456.5 464.5 467.1 470.1 471 473.3 471.8 471.7 472.8 466.5 482 499.1 512.9 538.9 577.1 609.4 640 664 679.1 691.6 718.9 744.8 765.3 777.8 787.4 799 798.8 798.9 799.5 804 803.5 802.1 794.2 787.8 790.2 786 774.1 758.3 743.9 729.2 722.1 714.5 706.8 698 689.9 683.3 675.4 664.5 654.6 643.8 632.9 624.8 612.8 594.6 582.5 571.4 558.8 546.4 537.4 519.8 501.7 488.1 474.3 460.6 452.7 443.6 429.9 414.5 400.6 389.5 380 372.6 369.6 365.2 362.1 356.3 352 348.9 344.4 340.2 337.5 330.5 329.6 329.6 329.7 335.9 339.8 336.7 335.5 335.3 336.2 333 324.5 320.1 316.8 311.9 306.3 306.7 309.9 310.9 302.3 289.9 279.7 271.2 267.9 268.3 271.6 273.3 272.5 271.6 270.7 273.4 271.5 259.6 252.8 252.1 248.7 239.9 223.1 200.6 183.8 170 152.1 132.8 116.3 99 76.9 56.3 43.9 39.3 37.4 33.7 33.9 36.5 39.2 40.8 40.9 41.9 42.8 43.5 43.4 44.6 49.6 65.8 85.3 105.1 123.9
337.6 335.4 336.2 336.8 338.3 339.3 340.2 341.2 339.7 340.7 340.4 338.9 334.8 331.1 326.6 319.1 314.8 319.1 323.9 317.8 319.5 324.6 328 332.4 336.4 339.3 342.1 343.2 345 346.9 351.2 354.1 357.2 360.8 364.1 366.9 369.1 372.6 375.6 378.7 384.7 390.7 395.8 401.8 404.7 408.5 416.7 426.5 435.1 441.7 455.1 465.4 472 482.7 490.1 493.2 494.2 494.4 494 490.2 487.5 486.4 481 488.6 502.5 517.5 540.7 577.1 611.7 640.6 669.3 681.6 703.8 725.8 757.5 779.1 797.6 811.1 816.1 822.9 822.6 824.7 823.8 823.6 817.9 811.8 809.2 806.4 799 781.8 765.8 747.8 735.4 729.7 722.5 718 710.6 694.3 678.7 669.7 659.9 650.6 640.5 630.7 617.7 602.1 582.7 569.8 560.4 548.3 538.2 526.8 511.5 496.1 485.9 470.7 461.2 449.9 435.3 423.8 408.8 400 390 380.7 374.7 370.9 368.1 363.6 358.7 353.6 349.6 346.2 343.4 340.3 337.9 330.5 330.6 331.3 333.6 338.1 337.1 336.1 337.1 335.8 330.3 324.9 323.6 320 312.7 306.1 301.6 299.8 299.8 289.4 282.9 273.8 269.1 267.3 269 273.6 273.3 272.9 271.2 266.5 265.8 261.9 254.4 249.6 245.8 240.4 231.3 212.1 191.8 171.1 155.1 138.2 117.6 98.6 76.3 59.9 48.2 41.6 37.9 32.4 34 35.8 37.6 38.9 40.1 42.1 43 43.9 43.1 44.9 47.6 60.9 79.9 96.8 116.7 130.1
343 340.2 338.6 338.4 342.7 340.6 340.5 339.6 338.5 338.4 335.5 332.2 329.8 326.6 317.1 320.8 323 325 323.8 322.7 327.9 331.2 333.4 337.4 342.1 346.1 348.3 349.3 351.6 355.1 359 362.5 366.1 369.6 372.7 375.5 378.4 382.2 385.8 389.8 393.9 399.4 408.6 416.9 422.8 426.5 435.3 447.5 454.9 465.5 479.4 488.9 497.6 507.5 520.6 523.3 519.6 520.6 519 507.2 502.4 500.2 498.2 492.8 506.3 522.3 544.6 575.9 609.8 644.5 667.1 690.7 712.6 734.8 762.3 784.9 805.5 826.8 839.2 849.8 850.1 847 845.3 841.5 837.6 833.1 830.1 823.9 806.2 792.9 773.8 753.9 740 729.7 722.2 716.5 706.7 689.7 672 660.9 653 646.8 642.2 626.8 602.2 582.6 569.3 557.1 547.4 534.5 526.3 517.5 506 490.4 479 465.6 455.3 445.1 432.2 419.8 406.3 399.6 389.4 381.9 377.1 373 370.3 366.7 360.2 354.8 351.3 347.9 345.1 343.3 347.2 338.1 332.8 332.8 332.9 334 334.9 336 336.7 335.6 330 330.8 331.5 324.4 313.7 305.4 296.1 291.2 288.3 282.8 275.5 270.3 268.2 268.4 269.8 274 273.9 271.4 270 265.4 258.6 256.5 250.3 244.4 240.2 232.9 219.1 199.3 181.7 159.3 138 121.8 98.8 78.9 59.9 47.4 42 37.3 32.4 33.2 36.2 38.2 40.7 42.4 42.7 42.4 44.2 45.6 45.7 46.3 51.4 73.7 90.6 107.6 121.7 135.4
345.4 344.3 343.4 339.5 340.9 341.6 340.7 338.5 336.2 333.5 330.8 327.3 324.9 319.2 323.4 326.7 327.1 328.4 326.5 329.7 335 337.5 339.3 342.7 347.2 351.2 354 355.2 358.2 363.2 367.7 371.4 375.2 378.7 382.1 385.4 388.3 391.3 397.3 401.7 401.8 410 418 430 439.8 446.9 457.6 465.7 477.8 489.9 501.6 514.5 526.6 536 543 549.8 542.6 532.3 527.8 520.8 516.7 513.6 509.9 502.8 511.2 528.1 545.8 573.2 608.6 643.5 673.8 696.9 722.1 745.5 766.6 791.2 818.9 841 856.9 871.7 876.7 874.1 867 860.1 854.1 850.4 840.3 823.5 806.8 793.3 770.9 749.2 730.7 720.3 716 706.2 692.2 676.9 666.2 656.3 649.5 643.6 631.7 614 586.4 567.9 553.1 540.7 534.2 526.3 514.7 507.4 498.6 486.1 469.9 461.4 449.5 438.8 427.1 415.3 406.2 398.7 390.6 384.3 379.3 376.7 372.7 366.2 363 357.9 352.8 348.9 345.5 346.2 347.7 343.8 338.5 335.4 331.2 331 333 334.9 335.1 333.9 331.8 338.4 330.9 321.8 306.4 300.2 291.8 287.8 284.3 277.6 272.4 270.3 273.1 272.1 272.7 273.7 272.4 270.7 267 261.3 254.3 251.1 247 242.5 240.5 226.1 205.4 189.3 168.1 142.2 122.3 103.5 80.9 63 49.2 42.4 37.9 33.7 34.9 36.8 38.2 41.3 44.9 46.7 44.8 46.7 46.4 48 48.3 47.2 61 83.4 99.8 115.6 125.5 137.3
349.2 348.3 347.5 342.1 340.7 340.8 341.1 337.2 332.6 328.3 325 321.4 323 323.8 326.7 330.3 331.2 331.5 330 336.1 341 343.4 345.5 348.8 352.6 356.3 359.3 363.3 368 373.1 377.3 380.5 384.6 387.1 392.3 395.3 398.4 401.9 410.3 415.8 416.3 422.8 432.9 448.3 462.5 472.7 484 493.9 504.8 514.5 524.4 535.4 547.7 557.3 564.4 570.1 568.2 552.4 539.6 537 531.2 524.8 520.5 511.8 520.1 531.7 546.4 572.2 606.3 641.8 672.2 701.4 727 751.1 773.1 794.3 823.5 854.1 874.6 882 890.7 895.3 880.3 870.4 858.7 848 833 812.6 794.8 780.1 763.3 739.1 720.5 710.2 705.9 696.9 681.1 669.5 662.3 654.8 648.5 638.3 621.7 597.9 572.5 550.6 536.3 525.3 518.5 512.1 500.8 493.2 485.2 476.5 464 453 444.6 433 422 410.2 405.3 400.4 390.9 385.1 381.4 380 372.8 368.1 364.1 359 355.9 353.3 347.7 347.3 347.3 345.3 342.7 336.7 330.8 328.5 328.5 334 333.7 332.7 332 331.4 323.2 313.2 302.6 293.5 289.4 286.8 282.5 278 275.1 276.9 279.7 281.4 276.9 275.2 273.8 272.3 268.7 261.5 247.4 245.5 237.5 230.1 226.6 209.3 192.9 170.6 147.3 128.9 106.1 87.4 66.6 51.8 43.2 36.9 32.9 34.8 38.5 38.7 38.8 41.3 47.1 46.5 46 47.6 48.4 49.7 53.6 60.6 77.7 92.7 107.9 121.6 134.7 145.6
357.2 353.6 349.2 343.9 340.9 339.6 336.8 334.5 330.3 326.7 329 325.3 328.3 330.2 332.6 336 335.3 336.9 339.5 343.4 348.9 350.5 352.6 356.5 359.1 363.5 369 374.4 379.2 383.8 387.3 388.9 396.7 400.4 404.4 406.8 411.7 415.9 423.1 427.9 430.4 437.3 446.7 462.7 477.4 493 506.7 514.8 526.6 535.5 545.3 553.6 564.3 572.9 580.7 587.3 589.1 581.4 560.2 551.1 541.5 532.9 529.7 525.6 527.7 537.2 549.6 573.7 604.4 638.9 670.2 701.5 731.2 755.1 777.4 802 826.6 851 872.8 887.2 896.6 889.2 875.6 860.9 847.7 832 815 796.3 778.1 764.7 751 725.6 709.9 701.1 693.5 684.3 674.6 664.2 658 653.4 643.1 625.9 606.5 592.3 570.1 545.8 531.2 513.4 503.2 495.6 485.4 480.2 474.1 467.2 457.5 450.1 438.9 427.2 416.5 409.2 403.3 398.1 389.5 385.3 383.3 379.9 374.7 369.7 366.8 361.9 359 355.4 352.1 350.1 349.1 345.2 342.7 341.7 331.4 326.2 324.9 332.7 331.4 330.7 330.5 323.3 316.1 310.8 302.1 291.1 287.4 285.7 286.4 283.5 285.1 284.4 287.6 287.4 282.2 278.7 275 274.2 267.6 256 240.6 233.9 221.2 213.8 202.6 189.2 172.2 152.6 132.7 106.5 86.7 66.1 48.5 43 37.6 32.9 35.6 39.1 40.4 40 39.9 40.3 45 46 46.7 48.5 51.8 52.6 59.5 76.7 91 105.6 120.2 133.3 152.5 169.2
358.2 353.9 348.4 345.6 340.6 335.1 332 329.1 330.6 336.7 336.7 332.3 332.8 335.6 339.1 342.1 339.8 343.3 346.9 349.5 355.8 357 361.4 364 369.3 374.4 379.8 384.8 390 394.8 398.1 403.5 409.9 417.1 421 423.1 425.4 431.4 434.2 440.8 445.4 448.1 462.8 476.2 491.5 505 521.5 535.5 545.3 553.8 563.5 573.8 584.4 592.7 597.3 604.5 604.2 596.4 580.7 563.7 551.1 540.8 536.6 532.3 532.6 541.3 553.8 574.2 602.3 637.6 670.8 702.1 730.7 756.2 779.4 803.4 825.3 843.7 862.6 867.6 867.2 857.9 847.6 834.9 820.2 804.3 788.3 771.1 756.3 743.4 729.7 707.8 695.7 690 680.1 671.3 661.9 655.3 651.6 642 627.1 610.7 592.3 577.8 552.7 538.9 526.6 510.1 497.7 484.4 476.1 469.7 465.4 460.1 451.4 444.3 434.6 422.7 412.9 405.7 400.8 394.2 388.9 386 383.6 380 375 369.3 366.6 364.6 363.9 362.2 353.2 349.4 345.8 343.7 343 339.8 332 324.8 320.6 325.3 325.4 325.2 323.8 321.6 311.5 305.5 299.8 289.9 288.1 291 289.6 290.2 294.2 288.5 286.9 287.7 283.3 277.4 275.1 273.9 261.2 244.1 229.6 218.1 202.6 195.3 184.8 168.2 152.2 133.7 116 91.2 65.8 51.5 42.1 36.7 32.6 36.7 40.9 39.6 41.2 40.9 41.3 41.2 43 45.8 47.4 49.4 52.4 57.2 74 90.1 104.5 120.8 133.9 149.2 171.6 186.8
357.4 353 348.3 343.8 338.3 343.2 340 337.9 339.6 340.2 339.6 336.6 335.9 339.6 342.9 343.4 344.7 347.3 353 355.6 361 364.6 367.6 373.9 379.3 384.9 391 395.8 400.9 407 412.8 420.7 426.1 431.8 437.7 443.7 442.9 445.5 453.2 459.5 459.7 455 475 491.9 508.6 521.7 535.4 548.7 560.3 568.8 579 589.2 600.2 607.2 615 617 613.1 599.6 583.5 571.6 555.5 546.3 538.1 534.2 535.4 542.9 555.9 573.7 603 636.6 668.9 701 729.1 753.9 778.1 799.9 820.4 835.5 837.5 834 828.1 823.2 816 801.7 785.4 770.1 754.9 742.1 729.6 715.4 702.3 689.1 678.7 670.5 661.9 654.8 647.6 642.5 633.8 621.5 607.2 586.2 572.4 560.9 538.8 530.9 519.4 505.9 494.3 480 468.7 461.5 457 453.2 447.9 442.2 429.5 419.6 410.6 403.9 397.5 393.3 389.4 385.8 383 380.7 377.5 371 366.5 367.7 365.9 360.9 354.2 350.5 346.7 343.1 340.6 336.3 329 323.5 317.2 318.3 318.1 316.4 316 313.2 303.4 297.2 294.2 291.3 288.4 289.3 290.1 299 296.9 289.7 287.9 286.5 284.8 280.6 273.8 270.8 254.9 235.7 217.8 205.4 189.9 168.8 164.8 147 132.6 116 95.8 71.6 54 42.3 39.8 32.4 34.1 41.1 43.1 39.6 40.1 41.3 42.2 42.1 43.3 45.6 48.8 51.3 55.1 69 87.2 102.9 117.5 133 148.5 162.8 177.6 190.1
358.2 352 350.1 340.9 346 348.8 345.8 345.1 343.4 342.1 341.6 340.7 340.5 342.9 345.5 347.1 350.1 352.7 358.9 363.6 367.3 371.4 377 383.9 390.2 396.4 402.6 407.3 414.5 423.2 431.3 439.5 446.2 452.3 457 463.7 462 460.4 468.4 472.5 481 482.8 487.7 503 517.4 533.1 547.1 558.2 572.7 584.7 594.6 604.5 613.7 620.2 632.2 634.4 616.8 602.2 593.2 573.1 558.5 549.2 541.3 535.1 538.7 543.6 555.3 573.4 601.2 632.8 664.7 695.3 722.5 749.2 773.5 793.3 801.6 801.3 805.1 798.5 793.3 791.8 783.3 769.6 755 740.7 723.9 710.2 700.1 687.4 675.9 665 656 648.2 643 636.9 631.9 627 616 600.8 584.3 567.2 550.5 534.2 525.2 516.8 507.3 495.4 487.3 474.8 465.3 459.9 453 448.1 442.9 438.2 423.1 415.6 408.3 403.1 396.3 392.3 389.8 386.8 384 379.4 377.4 374 366 362.7 362.7 356.3 353.3 349.9 343.8 342.2 336.4 332.2 326.7 318.9 315.2 314.8 314.3 313.2 311.9 308.3 302.6 303.3 300.1 297.3 295.6 290.6 290.1 295.8 293.9 291.7 287.5 285.8 282.5 278.4 274.3 265.8 247.5 223.4 207.9 192.7 176 157 143.9 131.4 108.6 94.1 71.7 50.9 38.6 37.2 36 32.4 35.7 39.2 41.4 40 40.8 43.4 42.3 43.2 44.7 47.1 49.9 53.7 63.2 82.3 98.7 114.4 129.2 145.3 162.5 173.3 186.8 197.4
356.1 355.8 351 347.4 350.5 352.9 350.6 348.2 347.8 346.1 346.2 345.4 345.3 347.4 349.3 351.6 355.3 360.5 367.1 372.6 376.1 381.4 387.6 394.5 401.6 407.6 414.6 421.7 433.1 445.7 456.1 465.8 469.2 473.1 477.2 476.9 480 480.3 488.8 495.5 500.5 503.4 504.8 517.1 527.9 541.6 556.5 571.9 586.5 599.5 612 620.6 628.1 636.6 644.9 641.7 634.9 614.4 595.9 574.8 558.4 549.7 541.4 537.7 539.3 545.2 554.8 572.3 597.5 627.5 657.5 686 710.8 733.8 749.3 761.1 767.3 765.6 763.5 759 756 751.6 743.4 735 723.3 709.6 692.6 679.1 670.1 659.3 650.6 640.3 631.4 625.2 621.5 617 610.4 602 590 578.3 564.3 542.3 528.5 521.7 512.3 505.6 498.5 487.9 475.8 466.3 459.1 455.7 448 443 437.9 430.9 423.2 414.4 407 398.7 393.4 391.3 387.6 385 382.5 378.1 374.8 369.6 362.7 359.7 355.9 353.6 348.7 346.7 337.2 335.2 330.3 326.7 319.9 316.4 314.3 312.3 313 314.9 317.4 314.4 315.1 313.6 306.8 301.3 299.9 293 287.4 293.2 297.8 295.4 289.8 279.9 278 269.7 267.9 257.5 234.7 216.9 199.2 182.6 164.4 146.3 129.1 105.5 91.7 71.6 54 42.8 36.9 36.3 36.5 32.4 37.7 39.6 41.7 40.8 41.4 45.1 44 44.5 45.4 47.2 49.5 57.8 75.9 93.2 109.9 126.1 140.3 154.5 169.4 182.5 194.4 205.2
360 361 348.1 353.5 352.4 352.6 353.8 350.6 349.5 346.9 348.1 348.5 350.9 351.8 355.5 359.7 362.9 368.5 375 381.3 386.4 392.5 398.4 405.1 413.2 419.6 429.1 440.3 452.6 465 479.4 486.1 489 493.6 497 497 497.6 505.6 508.4 512 518.1 519.7 521.7 529.8 539.8 551.1 567.3 583 597.9 612.3 625.5 635.1 643.3 653.1 661.5 663 647.6 624 600.1 574.3 558.6 548.4 542.9 538.3 537.4 545 555.1 570.6 591.6 616.3 643.5 664.2 688.3 706.6 719.9 724.8 727.9 727.6 729 722.2 718.3 715.6 709 700.5 686.4 672.6 659.9 650.3 643.2 632.7 622.8 614.7 606.4 601.6 597.9 592.2 583.8 574.3 562.5 551.2 536.3 522.3 515.2 507.6 499.4 492 484.9 475 464.2 456.6 453.5 446.6 443 436.8 431.3 424.2 420.6 412.6 404.3 397.3 391.5 389 385.6 382.2 379.6 376.9 373.4 365.5 360.9 356.3 352.2 348.5 345.5 336.9 332 328.7 323.9 320.3 317.6 315 312.9 311.6 312.6 317.9 324.3 321.7 319.9 317.3 303.4 298.4 294 290.2 286 293.3 298.4 290.9 283.4 275.3 271 267.3 261 246.4 218.9 204.2 185 170.3 153.5 135.6 117.2 96.7 74.3 59.9 47 40.3 36.7 36.2 34.6 34.9 38.1 39.1 39.8 40.7 43.7 43.8 45.3 45.8 47.9 48.8 54.9 72 86.4 103.1 120.4 135.2 148.4 162.3 176.6 188.7 198.3 214.2
363.5 364.3 356.8 352.3 355.8 354.1 352.9 353.2 352.4 351.7 349.7 352 355 357 364.5 367.3 370.7 375.8 381.7 387.7 395.3 402.6 409.6 419 428.4 438.7 452 466 479.1 492.5 502 508.1 512.5 517.1 516.8 516.4 520.4 523.2 525.2 528.1 530.9 534.9 534.6 542.3 550.1 560.8 579.4 594.2 608.2 621.2 633.3 644.5 655.1 664.6 671.2 669.9 656.4 622.3 595.7 574.1 559.5 548.6 540.8 537.7 541.1 547.5 555.7 565.5 580.7 600.9 621.2 641.4 657.8 675.9 688.2 689.6 691.3 689.6 689.6 686.2 681.3 683.2 676.3 659.9 648.8 641.8 631.6 623.3 618.5 609.3 600 590.7 585.1 581 575.4 567.6 561.9 555.9 544.5 531.9 515.7 508.5 500.2 494.8 489.5 477.4 469.8 462.8 456.8 450.2 444.7 440 433.5 431.5 428.3 420.8 416.6 411.8 404.3 396.7 390.4 388.5 383.6 380.5 376.7 371.5 366.7 363 356.4 352.7 347.5 343.2 336.7 335.1 331.1 327.1 326.1 324.9 320.6 314.2 308.8 305.4 311.7 320 327.1 318.3 310.6 305.6 299.5 301 301.7 291.9 285.7 291.6 292.8 280.7 280.8 269.9 265.4 260.9 249.6 230.4 207.5 192.8 174.4 162.1 140.9 125.6 102.3 79.6 58.2 50.6 42.8 37.9 35.9 36.6 32.4 36.9 43.5 44.5 43.5 41.3 41.9 44.4 45.9 47.2 50.5 54.3 68.7 85.9 94.6 113.2 128.2 144.7 156.4 170.5 181.5 192.6 209.5 223
364.3 366.6 358.2 353.7 358.7 357.5 355.3 353 354.4 354.8 353.6 354.7 358.6 361.2 368 372.3 376.1 381 387.7 394.7 403.8 411.6 423.1 433.3 445.4 456.1 472.8 491.4 505.8 524.9 528.3 532.6 534.6 536.2 537.1 539.6 540.7 538.8 540.8 540.3 547.2 548.8 549.8 555.4 562.6 572.7 588.9 603.5 617.5 631.3 641.6 654.1 664.7 671.8 669.4 658.4 642.1 617.7 596.4 576.8 560 550 543.7 539.9 543.2 548.3 553.9 561.7 569.6 583.8 597.2 611.6 626.7 640.4 647.7 652.1 653.6 655.4 653.2 651.5 647.9 646.9 637.6 624.1 616.2 608.7 600.5 592.8 586.8 580.1 574.3 569.6 564.7 559.7 555.9 545.6 541.2 534.3 525.1 513.4 508.2 495.8 491.6 479.5 475.3 469.4 461.6 456.6 451.9 443.9 437.7 433.9 429.9 425.8 422.7 419.1 416 410.3 402.4 396.6 388.2 385.6 381.8 380.2 371.2 364.8 359.5 353.7 350.2 344.6 340.7 338.5 335.7 330.5 329.2 325.6 328 328.4 321.8 313.6 304.7 297.2 306.1 316.7 318.7 313.3 310.4 307.2 301.3 300.3 299.4 290.3 282.6 285.5 286.6 277.2 273 265.6 259.5 252.9 235 214.1 196 180.4 162.3 152.2 137.7 114.6 88.1 62 45.6 41.4 40.2 36.7 35.3 35.5 33.5 37.1 38.5 43.6 40.4 40.6 42.4 44 45.3 46.8 50.1 56.3 71.5 92 104.5 120.4 137 152.4 165.4 175 187 203.1 218.9 231.7
368.5 361.3 357.4 354.7 356 358.7 356.2 356.7 356 355.6 355.7 357.6 361.7 364 370.3 378.1 382.5 387.7 394.8 403.5 413.7 423.8 438.7 449.6 460.7 478.2 497.1 516.2 532.6 542.5 549.4 553.1 555.9 557.5 557.7 561.6 557.9 556.7 560 561.3 562 561.9 561.2 567.7 573.9 583.5 597.3 612.8 627.5 639.7 652.5 663.1 673 682.5 687.1 674.1 641.1 627.6 604.7 576.9 557.5 546.9 543 542.1 543.7 546.5 552.1 556.2 560 566.6 576.2 586 597.8 607.7 613.2 617 618.3 619.7 618.7 617.3 615.6 611.3 602.7 592 585.5 577.4 570.2 564.5 559.9 557.3 555 550.1 546.8 540.9 533.7 529 520.6 514.9 505.2 499.5 493.8 488.3 479.2 470.8 467.4 460.4 455.3 450.6 445.7 439.2 431.6 431.2 426.7 421.1 414 410.9 409.1 405.8 400.8 394.3 388.2 382.4 374.2 372.9 356.3 350.8 346.5 342 339.3 336.6 338.1 335.9 333.3 328.8 326.3 320.4 324.2 326.1 313.1 299.3 286.2 272.6 287.3 303.9 306.1 312.9 323.6 313.6 302.1 294.2 289.2 285.8 282.6 284.6 288.1 283.9 269.9 260.3 244.4 231.2 215.9 202.1 179.8 160 151.2 134.4 125 100.7 75 52.2 42.5 38.8 39.9 36.1 36.8 32.6 35.1 36.8 37.8 38.8 39.2 41.2 42.6 42.9 44.1 45.8 54.8 66.3 75.1 96.7 113.3 130 146.1 160.1 171 179.6 196 212.3 228.2 242.5
370.9 364 357.2 357.9 358 357 357.3 356.1 356.7 357.8 358.5 361.7 366.1 369.3 375.6 387.3 389.3 396.9 405.4 415.9 425.3 439.9 449.2 463.2 478.2 492.8 513 532.6 547.7 557.3 563.3 570.1 574.1 577.2 578.7 578.6 576.9 575.3 578.7 577.5 575.6 576.1 572.1 579.9 584.4 594.1 607.6 623.2 636.8 650.2 660.9 672.1 682.7 695.5 702.7 681.7 645.8 635.4 614.1 590.1 569.3 545.3 543.1 541.8 543.2 546.6 547.9 551.2 551.3 552.6 559.9 567.5 574.3 580.4 585.3 588.2 588.6 588.7 588.8 584.8 583 578.3 571 565.2 558.6 551.6 544.4 541.5 542.5 538.2 535.6 532.5 528.5 524.8 517.9 512.4 507.7 499.9 487.9 488.3 484.2 480.3 471.3 463.3 461.2 456.4 450.4 445.2 440.3 435.9 428.3 423.2 420.5 415.5 408.7 400.3 400.3 397.2 393.7 385.7 381.9 378.2 363.5 352.6 346.5 337.5 330.1 325.2 326.1 331.3 331 329.5 331.7 324.8 310.7 304.2 308.5 306 298.3 273.2 258 252.4 267.7 284.1 293.7 311.9 324.2 311.8 298.7 289.5 283.5 283.1 283.1 289.1 289.3 278.1 267.8 251.9 231.6 216.8 200.8 184.2 168.1 161.8 147.4 128 106.3 83.9 58.1 43 36.8 34.9 35.7 32.8 36.3 32.4 35.5 36.4 37.3 38.1 40.9 43.2 42.4 42.4 42.1 51 65.5 76.5 83.7 98.1 122.2 137.2 153 167 177.8 189.7 206.5 221.8 237 251.2
372.3 366.5 359.7 359.2 364.7 363.3 361.7 358.9 356.6 357.6 362.5 371.3 374.9 377.8 382.9 393.2 397.9 406 419.3 428.4 440.7 451.7 463.3 480.7 495.2 509.3 526.2 547.3 559.5 569.6 579.4 586.1 589.1 594.4 596.8 594.2 592.9 592.1 591.7 591 591.1 590.5 588.9 591.1 597 606.2 619.5 635.1 646.8 660 673.4 682.7 696 706.6 716.5 699.6 654 640.9 630.4 614.8 581.4 553.3 546.6 544.5 545.8 546.7 545.9 545.6 544.6 544.2 548 551.4 554.6 557.5 560.7 562.9 563.1 562.4 562.8 557.4 555.8 551.7 546.2 542.2 537.3 533.4 526.7 522.8 522.5 522.1 524.3 518.2 510.5 510.8 503.4 497 492.9 486.1 480.2 479.4 476.2 469.6 464.7 459.7 454.6 449.4 446.6 442 437.7 430.6 424.9 419.4 416.7 412.2 404.1 400.1 394.9 388.4 379.8 372.5 362.6 356.7 348.2 337.8 332.3 324.2 311.6 313.9 314.5 312.8 313.3 316 316.8 309.7 295.4 279.3 271.4 267.8 258 237 223 222.9 248 263.9 280.7 296.6 299 301.2 297.2 292.8 290.1 284 289.6 290.1 282.7 274.6 258.7 237.9 221.4 205.3 190.6 175.7 165.6 152.4 132.3 112.9 94.3 68.1 48.1 39.4 34.8 32.5 31.8 32.2 33.1 35.9 35.5 36.3 37 37.5 42.7 42.3 41.2 41.3 47.1 61.8 80.4 89.3 94.4 97.1 125.6 143.9 159.6 174.6 183.7 197.1 213.7 229 245.2 260.2
365.2 361.7 361.6 364.6 364.6 364.1 361.6 358.4 357.6 359.1 367.1 377.1 381.2 385 390.2 397.8 406.2 418.9 430.1 439 452.9 466.4 482.2 496.7 512 526.4 543.3 559.5 570.8 580.8 590.5 595 602.4 607.9 609.8 607.6 605.2 603.4 602 603.1 603.1 602 601.7 602.8 609.1 617.1 628.7 643.6 656.4 672.5 683.8 697 709.2 719.4 727.7 703.9 676.8 649.9 643.7 641.5 601.7 569.3 554.1 548.7 550.7 550.7 547 543.5 538.7 536.6 537.6 539.3 541.1 544.6 545.9 545 543.8 542 543 537.8 533 529.3 525.6 522.2 519 515.1 513.1 509.3 510.1 510.1 507.7 506.2 500.8 497.6 489.3 484.9 480.3 478 474 471.4 466.4 461.2 456.7 452.1 447.9 444.7 442.4 437.1 431.3 426.1 422.3 418 412.5 406.3 397.8 392.3 382.1 372.9 361 352.4 343.6 335.8 331.3 321.3 315.7 306.5 299.7 296.5 294.6 292.8 288.5 285.9 284.3 278.9 262.2 243.9 228.3 235.4 237.7 235 226.4 211.2 224.6 246.8 264.3 284.9 289.5 301.5 296.7 291.3 291.5 285.2 282.6 283 276 264.6 242.1 225.1 210.1 194.7 182.2 167.6 150.3 134.7 115 95.2 73.6 54.2 43.6 36.4 34 32.2 32.1 33.4 32.8 35.7 34.9 36.2 36.8 36.9 38.1 41.7 40.9 43.2 56.5 78.1 92.7 102.9 106.8 110.5 111.9 147.4 165.8 174.7 188.3 202.7 221.2 238 256.6 269
362.2 362.1 360.4 360.2 365.1 366.8 365.6 362.7 361 364.1 371.7 378.9 383.9 389.2 397.1 406.3 416.6 429.9 440.3 453.8 470.6 486 498.3 514.1 529 544.4 557.9 570.6 582.1 594.9 600 611.6 620.7 621.9 619.6 619 617 614.5 613.5 614.2 615.2 612.1 612.4 612.2 619.4 626.7 638.9 654.3 668.8 683.9 695.6 708.8 718.6 729.7 737.1 726.3 705.5 683.9 657 647.3 632.8 597.2 578.3 569.3 561.3 558 552.3 543.5 538.4 533.6 531.6 531.2 532.2 534.5 535.6 536 532.5 530 527.4 523.8 519.9 517.5 513 509.4 507.4 504.7 502.3 499.5 498.1 499 496.2 493.2 489.3 484 474.8 470.3 469.7 466.4 465.7 461 459.4 453.5 449.8 445.9 441.3 438.5 434.8 431 426.5 424.5 420.8 415.8 409.3 401.2 382.2 374.3 365.4 352.6 345.2 337.2 328.9 323.1 313.3 304.9 297.9 297.6 295 290.3 285.5 272.1 272.3 272.4 268.1 267.7 267.7 273.2 276.9 275 281.7 275.5 236.9 203.6 190.3 221 247.4 270 279.5 291.1 292.2 288.2 289.2 281.3 273.3 270.2 258.1 247.9 227.1 211.1 197.7 182.9 170.6 153.5 136.7 119.6 100 80.7 60.2 50.2 40.1 34.4 33.5 33.2 31.5 34.7 33.3 34 34.1 36.5 40.2 40.3 38.1 38.1 39.2 52.7 70.3 88.8 104.4 115.8 122.8 126.9 128.7 127.6 152.1 174.3 189.7 207.4 227.5 243.1 259.6 270.5
363.3 363.4 360.3 359.8 363.7 366.6 366.1 365.4 364.2 366.4 377.5 383.7 389 395.9 405.6 416 426.9 441.6 453.8 469.5 485.7 502.1 516 531.9 548.1 561.4 573.9 585.7 598.3 608.1 616.4 624.3 630.6 633.3 633.3 632 629.4 625.6 624.5 624.1 625.6 624.2 622.6 620.6 627 635.8 650.9 665.4 679 692 706.8 719.6 731.1 744.1 751.1 753.8 729.6 717.3 692.2 662.4 652.9 633.3 600.4 592.1 585.7 572.9 564.1 548.8 541.5 535.1 529.9 528.7 527.8 529.2 528.5 527.8 524.6 521.9 519.6 517.5 512.7 510.9 510 506.2 504.5 505 501 499 494.6 487.7 484.7 481.5 477.6 474.8 469.9 467.2 464.4 460 456.4 453.9 449.4 447.2 442 439 434.7 430.1 424.7 422.5 420.7 416.3 413 408.9 405.4 384.2 368.7 352.8 342.3 333 333.9 321.9 308 309 312.3 316.6 316.3 322.7 318.5 315 314.2 310.1 307.7 301.2 301.5 304.6 299.9 301.7 295.4 292.8 301.8 279.1 239.2 200.4 153.8 193.3 220.7 242.1 263.3 283.3 287.6 283.5 276.4 267.4 265.9 254.4 238.3 225.1 211.7 199.2 184.3 170.4 155.3 138 121.4 104.7 86.7 66.9 53.3 44.8 38.6 33.4 30.9 31 31.4 32.5 34.6 33.3 33.4 36 36.4 36.7 36.7 36 46.5 61.1 82.8 100.8 115.4 127.8 136.3 142.7 143.3 146.9 141.7 167.8 188.9 211.7 229.7 248.9 263.8 277.3
362.7 362.9 361 362.8 361.4 363.5 365.8 365.8 369.2 371.8 379.5 389.4 395.7 404.6 415 425.1 438.5 453.3 467.5 484.8 501.5 522 538 550.8 564.4 576.9 587.9 601.5 613.1 619.8 627.5 635.2 640 643.5 645.9 645.4 641.7 636.8 635.2 636.3 637.1 636.1 634.6 633.2 637 647.1 664.3 675.4 688.7 702.9 719.2 733.8 745.6 759.7 766.6 773.8 757.1 736.3 718.9 693.1 662.4 650.5 615.5 609.2 607.4 589.5 570.7 561.3 551.1 538.1 531.7 529.3 526.1 527.3 527 524 523.8 520.2 515.1 514.8 512.4 510.4 509.1 508.1 508.8 509.1 506.7 503.9 499.2 494.4 490.1 485.8 478.2 473.3 464 456.2 457.5 451.1 448.2 445 442 439.1 434.7 430.2 428.4 423.7 418.8 419.6 411 406.6 398.7 386.2 371.9 362.2 351.4 340.1 324.2 318.7 320.2 325.7 326.9 326 330.3 337.3 343.2 346.4 345.5 337.6 335.7 330.4 326.5 323.7 321.1 319.9 317.6 311.8 299.8 295.3 294.4 275.4 232.1 195.7 143.6 169.8 195 227.3 248.8 272.3 280 284.5 271.5 255.6 249.2 235.6 220.8 208.7 197.9 184.2 168.8 155.3 140.6 122.4 105.8 89.9 73.7 55.9 49.6 42.1 36.6 30.9 30.5 31.1 32 32.8 30.9 33.4 33.7 33.5 34.2 35.1 35.5 37.7 52.7 73.4 95.2 112.4 126.6 138.1 148.1 155.2 159.5 163.1 162.1 154.2 184.9 212.2 236.7 250.2 264 281
368.3 367.3 362.5 365 363.9 364.3 366.4 368.6 371.7 374.3 383.5 395.7 403.1 412 423.7 433.9 449.2 464 482.8 502.5 525.2 543.2 558.3 569.6 583.1 592.9 604.1 615.1 623.1 629.8 637.5 644.6 650.5 653.1 657.2 657.7 653.6 648.5 650.1 651.3 651.7 652.8 648.9 649.1 650.9 663.4 676.6 687.6 700.9 715.1 732.1 746.3 759.4 773.3 783.9 790.9 792.7 773.2 751.6 721.6 692.5 662.7 639.8 634.6 635.8 611.7 594.7 574.7 560.6 548.3 534.5 530.5 528.1 527.4 526.1 524.8 522.8 519.6 519.7 516.6 513.9 511.8 511.9 511.7 511.3 509.9 508.8 505.3 500.8 494.2 486.3 481 475.6 469.3 460.5 450.8 447 443.5 439.8 433.3 430.1 425.7 421.6 417.2 415 411.5 405.3 408.3 397.1 389.9 379.8 367.5 357.2 347 341 329.2 331.2 336.8 336.5 335 338.6 337.2 344.3 349.1 351.8 350.8 349.5 346.3 342.8 341.6 337.7 332.5 325.8 321.7 313.8 305.1 297.9 291.2 280.7 260.4 220.5 178.8 142.9 159 189.7 213.1 233.9 250.2 272.4 279.5 267.4 252.3 227.6 217.5 204.4 192.3 179.6 166.8 153.2 140 125.1 105.2 88.7 75.4 59.5 45.9 36.3 36.2 30.2 30.1 31.4 31.5 34.8 35.2 33.1 33.7 33.7 33.8 35.7 34.3 35.9 46.6 63.8 87.2 106.9 123.8 136.3 148.2 158.3 167.5 176.3 181.4 176.1 174.2 178.9 206.9 234.2 256.7 274 287.1
366.7 362.5 362.2 363.1 364.3 367.2 368.7 371.2 376.2 380.8 388.9 398.5 408.3 419.5 431 443.4 459.7 479 502.3 525.1 544.5 558.7 575.7 589.9 597.5 606.2 616.4 624.2 631.4 639.6 647.8 654.5 660.9 666.8 671 673.9 670.6 663.2 663.6 665.2 664 666.9 664.2 665.6 667.9 678.7 686.2 696.4 711.1 727.7 743.8 759.9 772.8 786.9 798.6 807.1 813.5 807.4 779 738.2 707.1 683.1 662 651.3 656 633.6 616.7 590 570.2 556.2 544.5 537.6 532.1 529.5 527.3 525 523.1 521.4 520.5 519.7 522.6 521.2 514.9 514.6 513.6 514.1 508.8 503.6 499.6 490.9 481.8 476.5 470.4 461.5 453.2 446 437.6 436.3 434.8 424.5 416.6 412.7 409.5 401.6 397.4 394.6 389.1 382.3 374.9 365.5 362.8 354.6 348.4 342.8 333 340 345.5 346 346.3 346.9 349.5 348.6 351.1 353.6 353.9 352.8 351.5 350.2 348.7 347.2 342.7 332.6 323.3 316.6 308.1 300 291.8 282.3 269.6 245.5 210.2 170.8 134.1 151.1 180.2 205 216.2 231.5 250.5 261.7 254.3 243.2 219.9 199.2 192.6 178.3 163 153 138.2 123.5 107.7 87.2 71.5 59.5 46.9 36 31.3 29.4 29.4 29.6 32 32.3 33.8 30.7 32.2 33.2 32.9 32.9 35.4 35.5 39.5 57.8 77.5 99.5 118.6 133.2 147.2 159.5 171.3 182.9 194.2 201.1 201.8 198.2 196.7 221.7 244.9 264.6 280.3 292.5
365.6 364.9 362.6 362.9 363.6 365.6 368.6 372 376.5 387.6 396.6 406 416.8 426.8 438.2 454.1 473.6 493.3 515.9 539 558.5 575.2 592.4 607.2 621.3 625.5 632.6 639.3 647.1 653.8 662 668.5 675.4 680.5 685.2 687 680.7 676.2 676.2 677.1 675.6 678.2 677.3 677.9 682.5 691 697.6 706.4 721.9 740.8 758.4 772.8 789.7 803.1 814.8 823.1 828.1 826.3 789.6 760.4 740.8 715.6 681.8 669.2 673.6 658.7 633.2 610 588.8 574.9 558.2 549.1 538.5 533.5 528.5 524.9 521.8 523.7 523.5 524.6 526.2 522.8 518.8 517.3 515.5 514.5 507.3 496.4 490.7 485.6 478.4 471.9 466 457.8 452.2 442.8 432.8 425.5 421.8 415.5 405.5 406.1 395.4 389 380.9 377 369.2 364.6 355.2 352.2 358.4 355.4 354.3 351.3 351.8 351.3 353 354.2 355.1 354.8 355.1 353.7 358.1 364.6 358.6 354.4 352.4 351.9 354.5 349.7 343.1 336.1 321.2 312.9 308.4 296.9 290.8 280.4 257.7 242.2 198.7 167.4 127 141 163.2 188.7 198.8 207.3 221.2 235.3 236.3 224.6 207.8 188.4 180.2 164.8 147.2 138.3 121.9 106.6 86.9 70.2 61.2 51.7 38.8 29.4 29.4 29.4 29.4 29.4 29.4 33.3 32.4 30.9 31.8 32.3 32.2 32.6 37.3 41.9 53.9 70.8 91.5 112.3 128.5 143.2 159.2 172.4 186.4 200.6 212.8 223.2 228.8 232.6 232.9 242.9 253.5 272 288.1 298.5
364.6 362.8 364.5 364.9 366.4 367 370.5 373.4 381.4 395.8 402.8 410.7 421.6 433.2 447.3 465.6 485.3 509.1 531.8 552.7 572.3 590 606.3 623.6 634 637.3 645.4 652.2 661.1 669.3 680.5 688.6 691.8 696.3 699.9 699 694.6 691.8 689.7 687.7 688 690.9 689.6 689.5 694 701.6 707.4 717.6 733.6 754.8 773.8 788.5 803.6 817.8 828.7 838.1 843.1 846.3 819.8 786.4 759.8 737.5 709 689.2 690.2 682.8 657.4 639.5 614.5 590.4 576.8 569.4 550.1 542 537.2 531.9 529 528.9 528.7 528.1 527.8 525 522.8 518.7 515.6 513 500.9 491.8 482.6 474.1 469.1 462.1 455.5 450.4 443.9 437.2 427.3 415.7 414.6 405.8 396.4 386.3 378.4 373.5 369 367.9 368.2 373.3 367.7 368.4 365.4 361.9 361.7 359.6 359 358.2 359.7 366.1 368.9 369.3 367.9 364.4 364.6 364.5 360.3 357 361 352.2 346.3 344 341.9 330.9 324.8 320.1 305.8 301 285.5 274.4 250.5 223.8 186.7 154.2 125 127.6 147.3 162.9 170.6 179.2 186.1 198.9 202.8 196 186.1 175.1 165.9 148.4 133.7 119.9 105.2 89.2 72.3 59.9 51.9 44.9 36.9 29.4 29.4 29.4 29.4 29.4 29.4 31.2 33.2 30.7 33 33.4 32.5 37 43.3 48.5 64.6 88.7 108.1 126.4 142.5 158.1 172.5 190 206.3 220.6 233 241.1 246.7 251.2 252.9 252.4 255.9 280.1 291.5 303.8
363.5 363 364.2 366.2 370.1 373 376.3 378.1 382.1 395.3 406.6 416.2 427.9 439.9 458.4 474.7 496.9 521.1 542.5 563.4 581.8 602.2 619.7 635.2 644.7 654.8 662.1 669.6 677.3 685.8 695.1 703.5 708.5 712 714.4 714.9 714.4 710.7 707.7 703.8 700.5 702.4 703.2 700.7 704.5 708.9 717 726.8 742.7 768.8 790.3 804 818.1 831.9 843.6 853 856 859 850.7 814.1 780.4 760.6 731.7 709.9 710.2 715.3 695.5 671.6 646.3 620.2 597 588.1 570.5 557.1 544 538.3 535.8 533.8 532.4 531.8 528.6 527 522.7 517.1 511.1 503.8 496.5 485.1 475.2 467 459.6 452.3 444 437 432.6 424.3 413.9 406.5 394.4 392 383.1 383 379 375.9 375.5 380.6 384 378.6 376.7 377.5 375.9 372.1 371.1 364 366.2 372.1 376.7 380.9 381.1 379.4 375.1 374.9 370 368.1 367.4 370.4 362.3 361.3 355.1 352.9 353 347.6 331.5 317.6 308 286.6 266.4 256.1 236.8 216.9 183.1 154.4 126.5 113.2 129.8 140.9 145.1 152.3 156.5 164.4 172.6 173.6 169 167.2 163.4 143 117 101.1 85.5 74.6 59 46.6 38.9 32.6 29.4 29.4 29.4 29.4 29.4 29.4 29.4 29.4 29.4 31.7 33.6 38.1 40.1 43.1 47.9 57.4 85.1 108.1 124.5 141.3 157.2 172.5 191 209.1 226 240.1 250.2 259 263.9 268.3 268.6 265 259.8 274.9 292.9 309.7
364.9 364.5 365.6 368.4 369.8 372.8 381.1 386.4 391.2 401.8 411.7 422.4 432.7 447.5 465.8 484.2 506.5 532.8 553 571.4 596.3 613.3 630 642.5 658.1 672.3 679.5 687.1 694.6 703 711.3 719.4 724.7 730.7 733.9 736.7 734.4 728.8 723.9 713.6 712.6 715.2 718.3 713.7 716.9 719.4 727.6 743.6 759 787.4 805.4 820.6 833.5 844.6 854 861.9 866.3 869.3 866.2 835.8 808.6 781.4 755.3 731.7 735.7 748.2 732.9 695.2 671.1 647 621.1 597.1 577.6 566.2 550.2 542.4 538.7 536 533.4 532 530.6 529.7 521.6 516.6 509.7 494.5 484.7 472.6 464.8 455.5 450.2 444.2 435.1 429.5 420.4 412.4 400.1 399.3 399.2 399.6 394.4 392.8 387.4 388 387.5 386 390 391 389.7 391.7 391 391.5 382.4 379.4 379.9 383.8 388.1 390 389.5 390.8 385.8 384.1 384.6 385.3 379.4 367.4 361.3 357.7 354.3 353 353.1 351.7 340.6 327.2 315.8 301.1 275.3 249.8 229.4 206.2 188.1 158.3 126 109.1 110.5 126.4 125.3 125.2 133 144.2 156.8 161 159.4 159.5 146.6 126.1 105.3 85.1 71.7 59.1 46.2 37.4 32.3 29.4 29.4 29.4 29.4 29.4 29.4 29.4 29.4 29.4 29.4 29.4 31.7 38.1 43.4 48.2 57 74.4 99.1 120.4 138.5 155.3 170.9 191 210.9 227.7 243 258.3 267.9 276.6 283.3 286.2 284.8 279.5 275.4 269.6 291 296.7
365.3 367.5 370.2 371.3 373.5 376.1 379.7 387.9 396 405.1 415.1 425.5 440.7 456.9 471.8 493.4 517.3 537.8 560.3 582.6 604.2 618.9 636.5 653.9 673.8 687.3 700.6 705 712.8 719 727.3 737.9 746.5 753.5 756.6 761.7 753.8 747.8 736.5 730.2 727.8 725.4 725.4 724.2 729.6 736.2 748.2 760.1 778.8 804.9 824.3 838 847.1 855 862.3 870.3 876.6 881.9 887.9 864.5 835.5 810.2 781.8 766 767.1 783.6 759.7 724.2 689.1 663.5 628.2 602.3 577.1 566.5 551.8 546.1 539.9 535.8 532.8 529 529.3 524.8 515 507.1 498.3 480.7 469.3 459.2 451.8 446.6 440.4 436 424.5 415.8 406.8 411.8 418.3 415.5 410.6 407.2 402.7 397.1 397.9 396.8 398.5 392.7 398.8 398.5 400.5 403.3 400.9 400.2 397.6 393.6 397.4 400.3 403.4 406.3 403.1 401.6 399.4 400.4 402.1 395 388.7 374.1 367.4 362.9 358.2 357.4 355.1 352.7 343.5 333.2 320.5 303.3 283.5 264.3 240.2 224.2 211.9 175.5 135.1 114.7 101.4 104.4 110.5 114 114.4 127.1 142.8 153.1 154.3 140.3 128 109.9 88.9 74.1 60.7 50.6 41.9 33.9 29.7 29.4 29.4 29.4 29.4 29.4 29.4 29.4 29.4 29.4 29.4 29.4 32.1 37 43.8 51.1 66.6 90.7 113.2 133.7 151.9 168.5 187.8 209.7 229.4 246.3 262 274.7 285.2 297.9 306.4 308 300.5 294.2 289.7 284.1 277 295.9
366.2 368.6 369.7 371.1 375.1 377.1 383.2 391.1 396.7 408.9 418.4 430.3 446.5 461.5 480.3 504.2 524.2 544 568.1 590.2 608.4 628.3 645.1 665.8 685.3 703.4 715.7 722.7 734.5 743 749.6 760.8 767 772.9 781.2 785.9 779.3 768.3 751.2 747.6 741.8 738.9 738.3 736.3 745.4 755.4 770.4 779.7 803.7 828.2 843 852.2 858.2 865.7 872.1 880.6 886.4 893.6 895.4 887.1 874.3 841.3 816 805.2 791.9 769.7 745.5 714.8 684.5 652.2 621.6 593.7 565.2 555.9 548.5 544.5 538.1 534.2 528.3 524.3 519.8 513.5 507.5 497 486.1 470.8 455.8 445.6 438.6 431.2 424.2 421.5 412.9 418.6 421.4 424.4 423.1 421 416.9 409.4 407.1 408.3 414.2 416.9 414.1 407.8 407.4 409.5 407.6 410.3 411.1 410.7 410.5 413.5 413.7 415.6 418.6 423.2 424.4 422.7 416.8 421.2 422.2 418.7 407 380.3 367.7 363.5 364 363.4 359.9 357.3 346.4 339.6 325.7 311.4 299.1 275.1 254.2 242.4 221.7 192.5 160.3 134.4 110.4 95.2 93.6 92.6 101.8 111.6 135.5 144 135.8 120.6 103.6 89.2 73.3 56.9 44.8 41.2 37.1 32.9 30.9 29.4 29.4 29.4 29.4 29.4 29.4 29.4 29.4 29.4 29.4 29.4 32.5 36.3 45.8 58.6 79.8 104.3 125.5 147.8 165.4 183.6 206 228.3 247.5 264.2 280.5 293.9 308.9 323.3 331.6 332.7 318.7 308.3 302.4 296.3 289.1 288.3
367.9 370.2 372.5 376.3 377.4 381.5 386.6 392.8 399.1 407.1 418.2 432.4 450.8 470.5 488.6 511.4 531.4 551.1 577.6 596.3 616.9 639 657.9 674.8 694.7 717.7 734.1 743.4 756.2 767.7 776.8 781.2 786.3 795.2 803.8 807.9 802.6 781 766.3 762.3 759.2 756.3 753.7 761.9 767.9 774.8 787.1 809.5 834.3 847.4 857.4 865.8 870.2 875.5 882.6 886.3 891.8 896.4 887.9 874.7 852.7 829.9 805.5 783.9 756.9 735.7 712.9 682.5 656.9 622.6 598.2 578.5 557.2 549.9 544 537.9 529.9 524.2 518.1 511.7 505.3 498.8 491.8 482 469.6 457.3 443.8 438.6 427.4 420.8 421.3 418.2 427.3 430.2 432.1 431.4 430.3 424.9 422.2 420.3 424.8 425.8 425.2 425.1 419.3 418.9 417.9 418.2 418.2 420.9 421.7 424.5 425.4 428.3 431.2 433.8 441.3 449.3 446.8 443.7 441.6 450.5 460.2 458.2 429.1 390.5 367.3 364 364.1 364.8 363 360.4 351.4 341.1 334.1 320.5 304.8 280.9 264.6 252.3 230.4 205.1 177.6 150.9 128.3 107.4 90.1 80.6 87.2 105.5 124.2 131.3 118.8 102.7 83.7 68.4 56.5 48 38.1 36.3 34.5 32.4 31.1 29.4 29.4 29.4 29.4 29.4 29.4 29.4 29.4 29.4 29.4 29.4 34.2 38.6 51.1 71.2 95.7 119.5 142.3 162 180.7 202.8 224.6 246.2 264.4 281.5 300 317 332.1 347 355.1 353.1 339 326.2 317 306.9 302.9 294.4
368.3 372.2 373.1 376.4 380.2 384.3 388.4 394.6 403.3 410 419.9 433.1 452.5 475.3 495.9 516.9 538.9 561 581.5 605.1 627.1 647.5 665.9 683.6 706.1 727.7 742.2 756.2 774.2 787.4 793.7 802.5 807 814.8 823.1 829.9 828.3 798.3 781.6 780.6 770.6 771.1 776.3 791.1 792.9 799.7 811.8 838.5 854.3 861.9 870.3 878.1 880.4 884.4 890.6 891.3 890.4 879.6 864.2 845.1 819.9 796 774.1 750 723 700.8 678.8 651.2 628.3 601.4 578.4 563.1 549.6 541.9 535.9 525.9 514.5 510.9 505.5 495.7 486.9 478.9 471 460.8 452.9 445.8 439.2 432 429.1 428.9 428.2 429.4 435.3 438.1 441.2 438.8 437.5 433.4 435.8 439.1 437.6 435.1 434.1 434.1 430.5 430.4 428.6 428.8 428.6 429.7 431.6 435.6 438.3 440.8 445.7 455.2 475.7 486.1 482.6 467.2 474.2 490.4 485.3 469.5 430.6 397.8 374.6 371.2 369.9 363.9 359.5 353.4 349.5 345.8 333.3 324.4 305 284 271.7 260 237.4 215 190.5 169.1 147.4 126.4 103.3 84.4 76.3 80 102.1 112.9 107.9 91.2 77.3 59.4 48.2 42.5 39.7 36.8 34.9 33.3 32 29.4 29.4 29.4 29.4 29.4 29.4 29.4 29.4 29.4 29.4 31.6 38.4 45.6 62.6 88.3 113.4 137 159 177.7 198.4 219.2 241.2 263.5 282 302.8 322.9 341 354 368.2 368.3 363.4 353.8 344.7 332.6 321.7 313.1 308.2
372.5 372.2 375.3 378.1 379.6 383.5 390.2 394.6 402.9 416 423.9 438.9 456.5 479.7 501 524.7 547.1 565.9 590.2 611.8 632.8 655.3 670.5 691.7 713.5 733.3 748.8 763 779.1 792.7 802.1 810.6 818 828.9 839.2 849.7 852.4 822.9 810.1 804 802.5 806.2 808.6 813.4 819.2 829.7 848.1 857.7 866 873.4 880 889 888.2 889.3 888.8 885.9 868.4 848.9 830.3 807.1 786.1 764.5 738.3 718.5 692.3 662.7 642.6 619.8 602.2 576.9 561.3 550.8 540.2 530.5 522.7 515.7 507.7 502.1 489.2 479.6 473.3 464 459.1 453.1 448.5 443.4 441.5 443.6 437.1 434.6 436.2 439.2 441.5 446.3 446.5 442.6 444.6 447.4 448.2 449 446.9 446.2 445.7 442.5 439 441 440.5 439.1 438.6 441.2 445.6 450.8 453 456.3 468.4 493.5 508.5 519.7 507.9 488.7 503.2 511.9 497.7 462.1 451.8 415.3 392.1 383.8 374.4 366.1 357.8 352 350.8 342.3 337.2 326.8 302.2 284.6 270.2 260.3 247 226.7 203.7 184.1 163.9 142.5 118 94.4 78.3 71.4 74.3 92 95.8 91.1 76.4 54.3 45.7 43.7 39.9 38 35.6 34.1 32.9 30.9 29.4 29.4 29.4 29.4 29.4 29.4 29.4 29.4 29.4 33.2 44.9 60.3 79.7 104.7 129.6 153 173.3 194.6 214.9 233.6 258 279.6 303.8 324.2 343.2 359.2 372.8 379.5 378.2 371.8 369.4 364 351.8 340.3 328 318.5
372.8 374 376.9 379.4 382.6 386.9 392.9 402 407.3 417.8 427.1 445.6 459.2 479.9 504.5 529.1 550.6 571.1 594.1 615.2 637.8 656.4 675.3 696.7 717.4 736.5 752.4 766 781.8 792.5 802 810.8 824.3 837.3 849.9 860.8 867.8 859.2 840.5 829.7 828.4 832.7 839 848.4 856.5 859.3 863.9 870.2 875.3 880.7 886.3 890.3 888.5 885.7 876.1 858.5 837.6 813.7 795.1 769.9 750.1 731.4 711.8 677.5 657.2 630.4 611.5 591.1 570.8 559.1 547.3 538.4 527.4 518.3 508 502 493.7 483.8 475.8 465.1 461.3 454.2 451.7 448.8 450.5 452.3 450.5 447.1 444.8 446 449.8 450.7 450.1 454.9 454.1 454.6 456.5 457.6 458.1 458.1 455.9 455 453.1 451 450.6 452.9 446 447.1 450.6 458.9 462.9 466 470.4 479.8 497.7 519.3 538.3 535.4 532.4 508.7 526.7 516.9 496 472 456.4 427.7 401.2 389.3 378.3 368.6 359.1 352.1 343.7 337.7 332.2 316.3 296.7 276.9 262.7 259.7 251.1 236.8 213.4 193.8 174.8 152.7 129.7 105.1 85.6 73.1 65.4 65.6 78 80.9 64.9 50.8 47.2 44.4 40.3 38.7 37.1 34.9 33.1 30.5 29.4 29.4 29.4 29.4 29.4 29.4 29.4 29.4 29.4 35.5 49.5 71.3 94.2 119.4 144.5 167.3 187.3 210 231.1 252.1 276.1 301.7 328 345.4 363.1 379.7 386.7 389 387.8 387.6 387.9 381.5 374.1 360.3 345.1 335.4
371.5 374 378.1 381.9 384.8 389.3 396.4 402.9 409.8 419.5 431.9 448.2 462.1 481.9 508.2 531 548.6 570.9 596.6 617 634.4 654.8 674.8 693.2 713.1 730.8 747.8 761 775.9 787.4 798.2 812.4 825.3 838.8 852.5 866 877.1 881.7 879.6 871 864.1 873.4 878.3 878.6 874.6 871.5 872.5 875.8 881.9 883 884.8 878.8 874.8 863.5 849.1 827.4 801.3 777.3 759.3 740.6 718 698 668.8 642.8 621.7 599.4 580.5 563.5 551.1 541.9 534.1 525.5 510.6 500.9 493.4 484.9 482.9 476.9 470.6 461.3 456.2 456.9 453.1 455.9 455 455.3 455.8 455.7 456.8 461.1 462.4 461.4 463.6 466.1 466.9 466.2 468.9 469.9 470.4 468.9 464.7 464.3 462.8 462 463.7 463 458.6 461.2 469.5 481.1 492.6 499.4 503.6 519 534.9 558.4 561.9 569.2 560.2 547.7 548.4 521.7 492.2 472.3 456.6 439.1 412.1 399.2 381.5 371.9 363.1 354.8 347.4 339.4 332.2 317.6 291.7 270.5 255.2 251.3 243.3 228.6 212.7 194.2 168.6 149.6 127.8 110.8 98 85.3 69.6 60.3 56.5 56.5 52.7 50.4 46.4 43.8 40.8 38.7 35.8 34.4 32.5 29.9 29.4 29.4 29.4 29.4 29.4 29.4 29.4 29.4 30.6 46 63 85.1 109.9 134.2 158.9 184.6 207.3 228 248.4 271.9 296.9 323.5 345.7 364.2 382.6 390.2 395.6 397.7 399 400.4 399.4 396.1 387.4 375.3 362.5 348.5
373.4 376.1 379.3 383 386.3 389.7 397.7 402.5 408.8 421.6 435.4 449.7 469.3 490.6 521.1 534.3 555.2 571 591.3 610.6 627.9 648 666.6 686.5 705.2 720.6 737.3 751.6 765.1 781.3 796 810.6 827.2 841.3 855.8 871 883.9 891 891 891.7 887.3 890 894.4 887.4 878.5 874.4 872.2 874.3 874.7 870.3 864.1 857.2 847.2 831.9 813.2 788.3 766.3 743 728 710.6 684.1 659.6 630.4 607.8 589.6 570.1 552.1 541.5 531.5 525.9 514.6 504.9 494.6 487.5 483.5 480.2 477.2 475.4 466 468 463.4 461.8 459.5 460.6 460.2 463.5 462.7 466.7 470.1 473.3 475.9 476.7 472.9 474.9 478.2 479.5 481 479.2 480 476.2 476.8 480.5 475 472.6 472.7 467.5 471.5 477.7 490 498.2 518.7 522.4 536.3 556.8 573.7 588.3 593.4 591.2 567.5 565.1 553 519.9 500.1 479.9 456.7 432.4 420.4 407 389.4 375.7 364.5 355 344.3 335.1 327.6 309.4 282.3 260 245.5 236.8 227.4 214.4 200.7 179.1 155.7 138.1 122.2 109.3 100.6 90.3 81.3 67.3 57.6 53.4 48.3 48.9 43.2 42.1 33.2 29.4 29.9 34 32.5 30.3 29.4 29.4 29.4 29.4 29.4 29.4 29.4 29.4 36.9 56.6 75.7 98.9 124.1 148.6 175.1 199.3 221.7 244.5 266.6 289.3 318.6 346.8 366.8 380.9 393.5 400.9 406.3 409.6 410.4 412.4 413.2 407.9 397.8 387.3 374.8 351.2
374.5 377.3 380.2 384.1 387.6 391.5 396.7 403 412.7 423.8 437.1 452.3 470.7 495.6 511.2 525.3 539.1 561.9 583.2 603.4 620.7 638.6 654.3 673.8 691.4 707.8 723.6 740.4 757 774.7 791.8 810.2 828.2 845 860.9 876.1 887.5 894.5 898.9 898.5 894.1 893 889.2 879.1 871.9 866.4 863.2 861.2 855.1 847.7 837.4 826 812.6 790.2 774.5 757.9 737.8 713.5 697.7 678.1 656.1 621 598.3 579.2 558.3 544.6 532.1 522.1 514.4 504.7 496.2 491.1 484.2 480.5 477.3 474.5 472.7 468 473.9 472.8 469.4 467.6 466.9 467.5 469.8 473.5 475.6 480.9 483.5 485.7 488.4 488.3 484.6 487.8 489.4 492.7 491.8 489.4 488.7 487 485.2 485.2 486.1 482.8 481.8 480.4 487 495.6 507.7 522.9 543.9 548.1 569.1 588.9 601.3 611.2 611.8 606.7 582.7 568.9 550.7 536.1 520 487.9 463.8 433 413.8 402.4 388.7 382.7 365.1 354 341 326.1 311.9 293.4 271 252.6 239.8 227 212.2 201.2 182.5 160.9 141.6 127.8 117.5 108.3 98.1 88.7 77.2 66.9 62 59 55 49.2 47.1 42.9 40.2 36.6 32.3 31 30.7 29.9 29.4 29.4 29.4 29.4 29.4 29.4 29.4 29.4 45.1 65.7 90 112.2 135.3 161.5 189.3 215.9 238.6 261 283.3 310.3 340.7 363.4 383.5 393.6 403.2 410.6 415.1 418.2 422.3 425.6 422.9 416.1 406.8 395.5 377.2 363.9
375.1 378.7 381.2 384.4 387.2 391.6 397 403.4 412.5 425.6 436.1 451.6 471.1 482.8 507.1 525.6 545.3 566.5 585.5 600.1 617.5 634.4 640.8 657.6 667.3 684 706.4 725.6 747.7 769.8 790.7 811 831.1 848 864.2 879.1 888 895.6 897.9 894.3 889.5 882.8 874.4 863.6 857.4 849.5 844.2 838.3 830 818.3 804.1 792 770 756.9 744.9 729.5 707.8 685 665.1 645.4 614.6 587.9 570 551.2 534.3 523.4 515.8 506.2 497 490 483 480 478.7 477.6 473 471.2 471.3 473 476.3 478.4 476.4 474.6 473.9 477.8 482.1 485.3 489.3 494.8 498.6 497.5 504 502.4 499.2 499.5 502.5 503.4 502.9 501.6 499.9 501.5 502 505.8 492.6 488.9 489.4 495.1 504 514.8 531 547.7 558.3 576.9 594.1 606.5 620.1 632.1 631.9 613.8 595.7 573 552.5 542.8 517.2 485.4 453.1 420.4 408.3 404.3 389 379.4 369.6 354.1 341.2 319.3 299.4 282.7 262.5 244.8 233.6 220.4 201.3 183.4 162 146.3 131.9 122.2 109.3 98.7 92.9 83.3 71.8 59.1 58.5 56 52.9 48.9 44.8 41.5 38.4 35.9 34.4 32 30.3 29.4 29.4 29.4 29.4 29.4 29.4 29.4 29.4 36.6 57.5 80.3 103.9 124.9 149.2 174.4 202.7 230.4 255.1 278.9 302.9 326.2 355.4 377.8 393.5 404.3 412.9 418.5 424.2 428.8 433.1 434.8 430.2 422 411.3 401.8 388.6 374.2
376.2 379.2 381 383.4 386.6 389.4 394.4 402.4 412.7 424.7 440.4 455.4 471.4 488.4 507.1 527.7 547.9 568.5 588.8 604.3 618.8 641.5 657.5 670.8 679.1 689 702.2 722.8 743.5 769.1 791 812.3 832.6 850 866.4 879.2 888.4 891 889.5 882.3 875.6 864.7 849 832.1 825.1 820.5 814.6 806.8 796 782.5 767.5 754.3 741.8 724.4 710.7 693.8 674.4 654 633 608.1 584.8 564 546.3 532.6 519.2 510.5 499.5 493.9 486.4 481.6 477.9 475.8 475.7 473.3 475.3 473.5 476.3 481.1 485.1 484.9 484.4 482.2 484.9 487.3 492.4 498.3 501.7 509.2 517.5 517.9 517.7 518.8 517.5 516.5 520 524.2 535.3 531.9 525.9 527 527.7 517.7 511.2 504.4 503.7 512.8 524.2 535.5 545.4 560.5 580 599.9 617.1 632.7 644.3 649.6 634.8 618.6 599.3 573.4 557.4 544.9 506.6 467.6 441.8 421.9 410 406.8 393.1 379 361.3 348.2 332.1 312.6 295.3 273 255 238.8 226.7 213.3 187.6 167.1 148.7 133.8 123.4 114.1 104.9 93.6 80.6 72.5 61.9 54.2 53.8 52.3 49.5 45.5 41.9 39.2 36.6 34.1 32.4 31.4 30.4 29.8 29.4 29.4 29.8 29.4 29.4 29.4 32.8 40.8 67.7 95.7 117.8 138.6 162.8 188.2 217 244.5 271.3 296.8 321.4 346.3 369.1 389.6 404.2 414.1 421.3 428.6 435.8 440.8 443.3 441.8 436.4 429.2 421.3 415 396.7 399
378.1 379.2 379.8 382.1 384.4 388.5 394.2 404.2 413.3 429.1 441.4 453.5 472.1 489.4 507.8 527.2 548.2 568.7 590.1 607.5 624.2 646.4 665.9 681 695.8 711.4 722.3 734.1 749.6 768.2 792.5 814.6 834.3 851.4 866.5 878.7 883.3 882.2 876.4 858.4 841.2 827.6 812.2 802.3 793.2 786 780.3 773.9 757.9 745.9 735.3 719.8 704.6 690.1 677.2 665.2 643.1 623.3 608.7 584 567.3 542.7 527.8 518.5 508.6 502.8 494.3 487.5 483.1 480.6 478 477.1 476.9 477.3 478.2 479.4 484 490.7 493.3 496.4 493.9 493.9 498.3 501.6 509.2 513.5 519.3 526.8 537.8 535.8 538.5 542.4 544.2 545.9 552 558.7 566.4 564.3 549.9 552.8 541.3 541.1 529.8 518.6 518.6 532.4 541.5 550.7 562.3 577 599.4 619.2 633.8 644.4 660.1 660.3 639.7 620.8 595.1 579.8 567.7 548.5 506.8 459.3 431.4 422.8 418 407 394.6 378.6 361.5 349.7 333.5 312.7 289.6 266.7 245.1 230.4 218.3 197.8 175.3 155.5 139.6 123.1 112.3 104.1 96 85.5 72.5 65 48.8 49.5 49.1 47 45.1 42.3 40.2 37.8 35.1 33 31.5 30.1 29.8 29.6 29.7 29.4 29.4 29.4 29.4 35.3 41.1 55.9 81.8 105.8 128.4 155.3 177.1 204.1 232.4 259.9 287 313.6 338.5 362.9 383.5 401.3 413.4 421.6 432.8 439.4 446.4 449.5 450 448.5 443.2 438.3 432.8 421.8 418.5 418.1
380 380 382.2 384.6 387.5 387.5 395.7 404.7 416.7 429.7 439 458.9 472.8 490.8 507.4 526.7 549.8 570.2 593.6 614.8 629.5 652.2 672.2 687.7 704.7 722.4 734.9 747.2 764.2 781.6 801.5 818 835.9 852.1 865.9 876 876.2 862.6 842 823.1 809 797.8 785.8 776.2 774.3 763.9 755.7 743.1 732.6 716.3 700.4 684.5 671.3 659.6 645.8 631.1 613 596.2 579.9 562.4 547 530.4 521.3 511.4 503.1 496.7 490.1 486.2 483.2 479.2 481 481.2 481.6 484.5 486.7 491.7 494.5 500.2 506.5 514.4 517.3 519.6 516.1 517.5 528.1 537.7 542 551.5 561.9 569.9 568.4 573.3 584.8 605.5 595.4 587.1 575.6 572.1 567.5 556.6 548.8 543.7 538.8 530.1 533.5 542.9 553.6 563.7 577.8 596.8 611.7 627.1 640.7 653.7 660.8 646.3 631.2 610 606.1 583.5 565.9 539.1 494.8 457.2 434.8 426.4 417.2 404.7 394.7 374.5 357.8 346.7 326 303.7 282.2 257.7 237.7 217.5 201.5 179.8 161.2 146 130.6 114.8 102.1 92.7 85.1 75 65.8 49.4 43.3 43.6 43.9 43.7 40.5 39.6 37.5 35.8 34 33.6 32.7 29.7 29.4 29.4 29.4 29.4 29.4 29.7 34.6 40 47.9 67.1 95 117.8 144.7 168 193.3 220.7 246.9 275.6 303.4 330.7 356.1 378.2 395 409 421.3 431.7 443.1 450.4 455.1 458 458 456.6 453.5 447.6 437 437.3 435.2 433.2
382.5 386.8 389.3 390.3 394.9 393.6 400.5 407.9 417.5 429.2 445.5 459.4 472.2 490.3 508.4 527 549 571.9 602.3 618 634.4 656.1 676.5 695 713 730.1 744.8 760.5 777.5 793.7 809.6 826.2 841.5 855.4 864.4 869.4 860.5 835.2 814.6 797.6 784.8 773.9 762.9 755 746.9 738.4 727 714.4 698 683.7 665.6 648.7 636.1 626.3 612.7 599.8 585.2 569.8 557.6 544.6 533.5 521.1 513.1 504.7 497 492.9 488.3 484.9 481.7 483.1 486.9 489.8 491.1 494.7 499.5 502.5 509.1 514.8 522 529.7 534 534.6 534.1 536.3 547.5 555.4 567.3 577.7 588.9 601.1 599.5 608.3 624.1 634.4 630.7 599.7 585.8 582.7 570.6 558.7 555.2 554.1 543.7 539.6 549.1 557.7 566.8 581.8 588.7 606.1 620.4 639.5 651.4 661.1 668.7 652.4 632.3 619.7 615.4 588.4 567.4 516.9 487.3 460.4 437.6 423.6 421.4 403.9 388.9 370.5 356.9 340.5 312.8 289.9 270.9 249.7 228.9 205.6 184.8 166.4 147.3 135.4 122.5 108.1 92.9 80.5 72.7 65.7 54.1 40.4 39.2 39.4 39.4 39.4 36.8 36.2 35.1 33.7 33.6 32.7 29.4 29.4 29.4 29.4 29.4 29.4 29.8 33.3 37.7 44.1 60.2 82.3 106.7 131.7 157.3 180.5 207.9 233.7 258.9 289.8 321.4 346.7 368.7 386.7 400.3 417.7 432.5 444.6 454.2 459.1 464 466.5 466.4 465.4 461.7 454 452.4 451.3 451.1 450.6
