ncols 200
nrows 83
xllcorner 320000
yllcorner 841500
cellsize 50
276.5 275.2 273.3 270.7 269.4 267.5 266.1 263.6 260 260.7 261.6 261.2 261 260.2 259.3 257.6 254.8 251 248.4 246.4 243.7 241.8 239.9 237.7 236.3 234.5 233.1 231.1 229.8 227.4 224.6 221.2 219.1 217 219.3 226.2 234.8 241.3 248.7 255.7 261.5 267.3 272.1 276.7 280.2 283.3 286 286.9 287.9 288.6 289.5 290.8 292.7 294.5 295.1 294.3 292.3 291.6 290.5 289.4 288.4 287.2 285.4 283.6 282 280.9 279.8 279.1 278.6 277.7 276.9 276.1 273.7 272.2 270.6 269.1 267.2 265.6 264.3 262.7 260.8 258.9 255.6 252.6 249.3 248.3 245.9 243.5 240.7 238.7 238.6 236.6 234.2 227.7 222.4 217.1 213.8 211.5 209.7 208.3 207.2 205.5 203.9 202.1 200.8 198.2 196.6 195.1 193 188.8 188.4 187 185.1 183 180.2 180.6 180.4 180.1 179.8 179.6 178.2 176.5 179.1 181.3 181.8 182.1 181.6 181.7 181.4 180.7 179.8 177.9 176.8 174.3 172.6 172.1 172.1 170 167.2 163.6 157.1 154.4 156.7 159.9 161.1 163.5 165 166.9 169 170.5 171.4 173.2 174 174.4 175.5 175.1 174.7 171.9 171.1 169.3 167.7 165.7 163.2 161 156 150.9 148.6 145.4 141.6 137.8 132.2 126.4 117.8 107.6 94.1 83.1 77.3 77 76.3 76.5 76.5 76.6 76.4 75.8 74.4 73.3 73.2 75.7 97.9 122.1 129.2 136.8 143.8 146.8 149.3 153.8 158.8 163.6 171.4 179.9
277.6 274.7 271.7 269.8 267.7 266.1 263.5 262.2 262.7 263 263 262.9 262.5 261.9 260.5 258.4 256.2 253.7 250.2 248 245.1 242.1 240.1 238.7 237.2 235.2 233.6 232 230.3 227.8 224.6 221.5 218.5 215.8 218.3 228.5 234.6 241.3 248.8 256.7 262.9 268.6 273.8 278.4 283.1 286.4 287.7 287.5 287.8 288.6 289.1 290.6 292.8 294.4 293.7 292.5 290.5 289.2 288.9 286.3 285.1 284 281.9 280.2 279.7 278.3 277 275.8 274.6 274.1 273.1 273.3 270.7 268.9 267.5 266.8 265 262.4 260.8 258.7 257.3 255.3 251.6 247.9 246.3 244 242.7 240.2 238.1 235.2 234.6 233.8 229.6 224.6 218.4 215 212.4 210.5 208.6 207 206 205 203 201.3 200.8 199.4 197.3 195 190.7 189.8 185.7 184.1 182.7 181.3 179 177.3 177.9 177.7 177.7 178.1 178 176.7 178.8 179.1 180 179.3 179 179.2 178.7 178.4 178.6 176.5 175.5 173.1 171.3 169.7 169.3 168.8 166.4 161.9 156 154.2 155.8 158.5 160.2 161.1 163.3 165.8 167.5 169.5 170.7 172 174.4 175.1 175.8 175 174.5 172.6 171.9 170.7 169.5 168.7 166.7 163.7 156.9 152.8 150.4 147.9 144.1 140.4 135.3 127.5 120.1 109.8 92.1 78.8 77.8 76.7 76.7 77.5 76.7 76.7 76.5 76.1 75.2 74.9 73.4 78.1 99.3 120.8 130.7 137.3 145.4 151.4 155 155.4 158.8 164.6 171.9 181.3
277.8 275.4 273.8 271.3 268.6 267.2 265.9 266.2 264.2 264.2 264.2 264.2 264.1 263.1 261.7 260.6 258.1 255.6 252 249.6 246.8 243.9 241 239.6 237.9 235.8 234.3 232.4 230.3 227.8 224.8 222.1 219.3 215.1 215.4 226.8 234.4 241.8 249.8 257.5 264.6 270.6 275.3 280.1 285.1 287.3 288.7 287.7 287.2 287.8 288.8 290.5 292.9 293 292.4 291.3 288.9 286.7 285.2 284 282.9 281.6 279.3 277.5 276.9 276.3 275 273.8 273.1 272.5 271.3 269.8 267.2 267.1 265.9 264.3 263.3 261.5 259.1 256.7 254.5 251.2 248.4 245.4 242 240.9 239.4 236.8 235.9 233.1 230.5 227.6 224.5 220.3 216.9 214.1 211.6 209.5 207.5 205.8 204.3 202.8 201.8 201 199.9 200.5 198.1 195.6 193.3 191.2 187.2 183.4 179.9 179.1 176.7 174.5 174.2 174.7 176.6 177.2 177.2 174.6 177.4 177.7 177.3 177 176.6 176.3 175.9 175.8 175.6 174 173.8 172.4 170.7 169.9 168.9 168.7 164.8 161.6 155.7 152.5 154.7 156.8 158.6 159.5 160.6 162.6 164 165.5 167.1 169.4 170.3 171.2 173.5 175.5 173.4 173 172.6 171.5 170.4 169.9 168.8 166.6 158.6 155.4 153 150.6 146.7 142.2 135.8 128.6 119.7 110.6 92.1 77.7 77.2 77.2 77.2 77.4 79 76.6 75.9 75.4 74.8 74.8 72.8 79.1 97.6 122.3 132.1 139.3 146.4 154.4 158.7 160.2 161 164.9 172.2 178.3
279 277.3 274.7 272.3 271 269.7 267.4 266.8 265.9 265.7 265.7 265.6 264.7 263.6 262.9 261.9 260.2 257.8 255.2 251.8 249 246.3 243.2 240.4 238.9 236.8 234.8 233.2 231.3 228.3 225.9 223 219.9 215.1 213.5 226.2 235.3 244.1 251.1 258.4 265.5 272.1 276.9 281.7 285.1 288.1 289.7 288.3 287.2 287.1 288.8 290.6 290.7 290.9 290.4 289.3 286.5 284.8 282.8 280.9 279.4 278.1 276.6 275.7 275.4 274.6 273.3 272.1 270.9 269.6 267.6 266.4 265.6 265 264.6 263.1 262 260 257.6 255.1 252.9 249.6 247.1 244 241.7 238.8 237.4 236.5 234.4 231.5 227.9 223.7 221 218.2 215.6 213.7 211.9 209.6 207.5 205.2 203.3 201.5 200.8 200 198.7 198.9 197.6 195.9 193.9 190.2 187 183.8 181.4 179.2 175.2 172.6 171 171.8 174.7 176.3 175.1 171.5 175.6 176.7 176.1 175.4 175.4 174.3 173.4 173.4 173.2 172 171.4 170.3 169 168.5 167.5 164.1 162.2 159.3 154.8 152.6 152.9 155 156.9 157.8 158.5 160.1 161.8 162 163.6 165.6 167.2 168 170.9 171.9 172.3 172.9 172.7 172.3 171.5 171.1 169.9 166.4 161.5 157.7 155.3 153.2 149.7 145 137.3 130.4 122.2 110.8 88.9 78 77.7 77.7 77.6 76.9 77.3 76.5 75.7 75.8 75.4 72.5 74.3 77.7 96.9 120.2 130.9 137.2 147.2 154.6 159.7 163.9 165.1 167.4 170.9 177.5
279.8 277.3 275.4 272.9 271.5 269.9 269.1 268.5 267.8 267.2 267.1 267 265.4 265.3 264.9 262.7 262 260.3 256.9 254.2 251.4 248.5 245.6 243.1 240 237.8 236 234.3 232.4 229.1 226.4 223.4 220.5 212.2 213.6 226.9 235.6 244.4 250.5 259.3 265.5 272.5 277.3 281.8 284.3 287.4 288.5 287.7 286.1 285.9 287.8 289.6 289.3 289.1 288 285.7 283.8 281.7 280.6 278.6 277.5 275.6 274.3 274.4 274.3 273.6 271.5 270.5 269 266.8 265.2 264 263.8 263.8 263.1 262.7 261.9 259.5 256.9 253.7 250.6 248.2 245.3 243.2 240.2 238.8 237.4 234.9 233.2 229.4 226.1 223.6 219.9 217.8 215.1 213 211.5 209.7 207.6 205.6 202.8 200.4 199.5 198.8 197.2 195.2 196 193.7 192.4 189.9 186.9 183.5 181.4 179.8 178.1 177 175.4 169.1 170.5 173 172.2 171.7 174.5 175.5 175.1 174.8 173.8 172.6 170.7 170.6 171 170.5 168.3 167.2 166.1 164.7 164.4 161.1 158.2 156.4 154.4 153.4 151.7 153.3 155.3 156.1 156.8 157.4 158.6 159.1 160.2 161.8 164 167.1 167.8 169.9 171.6 172.6 172.6 173.2 172.3 170.6 169.2 163.9 161.6 159.4 156.5 154.4 151.2 146.1 138.7 129.7 121.7 105 85.3 78.1 78 77.8 77.1 76.8 77.2 77.1 75.3 74.7 72.6 73.2 76.7 77.5 96.9 115.8 129 136.5 145.6 152.5 158.7 167.5 168.5 170.1 171.2 177.4
281.6 278.9 276.4 273.9 271.9 269.5 270.4 269.3 269 268.7 268.4 268.1 266.7 266.6 266.6 265.1 264 262.2 259.6 256.6 253.6 251.5 248.3 245.9 242.7 240.3 237.9 235.4 232.4 229.2 226.6 223.6 221 211.7 213.8 225 235.2 243.5 252.2 258.1 263.6 270.3 274.9 279 282.3 284.9 286 285.8 283.9 284 285.8 286.3 286.3 285.6 285.1 283.8 282 279.3 277.9 275.9 275.2 274.3 274.1 273.6 273.4 272 270.6 268.1 266.4 265 262.8 262.6 263 263.1 262.3 262.1 261.2 259.5 256.3 252.4 250.9 247.9 245.7 243.8 241 238.3 237 234.6 233.3 230 225.8 222.7 219.1 216.5 214.8 213.2 211.1 209.6 207.2 204.5 202.5 200.4 197.4 196.8 196.8 194.3 191.9 191.9 190.7 188.2 185.7 183 180.6 179.3 177.5 175.3 173.3 170.7 167.3 169.4 169.9 170.1 173.5 174.1 173.8 173.4 171.9 170.7 169.3 167.3 168.4 168.1 166.3 164.8 164.1 162.2 160.5 158.9 155.1 153.5 152.8 152.5 151.5 151.6 153.5 154.2 154.9 155.6 156.6 157.3 158.7 160.2 162.3 165.9 167.9 169.1 170.6 171.2 170.2 168.3 166.8 166.1 163.4 158.5 157.2 158.1 156.9 155.2 152.7 147.6 140.8 129.3 114.2 98.7 84.5 76.2 76.8 76 75 75.5 75 76.1 72.9 72.9 74.3 75.9 76.8 79.1 98.2 115.3 127.7 134.7 144.5 152.4 160 168.5 172.3 173.2 174.1 177.2
282.6 279.6 276.7 274.4 271.5 270.8 270.4 269.8 269.6 269.5 269.4 269.1 268.5 267.4 268.8 267.5 265.9 265.1 262.5 259.9 256.7 254.2 250.8 248.2 244.9 241.8 238.7 236.1 232.7 230.1 227.1 223.2 220.8 210.9 212.8 226.7 236.2 244.8 251 255.9 262.1 268.1 272.9 275.2 278 279.9 281.8 283.1 282.5 281.8 282.8 284.2 283.9 283 282.1 280.9 278.9 277.1 275.5 274.2 273.6 272.6 273 272.4 272.1 270.4 268.1 266.1 264 262.3 260.6 259.7 260.9 262.4 262.6 262.3 261.6 259.4 255.4 252.2 250.5 248.2 245.5 244 241.4 239.1 236.6 235.2 232.6 230.4 226.2 222 218.8 216.4 214.3 213.1 211.7 210 207.8 205.2 203.6 200.6 198.6 195.4 192.9 191.1 189.1 187.2 187.7 185.7 183.4 180.8 179 177.5 175.7 175 172.4 168.3 165.4 167.4 167.7 168.3 171 172.4 171.6 171.6 170.7 170.3 168.5 166.9 164.9 165.7 165 163.4 162.1 159.8 157.7 155.9 152.5 151 150.4 151.1 151.8 152.5 152.9 152.4 153.9 154.5 154.9 155.8 157.2 158.6 161.2 164.3 166.3 167.5 167.7 167.5 164.2 162.8 161.4 160.6 157 153.4 152.6 153.7 155.3 154.6 152.7 145.4 135 127.1 106.2 91 80.9 76 77 76.6 76.8 76.7 76.2 72.5 73.2 76.5 76.8 76.2 74.5 81.6 101.8 115.5 127.7 135.2 143.7 153.3 159.8 167.1 172.1 175.9 175.8 177.2
283 279.9 277.7 275.3 272.3 271.6 270.6 270.2 270 269.7 269.5 269 268.3 268.6 269.8 270.1 269.1 268.2 266 263 260 256.5 253.3 250 246.6 243.4 240.3 237.1 233.8 230 227.3 223.3 218 210.7 215.5 228.1 237.5 245.9 250.8 254.3 259.6 265.6 269.5 271.8 274 275.2 277.8 279.1 280 281.4 280.5 281.2 281.7 280 279.1 278.2 276.3 274.3 273.6 272.9 272.4 272.2 271.7 271.1 270.1 267.6 266.7 263.3 261.1 260 258.9 258.1 259.5 261.1 262.1 262.1 260.5 259.2 256 251.8 250.3 247.9 245.6 243.6 241.1 239.1 237.2 235.2 233 230.2 226 221.1 219.2 216.5 215 213.2 211.5 210.4 208.4 206.6 205.3 201.8 198.9 196.8 194.2 193.2 191.4 189.1 186 182 178.9 177.6 176 174.1 172.1 170.5 169.5 166.7 164 163.2 163.4 166.8 166.7 166.9 168 168.5 168.5 167.3 167.3 167.1 164.6 161.7 162.3 162 160.4 157.7 155.1 152.3 148.9 148.7 151.6 152.6 154.2 154.5 153.4 153.3 154.3 154.3 153.9 154.9 155.6 157.1 158.6 161.1 163.7 163.9 163.5 162.6 159.1 154 152.1 151.5 150 148.4 147.4 148.9 149.8 146 140.4 134 126.4 111.2 89.9 78.5 75.7 76.7 76.8 76.2 76 75.9 72.9 74.3 76.2 78.1 77.1 76.6 75.9 85.5 101.3 116.5 128.7 136.1 144.9 154.5 160.9 167.7 172.7 177.6 178 177.3
284.7 281.4 278.9 276.3 273.6 272 271.1 270.2 270.1 269.9 269.5 269.2 268.6 268.9 270.3 271.4 271.1 269.8 267.8 265.2 262.1 258.9 255.2 251.7 248.3 245.2 241.9 238.4 234.6 230.8 227.6 224.3 218.8 210 215.2 230.6 238.5 245.2 249.2 253.9 258.2 263.6 266.5 268.1 270.2 271.7 274.7 276.7 277.7 278.2 277.7 277.3 277.7 277.6 277.4 275.2 274.3 274 272.7 272.1 271.4 271.3 270.7 270.2 268 266.3 264.7 261.2 259.6 258.1 257.6 256.9 259.5 260.7 261.9 262.1 260.6 258.1 254.9 252.7 250.9 249.3 246.7 243.7 241.6 239.3 238.5 236.8 233.1 230 224.3 220.8 218.7 217.2 215.9 214.1 212.5 211.6 209 206.9 204.9 202.1 199.7 197.7 195.6 194.3 191.7 189.7 187.4 185.6 183.5 181.9 175.6 171.1 169.9 168.1 166.8 165.6 162.9 161.3 163 164.7 163.4 166 163.3 165.4 165.6 164.3 163.4 163.9 162.3 160.6 156.6 156.7 157.4 157.4 154.7 151.6 148.1 150.3 152.6 153.9 156.5 154.6 154.4 154.5 155.6 155.5 155.5 155.7 155.6 155.4 156.9 158.8 160.9 162.3 159.8 156.5 151.1 145.9 143.6 142 140.9 139.6 138.5 136.9 135.9 130.4 120.3 102.2 84.6 79.7 75.5 76.9 77.6 77.9 77 76 75.3 73.9 77.7 81.5 81.7 82.1 85.7 78.1 76.5 94.3 108.6 118.6 129.8 136.9 144.8 153.5 160.8 167.6 172.9 176.1 178.3 178.1
286.6 283.1 279.3 277 274.9 272 271 270.6 270.1 270 269 268.6 269.2 269.8 270.9 272.2 271.5 270.1 268.4 266.2 262.8 259.7 257.1 253.8 248.4 245.1 242.2 239.2 235.7 231.7 228 223.9 218.3 208.8 216.9 228.9 237.5 245.6 248.8 253.8 256.9 260.5 263.6 265.7 267.6 269 272 274.6 275.8 276 275.4 274.4 275.2 275.7 274.5 273.7 273.3 273.2 272.5 271.3 270.7 270.3 269 268.6 267 264.4 262.8 259.3 258.4 257.4 256.6 256.2 258.1 260.5 261.8 261.3 259.8 257.1 254.7 252.2 250.5 249.2 246.8 244.5 242.1 239.6 237.7 235.4 233.6 227.6 223.6 221.3 219.2 217.3 215.9 215.1 214.4 212.2 209.7 207.3 205.1 202.5 201 199.1 197 195.7 193 190.8 188.7 185.5 184.1 182.8 179 175.7 173.8 172.4 169 164.7 164.8 162.7 160.1 160 160.4 162.1 162.3 161.7 163.1 162.1 160.1 159.9 158.3 156.1 152.9 152.3 152.3 152.5 151.3 148 146.6 150.9 153.3 157 152.7 154.8 157.4 157.2 156.4 156.5 157.5 158.2 158.1 155.8 155.1 155.9 158.1 159.1 154.3 150.2 144.1 139.5 136.5 134.7 131.6 132.1 131.7 125.6 114.5 98.3 76.3 75.5 75.5 74.8 74.6 74.9 75 76.1 77.7 76.9 74.1 84.5 96.6 98.8 89.3 86.6 81.5 82.4 76.3 93.7 109.7 120.7 129.8 138.3 146.6 152.6 161.3 166.9 165.7 172.5 177 175.6
287.9 283.8 280.4 278.2 275.8 273.4 271.1 270.6 269.7 269.5 269 268.8 269.3 269.7 270.7 270.9 270.5 269.2 267 265.4 263.5 260.9 258.4 255.1 250 244.5 242.2 239.5 236.5 232.7 228.4 223.3 218.7 208.7 216.8 225.3 233.2 240.3 243.6 249.6 254.7 257.9 260.8 263 264.7 266.3 268.5 270.9 272.5 272.7 273.3 272.8 273.4 273.5 272.8 272.3 271.9 271.9 271 269.9 269.3 268.8 268 267.5 265 262 260.8 258.2 257.6 257.3 255.1 256.5 258 259.6 261.3 260.8 259.4 256.8 254.5 252.8 252 249.9 247.3 244.5 241.5 239.1 236.7 234.8 233.2 227.9 222.4 221.3 218.9 217.6 216.5 215.8 215 212.7 209.4 207 205.3 203.4 202.3 200.4 198.6 195.8 193.4 191 188.8 185.8 183 181.7 179.2 176.9 174.5 173.6 171.2 169 166.6 164 160.6 157.6 157.8 157.1 158.7 159 161.2 159.4 157.7 155.5 150.6 148.8 147.1 146.2 146.7 147.9 146.3 144.8 146.8 152.7 155.7 153.8 153.3 153.1 153.7 153.7 154.9 154.8 152.3 153.5 151.3 156.6 155.9 153.4 153.3 150.7 147.5 142.8 137.3 133.2 130.8 126.6 123 121.4 118.6 108.9 93.7 76 76 77.4 77.4 78.1 79.8 78.8 79.1 74.4 74.7 74.5 87.9 96.1 106.2 105.4 99.5 96.9 83.4 81.6 77.1 89.5 111.7 122.5 131 139.4 145.7 150.4 158.2 165.2 168.2 169.5 173.6 173.3
288 284.1 281 278.7 276.2 273.7 272.8 271.5 270.7 270 268.8 268.9 268.4 269.4 269.9 269.8 269.3 268.1 266.6 265 263.2 261 258.5 256.2 253.1 247 243 241.1 237 233 228.3 223.2 217.5 209.4 211.6 220.3 224.8 230.4 237.4 244.9 251.6 255.2 257 259.8 261.3 263.8 265.6 267.4 269.6 270.5 271.1 271.1 270.8 271.3 271.4 271 270.6 269.9 269.9 269 267.8 267 266.2 265.5 262.5 260.6 259 256.6 256 255.3 254.4 255.9 257.5 259.4 259.7 259.6 257.7 255.4 254.6 254.3 251.8 249.9 246.7 244 240.9 238.5 236.2 233.6 230.3 227.3 222.9 220.9 219.5 217.4 216.2 215.8 214.3 212.6 210.6 207.5 206.4 204.5 202.7 199.3 197.4 194.9 192.3 189.8 187.3 184.9 182.9 180.6 177.5 174.8 172.8 171.5 169 167.2 165.4 163.2 160.8 159.3 156.5 156 155.5 155 154.8 154.1 152.2 151.2 149.8 153.3 151.5 149.6 144.7 143.7 143.4 143.1 146.9 157.1 152.8 153 153.7 153.2 153.3 153.3 152.8 152.3 151.1 150.3 149.4 150.8 154 154.4 150.3 146.9 140.9 137 132.2 128.3 123.5 114.1 111.8 108.7 105.1 91.2 76 76 78.1 77.6 77.4 77.9 83.4 83.1 79.7 80.2 81.6 90.7 99.3 105.9 108.6 111.3 107.2 100.7 87 82.2 77.7 91.5 115 125.7 133.3 138.7 144.3 147.4 151.7 158 165 168.6 164.6 170.2
287.5 284.9 282 279.1 276.6 274.9 274.2 272.8 271.3 269.9 269 268.1 267.7 267.8 267.9 268.5 268.3 267.2 266.2 264.7 262.8 260.6 258.2 255.7 253 249 245.1 242 237.6 233 228.4 225.4 220.1 213.8 206.8 214.7 218.4 222.6 234.8 242.2 248.4 251.1 253.3 255.5 258.3 260.2 262.6 264.9 267 268.6 268.8 269.1 268.9 269.2 269.2 269.3 269.1 268.9 268.7 267.5 266 265.3 264.4 262.7 260.3 258.4 257 255 254.1 251.6 252.1 255.1 256.6 258.1 260.3 259.6 257.1 254.7 253.8 253.7 253.2 251.1 246.2 241.9 241.1 238.4 236 234 230.7 225.5 222.8 221.8 218.6 216.8 216 215.1 213.8 212.1 209.8 207.5 206.1 205 202.5 200.1 197.9 196.7 192.3 189.5 186.1 183.9 181.5 178.2 175.9 173.7 171.3 169.3 167.5 165.8 164.5 162.8 161 159.9 159.9 158.6 156.3 154.1 153.2 152.6 153.6 154.4 156.2 154.7 153.2 151 147.5 142.8 142.7 143 149.8 160.8 153.1 153.4 153.6 153.7 152.8 153.1 152.2 150.9 149.8 149.6 149.9 151.2 151.4 149.3 146.1 144.8 140 133.5 130.8 126.9 127 123.3 117.7 108.1 91.3 80.3 76 77.8 78.1 77.5 77.8 78.7 82.2 79.4 81 84.2 88.8 97.6 106.3 110.8 114.1 114.8 110.2 103.1 89.2 81.3 76.5 94.5 113.8 126 133.5 138.3 143.3 147.2 150.1 153.6 160.2 164.4 164.6 164.6
286 285 282.1 279.2 276.4 275.6 274.6 273.1 271.6 269.7 268.9 267.1 265.9 265.3 265.8 266.2 266.2 266 265.2 264.1 262.5 260.5 257.8 255.1 252.3 249.5 246 243.3 239.7 235.1 229.9 226.8 222.6 218.4 205.6 205.9 210 216.8 230.4 239.6 243.1 244.9 246.9 249 252.3 258.3 258.9 261.5 263.8 266.1 266.5 266.9 267 267.3 267.4 267.5 267.4 267.8 267.4 266.4 264.3 263 262.2 260.7 258.4 256.9 255.4 253.5 252.4 250.5 250.4 255.6 256.2 258 258.6 258.7 256.4 253.8 252.7 252.6 251.7 249 245.9 241.3 240.5 238.1 235.4 232.1 227.9 224.6 222.7 220.8 218.9 215.7 214.9 214.7 213.7 212.2 210.9 208.4 207.3 205.6 204.5 201.5 198.9 195.8 192 189.5 187.1 184.7 182 178.9 175.8 173.1 170.4 168.8 167.3 166.2 164.3 163 161.8 162.5 161.6 160.2 157.7 155.9 155.8 156.3 157.3 157.2 157 155.7 153.8 151.9 148.9 144.9 141.8 144.4 158.6 153.4 153.2 153.5 152.9 153.9 156.6 152.6 151.5 149.7 149.9 150.2 150.6 151.4 151.4 146.3 144.7 143.3 139.2 132.8 129.7 128.3 125.5 120.3 113.4 105.7 88.4 76 76 78.6 78 77.8 78.1 79.4 81.1 79.5 81.5 89.2 91.8 100.5 109.5 113.7 116.4 115.2 110.7 105.8 92 80.7 78.6 96 113.4 129.5 133.2 137.7 142 144.7 144.5 145.2 149.2 154.1 156.3 161.8
283.7 283 280.1 277.2 275.9 275.4 274.6 273.1 271.7 270.8 269.3 266.6 264.6 263.3 263.6 263.6 263.6 263.9 263.5 263.2 261.7 260.4 257.4 255 252.5 250.4 247.3 243.9 241.1 236.9 233.3 226.9 224.1 219.5 215.9 204.5 204.7 211.4 225.3 234.8 236.4 238.4 240.4 242.9 246.1 249.8 254.5 258.7 260.4 263.1 263.8 264.6 264.6 264.9 265.7 265.7 265.6 265.8 266.1 264.5 262.3 261.3 260.1 259.2 257.3 254.8 253.4 251.7 249.4 249.5 250.6 252.7 255.3 256.6 256.8 256.2 253.6 253.1 252.6 251.8 251.4 248.2 245.6 239.6 238.6 236.6 234 230 226.9 224.1 222 220.3 219 216.4 215.2 214.7 213.5 211.8 210.9 209.5 208.1 207 204 202 199.2 196.4 192.8 190.2 187.2 184.1 181.1 178.1 175.6 173 171.2 169.2 168.3 167 165.1 164.1 163.4 163.2 161.7 159.9 157.6 158.7 159.3 160.1 160 159.5 158.3 156.8 155.3 152.8 148.9 143.8 140.9 148.5 165.9 159.8 153 153 152.6 153.1 154.6 152.3 151 150.3 150.5 150.7 151.2 151.4 151.1 144.7 144.7 142.6 136.6 131.3 129.3 127.3 121.4 112.8 106.9 94.2 84.7 76.5 78.7 78.2 77.9 78.1 78 82.3 80.7 79.9 89 101.2 107.3 110 108.6 109.6 114.3 114.9 111.6 107.8 97.3 81.6 81.2 95.7 110.9 126.6 132.2 133.3 135.3 124.5 126.1 125.6 132.2 137.4 141 143
281.1 280.6 277.8 274.8 275.4 275 273.8 272.9 271.3 269.2 268.3 265.1 262.6 260.7 261.3 261.3 260.8 260.7 261.7 262.3 260.9 259 257.3 255.9 253.2 250.7 247.4 244.3 241.1 237.1 233.6 229.9 225 221.2 216.6 211.4 202.8 206.3 218 226.2 229.9 231.4 234.1 236.9 239.7 242.7 251.1 256.1 258.3 260.8 261.8 262.4 262.7 262.7 263.6 264 263.7 263.8 263.5 263 261.6 260.1 258.9 257.4 255.4 253.1 252 249.2 247.4 247.2 249.1 251.3 253.5 254 254.9 254.9 252.5 251.6 251.5 251 250.3 246.9 244.8 239 236.4 234.6 232 228.9 226.1 223.9 222 220.2 218.3 217 215.2 213.7 213 212.7 211.1 209.5 208.7 208.2 203.7 201 197.9 195.1 191.7 188.7 186 182.9 179.5 177.3 174.5 173.1 171.6 169.7 168.6 167.6 165.7 164.6 164.6 163.4 161.4 160.1 159.7 160.9 162.4 162.5 161.9 160.4 159.1 157.3 155.7 153.4 149.8 144.5 139.6 145.2 163.5 153.7 153.5 153.4 153 152.9 152.7 151.9 150.8 151 151.2 151.4 151.4 151.7 149.8 145 144.4 142.1 134.5 130.2 128.9 127.1 116.3 110.5 100.9 92.6 76.7 76.7 78.7 78.4 78.1 78.7 78.5 89 79.9 86.7 98.2 107.3 112.1 115.5 115.9 113.3 110.3 113.5 114.2 111.9 102.4 83.6 80 94.8 107.3 115.4 122.6 121.9 119.2 105.7 101.2 98.6 108.8 115.7 128.5 136
277.7 276.6 275.4 273.2 274.4 273.3 272.1 270.3 268.5 266.2 264.7 262.5 260.6 259 257.7 258 258.8 259.1 259.2 259.1 259.5 257.8 255.6 254 252.5 249.6 247.8 245 241.9 238.1 234.1 230.5 225.4 221.2 218.2 213 202.4 202.4 210.6 220.3 223.7 227.3 226.4 229 232.8 239.4 247.3 252.3 255.6 258.2 259.7 260.4 260.7 260.7 261.5 262.3 261.8 261.7 261.4 260.6 259.8 259 257.3 254.6 252.8 251.1 249.6 247.6 245.7 244.9 248.5 250.3 252.1 252.5 253.1 253.1 252.3 251.1 250.7 250 248.6 245.8 243.2 237.9 236.3 233.4 230.8 227.9 226.5 224.4 222.4 219.9 219 217.4 216.1 214.3 213.4 212 211.6 210.3 209.6 208.7 203.3 200 196.3 193.3 190.3 186.1 183.4 180.6 177.8 175.8 173.8 173.1 171.2 169.4 168.2 166.8 166.2 166.1 165.7 164 162.5 162.3 162.1 162.8 164.1 164.3 163.3 162.3 161.2 159.4 156.4 153.3 150.9 147.6 144.7 137.8 152.4 160.2 154.1 153.9 153.7 153.1 152.7 152 151.3 151.4 151.4 151.4 151.4 151.7 145 144.7 145.3 138.9 132.9 131.5 128.5 122.9 113.8 107 97.6 91.7 76.7 76.8 78.9 78.7 78.5 78.6 78.9 91.1 86.2 99.1 107.8 112.4 116.7 119.2 121.3 119.8 115.1 112.8 116.4 115 112.8 88.5 80.9 86.4 91.3 101.5 99.9 92.5 85.9 82.9 82.2 83.6 86.6 97.9 115 126.4
272.7 272.4 271.2 270.7 271.3 270.6 269.3 267.5 265.8 263.8 262.3 260.1 258.3 256.4 255.9 256.6 257.2 256.8 256.6 256.7 256.9 255.6 254.2 252.8 250.5 249.2 247.3 244.6 241.7 237.7 233.9 229.8 224.8 221.8 217.7 212.1 202.4 200.6 202.5 214.9 219.1 220.3 221 222 230.2 237.2 242.4 248.1 252.1 255.1 256.4 258.2 258.6 258.8 259.4 259.8 259.5 259.5 258.8 259.1 257.6 257.9 257.1 253.7 251.9 248.8 247.4 247 244.9 243.1 244.6 248.1 251 251.5 251.4 251.7 250.6 250.6 249.8 249.1 247.7 244.3 242.3 237.9 235.3 233.2 230 228.4 226.6 224.7 222.8 220.6 218.7 217.5 215.6 214.4 213.4 212 211.8 210.4 210.4 208.4 201.2 198.1 194.7 190 186.8 183.5 180.9 178.5 177.1 175.5 174.1 172.3 172.1 171.7 169.2 167.8 167.8 167.2 166.4 164.9 165.6 164.6 164.6 165.2 166.6 166.6 165.6 164.6 163.1 159.3 156.3 155.3 153.3 150 144.7 134.9 141.9 154.4 160.7 163.9 159.6 153.6 153.1 152.5 151.4 151.3 151.3 151.4 151.4 150.8 144.7 144.6 144.3 133 131.1 138 124.5 119.7 110.8 103.3 95.1 90.4 76.8 78.5 79.7 78.9 79.6 78.6 79.9 92.6 96.2 108.4 113.9 117.9 122.3 126 125.8 122.2 117.3 113.3 117 118.9 117.1 96.2 80.1 84.2 84.5 83.6 82.6 81.2 81.4 83 94.1 93.3 84.3 90 106.7 124.8
267.2 267.7 265.7 265.9 266.7 266.3 266 264.5 262.9 261.4 259.7 257.8 256.2 254.1 253.4 253.7 254.1 254.3 254.5 254.7 255 254.7 252.7 252.4 251.2 249.1 246.5 243.7 240.6 236.9 232.5 229 225.4 222.1 219.2 214.1 207.4 201.1 200.5 209 211.8 213.9 213.6 219.7 227.1 233.8 238.8 243.9 248.2 251.5 253.9 254.5 256.4 256.9 256.3 256.5 257.2 256.9 256.6 256.4 257.4 256.9 255.6 253.7 249.2 247.3 245.8 244.4 243.5 241.4 241.8 244.2 248.5 251 250.8 250.7 249.9 249.3 248.2 247.5 246.1 242.5 239.4 237.2 234.9 232.6 230.4 228.4 227 224.6 223.1 221.2 219.4 217.3 215.4 214.1 212.8 212.5 211.6 209.6 207.7 204.4 200.6 195.8 190.9 186.1 183.3 181.4 179.7 178.2 177.4 175.9 174.3 173 172.8 172.9 172 170.7 169.8 168.1 167.6 168 167.8 167 167.1 167.8 168.5 168.3 168 167.1 164.3 159.7 158.4 157.9 155.6 152.8 149.5 132.8 134.9 142 143.3 149.1 160 167.3 161.1 153 152 151.3 151.2 151.2 149.7 147 144.7 144.3 142.2 131 131.8 134.9 121.8 117.5 110.2 103.4 94.2 90.2 77.3 79 80.1 79.8 79.4 78.9 83.9 96.6 108 115.3 120.1 124.8 128.8 129.7 127.6 123.6 119.2 114 117.7 121 120.8 108.9 91.6 81.3 79.3 81.5 82.6 88.4 101.4 115.5 118.7 106.6 84.8 90.2 109 117.9
263.5 263.1 263.7 262.4 262.5 263 262.2 261.4 259.3 257.2 255.5 254.1 253.1 252.2 251.7 250.8 252.1 252.4 252.6 252.8 253.2 253.3 251.5 250.6 249.3 247.6 244.8 242.1 239.8 237 233.2 229.2 225.9 222.6 219.4 217.2 211 200.7 199.8 201.1 204.1 205 210 215.8 223.5 230.7 236 241.5 245.9 249.3 250.6 252.2 253 252.8 252.7 253.6 254.6 254.7 254.6 254.7 255.7 255.7 255.2 252.7 248.6 246.1 244.9 242.6 239.9 239.7 240.2 242 245.5 247.5 248.7 249.1 248.8 247.6 246.8 246.2 244.6 242.1 240.2 237.1 235.1 232.9 229.9 228.4 227.5 225.7 223.7 221.8 219.9 217.9 216.2 213.5 213 211.5 210.7 208 204.8 199.9 195.2 191.5 186.8 184.2 182.2 180.8 179.7 177.8 176.5 175.7 174.4 174.1 174.2 174.1 173.4 172.2 170.8 169.8 170 169.7 169.5 170.4 170.2 171.1 170.6 170.2 169 166.6 164.7 160.1 158 158.3 156.2 152.4 150.1 139.9 131.7 130.7 128.9 138.1 145.1 159.3 167.5 168 164.3 158.8 151.6 150.7 148 141.3 141.3 143.4 138.5 129.3 134.7 130 118.3 114.2 106.3 101 93.5 90.2 77.4 79.2 79.4 80.1 79.9 80.6 90 104.2 118.4 123.8 128.4 131.7 132.2 131.3 129.3 124.8 120.3 117 118.3 121.4 122.9 123 115.1 106.2 103 106.7 113.3 118.8 127.4 126.2 125.5 105.4 86 86.3 106.8 123.6
260.7 260.6 260.2 259.1 258.8 258.8 257 256 255.1 253.1 252 250.7 249.9 249.8 249.3 249 249.4 249.9 250.4 250.8 251.2 251.7 250.1 249 249.7 246.7 243.7 241.3 238.7 236.2 233.4 229.8 226.5 224.5 220.7 217 212.5 206.7 198.8 198.9 199.6 201.6 206.4 211.6 217.9 227.6 234.5 239.9 244 246.1 247.3 248.1 249.5 249.3 249.1 251.2 251.9 252.4 252.4 253.7 253.9 253.9 254 251.8 246.8 245 244.2 241.7 238.9 237.3 237.5 240.2 242.6 245.4 245.7 247.1 247 247.6 246.7 245.5 244.5 242.2 240.9 238 235.2 233.8 230.8 228.5 227.6 225.6 224.7 222.7 220.1 218.7 216.6 213.6 211.7 209.7 208.2 205.6 201 195.7 191.7 188.3 185.5 183.5 181.6 180.8 179.3 177.6 176.9 175.7 175.2 175.7 175.5 174.9 173.9 172.5 171.3 171.4 171.1 171.8 172.4 172.1 172.4 172.8 172.5 171.3 169.8 167.3 163.8 160.5 158 157 153.7 151.1 147.8 144 140.6 138.1 134.4 127.9 131.7 149.2 166.1 169.1 169 169.5 168.8 161.4 146.9 141.3 143.3 140.3 131 129.8 137.8 124.5 116.5 114 108.7 99.7 93 89.5 77.4 78.8 79.4 79.5 79.7 82.7 98.5 115.8 127.2 132 135 137.5 135.9 132.9 131.3 127 122.6 117.8 119.1 121.1 125.3 126.5 128 130.8 133.2 136.1 139.9 139.5 136.9 131.6 128.2 103.6 86.7 84.7 108.4 122.8
258.1 257.9 257.8 257.4 256.7 255.8 255 254.1 252.1 250.2 248.6 248 246.5 246 245.8 245.6 246 246.4 246.8 247.2 247.7 248.3 247.1 248.2 247.9 245.2 241.8 240.4 238.1 234.8 232 229.8 227.2 224.1 221.3 218.4 213.7 207.6 198.7 197.1 197.9 199.9 203.8 210.3 216.8 228.8 235.3 238 242.2 242.9 243.3 244.8 245.7 246.3 246.8 249.1 249.4 250.1 251.1 251.6 252.4 252.3 252.5 250.8 244.5 243.9 242.4 240.7 237.9 236.3 235.8 238.7 241.7 244.1 244.6 244.3 244.4 243.8 243.8 244.6 243.6 242 239.8 238.4 235.8 234.7 233.3 230.6 229.3 226.5 225.3 224.1 221.1 218.3 216.9 213.2 211.2 209.4 206.9 203.3 197.6 193.4 189.9 186.6 185 183.1 182.1 180.2 179.2 177.8 177.4 176.7 175.9 175.9 175.3 174.8 173.8 172.7 171.9 172.5 172.6 173.8 173.9 174.8 174.6 174.1 173.9 172.6 170.4 167.9 165 160.5 157.4 156 153.3 149.3 146.6 143.1 140.6 137.7 135.7 128 126.2 145.2 165 170 169.9 170.2 170.3 164 152.5 143.6 138.1 132 128.5 128.1 129.9 121.3 116.8 112.9 108.7 94.4 90.6 88.1 77.9 77.4 79.5 79.3 79.7 80.9 101.3 127.9 132 135.9 139.3 139.9 137.1 132.8 130.3 126.5 122.5 119 119.7 121 125.5 127.9 130.3 134.2 140.5 143.7 145.3 145.8 141 135.3 129.8 101.1 87.4 88.3 108.9 126.2
255.7 255.2 254.9 254.7 254.2 253.7 252.7 251.7 249.9 247.7 246.7 246.2 244.2 243.1 242.5 242.6 242.4 242.8 243.2 243.6 244.2 244.3 244.8 245.3 244.3 242.1 239.6 238.6 237.3 235.1 230.5 227.4 226 224.4 222.1 220.1 216 211.3 206 198.1 196 196.6 202.9 208.2 218.8 230.3 234.2 236.5 239.7 240.6 241.3 241.5 243.7 244.7 245.5 247.9 248.2 249.2 249.7 250.5 252.9 252.1 251.5 251.4 243.7 241.8 240.8 238.9 237 235.1 234.7 238 241 242.7 243.4 242.7 242.1 241.5 241.7 243.3 241.8 240.8 240.3 239.8 237.1 235 233.3 231.1 229.7 227.2 226.5 224.9 221.4 219.6 216.8 213.4 211 208.8 205.8 199.9 194.9 191.9 188.7 185.7 184.6 183.4 182.3 180.8 179.7 178.1 177.4 176.7 176 175.4 174.9 174.6 173.6 172.7 172.7 173.9 174.5 175.4 175.5 175.7 175.4 175.1 173 171.2 170 167.5 164.2 160.5 156.4 153.7 151.9 148.9 145.4 142.1 139.9 137.8 135.9 130.2 126.7 144 165.2 170.4 170.4 165.2 158.5 155.1 149.6 141.7 133.4 125.4 125 123.9 122.3 119.8 116.8 113.6 104.4 94.2 88 81.8 80.7 77.5 80.2 79.6 79.9 85.9 106.3 132.7 137.7 141.5 144.7 141.4 137.1 132.1 129.2 125.5 121.4 119.1 120.1 121.1 125.3 128.5 131 133.9 139.4 144.4 146.7 146.5 142.5 137.2 128.5 104.2 86.4 94.2 116.7 126.5
253.6 253.2 252.6 251.4 251.2 250.9 250.4 249.1 247.1 245 244.6 243.6 242.7 241.6 240.8 240.1 238.7 239.2 239.6 240 240.9 241.7 241.9 242.2 240.7 238.3 236.9 236.4 234.5 232.8 228.8 225.7 223 221.4 219.6 217.9 215.8 211.2 206.7 194.6 194.8 195.5 202 210.7 220.6 230.2 233.1 234.7 236.4 238.3 239.4 239.7 241.7 242.6 245.2 247.1 247.3 248 248.3 250.5 252.7 252.3 250.3 248.7 242.9 241.8 239.4 237.6 236.3 234.6 233.6 236.7 239.5 240.6 241.4 240.4 240 240.8 240.1 240.6 240.9 240.4 240.6 240 238.5 236.1 233.2 232.1 229.9 227.9 226.8 225.3 220.6 219.3 216.8 212.6 210.3 206.2 203.3 198.3 194.1 191.1 188.3 186.2 185.3 184.1 182.9 181.2 179.8 178.7 177.4 176.7 175.6 174.9 174.8 174.1 173.4 173.1 173.3 174.5 175.2 176.5 177 178.1 176.7 176.1 174.1 171.9 169.8 167.2 163.6 160.9 157.8 153.8 150.4 147.7 144.6 141.4 139.2 137.2 135.8 122.7 129.4 143.6 158.1 160 153.5 143.8 143.4 140.1 141 134.5 124.1 121.4 120.3 120.3 117.7 116.4 117.2 112.6 106.4 96.3 87.6 80.2 81 78.2 77.5 80.4 80.2 93.1 116.1 137.3 144 148.6 150.4 143.4 136.6 130.9 127.1 123.9 121 119.1 120.7 124.3 126 126.1 130.2 132.9 137.6 142.8 145.2 146.2 144.5 141 131.5 102.1 86.2 96.6 116 126.6
250.7 251.2 250.3 249.2 248.2 248.6 247.1 246 244.7 243.7 242.6 241.6 241.2 240.3 239.2 238 237.3 236.1 235.7 236.4 237.3 237.8 238.6 238.8 237.3 235.5 235.4 234.1 232.9 230.3 226.8 224.1 221.4 219.3 217.5 215.7 213.7 209.9 205.4 194 195 197.4 203.6 210.3 220.3 229.1 231 233.1 234.3 235.2 236.8 238.6 239.3 240.7 243.7 245.1 244.7 245.2 246.7 249.1 249.8 250.3 248.5 243.4 240.3 238.4 237.2 235.8 234.6 233.6 232 236.4 239.3 239.2 238.6 237.6 238.6 239.5 239.5 239.3 239.2 239.3 239.7 238.8 238 236.1 235 233.3 230.7 228.5 227.1 224.9 220.2 216.8 215.1 211.9 208.2 203.6 200.2 196.1 192.9 190.4 188.9 186.4 185 183.9 183.3 181.4 179.8 178.4 177.6 176.5 175.4 174.6 174 174.2 173.5 173.3 173.8 175.1 175.8 177.3 177.9 179.1 179.1 177.6 175.7 173 170.5 167.5 165 163.2 159.1 153.8 148.7 145.7 142.9 140.9 138.8 137.6 135.1 124.2 122.1 134.4 143.9 142.1 137.9 134 127.8 127.5 128.5 125.3 120.9 121.1 120.5 118.8 118.6 116.1 117.2 113.3 107 93.8 82.6 81 80.5 80.3 77.7 78 80.7 103.1 126.7 140.3 146 151 149.8 142.4 134.9 129.5 125.9 122.8 120.6 120.3 121.7 124.2 126.2 127.3 130.1 132.8 135.9 139 142.4 145.7 144.8 143.3 131.5 103.2 86.7 96.7 113.9 121.6
247.9 248.8 248.2 247.5 247 246.3 246.2 244.3 243.6 242 239.8 239.4 238.5 237.3 236.1 235.5 234.5 233.8 232.9 233 233.6 233.8 234.5 234.7 234.6 233.6 232.9 232.1 230.7 228.3 226.2 224.2 223.1 221.4 218.8 213.9 210 206.9 203.1 193.8 195.2 200 204.7 212.3 220.2 226 229.9 231.1 231.8 233.6 235.2 236.4 237.4 240.5 243.2 244.7 243 242.4 244.5 246.7 245.5 246.3 244 238.8 236.9 236 235.5 234.2 231.9 230.7 229.8 233.6 237 238 237.6 235.5 235.8 237 238 238.6 238.2 238.7 238.8 237.6 236.8 235.6 235.1 234.5 230.8 228.4 226.2 224 219.4 216.3 213 208.1 204.2 200.8 198.7 195.5 193 191.2 189.1 186.8 185.6 184.2 183.6 181.5 180.4 179.2 177.9 176.1 175.2 174.3 173.6 174.1 173.7 173.6 174.7 175.4 176.2 177.5 178.8 179.2 179.1 178.6 176.5 174.9 172.2 170.5 167.9 162.4 157.1 153.4 148.5 143.8 141.7 139.8 139.6 138 135.8 133 120.2 131.1 131.8 134.9 134.6 127.9 126.8 125.5 122.8 120.1 120.6 120 119.1 115.6 114.1 114.9 118 111.5 101.2 88.7 81.4 81.1 80.7 80.9 80.5 78.4 85.3 110.2 131.7 143.9 148.3 151.9 147.9 139.3 133.1 127.9 124.9 122 121.5 121.7 122.7 125.7 127.5 128.4 129.2 131.4 133.8 136.9 140.1 144 145.6 144 139.8 112.9 85.6 92.8 105.7 116.5
245.6 245.9 246 245.9 245.6 244.9 244.5 242.7 241.7 240.5 238.7 236.3 235.6 234.1 232.8 231.8 230.4 229.4 229.8 229.1 228.9 230.2 230.7 231.4 230.7 229.6 229.7 228.6 227 225.2 223.2 221.4 220.1 219.1 217.8 215.6 210.2 206.3 201 192.8 193.8 200.8 206.8 214.5 220 225.3 228.2 229.5 230.4 232.3 234.2 235.7 236.1 238.7 243.9 245.4 241.7 240.8 242 244.6 241.3 240.7 238.9 234.3 234.2 234.4 232.4 232.1 229.1 226.6 230.8 232.7 236.6 236.7 234.8 232.7 233.4 234.6 235.6 236.2 236.8 237.3 237.6 237.5 236.9 235.4 234.2 235.1 231.3 228.6 226.4 222.9 219 214 211.3 208.7 203.8 199.6 198.3 196.7 193.8 192.6 189.4 188.3 186.8 185.2 183.6 181.8 180.7 179.2 177.7 175.8 174.6 173.6 172.9 172.5 172.5 173.6 174.9 175.7 176.7 178.1 179.2 178.6 178.4 178.7 177.3 175.4 174.7 171.9 169.2 165.8 159.9 153.9 148.6 144 140.2 138.7 138.8 137.6 135.8 133.4 122.2 125.9 123.3 129.7 130.8 127.5 125.9 122.8 120.2 119.9 119.2 117.5 109.6 108.4 109 110.2 116.8 111 96.4 82.1 80.9 81 81.3 81.4 79.8 78.3 94.7 118.5 143.3 147.4 150.5 151.8 148.5 137.9 131.5 127.5 123.9 122.3 122.8 124 125.6 128.8 131.2 131.5 130.3 130.5 132 135 138.5 142 144.1 143.7 142.6 127.9 99.6 87.8 91.9 100.6
244.3 244 243.8 243.4 243 243.2 242.2 241.1 239.2 238.2 236.6 235.2 233.9 232.2 230.1 228.4 226.6 226.3 226.7 226.8 226.4 225.5 225.8 227.3 226.9 225.8 225.9 224.6 222.7 221.1 218.6 216.8 215.4 214 213.2 212.5 210.5 206.6 193 191.6 195.2 201.8 207.7 215.1 221.2 225.1 226.7 227.7 228.5 230.7 232.6 234.3 235.3 237.8 241.4 243.2 240.3 239 241.4 242.5 239.5 237.6 236.5 231.3 231 231.4 230.8 230.1 225.7 227.8 230.3 232.3 234.6 234.4 232.8 231.1 231.1 232.2 232.7 233.6 234.3 236.5 237 237 236.5 234.5 233.5 233.4 232.2 226.9 224.6 221.2 217.9 213.7 210.8 208 205.5 201.9 199.8 198.5 195.6 192.2 189.9 188.1 187.3 186.5 184.2 182.1 180.7 179.3 177.5 175.5 174.4 173.1 172 171.5 171.2 173.7 175.8 176.8 177.2 178.6 178.9 178.3 178.1 178 178.3 176 175.1 174.4 168.5 165.2 159.2 153.8 150.7 145.4 139.5 137.2 137.7 135.1 133.5 132.4 130.4 118.6 120.2 113.9 113.3 116 114.4 115.5 107 115.5 116 112 107.8 107.3 107.5 106.6 107.4 102.2 90 81.1 81.3 81.5 81.7 81.7 80.6 78.4 103.2 125.4 149.3 148.8 151.3 151.3 146 137.5 130.3 126.9 124.6 122.2 123.3 125.7 128.5 131.6 134.6 136.4 133.5 132.6 132.5 133.8 136.4 139.5 139.6 140.1 140.7 140.7 129.1 101.7 88.2 88.6
242.7 242.1 241.6 241.1 240.6 240.5 239.6 238.7 236.7 235.9 234.2 233 231.6 229.6 227.5 225.8 224.4 223.7 223.5 222.9 221.8 222.8 222.4 221.3 221.4 220.2 221.1 221.2 219.7 217.2 213.7 211.2 209.7 207.7 207 206.5 205.9 203.8 191.5 191.1 199.9 204.7 208.6 216.5 222.3 225.2 225.2 225.9 226.7 228.3 230.5 231.9 234.1 235.1 236.7 238.2 236.4 236.1 239.9 240.3 236.3 235.2 234 230.8 229 228.9 228 226.3 224.7 225.3 227.4 229.6 230.7 231.4 230.9 229.1 229.9 229.5 230.8 231.6 232.9 236.1 236.8 236.5 233.9 233 232.4 231.5 230 226.1 222.8 219.8 217.3 213.1 212.1 208.2 205.8 203.6 202.5 200.1 197.5 193.7 190.8 188.6 187.7 185.8 183.7 182.1 180.7 179.3 177.3 175.2 174.2 172.6 171.5 170.6 170.1 173.4 175.7 176.7 177.9 178.3 179.1 178.4 177.7 177.5 176.8 176.2 173.7 170.7 165.9 162.8 160.1 154.1 147 144 138.8 135.9 135.2 133.1 130.6 129.6 129.2 123.6 124.2 123.4 123.4 123.2 118.5 111.8 97.8 108.4 113.7 107.6 103.4 100.6 99 102.4 101.4 93.1 81.5 81.4 81.7 81.8 81.7 81.2 78.2 79.5 110.2 131.1 153.8 150.7 150.8 150.1 144.1 135.3 129.3 126 123.5 122.9 122.7 127.2 131.2 134.2 136.6 138.7 136.7 134.3 134.1 134.1 135.2 136.5 138.2 138.5 138.7 140 142.7 135 117.9 106.2
240.2 240.3 240.2 239.7 237.9 237.8 236.8 235.6 234.7 234 232.3 230.9 228.9 226.8 224 220.2 219.5 219.5 219.6 219 218.2 218 217.3 215.7 214.8 214.3 215.1 215.5 214.5 212 208 205.7 203.2 201.3 200 200.6 200 195.4 190.4 190.9 200.5 206.9 209.4 215.8 221.3 225.2 223.6 224.5 225.6 227.2 228.9 229.9 229.8 231.2 232.6 233.6 232.6 233.8 237.6 236.6 233.9 233.1 231.3 229.1 228.5 227.1 225.6 224.4 224.3 224.7 226.3 226.5 227.8 227.3 227.9 228.6 229 229.3 229 230.5 231.1 234.6 235.5 235.1 232.8 231.4 230.5 229.3 228.3 225.1 222.4 218.6 217.7 214.5 212.7 210.2 207.5 205.3 205.7 203.6 198.2 194.5 191.9 188.7 187.7 185.6 183.8 181.8 180.4 179.2 177.7 176.2 174.6 172.1 170.8 170 170.6 173.5 175.6 177 178.3 179.1 179.2 179.8 177.6 177.1 176.1 175.1 172.1 170 167.2 159.4 156.2 151.2 143.6 141.7 136.9 134.6 132.4 130.3 128.1 125.2 125.8 125.2 124.9 124.1 123.4 120.1 112 101.1 93.9 107.7 107.4 103 96.7 92.4 91.2 90.6 90.7 85.6 81.7 81.9 81.4 81.7 79.5 78.3 78.4 94.6 115.5 137.7 151.4 150.3 147.8 145.9 140.7 133 127.7 125 123.2 122.3 123.1 128.5 132.8 136.4 138.6 139.8 140.3 136.7 136.1 135.3 135.6 135.5 136.8 136.9 137.3 138.9 142 140.2 138.9 135.5
237 237 237.2 236.9 236.4 235.3 234.5 234 232.8 231.9 230.7 229.4 228 225.6 222.6 219.8 215.5 214.9 215.4 215.8 214 213.7 212.4 210.4 208.6 208.3 208.8 208.6 207.1 204.7 200.2 199.1 196.5 195 194.3 194.8 192.9 188.8 188.8 192.6 200.3 206.3 209.8 215 219.8 222 221.7 222.4 224.5 226.6 227.4 227.5 227 227.1 228.1 227.8 227.7 231.2 235.1 235.1 232.2 230.3 227.5 226.8 226.3 225.1 223.3 222.2 222.2 223.5 224.4 225.7 226.3 227.5 225.4 227.1 227.5 228.7 227.6 228.3 229.4 232.1 232.4 232.6 232.3 230.7 229.3 227.9 226.8 223.3 222.8 220.2 219.5 218 214.1 211.4 209.5 207.9 208 205.3 199.5 195.1 192.5 189.1 187.8 186 183.6 181.7 180.2 179.2 178.1 177.1 174.5 171.2 169.4 169 170.7 173 175.5 177 177.6 178.7 178.9 177.8 177.5 176.1 175 174.4 173.2 166.8 165.6 159.6 153.3 148.1 142.1 139.4 136 133.8 131.2 127.6 124.8 117.5 114.6 122.2 123.2 122 119.7 115 105.7 94.1 101.2 107.2 102 94 89.5 88.6 86.5 84.4 81.9 82.2 82.2 80.5 78.8 78.8 79.4 79.6 84 105.3 126.6 145.1 150 148.4 144.9 142.1 138.1 130.7 125.8 124.1 123.1 122.6 122.6 128.2 132.9 136.3 140.3 141.9 142.6 139.4 138.5 137.4 137 135.5 134.7 135.4 136.2 138.2 140.5 139.5 135.9 137.8
234.8 235 236.4 236 233.4 232.2 232.2 230.9 230 229.2 228 226.7 225.9 224.6 219.7 216.5 212.7 211.2 212.4 212.6 211.1 211 208.1 206.2 204.9 203.2 202.1 199.7 198.1 196.5 193.5 193.4 191.2 190.2 187.9 186.1 187 188.2 189.2 194.4 200.5 205.2 208.4 213.6 217.3 219 219.9 220.3 223 225.9 226 225.4 225.2 224.6 224.8 224.1 224 227.2 231.7 232.9 231.7 227.7 225.8 224.3 223.5 223.1 220.6 219 222.1 222.3 221.8 221.4 222 224.9 223.4 224.9 226.5 227.3 226.8 226.8 228.2 229.8 231 231 230.7 229.1 228.3 226.8 226.2 224.8 223.3 222.2 221.5 219.7 215.5 212.6 211.4 210.5 209.8 206.5 201.6 195.8 193.8 190.5 187.6 185.7 184 182.3 180.8 179.5 177.1 174.9 173.6 170.2 168.3 167.6 170 172.4 175.2 176.8 176.6 177.6 178.5 177.1 175.9 174.9 173.9 172 170.7 167.8 161.7 157.4 152.1 148.6 141.7 138.4 135.7 132.7 130.5 128 126.2 123.1 116.5 105.8 111 112.2 110.9 109.2 91.3 91.4 103.5 97.9 89.8 86.9 82.4 81.9 82.8 82.1 79.4 79.7 79.7 79.7 79.7 80.4 80.8 85.1 101.9 116.4 136.1 145.2 146.6 145.3 143.7 140 135.5 128.8 125.3 123.7 123 122.9 122.1 126.7 130.8 134.6 140.4 142.5 143.4 141.1 140.9 139.6 137.6 135.9 135.1 135.3 134.4 135.1 136.6 135.4 133.6 134.7
231 232.5 233.7 233.1 231 230.2 229.8 227.9 226.8 225.8 224.8 224.4 224 221.8 218.2 213.7 211.3 208.6 208.4 208.3 208.2 207 204.7 202.3 200.6 198.7 196.6 193.8 191.7 190.7 187.9 185.7 184.9 185.5 185.2 186.8 189.2 188.7 193.6 196.2 201.1 204 206.8 211.6 213.9 215.8 216.8 218.3 220.6 223.4 223.4 223.1 222.8 220.9 221.1 221.2 221 223.6 226.4 229.2 227.1 222.5 221.9 222.3 221 220.2 218.3 218.6 219.4 221.2 220.7 219 218.7 220.2 221.1 221.8 224 225.4 225.6 225.4 226.7 227.6 228.1 228.2 229.2 227.4 226.1 226 227.2 226.1 224.3 222.9 222.1 220.4 217.4 215.1 213.3 212.2 210.6 208.1 202.7 197.5 195 192.5 188.7 185.8 184 182.4 181.2 179.6 176.4 174.3 171.2 169.1 167.2 166.4 168.3 171.1 174 175.7 176 176.6 177.2 176.2 175.2 174.7 173.2 171.1 169.5 167.2 162.7 155.1 149.4 144.8 139.5 136.2 133.5 131.4 130.4 126.9 122.4 117.4 109.7 100.6 108.4 108.1 104.1 100.6 95.8 91.5 90.1 86.9 83.9 84.1 84.1 82 81.6 79.6 79.6 80.1 80.9 80.5 81 82.1 93.5 100.4 114.4 130.1 139 145.2 146.1 144.9 142.6 139.1 133.8 128.7 125.6 123.9 122.9 123 122.8 125.4 129.5 134.6 141.6 143.9 144.6 142.3 142 140.9 138.6 136.9 136.1 137 136 134.4 133.1 131.9 131.7 130.2
226.4 227.5 228.5 228.9 228.2 227.1 227.2 225.6 223.4 222.1 221.5 220.5 219.3 219.3 216.7 211.5 208.1 206.3 205.3 205.8 206.4 203.5 201.1 199.5 197.5 196.5 194.3 191.5 188.4 182.6 181 182.1 183.6 184.9 189.7 193.3 194.9 195.3 197.6 198.2 200.8 203.6 205.7 209.2 211.1 212.6 214.7 216.6 218.1 220.5 221.4 220.7 220 218.4 217 217.2 218.4 220.7 222.1 223.4 222.7 219.7 218.5 218.7 219.1 218.7 216 217 217.4 217.7 218.1 217.1 217.3 217.3 218.9 219.4 221.6 223.1 222.4 222.8 224.8 225.7 226.6 227.1 226.2 226.8 225.3 225.6 225.9 225.6 224.6 223.1 222.4 220.3 218.4 216.5 214.4 212.9 211.3 208.4 204.6 200 196.6 193.6 190 186.1 184.7 182.5 181 179.4 175.9 173.4 169.8 167.7 165.8 165.2 166.5 168.5 172.1 175.3 176.2 176.3 177.1 176 174.9 173.5 171.1 169.6 167.3 165.7 164.5 158.2 149.9 144.6 138.4 134.6 131.1 129.2 129 124 118.8 113.1 103.3 98.5 96.3 97.3 96.1 93.4 89.8 85.7 86.3 83.5 82.9 82.2 81.6 79.2 79.9 80.5 81.6 82 81.7 82.6 87 95 99.4 112.1 123.9 138.9 142 144.7 144.9 143.5 141.2 137.6 133.1 128.3 126.1 124.9 123.9 123.9 123.9 126.2 132.5 137.2 142.9 144.2 145.3 143.8 142.3 142.3 141.1 139.3 138.6 138.5 135.7 133.4 131.5 130.2 129.6 129.7
222.3 222.7 222.7 223.8 224.4 223.1 223.2 221.6 220 219.6 219.5 218.6 216.9 215.1 213 209.4 206.8 204.8 203.5 203.2 202.9 200.5 198.3 196.1 195.2 194.1 191.3 188.7 180.6 179.6 186 191.8 193.3 192.6 192.9 195.2 196.8 198.4 199.8 199.6 200.9 202.1 203.4 206.8 208.5 210.3 213.2 215 216 217.4 218.6 218.5 218.1 216.3 214.3 215.3 216.1 217 218.4 221.2 219.7 219.4 217.3 216 216.9 216.3 213.9 215.2 215.4 215.7 215.4 214.3 214.1 215.4 217.1 217.9 219.5 220.1 219.8 220.6 223 223.7 224.2 224.9 225.1 224.1 224.9 224.4 224.4 224.1 223.5 222.2 221.9 221 219.4 218.1 216 214 212.2 209.8 207.1 202.4 198.2 195.2 190.8 187 184.6 183.4 181.3 179.1 176.8 172.1 167.8 165.8 164.2 163.9 164.9 166.6 168.8 173.8 175.4 175.6 175 174.9 173.2 172.4 169.9 167.4 164.9 163 159.3 154.7 148.6 144 137.6 132.9 130.8 127.1 125 121.1 115.2 106.4 96.8 95.9 91.6 91.3 87.9 86 86.4 84.5 83.5 82.4 82.4 82.3 79.7 80.1 82.4 82 82 81 84.2 86 95.5 98.1 107.4 115.9 131.3 142.4 144.7 146.4 144.8 143.3 140.8 136.3 130.6 129 130.7 126.5 123.7 124.3 125.5 129.1 137.8 143.5 146.5 147.2 147.8 147.5 146 145.3 143.9 141.8 141.5 140 136.6 135.1 134 132.8 131.5 133
218 217.4 216.7 217.1 218.3 217.6 218.3 217.5 216.4 216 217.1 216.3 213.9 210.9 209.5 206.9 205.1 203.4 201.6 200.4 199.8 198.5 197 194.7 192.9 191.8 189.2 180.9 179.4 179.2 186.2 193.2 194.4 195.6 197 198.9 199 200.6 200.8 201.8 202.1 202.5 203.9 205.6 207.2 208.6 211.3 212.6 213.7 214.4 215.5 215.5 215.6 214.9 212.6 212.5 214.2 214.7 215.9 218.2 217.8 216.9 216.9 213.8 214.1 214.8 212.4 213.3 214.3 214.9 213.9 212.8 211.8 212.3 214.2 216.2 216.7 218.3 217.6 218.4 221.1 222.6 222.4 222.6 222.6 222.2 223.1 223.4 222.8 222.6 222.2 221.9 221.7 221.5 221.6 219.9 217.4 214 213.7 212.2 209.4 205 200.4 196.9 191.7 188.3 185.5 183.6 181.3 178.2 175.3 171.2 166.5 164.2 163.5 162.4 163.3 164.3 168.1 171.4 174.2 175 172.9 173.5 171.3 169.9 168.4 167.2 164.2 160 154.2 150.9 145.4 139.4 135.3 132 129.1 125.6 119.1 114.8 104.2 97.5 91.6 84.2 84.5 83.8 83.3 82.7 82.7 83 82.5 82.5 79.7 80 80.3 82.7 82.4 81.5 84.7 90.8 98.6 95.1 92.7 100.3 109 121.2 135.1 143.2 146 147.7 144.2 142.6 141.9 137.2 132.3 131.7 132.7 126.7 124.6 126 128.5 135.2 144.4 149.6 154.1 154.7 153.1 153.5 151.4 150.3 149.4 147.8 145.7 142.5 141.1 140.8 138.4 137.9 139.1 135.8
213.9 213.8 212.7 211.6 211.3 211.1 212.8 213.2 212.1 210.8 210.9 210.5 209.9 206.9 205.3 204.9 203.3 202 200.7 198.8 198 196.5 194.4 192.5 191.3 189.4 185.3 178.4 178.2 180.7 189.2 194.8 197 197.1 200 202.9 203.5 202.4 203 202.1 202.6 203 203.8 205.5 206.8 207.6 209.2 210.2 211.4 212.6 212.6 213 212.9 212.5 211.5 211.3 212 212.4 213.1 213.3 214 212.8 212.1 211.6 210.8 212.3 210.5 211.7 212.1 212.9 211.8 211.4 210.5 211.4 212.2 213.5 213.7 216.2 216.5 217.1 218.9 220.3 220.5 220.6 220 219.9 221 221.6 222.2 220.9 221.9 221.2 221.1 220.4 221.7 221.5 218.4 215.6 213.3 212.1 210 206.8 202.7 198.4 193.2 188.8 185.7 183.4 179.5 176.5 173.1 168.8 165.4 163.2 161.9 161.7 162.6 162.8 164.9 167.8 172 173 170.8 171.9 169.6 167.2 166.7 165 162.7 159.6 154.1 148.4 141 136.5 134.1 132.1 125.4 119.9 118.3 103.8 95.5 85.7 83.4 83.5 83.6 83.2 83 83.1 82.8 80.3 80.4 80.5 80.5 82.3 83.6 82.3 86.5 91.5 100.7 99.4 99.5 99.6 90.8 102.1 110.1 122 134.5 141.2 144.1 146.1 143.2 141.2 140.2 136.3 131.3 130.1 129.9 126 125.6 129.2 134.4 142.4 152.5 157.8 161 162.8 161.8 159.1 156.7 155.8 154.4 153 151.5 147.6 145.6 144.5 143.5 143 143.9 142.4
211.5 211.2 211.1 208 206.4 206.2 206.2 208 206.9 206.7 207.2 206.6 206.2 205.1 203.1 202.1 201 199.9 198.6 197.3 195.9 194.3 192 190.9 189.3 186.8 182.2 178.2 177.6 181.6 192.9 198.6 199.2 199.1 201.4 204.6 204.6 204.8 204.2 203.5 204 203.9 204.1 204.7 205.9 206.5 207 208.1 209.3 210.5 210.7 210.5 210.6 210.8 210.3 209.6 209.9 210 210.1 209.9 211 210.3 210.1 209.1 207.6 206.6 208.9 210.4 211.3 211 209.8 209.1 209 209.8 211.1 211.1 211.6 213.1 214.2 215 216.1 217.3 217.7 217.6 216.5 217 218.5 220.6 218.7 219.4 220.4 220.1 220.6 221.5 221.6 221.7 221.1 217.8 215.5 212.1 210.1 207.6 203.6 199 195.5 190.3 186.1 183.6 180.3 175.6 171.1 166.7 164.1 162.1 160.8 159.9 161.1 161.2 162.2 164.3 168.4 168 169.4 167 166.5 163.6 161.6 160.7 160 154.3 151.8 146 138.1 134.1 133 132.2 125.9 112.3 108.6 91.8 85.4 83.8 83.8 83.8 83.9 83.7 83.5 80.4 80.5 80.4 81.2 81.7 83.2 83.1 85.8 91.1 95.5 99.3 100.1 99.7 101.2 101 91.9 101.4 110.4 122 134 139.1 141.7 143.9 141.7 138.8 137.1 133 129.6 128 129.2 126.2 127 131.5 141 149.6 159.7 168.2 174 172 169.2 166.8 163.9 160.4 158.9 157.3 155.7 152.6 150.5 147.9 148.2 148.7 148.1 147.2
206.7 207.8 206.9 205.6 204.2 201.9 203.1 203.5 203.6 203.7 203.9 203.9 203.3 202.7 201.5 199.9 198.8 198 196.5 195.7 194.4 192.2 190.5 188.5 188.7 187.2 181.7 176.8 176.2 184.7 193.5 198.6 202.1 203.9 202.7 204.9 204.9 205.9 206.1 204.7 205.7 205 205.2 204.8 205.3 206 205.8 206.6 207.5 208.2 209 208.7 208.9 209.3 209.5 208.9 207.4 207.1 207.3 207.8 209 208 208.3 207.5 205.6 205.2 207.7 208.8 209.1 209.7 208.3 208.2 207.5 208.5 209.2 210.1 210.3 211.6 212.7 212.8 213.4 212.9 214 214.5 214.7 215.9 215.7 215.8 215.5 215.7 216.4 217.4 219.5 221.2 221.6 222 222.4 220.4 217.3 214 211.4 208.1 205.7 201 196.6 192.7 187.9 184 179.8 174.7 170.6 166 163.6 161.8 160.7 159.4 157 158.6 158.7 160 161.6 160.9 162.8 161.2 160.2 158.7 156.3 155 154.8 149.2 146.4 140.5 134.9 131.9 129.4 127.5 118.7 105 93.4 83.9 83.8 83.9 84.1 84.3 84.2 81.2 80.9 81 82 81.6 83.3 86.3 89.1 91.2 91.4 95.7 100.2 101.1 101.7 102.9 106 104.6 95.6 102 108.9 119.9 132.8 138.9 140.4 141.9 139.5 135.9 132 128.7 127.4 127.5 128.6 131.9 131.8 140.8 151 158.8 167.5 175.4 178.8 175 178.7 173.8 169.3 166.9 164.5 162.9 161.1 158.5 155.1 152.9 152.8 153.7 154.5 153.7
203.4 202.4 201.6 201.4 200.1 200.3 201 200.4 201.6 202.3 202.2 201.6 201.1 200.4 199.7 198 196.9 196.3 194.6 193.6 192.2 190.7 190.9 187.7 181.9 184.9 178.1 175.1 175.7 186.1 192.3 196.8 200.3 204.4 204.3 204.2 205.6 207.2 205.9 205.6 205.9 205.6 205.9 206.1 205.1 205.3 205.2 206 206.2 206.9 206.8 207.4 207.7 208 208.2 207.8 206.2 204.4 204 203.3 205 205.1 204.1 205.3 202.9 204.2 205.9 206.9 207 207.3 206.6 206.5 206.2 207 207.5 208.1 208.9 210 210.6 211.2 210 209.4 210.3 211.3 212.1 214.1 213.1 211.7 211.8 210.6 212.4 214.1 216.8 218.2 220.6 222.4 222.5 222.9 220.9 215 213 208.9 207.1 203 198.6 192.4 187.1 183.6 178.3 173.2 169.2 165.7 163.9 161.7 160.6 159.4 158 155.5 155.8 153.1 151.9 152.4 155.4 155.5 152.9 151.8 149.8 148.2 149.5 142.5 138.2 134.8 129.1 125 121.1 114.9 106 91.8 84.9 83.9 84 83.9 84.1 84.4 82.5 81.3 81.9 83.1 82.1 84.3 88.8 91.6 91.7 93 96.6 101.2 105.7 103.9 108.1 110.5 110.3 109.5 111.7 102.1 108.1 116.9 128.3 134.8 137.5 138.6 136.9 131.8 127.4 126.8 128.1 128.9 140.1 139.8 139.4 150.2 158.4 168.1 176.1 183.1 188.9 187.6 186.8 181.3 175.8 173.3 170.5 168.7 165.9 163.6 161.6 159.4 158.4 159.8 161.3 161.2
199.7 198.8 198 198.3 198.1 199 199.7 199.7 199.6 199.8 200.7 200.8 200.5 199.7 198.2 197.5 196.1 194.1 192.5 190.3 189.2 188.7 190.4 188.2 184.3 177.6 174.4 174.4 182.8 187.7 192.9 196.1 200.2 202.8 205.8 205.7 206 206.6 206.5 205.3 205.9 205.7 205.7 205.4 205.3 205.3 204.8 205.5 205 205.6 206 206.4 206.4 206.7 207.2 207.4 205.8 203.1 201.9 202.3 202 201.4 201.5 200.6 201.9 203 203.3 205.5 205.6 205.7 205.4 205.3 204.8 205.6 206.3 207.1 207.9 209 209.9 208.7 207.9 207.4 208.1 209.2 209.4 210.6 210.4 208.7 205.9 206.1 208.1 209 211.2 214.4 218.8 220.1 221.2 220 220 216.9 213 209.6 208.4 203.7 199.2 192.9 187.1 183.1 178 173 169.7 166.3 163.5 161.7 160.6 159.6 158.5 157 152.5 147.8 144.5 145.2 146.1 146.3 144.5 144.5 142.8 139.3 136.9 135.6 132.2 123.5 121.1 113.5 108.7 100.2 91.4 84.7 84.3 84 84.2 84.3 83.8 82.6 82.2 82.5 83 82.8 84.8 90.1 92.4 95.1 95.3 98.7 99.4 102.4 106.4 111.5 113.3 112.7 114.5 114.7 113.9 112.2 103.1 113.6 120.5 129.1 134.1 134.1 132 128.2 125.9 127.9 132.6 131.1 132.6 139.6 146.9 155.9 167 175.3 181.8 192.4 197.5 197.9 196.3 190.4 184.5 178.7 176.1 173.1 171.6 169.7 167.3 167.3 167.5 167.6 166.9 166.6
197.9 196.9 195.7 195.6 196.2 197.3 197.8 197.6 198.3 199 199.4 200.1 200.2 199.1 197.2 195.8 195.5 193.6 191.8 188.1 186.6 187.6 187.8 181.6 171.7 175.4 178.7 179.3 184.9 190.9 195.6 196.8 198.8 201.7 204.4 206.3 206.6 206.1 205.9 205.9 205.8 205.4 205.4 205.2 204.8 204.5 204.6 204.3 204.4 204.3 205.4 206.4 205.9 205.8 206.6 206.5 205.3 201.5 199.9 199.2 199.7 200.3 199.4 198.3 199.1 199.9 201.3 202.9 202.8 203.5 204 203.9 203.6 204.1 205.5 205.5 207.1 207.9 208.6 206.1 205.6 205.5 205.5 206 206.2 206.1 205.7 205.6 202.4 201.5 202.6 204.6 207.4 209.4 213.6 215.7 217.6 218.4 217.6 216.9 213.4 209.8 208.6 205.6 198.7 192.9 188.3 183.8 178.6 173 169.8 166.2 163.9 162.3 161 159.8 158.7 157.6 155.5 152.6 149.5 141 135.6 134 132.6 133.5 133.8 131.3 128.3 120.3 113.6 105.6 99.1 97.5 92.3 85.6 84.3 84 84.6 84.2 84.3 84.4 82.7 82.3 81.9 82.8 82.6 85.3 91.7 92.8 96.8 100.1 100.6 100.2 102 105.4 109 110.8 113.8 114.9 115.3 115.7 117.4 120.7 121.1 110.8 116.2 122.5 127.3 126.5 124.3 123.7 126 128.8 130.4 133 133.8 138.6 150.9 162.2 174.2 178.7 179.4 183.2 181.5 201.7 201.1 195.1 190.4 186.4 179.8 178.5 178.9 177.1 174.4 174.5 174.8 174.3 174.2 171.5
197.8 195.5 195 194.6 194.5 195.4 197.3 197.2 197.7 197.6 199.4 200 198.6 197.7 196.8 195.1 194 192.8 190.9 187.9 184.4 183.4 185 166.4 174 177.5 181.9 182.2 185.5 191.4 195.8 198.1 198.6 201.1 203.2 205.1 205.8 206 205.9 205.5 205 205.4 205.1 205.3 205.1 203.5 203.8 203.4 203.6 203 204.1 206.1 206.2 205.6 206.2 206 203.9 200.7 198.9 198 197 198 197.8 196.9 196.1 198.2 199 200.6 201.8 202.1 202.7 202.5 201 201.9 203.8 205 206.2 206.9 206.1 205.1 202.6 203.8 203.1 203.2 203.1 201.8 201.6 201.7 198.5 196.2 197.8 199.6 203.9 205.7 207.8 210.1 212.9 214.8 216.2 213.9 211.9 210.5 209.7 205.6 200.4 195.2 189.5 185.1 178.9 173 170.2 167 164 163.5 161.7 160.8 159.5 157.7 155.6 152.7 149.5 145.2 139.6 128.4 121.6 121.9 123.2 123.4 117.5 102.8 93.4 90.6 89.5 88.5 85.5 84.6 84.6 84.1 84.6 84.6 84.6 82.8 82.7 82.3 83.5 83.2 84.1 89.9 93.2 93.6 98.8 100.4 101.2 103.5 105.7 109.7 113.4 115.8 116.5 117.4 118.7 121.6 123.8 125.1 125.6 123 116.4 114.8 120.1 122.2 120.4 123.5 125.2 132 133.1 135.2 137.7 147.3 154.7 163.6 177.7 179.5 175.8 181.3 181.3 182.3 198.6 202.2 198.4 193.3 186.7 186.4 187.1 185.6 182.7 182.6 183.8 182.4 180.2 177.2
196.3 194.5 193.1 192.7 193 194 194.5 196 196.9 197.9 198.1 198.9 197.8 197.3 196.2 195.3 192.8 191.4 189.9 188 183.5 172.8 172 166.5 176.1 179.5 183.4 184.4 186.1 189.8 192.7 195.4 198.2 200 202.2 203.7 204.6 205.3 205.4 204.7 204.9 205.2 205.2 205.1 204.4 204 204.1 203.6 202.9 203.4 203.9 204.9 206.7 206.3 206.6 207.1 204.6 201 198.8 197.4 195.5 195.3 195.2 195.2 194.9 196.5 196.8 197.8 198.9 200.2 201.5 200.9 199.5 200.6 201.8 201.6 203.7 205.7 204.9 202.6 202 202.3 201.8 201.6 199.9 198.5 197.9 196.4 195 193.4 192.9 194.6 198.3 201.5 203.2 205 208.2 210.4 211.9 211.8 211.2 210.4 210.8 207.5 200.8 195.7 190.2 185.8 178.3 174.5 170.9 167.6 165.4 164 163.2 161.8 161.1 159 156 153.1 149.2 145.4 140.8 134.8 126.2 115.9 113.9 112.3 101.9 94.6 94.7 90.6 89.2 86.7 84.8 84.7 84.6 84.4 84.8 84.4 83 82.7 83.6 84.4 84.6 84.6 87.8 92.5 93.9 93.5 95.1 99.8 108.3 113.3 116 117.8 118.1 119.7 121.2 121.1 122.2 125 127.7 128.5 128 125.2 119.8 119.4 121.2 119.7 122.7 123.9 126.7 131.5 138.3 141.9 140.1 146.9 157.9 165.7 175.7 182.6 179.6 181.3 182.8 181.8 181.9 214.6 208.6 203.6 195 195.5 196.6 197.4 194.4 193.1 192.5 190.7 187.5 185.5
193.3 192.6 191.6 192.1 192.9 193.6 194.8 195.8 195.7 197.1 197.5 197.6 196.9 195.7 194.9 194.4 193 190.5 189.2 188.2 184.9 166.9 161.9 167.8 179.4 182.2 183.6 184.4 186.8 192.1 192.4 194.3 197.4 199.1 201.3 202.4 203.3 203.9 204.8 204.2 204.3 204.6 204.8 204.3 204 203.1 202.9 202.8 203.3 203.7 204.2 204.1 205.8 206 205.5 204.5 202.9 198.6 197.5 197.3 195.7 194.1 193.6 193.2 193.6 195.3 195.3 195.4 196.3 198.3 201.4 198.4 197.4 199 200 200 201.2 202.7 203.5 200.8 200.3 199.8 200.4 198.6 197.2 195.5 194.5 193.3 192.4 189.9 188.3 189.1 191.1 196.2 197.8 199.6 204 204.6 206.5 208.7 211.1 211.4 210.2 207 202.8 198.3 192.4 186 178.4 175.5 171.1 168 165.8 164.7 164.8 163.2 162.8 161.6 157.9 154.1 150.7 146 140.3 135.5 129.1 116.9 107.3 100.2 96.2 94.8 93.2 89.6 87 85.3 85.2 84.9 84.7 84.8 85 82.8 82.7 83.9 84.4 84.9 84.8 86.2 86.3 93.6 93.8 93.2 95.3 103.9 114.8 122.9 123.9 124.5 125.7 125.5 126.9 125.3 123.1 127.8 128.2 128.5 128.7 125.9 119.9 122.4 125 123.4 124.3 125.5 128.2 133.8 142 147.7 151 145.7 156.4 166.8 173.5 185.5 182.4 180.7 181.9 182.4 186.9 222.1 216.7 208.6 204.3 206 207.4 208.7 206 204.6 203.4 200.7 198.1 194.4
192.7 191.2 190.3 191.3 191.4 193.2 194.5 195.5 195.4 195.7 196.5 197.5 196.4 194.5 193.7 192.5 191.4 189.9 187.7 185.8 179.6 160.9 166.7 183.2 182.7 182.9 182.5 184.2 186.6 190.4 192.5 194.2 196 197.4 199.3 200.7 201.8 202.3 202.8 202.9 203.6 204.2 204.6 204.5 204.2 203.5 202.9 202.7 203.2 203.9 204.5 204.4 204.9 206 206.6 207.4 201.3 198.1 196.8 196 194.8 193.4 192.5 192.4 192.4 192.8 194.8 194.3 194.4 194.7 196.3 197.1 195.9 197.2 198.3 198.2 198.3 199.6 200.8 199.6 198.8 199.3 199.2 197.5 195.2 193.1 189.8 188.9 188.8 185.9 183.5 183.4 185.4 189.4 192.9 194.7 198.2 201.3 203 206.8 209.5 212.8 211.7 209.5 204 197.9 193.1 184.6 180.6 177.7 171.9 169.7 167.2 166.7 166.1 164.7 162.9 160.9 157.8 154.7 150.9 146.5 139.7 134.3 126.6 118 108.3 95.9 93.1 92 90.7 87.7 85.1 85.2 85.4 84.6 85 84.7 82.8 82.7 83.5 86.6 86.6 86.1 85.9 86.6 87.5 93.9 93.1 93.2 102.8 119.6 128 131.3 132.2 132.2 132.2 129.5 131.2 127.8 128.1 130.9 130 128.9 128.9 127.3 119.9 125.3 127.4 125.5 126.2 128.1 132.1 142 149.9 154.7 156.5 158.7 156.5 163.6 172.1 180.7 195.5 190.5 181.2 189.1 226.6 238.6 228 215.9 212.5 217.4 218.6 219.4 217.7 215.8 213.7 211.9 209.4 206.3
190.8 190.2 189.8 190.6 189.8 192.6 193.9 193.8 194.6 195.1 195.9 194.7 195 194.1 193.5 191.6 189.5 186.6 184.5 182.9 175.5 159.7 169.8 181.1 183.3 183.5 183.3 182.8 186.7 190 191.9 193.4 195.1 196.6 197.7 198.5 199.9 201 202 202.5 203.2 204 204.4 204.3 204.1 203.4 202.7 202.7 202.7 203.2 204 204.5 204.7 206.1 205.8 204.4 201.3 197.9 195.9 194.9 193.5 192 191.4 191 191.6 191.6 192.3 192.3 192.6 192.9 193.1 194.2 193.9 194.4 196.2 196.5 197.3 197.9 198.1 198.2 197.8 197.5 196.4 195.4 193.2 189.7 186.7 184.4 183 180.9 179 178 177.8 181.3 185.3 188.6 191.5 196.1 199.8 204.3 208.4 212.2 213.5 209.6 205.9 199.3 193.4 186.2 181.9 178.4 174.1 170.9 169 167.5 166.6 165.5 164 160.8 158.5 155.3 150.6 143.7 136.8 132.3 127.6 118 108 98.4 93 91.4 88.1 85.7 85.6 85.5 85.3 84.2 84.1 82.7 82.7 86.9 87.7 87.5 84.7 85.6 86.4 87.4 88.9 93 93.8 99.6 113.8 129.6 135.8 135.8 136.4 136.9 136.3 134.4 133.3 129.9 131.1 132.9 132.4 131.9 130.3 127 123 125.8 127.8 127.7 128.4 131.6 138.4 148.9 156.7 160.3 162.6 163.9 164.5 162.7 170.3 179.8 189.8 207.1 202.7 204.3 238.1 242.9 232.9 227.9 225.2 226.9 228.7 231.2 226.7 226.8 224.3 220.1 219.8 217.8
189.8 188.8 186.9 187.6 188.4 190.8 192.3 192.9 193.8 194.1 194.9 195.3 195.3 194.9 192.1 190.7 186.7 183.9 180.9 178.4 175.5 158.3 174 179.2 182.3 182.3 182.1 182 186.4 189.5 191.3 192.4 193.4 195.3 197.6 199.3 199.8 200.9 202 202.5 203.3 203.6 204.2 204.2 203.5 202.9 202.4 202.4 202.5 202.6 203.4 203.5 204.4 205.8 205.4 203.8 200.8 198.4 195.6 194.1 192.4 190.8 190.7 190 190.5 190.4 192.3 192 192.5 191.7 191.1 192.5 192.3 192.2 193 193.6 193.8 196.4 196 195.1 196.7 196.4 195.4 193.1 192.3 188.2 182.6 180.5 177.3 174.2 172.6 170.7 170.3 173.7 178.5 181.8 185 189.1 195.3 200.7 205.1 208.9 212.8 210.8 206.2 201.7 193.4 186.6 183 178.9 174.9 172 169.6 168.4 167.1 165.9 164.6 162.2 157.4 153.7 150.1 143 134.4 128.1 122.6 114.3 104.8 94.2 89.9 87.8 87.2 85.3 85.2 85.3 84.6 83.2 82.7 82.7 88.3 88.4 87.6 85.9 86.1 85.4 86.5 88.2 90.4 94.8 98.3 110.2 123.7 138 141.3 140.6 140 140.1 138.1 135.2 133.1 132.3 133.4 132 132.2 131.2 129.3 126.1 126 128.6 130.4 131.3 131.9 137.4 149.3 155.5 160.8 165.4 167.8 169.3 170.4 168.5 171 178.8 187.1 199.2 211.4 224 237 242.3 236.3 234 233.9 234.6 244.5 249.4 245.7 246.6 243.2 237.5 233.7 229.8
188.7 187.1 185.5 185.8 187.4 189.3 191.1 192.1 192.8 192.8 194.3 195.3 195.2 194 192.3 189.5 185.1 182.4 179 173.9 171.3 168.5 163.8 172.4 179.2 181.3 181.3 181.2 184.5 189.8 190.7 191.6 193 193.7 196.4 198.7 199.7 200.3 201.5 203 203.8 203.3 203.9 203.8 203.4 202.8 202.4 202.3 202.2 201.9 202.2 202.3 202.7 204.1 203.8 202.5 200.1 197.7 195.8 194 192 190.6 190 189.6 189.9 189.1 190.3 190.7 191.6 190.8 190.2 190.2 191 190.7 191.9 192.3 193.7 193.4 194.6 193.7 193.9 194.1 193.5 191.9 189.3 184.9 178.8 175.2 171.1 167.9 163.8 162.4 161.8 166.3 170.9 174.2 177.6 180.6 187.1 192.3 200.1 206.4 210.9 210.8 207.8 202.5 193.3 187.7 184.1 179.8 175.8 174 171.7 169.6 168.2 166.7 165.1 163.3 159.2 152.5 145.4 140.6 133.5 125.7 118.3 111.4 99 90.1 87.3 87.3 87.3 85.2 84.8 84.9 84.2 82.7 84.6 89.2 89.4 88.3 86.4 87.4 85.7 86.8 88.7 88.7 94.3 101.1 108.6 119 132.3 142.9 145.4 145.1 143.4 142.4 140.4 137 133.9 134.2 133.4 133.4 132 130.9 127.7 130.3 130 132.1 134.5 137.5 141.9 150.1 156.9 162.4 167.3 170.7 173.3 174.3 174.4 172.6 173.3 176.4 186.5 197.2 209.2 219.6 234.4 242.8 243.5 241.1 238.5 242.8 260 268 267.5 264.3 259.3 255.7 251.4 242.2
186.2 185.4 184.9 184 186.1 187.8 189.5 191 191.7 192.4 193.7 194.1 193 191.5 190.8 189.7 185.2 182.4 179.3 171.5 165.1 158.6 162.8 174.1 181.4 181.4 180.8 180.7 184.4 190.4 191 191.6 192.4 192.4 194.7 196 199.1 200.3 200.6 202.2 203.2 203 203.5 203.2 202.4 201.6 202.1 201.9 201.7 201.4 201.2 201.5 201.2 201.1 200.1 198.6 197.7 196.1 194.6 193 191.5 190.6 189.4 188.9 188.7 188.9 189.6 189.7 189.8 189.5 189.5 189.4 189.5 189.8 190.8 190.9 191.6 192.3 192.1 191.6 191.7 191.8 191.3 189.4 187 181.2 176.6 170.7 165.1 159.4 154.4 152.6 153.1 157.1 162.2 165.2 169.4 172.7 178.3 184.6 194.5 203.7 208.2 209.7 207.6 202.9 194.8 185.9 184.9 181 177 175.4 173.2 170.8 169.4 167.9 165.9 161.9 158.8 152.6 142.7 135.6 125 119.1 112 100.6 90.8 86.8 87.3 86.3 85.3 84.5 84.4 82.8 82.7 86.9 88.7 88.1 88.5 87.8 87 87.5 89.2 90.5 93.9 94.1 102 112.1 118.4 124.8 137.6 145.6 147.6 147 145 143.9 143.2 139.6 137.2 135.5 135.6 135.4 133.7 131.8 130.7 132.3 134.3 138.4 144.1 147.8 151.8 158.8 163.7 168.3 172.4 175.4 177.3 177.6 178.3 176.2 174.5 178.6 184 195.4 205.9 217.8 230.9 244.3 247.3 246.2 249.4 263 274.2 279.8 281.9 279.8 276.7 271 264.8 258.6
185.1 184.1 182.9 183.1 184.3 186.3 188 189.6 190.2 191.4 192.4 192.8 191.3 189.8 190.3 190.5 185.7 182.1 177.7 166.9 152.6 159.9 167.2 174.8 180.7 180.2 179.4 181.3 183.9 189 190.9 191.8 192.8 192.4 193.7 195.6 198 199.8 201.4 202.8 203 202.6 203 202.6 202.7 202.5 202.1 201.4 201.2 200.5 201 200.7 200.4 200 197.6 196.4 195.6 194.6 193.9 193.5 190.9 190.1 189 188.4 188.2 188.5 189 189 189.4 189.2 188.7 188.3 188 189.3 189.4 189.3 189.9 190.2 189.9 190 190.3 190 189.9 187.1 182.8 175.9 171.1 165.2 157.8 151.3 145 140.9 141.4 144.3 147.5 150.4 156.5 160.2 165.8 174.7 185.7 196.1 203.1 206.8 206.6 201.7 195.6 189.5 182.9 180.5 178.2 176.3 175 172 169.4 168.3 165.7 162.4 154.8 150.2 139.3 134.6 123.8 113.2 107.8 92 87.3 86.8 85.6 85.6 83.4 83.8 83.1 82.7 87.3 89.4 88.3 87.6 87.6 87.6 86.8 89.6 95.8 95.5 97.5 104 113.3 123.2 129.8 134.2 140.2 145.5 148.4 147.9 147.3 146.3 145.8 144 142.1 140.2 139 138.3 136.8 134.5 135.2 136.9 140.3 144.4 153 157.4 159.6 165 170.5 175.1 177.7 180.6 182.5 181.8 180.7 179 178.7 182.6 184.1 192.1 203.4 214.8 228.7 242.1 250 251.3 264.7 277.4 286.2 290.7 291.7 291.7 289.6 283 275.8 267.4
184.4 183.8 181.6 182.2 183.9 185 187.2 187.8 188.1 189.3 190.8 191 190.6 189.3 188.7 187.2 183.8 179 174.7 155.9 157.2 169 175.9 180.2 179.7 179.1 179.7 181.2 183.6 187.7 190.9 191.2 191.7 193.4 194.1 195.5 196 200.5 201.4 201.9 202.5 202.3 202.7 202.5 202.3 202.7 202.3 201.3 200.5 200.4 199.5 199.7 199.5 199.1 196.7 194.9 194.4 193.9 193.3 192.8 190.2 188.9 188.5 188 187.6 187.8 188.7 189.1 188.8 188.4 188.1 187.9 187.6 188.3 188 187.7 187.2 187.7 188.4 189.9 188.9 187.8 187.5 185 181 172.1 164.4 158.5 149.3 140.3 131.9 127.3 127.3 130.5 134.4 133.9 139.4 142.4 151.7 167.1 179.8 190.8 198.1 200.4 201.5 196.2 192.2 190.1 182.2 179.3 177.5 175.3 173.4 170.7 168.6 168.8 166.1 161.1 154.9 147.1 135.2 128.3 116.7 103.3 95.6 88.1 87 83.9 84 84.1 84.2 84.5 86.1 87.2 88.5 87.2 88.3 88.8 89.1 92.6 95.8 95.6 95.3 98.7 107.3 114.5 125.2 133.8 134.9 136 139.4 144.3 148.2 150.5 151 150.1 148.2 146.5 145.6 144.9 145.1 144.2 142.7 140.2 140.5 142.7 146.9 152.8 158.1 166.1 167.7 172.1 177.1 180.3 182.5 184.3 186.1 187 185.9 184.3 183.2 186.6 191.7 192 202 214.9 227.3 240.4 250.1 259.8 273.8 285.8 296.7 299.5 300.3 300.1 297.5 291.7 284.3 274.4
182.1 182.3 181.4 180.2 181.6 182.9 183.7 184.1 185.3 186.5 187.9 189.4 188.8 186.8 183.5 180.7 177.9 172.9 158.8 150.5 168.2 166.9 178.4 179.9 179.2 178.5 179.3 180.6 184.2 189 191.6 192.2 193.2 194.2 195.1 195.7 195.9 197.7 199.3 201.8 202.7 202.2 202.3 202.5 201.9 201.7 201.6 201.7 200.9 200.2 199.2 198.8 197.9 197.5 196.1 195.1 194.4 193.4 192.1 191.4 189.6 188.4 188 187.2 186.6 187.6 188.2 188.6 187.5 187.1 187.1 187.3 187.4 186.5 186.5 187.5 184.3 183.6 185.9 187.6 186.9 185.3 183.6 181.3 176.3 169.3 159.1 148.5 138.5 128.1 120.9 115.5 113.3 112.9 112.8 119 121.5 127.9 142.9 157 172.2 183.1 190.8 191.8 193.4 192.7 189.3 187.6 181.5 177.7 175 172.4 170.7 168.5 166.6 166.9 165.4 160.2 153.9 142.6 131 121.4 113.1 100.7 90.9 87.6 84.9 84.4 84.5 86.1 88.7 87.8 87.1 87.7 88.2 89.9 95.8 95 96.5 96.3 96.7 96.5 98.5 107.1 116.7 125.3 131.6 134.9 137.1 139.8 141.8 145.1 149.3 153.3 155.8 153.6 150.9 148.9 148.7 150.1 150.5 149.8 147.5 146.8 146.8 147.8 152.7 160.3 166.6 172.3 175.6 178.7 180.5 183.1 183.8 185.9 189.2 191.3 191.6 190.5 189.9 193.7 198.9 203.1 203.7 217 228.4 240.8 251.2 264.1 278.1 291.8 301.1 303.7 306.5 307.7 303.8 298 291 281.1
181.2 179.4 179.5 174.8 179.6 180.8 181.8 181.3 182.9 184.4 186.2 185.8 185.2 183.4 179.5 173.7 167.8 163.8 151.2 170.1 175.5 176.2 177.7 177.5 177.3 178.5 178.4 181.1 184.7 188.9 192.5 193.1 193.2 194.8 195.2 196.4 196.2 197.9 200.4 201.7 202.4 202.1 202.4 202.7 201.9 201.6 201.5 201.8 200.6 199.5 199.1 198.3 197.2 196.1 195.4 194.8 194.1 193 191.8 190.5 188.4 187.6 186.9 186.5 186.5 186.4 186.6 186.3 186.2 185.9 185.8 186 185.8 186.4 186 184.8 182.6 180.9 180.8 184.2 184.8 183.4 182.3 176.5 170.9 165.3 151.8 138.7 127.6 116.5 108.7 102.9 97.3 97.5 99.5 102.5 104.1 110.7 130.5 147.5 160.5 172.2 181.5 183.8 184.7 185.9 186.8 184.7 181.6 176 172.6 169.6 166.7 164.5 163.5 163.5 160.4 155.4 148.2 136.4 125.9 116.7 109.9 91.5 86.5 85 85 85.3 86 86.2 87.9 87.8 89 89 91.8 98 97.1 96.1 96.7 96.4 97.6 98.9 106.6 118.5 127.6 129.9 135.4 137.6 141 144.1 145.6 148.3 152.7 157.5 160.5 157.1 155 153.7 153.7 154.9 156.7 156.1 154.4 153.7 152.2 154.4 159.8 166.3 172.6 176.8 180.2 182.5 183.5 185.4 186.4 188.9 192.9 196.7 200.7 201.8 203.8 206.1 211.1 215.1 217.4 218.7 232.7 242.9 250.6 263.1 277.9 291.6 300.6 305.6 311.3 314.2 311.3 306.8 299 289.3
179.4 177.6 173.8 171.5 177.5 178.5 179.1 179.1 179.9 181.9 183.3 182.2 180.6 178.5 173.8 162.5 155.2 145.3 156.4 172.4 175.7 176.6 175.9 176.9 177.8 177.9 179 181.2 185 189.7 193.4 193.6 194.2 194.8 195.9 196.8 197.5 199 200.1 200.6 200.9 201.2 202.5 202.6 202.4 202 201.7 200.6 199.9 199 198.1 197.7 196.6 195.3 195.2 193.7 193 192.5 190.9 190 188.1 187.8 186.1 185.7 184.9 185 185.5 185 186 184.8 184.2 184.4 184.8 184.8 184.8 182.7 180.2 177.5 176.2 179.4 180.5 181.2 180.3 175.7 168.5 158.2 143.1 129.1 116 105.2 97.9 95.2 91.7 92.8 92.1 91.4 91.2 91.6 114.3 135.5 144.7 155.2 168.2 174.1 175.7 178.2 180.3 180.3 176.4 173.8 172.2 167.8 162.9 159.3 157.9 157.3 153 146.1 138.4 131.2 119.7 110.9 96.1 86.5 85 85 85.5 86.2 86.9 88.6 88.4 88.2 89 90.9 97.3 97.2 96.5 96.2 96.3 96.7 98.6 106.7 116.6 122.5 130.2 133 137.4 142.5 143.6 147.9 150.9 153.9 157.2 160.8 161.9 159.4 158.1 157.9 157.9 159.4 160.7 161.9 160.8 159.7 158.7 160.1 165 171.6 177.4 181.4 184.1 184.9 186 187.3 191 198 204.4 210.7 213.4 215.4 216.4 219.6 223.6 227 229.1 220.7 239.3 245.5 251.5 261.9 277 290.7 301 306.8 313 319.2 318.6 315.7 307.3 297
178.2 175.4 169.5 174.5 175.3 175.9 175.1 175.8 176.5 176.5 179.5 179.2 177.2 172.8 166 152.5 142.4 143.7 153.7 169.7 174.2 174.7 176 177.4 178.4 178.9 179.5 181.3 185.9 189.9 193.7 194.4 194.7 195.4 195.6 195.6 196.7 197.5 199.1 199.8 200 200.6 201.9 201.3 202 201.6 200.8 199.6 199 198.2 197.5 196.4 195.5 195 195 193.8 193 191.9 190.1 188.7 187.2 186.7 185.7 185 184.5 183.3 183.9 184.8 184.9 184.6 184.4 183.9 183.3 182.7 182.8 180.1 176.3 174.8 174.7 174.3 175.1 176.7 175.6 170.8 164 152.8 132.7 117.6 102.7 95.2 92.3 91.6 91.2 91.8 91.4 87.5 88.1 88.1 91.8 112.4 126.9 138.7 152.1 163.8 167.5 169.6 170.9 171.7 171.2 170 169.9 165.9 161.6 157.8 154.7 149.8 145.2 136.6 128.9 120.2 114.5 106.4 87.3 85 85 86.6 86.7 87.3 86.8 88 87.8 90.7 91.4 94.1 98.8 97.2 97.1 97.4 98.5 99.4 106 115.1 121.5 129 134.1 138.6 140.5 144.6 146.6 151.6 154.5 157.6 160.5 164.3 162.9 162.2 162.6 162.5 163.4 164.8 165.8 166.1 164.8 164.3 165.6 166.4 171.1 177.7 182.6 186.4 186.5 187.8 188.7 191.1 199.1 206.8 215 220.3 223.9 226.2 229.3 233.6 236.1 238.5 238.6 238.6 237.5 248.3 252.7 259.5 275.2 288.6 299.8 306 313.3 320.4 323.3 319.9 316.4 305
175.6 173.3 167.6 171.2 172.4 172.6 171.1 171.9 172.8 173.9 174.5 176.3 172.4 167.3 157.7 138 137.4 149.4 162 168.8 173.1 175.7 176.5 178.4 179.2 179.9 179.8 182.5 186.4 190 193.8 195 195.4 195.3 195.8 196.7 197 197 198.4 199 199.9 199.7 200.7 201.3 201.5 201 200.1 198.9 198.1 197.9 197 196.1 195.2 194.7 194.6 193.7 192.7 191.6 190 188.5 187.5 186.5 185.4 184 183.6 182.6 183.9 184.5 184.5 184.6 184.9 182.9 182.6 182 181.2 177.3 172.9 170 168.6 170.1 171.9 171.6 169.1 164.8 158.3 138.4 116.3 104.7 92.5 91.3 91.6 91.3 88.1 88.1 88.1 87.5 92.9 90.6 88.1 88.3 99.6 122.3 126.9 144.6 157.3 161.6 161.3 163.7 163.8 165 165.1 161.6 156.6 152.7 147.6 142.1 136.4 127.3 119.2 115.6 109.1 86.3 84.7 84.7 86.6 86.8 87.8 88.2 88 88.7 89.9 91.9 95.5 97.7 98.7 97.4 97.8 98.1 99 107.5 119.8 122.6 129.7 134.2 137 141.6 145.2 147.1 149.7 153.8 158 160.3 164.5 165.2 164.9 166.5 166.8 167.8 169.2 170.3 171.2 169.7 169 169.3 172.2 172.9 176.4 183.1 186.5 189.1 188.7 189.7 191.6 198.1 205.4 213.9 222.4 228.7 232 234.8 238.8 243.5 245.5 246.8 246.5 245.7 240.7 250.5 254.3 260.6 274.2 285 297.2 305.2 312.7 320.1 323.8 323.5 321.1 314.5
172.8 171.3 166.6 167.5 168.6 168 167 168.4 169.9 170 170.7 170.8 168.8 163.8 153.3 135.9 135.8 150.4 164.1 170.9 175 177.4 177.5 179.7 181 179.6 179.6 181.7 185.8 189.6 193.4 195.3 195.3 196 196.5 197 197.1 197.3 197.9 199 199.3 199 200.1 201.1 200.8 200.3 199.7 199 198 197.4 196.7 196 195.3 194.5 194.3 193.6 192.6 191.5 189.4 188.3 186.9 186 185.1 183.3 182.3 180.4 182.7 183.2 183.5 184.2 185 183.6 182.1 180.7 177.3 173 170 166.3 164.3 165.1 165.3 163.9 162.1 158.4 137.3 116.9 99.1 90 88.5 88.1 88.1 88.1 94.1 94.5 94.7 94.3 93.4 92.5 90.1 88.1 88.1 90.9 99.2 120.1 136.8 149.9 151.8 154.1 156.2 159.4 159.1 156.3 151.4 145.1 138.3 132.7 126.3 118.8 117.8 101.6 84.7 84.7 85.6 86.4 87.1 87.7 88.3 88.8 89.8 97.7 99.6 99.6 98.9 99 98.9 98.4 98.5 100 107.4 119.3 126.3 129.7 131.7 136 141.1 144.8 147.8 149.8 152.3 155.8 160.8 163.8 165.5 168 169.7 172.2 173.4 174.6 174.9 176.7 176.4 175.2 174.5 176.3 177.1 178.5 181.6 186.1 189.3 190.2 191 192.2 194.2 203.4 210.8 219.7 228 234.5 239.1 242.6 247.2 251 253 253.6 253.8 252.9 249.7 253.6 258 265.7 274.5 284.7 293.4 302.4 309.8 316.9 323 325.1 324.2 319.3
171.4 169.4 166.7 159.6 164.6 164.6 163.2 164.7 165.6 166.5 167.4 166.9 164.5 155.4 146.4 139.5 128.5 151.6 164.9 172.5 175.4 176.6 175.6 177.1 177.5 177.5 179.2 181.6 185.4 189.7 193.6 194.7 195.3 195.8 196.6 197.1 197.6 198 198.2 198.2 198.6 198.7 199.2 199.3 199.8 199.7 199.2 198.1 197.9 197.4 196.7 196.6 195.6 194.3 194.1 193.5 192.2 190.9 189.2 187.2 186.4 185.5 184.5 183.2 181.4 179.6 181.4 182.3 182.5 183.9 184.1 182.7 181.5 179.5 177.4 172.7 168.1 164 162.4 161.4 161.3 158.7 153.3 142.1 117.2 95.8 90.3 92.2 92.3 91.4 95.1 95 94.3 94.6 94.6 93.9 94.1 93.6 92 90.5 89.8 88.1 88.1 91.8 115 134.3 137.5 143 149.1 152.4 151.2 147.7 142.5 137.4 129.1 120.8 117.9 117.1 106.3 85.6 84.7 84.5 85.2 87.1 86.8 86.9 88 89 94.1 99.4 98.8 100 99.5 100 99.9 99.5 100.8 108.4 119 128.6 133.8 133.7 135 138.3 143.1 148.1 151.3 152.5 154.4 159.1 163.7 168.9 171.1 172.9 175.1 178.7 180.8 181.9 181.9 182.2 182.7 181.5 181.3 182.7 183.9 185 185.9 187.9 190 191.6 193.1 194.9 198.3 207.7 214.8 224.4 232.8 238.6 243.7 248.6 252.6 256.7 260.4 261.9 262 259 254.7 256.5 261.4 268.1 275.8 286.2 293 301 308.3 315.7 321.5 323.8 325.3 321.3
169 167.7 166.3 162.7 154.7 161 160.1 161.5 163.4 165.1 163.9 163.7 161.3 139.1 123.5 124.9 134.8 158.1 167.7 172 174.2 174.2 173.8 175.5 175.9 176.5 177.9 182.1 186.1 189.6 192.9 194.4 195 195.6 195.8 196.6 197.1 197.9 198 197.7 198.1 198.5 198.8 198.7 198 199 199.1 198.5 198.4 198.2 197.7 197.2 196.2 195.1 194.1 193 191.6 190.2 188.7 186.8 186.1 184.7 182.8 181.6 180.2 178.8 180.5 180.9 181.4 181.9 181.3 181.1 180.4 178.4 176.5 173.1 168.8 164.6 159.7 157.3 155.9 154.3 145.8 125.4 98.5 90.3 91.2 91.2 94.3 95.7 95.1 94.2 93.9 94.2 93.1 92.8 92.7 92.6 92.6 92 90.9 90.3 88.1 88.1 91.7 105.4 117 126.9 133.5 137.5 138.3 137 132.9 131 120.7 118.1 115.7 103.7 85.8 84.7 84.7 84.9 85.3 87.6 87.6 88.8 94.4 88.2 92 99.5 101.1 100.8 100.7 100.1 100.2 102.2 109 117.7 130.5 136.5 136.2 136.8 139.8 141.9 145.6 149.7 153 154.6 156.4 160.6 165.6 173.1 176.3 178.2 180.9 184.5 186.8 187.6 188.7 188.2 188.5 187 186.4 188.1 188.7 188.6 189.7 190.3 191.2 193.5 196.8 199.2 204 212.5 219 229.1 235.9 242 247.9 252.1 258 264 269.7 271 271 265 260.5 257 264.4 270.8 277.4 286.8 294.3 299.6 306.5 313.4 318.8 321.9 324.3 322.8
166.8 164.8 163.1 160 155.8 151.4 157.2 160.8 161.9 162.7 161.8 159.3 157.6 137.2 120.7 131.4 147 160.2 168.7 170.6 172.8 174.1 175.9 177.3 176.8 176.2 177.6 180 184.8 189.6 192.6 194.5 194.7 194.4 194.7 196.3 197.2 197.9 197.6 197.3 197.7 198.1 197.8 197.9 198.2 198.2 197.7 198.7 198.8 198.4 198.6 197.7 196.7 195 193.9 192.4 191.1 189.7 187.8 185.7 184.5 183.1 181.6 179.5 178.7 177.2 179.6 179.9 180.2 180.3 180.1 179.6 179 177.3 175.3 171.8 167 162.7 158.9 153.2 149.9 142.4 132.4 107.4 90.3 91.5 95.1 95.7 96.7 96 95.7 96.4 95.4 95.5 95.4 94.1 94.3 94.1 94.2 91.5 91.3 90.5 90.3 88.1 88.1 91.3 93 107.1 115.1 119.3 121 120.4 118.9 119.3 110.8 107.7 101.8 87.4 85.8 85.7 85.9 85.5 87.2 87.8 89.5 98.7 98.8 91.3 89.7 92.9 97.6 101.6 101.2 101.2 103.4 110 117.9 128.8 135.8 140.8 140.5 141.5 144.2 146.6 148.3 153.5 156.1 158 159.9 164.8 172.8 179.8 180.3 184.1 186.7 189.9 192.4 192.9 193 192.3 192.6 193.4 192.1 193.4 193.2 192.2 192.4 193.3 194 197.8 201.1 206.4 210.9 217.2 223.3 233.7 238.8 243.8 250.3 254.7 261.6 268.6 274.6 278.1 276.6 271.3 265 259.9 263.9 272.1 279.6 286.9 293.4 298.3 305.4 311.5 316.4 319.9 322.4 324.3
168 167.8 166 164.4 160.3 154.5 149.9 157.8 158.5 158.8 159 156.8 154.9 138.8 119.4 131.5 147.6 161.5 168.5 172.7 174.3 176 178.5 179.6 177.5 175.8 177.4 179.3 184.8 190.4 194.3 194.5 194.3 194.6 195 195.2 196 197.1 197.1 196.8 197.2 197.1 197 197 197.8 197.9 197.8 198.7 198.9 198.9 199.1 198.1 197.1 195.3 193.7 192.1 190.6 189.7 187 185.7 183.6 182.2 180.3 177.5 176.8 175.8 176.7 179.4 179 179 179 178.3 177 175.7 173.3 169.8 160.2 155.1 151.2 147 141.7 122.8 106.9 91.5 91 94.8 95.9 97.6 97.7 96.3 96.2 96.8 99.6 102 100.9 99.9 99.3 96.6 93.4 93 91.2 91.1 90.9 89.8 88.1 88.1 91.1 91.1 96.1 100.9 104 104.5 104.6 103 102.5 101.8 97.7 85.8 85.8 86.3 85.6 85.9 88.6 95 101 106.1 109.2 92.1 90.5 91.7 96.8 101.3 104 108.2 112.7 116.9 128.3 136.1 141.8 144.1 145.7 147.3 150 151.1 152.4 155.8 158 160.2 163.6 168.5 175.9 182.6 184 187.3 192.4 195.6 197.9 198.7 198.7 197.9 197.6 198.2 197.3 199.2 199.5 198.4 196.8 196.8 198.3 204 209.8 214.6 218.2 223.3 229.4 235.3 241.4 245.9 250.9 255.6 263.6 271.6 277.3 280.1 278.7 272.4 269.8 265.9 263.9 271.3 280.2 286.4 293.1 298.4 305.8 312.6 319.2 320.8 322.2 323.5
169.7 169.6 169.5 167.4 160.1 154.2 145.5 152.9 152.5 153.8 153.2 150.7 149.9 138.5 116.7 126.9 146.2 161.9 167 170.5 173.5 176.3 177.3 177.9 177.2 175.5 177 179.2 184.7 189.2 192.6 192.6 194.4 194.2 195.2 195.8 196.1 196 196.1 196.4 196.5 196.7 197 197.2 197.7 197.8 198.1 197.7 198.9 198.9 198.6 197.8 196.6 194.7 192.8 191.2 189.8 188.8 186.4 184.9 183.1 181.3 179.2 177 174.7 174.5 175.3 176.7 177.4 177.2 176.9 175.6 174.8 173.9 171.9 166.8 165.4 154 141.3 134 126.4 106.8 93.5 91.5 95.4 95.1 97.5 97.8 97.2 97.6 98.6 101.8 102.7 103 103.1 103 102.4 100.2 98.3 98.2 96.1 94.4 92.3 91.3 89.3 88.1 88.1 91.4 91 90.6 91.5 91.4 92.6 92.2 91.8 91.8 90 85.8 86.4 85.5 86.5 92.1 102 109.3 110.4 113.1 117.1 98.3 92.7 89.7 97.2 103.6 110.5 115.3 117 124.7 135 142.4 145.4 148.7 150.7 152.9 154.8 156.6 157.1 158.3 160.1 162.5 166.6 172.2 178.6 185.1 188.6 192.7 198.6 200.6 204.7 204.9 203.6 202.6 202.5 203.3 205.5 206 206.8 205.4 203.1 203 203.6 209.6 215.8 221.2 224.7 228.7 232.5 238 243.1 246.2 250.2 256 265.3 272.2 276 277.5 275.5 273 271 270 267.5 271.4 278.2 286.6 292.5 298.1 303.8 310.8 318 319.3 320.5 321.3
170.2 169.7 169.1 164.5 155.6 146.4 144 149.4 148.4 148.3 146.8 146.7 145.6 128.3 116.5 129.4 148.4 159.6 165 168.1 169.6 171 172.9 174.6 173.9 175.1 177.1 178.4 183.2 186.8 188.9 191.3 193.3 194.9 195.3 196 195.7 195.7 195.8 196.4 196.7 197 197.2 197.6 197.5 197.7 197.4 197.7 198.1 197.6 197.2 196.4 195.5 194 192.1 190.4 188.7 187.3 186 184.1 181.5 179.9 177.7 175.7 172.6 170.4 173.9 175 176 174.9 174.9 173.8 172.4 171 169.3 167.9 166.9 159.7 142.4 119.9 105 93.9 93.7 91.5 95.8 95.8 98.3 98 95.4 99.3 101.8 102.4 103.1 103.3 103.9 103.8 103.6 103.8 103.9 103.6 103.1 102.8 100.9 96.9 94.1 89.9 88.1 88.1 91.2 90.9 90.2 90.3 90.4 90.2 90.7 89.7 85.8 85.8 86.4 86.3 93.6 109.9 116.6 120.6 121.1 120.3 117.6 105.7 94.4 92.6 94.8 112.3 113.2 117.9 122.3 129.3 139 145.6 149.9 152.6 155.4 157.4 159.9 162.3 161.8 162 164 167.4 170.9 175.5 181.2 187.7 193.7 199.6 204.2 206.7 208.3 210.6 211 208.3 209.7 211.2 213.1 214 213.1 211.9 211.2 210.6 208.9 213.9 220.6 226.8 231.6 232.7 236.3 241.3 244.4 247.2 250.9 256.8 266.1 272.4 275.2 275.5 275.1 275 274.6 272.6 272.1 272.9 278.4 285.1 291.4 297 301.7 309.3 316.4 316.9 317.9 318.7
165.5 167 167.2 158.4 145.8 136.3 142.6 148.2 147.7 146.8 145.5 145.8 135.6 118.7 114.5 134.8 152 163.5 165.5 168 167.6 167.5 168.2 168 169.7 172 174.9 177.6 180 183.9 185.8 188.8 191.7 193.7 195.3 195.6 195.9 195 195.7 196.5 197 197.2 197.5 198 197.8 197.6 196.8 197.1 197.1 196.4 195.9 195 194 192.9 191.2 189.2 187.8 186.2 185.5 182.9 179.6 177.5 175.6 173.5 171.8 165.8 171.2 173.3 174 172.8 171.9 170.5 169.1 167.7 164.9 163 159.5 153 139.5 115.2 95.1 94.8 93.5 91.5 96 99.1 99.4 97.7 100.7 102.6 103.3 104.3 104.8 108.3 114.2 119 119.8 119.7 114.4 108.1 106.3 106 105.6 104.8 101.4 97.4 90.7 88.1 88.1 88.5 90.8 90.1 90.2 90 89.8 86.9 85.8 87.1 87.4 98.7 114.1 119.1 126 121.4 121.4 123 120.6 107.1 96.1 93.7 96 113.9 117.6 120.5 124.9 136.5 143.4 150.5 155 156.4 158.4 161.1 163.7 165.9 165.5 165.9 168.5 170.9 173.8 178.5 184.5 193.4 198.2 205 210.9 213.2 214.1 214.5 215.1 216.8 215.9 216.6 219.8 220.2 219.9 219.6 218.4 217.7 213.6 218 224.4 231.2 236.3 236.3 239.2 243.7 246.3 249.3 254 261 268.8 273.2 275.2 276.8 277.8 279 278 277.3 276.2 274.9 277.8 284.6 290.1 294.1 301.8 308.3 316.8 315.9 315.8 316.6
160.4 162 162 155.5 145.7 129.2 133.2 139.7 137.9 134.3 134.5 131.6 121.5 113.1 115.2 135.2 152.7 163.8 165.6 168.3 168.5 167.2 165 163.2 165.3 170.9 173.4 176.3 178.7 180.3 182.8 186.1 189.5 191.7 193.9 194.4 195.2 195.1 195.1 195.9 196.7 197.9 198 198.4 197.8 197 197 196.1 196.1 195.2 194.5 193.5 192.6 191.5 189.6 187.7 185.9 184.2 182.5 181.3 178 175.1 173.5 171.2 169.6 167.6 168.5 170.9 172.2 171.3 169.5 168.6 165.5 162.3 159.4 157.2 154.6 144.8 127.2 101.9 95.8 95.2 92.7 91.5 96 98.9 98.3 99.8 103.6 104.9 107 115.7 118.9 121.4 121.6 120.6 119.9 119.9 119.2 116.5 113.3 110.6 109 109.1 106.9 105 100 94.4 88.1 88.1 88.1 90.6 90.3 89.7 86.9 85.8 86.3 95 110.2 120.5 126 126 126.3 125.6 125.6 125.4 124.1 117.3 95.5 96.2 105 116.5 119.8 122.3 130.9 141 147.7 152.8 158.5 161.6 162.1 164 166.4 168.2 168.3 170.1 172.6 175.4 177.2 183.3 188 195 204.2 209.6 214.3 218 219.7 219.8 220.2 220.6 221.7 222.6 226.1 225.5 226.2 226.2 226.4 225.6 219.6 220.8 226.2 233 238 240.6 240.8 245.5 249.5 255 261.5 265.7 272.5 275.2 277.5 279.1 280.2 282.6 283 282.5 280.9 279.7 279.7 284.6 289.7 294.4 300.1 305.7 310.5 314.1 314.7 314.5
162 154.9 153.1 149.7 148.4 125.7 121.8 124.3 123.4 122.8 119.2 119.2 113.1 112.3 120.6 132 146.7 160.8 164.2 167.2 168.3 166.4 164.5 160.8 161.8 167 171.5 174.8 176.8 178.1 179.6 183.1 186.5 189.5 192.2 193.3 194.7 194.3 194.5 194.9 196.3 197.7 197.7 197.6 197.3 197.3 195.8 194.6 194.8 193.9 193 191.9 190.9 189.8 188.3 186 183.6 182.2 181.4 178.9 175.2 173.3 171.6 169.2 168.1 165.7 161.9 167.8 169 169.4 168.2 166.5 164.7 161.7 157.2 149.9 144.3 131.9 112.6 96.1 96.3 95 92.9 92.6 97.3 98.6 100.3 105.2 110.5 120.3 124.7 124.7 122 123.1 122.8 122.3 121.8 121.6 120 119.1 118.4 118.5 117.8 114.5 107.1 108.4 107.8 104.8 95 89.5 87.7 87 87 87 87 96.9 107.1 123.1 128.8 130.5 131.8 132.3 131.3 127.8 125.9 125.4 124.7 120 97.1 97.6 109.4 120.1 121.5 134.2 142.6 144.2 151.6 155.6 160.2 163.1 165.1 167.1 169.2 170.5 172.2 175.5 178.3 180.3 181.2 186 190.3 199.6 208.2 214.6 219.7 222.6 225.7 227.3 227.4 227.5 228.6 230 231.6 232.3 230.8 231.2 231.5 230.7 227.1 223.1 227.2 234.3 238.2 242.2 245.6 249.1 255.5 261.7 267.1 272.9 279.7 282.9 282.7 284.1 286.2 286.8 286.9 287.5 286.8 285.5 285.1 285.9 289.9 293.8 297.9 302.6 307.3 309.9 312.1 313.1
162.7 157.5 151.7 144.1 134.3 122.6 116.1 119 115.4 113.3 110.6 111 110.5 113.5 112.3 125.6 139.8 153.7 163.6 164.2 163.8 160.7 161.9 161 160.2 164.9 170.2 173.7 175.4 177 177.9 180 183.9 186.9 189.5 191.7 192.6 192.7 193.6 194.1 195.4 196.7 196.8 197 196 195.4 193.4 192.3 193.1 191.8 191.1 190.6 189.4 188.5 186.8 184.5 182 180.6 179.4 177.2 173.2 170.9 168.6 166.3 164 164.1 160.3 164.3 166.5 166.7 166.7 164.5 162.3 158.3 153.7 147.6 129.4 116.3 108.8 96.4 96.6 94.6 92.6 92.6 96.9 99.8 105.4 119 127.9 127.7 127.8 127.5 125 123.9 123 122.6 122.5 122.6 121.6 121.4 121.1 119.6 119.2 118.5 117 114.2 104.9 107.7 107.8 99.1 92.4 88.1 86.9 91.3 103.5 117.6 129.6 131.8 134.9 134 133.6 133.8 133.2 132.7 131.4 128.6 125.4 119.4 101.4 94.9 110.7 123.1 131.8 142.5 147.5 149 156 157.2 161.3 165.2 167.5 169.9 171.7 173.7 176 179.5 183.1 184.6 185.9 188.5 194.9 205 212.5 220.1 224.9 228.9 231.1 234.4 233.9 236.7 240 241.3 239.3 237.3 235.7 235.1 235.3 235 231.5 224.9 228.1 236.5 240.9 245.3 249.7 255.6 261.9 267.3 272.6 280.6 288.9 291.5 291.9 292.4 293.2 293.3 293.2 293 291.9 290.6 289.7 290.6 291.7 294.9 298.5 301.1 305 308.8 311.1 312.4
158.1 155.2 150.4 149.3 139.8 125.6 113.1 111.7 110.9 109.8 110.1 109.5 108.5 109.8 107.8 118.5 130.2 142.8 155.4 159 158.5 156.1 157.5 157.6 158.1 163.4 168.5 172.2 174.4 175.4 176.1 177.1 180.2 184.5 187.2 189.1 190 190.2 190.8 192.1 192.2 194.4 194.7 195 195.5 195.2 193.8 191.8 190 189.6 189 188.6 188.1 186.8 185.4 183.2 180.8 178 176.8 175.1 172.7 167.8 166.5 164.4 161.4 161.2 156.3 159.3 163.3 165.3 164.7 162.4 159.6 155.3 149.7 142.9 133.2 111.2 97.4 96.9 96.1 95.5 92.6 92.6 99.9 105.9 119.7 129.3 129.5 129.2 128.7 128.2 127.8 127.1 125.4 123.6 123.3 123.5 122.9 122.2 121.7 121.3 121.3 121 119.4 118 115.6 111.5 107.2 101.5 103.3 102.6 104.3 111.7 124.1 131.7 135.5 139.1 140.4 139 137 136.5 135.9 134.8 133.8 132.2 127.5 119.7 105.6 95.2 113.8 127.7 138 145 150.3 152.9 157.8 161.6 162.3 165.4 169.5 171.6 173.4 175.9 179.1 183.9 186.9 189.3 190.1 193.8 200.8 210.3 215.6 223.3 228.9 233.3 237.3 239.1 242.4 247.4 248.9 250 246.4 241.7 238.7 237.9 238.6 239.2 236.3 229.3 229.1 237.5 242.8 249.1 253.6 260.2 266.7 271.7 279 287.7 296.8 300.6 301.1 300 299.1 299 297.9 299.1 298.6 297.4 294.3 293.8 294.5 296 298.9 302.4 305.1 307.4 309.9 313.6
154.9 151.8 150 148.5 137.4 122 112.6 110.3 109 108.4 108 107.2 106.9 108.7 108.2 107 119.1 130.7 143 149.6 150.4 149.8 150.6 148.9 155.3 161.4 166.2 169.8 172.4 173.8 174.3 174.9 177.2 181.5 183.8 185.1 186.1 187.4 187.8 189.5 189.9 192.4 193.3 193.2 193.8 193.2 192.2 190.9 187.7 187.8 187.7 187.4 185.5 184 182.5 181.2 178.9 175.9 174.7 172.1 169.9 167.6 165.3 163.3 159.8 158 154.1 156.2 159.5 162.7 162.8 161.8 157.3 151.5 146.2 136.6 120.7 107.4 96.4 96.4 95.8 95.4 92.6 96.6 102.9 113.8 130.1 130.3 131.3 131.1 130.8 130.8 129.8 128.8 127.9 126.7 125.7 127.2 127.1 126.2 124.5 122.9 121.7 121.4 121 119.5 118.7 117.2 114.2 111.7 113.1 117.1 123.2 130.1 131.1 135.8 140.4 144.9 146.3 147.1 146 142.3 138.5 137.5 135.7 133.8 130.7 124.1 104.8 99.2 112.7 131.9 141.1 148 153.9 157.9 160.1 161.3 164.1 166 169.8 173.1 175.4 177.9 182.4 188.8 192.4 192.9 194.3 197.7 206.1 212.6 221.4 227.9 234.4 239.1 242.5 246.1 251.9 257.5 257.9 256.6 252.5 246.8 241.8 240.3 240.5 241.1 240.4 232.8 231.2 240.6 244.4 250.8 257.1 263.4 269.7 276 284.2 293.3 301.9 303.6 305.3 304.6 303 303.6 303.7 304.2 303.9 301.8 297.6 296.4 296.8 297.3 300 302.3 304.8 307.3 310.5 313.3
150.4 150.4 147.5 139.4 121.2 115.1 108.1 107.3 107.4 106.8 106.8 106 106.3 107.2 106.1 107 106.2 114.8 127.4 139.8 144.5 143.9 141.2 149 151.3 159.3 163.5 167 169.5 171.6 173.6 175.1 175 176.6 180.5 182.9 183.9 183.4 185.8 187.4 189 190 192.2 192.3 191.5 190.3 188.5 188.3 186.1 184.3 184.5 183.7 182.8 181.4 179.7 178.4 176 172.3 170.1 169 167.8 165.5 163.5 161.6 159.3 157 151.1 151.7 155 158.2 159.4 159.3 155.8 149.4 141.8 129.4 113.7 97.9 97.2 96.2 96.1 92.6 92.6 101.2 107.7 124.8 130.3 131.5 132.5 133.3 133.2 134.7 135.6 134.4 131.9 134.4 139.2 144.9 144.7 142.9 136.7 129.5 125.3 123.7 121.5 122 120.5 119.4 115.8 118.4 125.6 132.3 135 133.1 136 139.9 142 147.1 150.2 148.6 147.4 145.5 141.7 139.7 137.6 136.1 134.9 126.1 105.3 98.1 112 130.4 141.9 152.7 158.6 162.7 164.1 163.5 164.8 167 171.4 175.1 178.3 181.2 187.1 193.3 195.8 197.5 198.8 203.3 208.3 215.3 223.4 231.4 239.2 242.5 247.1 252.8 259.6 265.8 266.9 262.8 255.4 247.4 242.9 241.1 240.5 241.3 240.2 234.4 232.3 239.2 245.1 251.4 258.1 264.7 270.4 276.8 285.9 294.5 302.5 303.3 301.9 300.9 301.4 303.3 304.7 306.7 305.3 303.3 300.8 298.1 298.1 298.7 300.8 302.9 305.6 308 310.3 312.2
148.2 144.9 134.5 117.5 106.4 106.4 106.4 106.4 104.2 105.9 106.1 106.9 106.6 106.7 106.3 104.2 104.2 104.2 113.1 126.5 131.7 132.6 133.8 142.2 148.7 152.6 159.4 163.6 167.3 169.4 171.7 172.6 172.6 173.8 175.5 176.7 178.9 180.1 181.9 184.7 186.4 188.2 189.5 189.3 189.1 188.5 187.5 185.6 183.9 183.2 181.9 180.6 180 179 177.3 176.1 173.2 170.3 167.3 166.4 165.9 163.3 160 158.6 156.8 156.4 153.5 146.3 150.3 153.8 153.8 154.5 152.2 145.5 136.2 125.9 110.5 97.3 96.8 96.3 96.1 92.6 94.3 107.8 126.8 124.6 130 133.2 134.2 137.9 146.9 147 147.8 146.3 143.9 145.8 146.6 147.1 146.7 146.2 144.8 144.2 141.9 133 128.5 126.4 126.5 126.6 120.7 125.9 132.8 136.4 137.9 136.9 138.1 139.8 142.8 148.5 150.3 150.6 149.5 147.7 144.9 141.4 140.9 139.6 138.6 125.8 112.1 99.4 110.5 129 144.4 154.2 160.6 165.2 166.6 166.4 166.2 168.4 173.8 177.4 180.6 184.3 190.1 196.3 200 201.3 202.9 206.6 210.6 216.9 224.7 233.2 243 246.4 250.5 259.4 268.5 272.7 274.8 266.5 256.6 247.2 242 240.1 239.2 239.2 239.5 234.8 232.3 237.6 244.4 249.4 255.9 261 267.7 275.2 283.1 289.3 293.6 294.3 293.9 294.1 295.7 298.3 300.7 303.6 303.8 302.9 300.8 298.9 299.4 300.1 302.2 303.8 305.9 308.5 310.6 313.1
142.4 138 117.5 106.4 107.8 109 109.9 105.5 104.2 104.2 104.2 104.2 104.2 104.2 104.2 104.2 104.2 104.2 104.2 115.6 122.1 125.7 129.6 130.7 137.8 146.6 153.4 159.4 163.9 167.4 168.4 169.6 169.6 170.5 171.6 171.8 173.3 175.3 178.4 181.1 183.2 185 185.8 185.6 184.2 185.4 184.6 182.5 181.3 180.3 179.5 177.6 177.8 176.5 175.1 174.6 171.4 167.8 164.3 163.2 163.2 161.7 159.7 157 155 154.1 152.7 148.7 145.3 149.4 149.2 147.5 144.3 139.1 129 118.5 104.2 97.6 97.1 96.6 92.6 92.6 104.3 122.3 127.4 126.9 130.1 134.8 140.4 148 148.2 148.3 149 150.2 151.1 154.2 155 151.8 150 148.5 147.9 146.5 144.6 143.5 142.3 137.7 138.2 141.7 127.2 132.3 140.8 139.5 138.7 139.3 139.9 140.3 143.4 146.4 150.5 150.7 151 148.9 146.6 143.1 143.5 144.8 142.2 129.7 116.4 101 110 128.6 142.4 155.9 164 166.9 169.2 168.8 168.1 172.9 177.7 180.8 184 186.9 194.3 199.2 202 204.6 206.4 208.5 212.8 217.9 224.8 233.6 241.8 247.1 255.8 265.4 273.2 276.6 277.4 267.1 255.8 245.6 239.5 236.7 235.7 236.3 236.7 234.4 231.4 234.8 240.6 246.5 251.1 254.6 262 268.8 275.6 280.2 284.1 285.5 286.3 287.1 289.2 292 295.4 298.4 301 301.1 300.3 298.6 299.8 301.5 303.1 304.7 306.6 309.4 311.1 313.6
136 126.5 106.4 106.4 111.5 110.4 112.7 112.9 111.5 111.1 109.6 110.9 109.8 112.2 115 113.6 112.5 108.2 104.5 104.2 109.5 120.8 123.9 128.1 129.7 135.5 145.7 152 158.8 162.7 164.4 166.3 166.1 166.9 168.4 167.7 169.2 171.2 172.9 175.8 178.9 181 181.2 181.4 180.4 180.6 180.9 179 177.7 176.5 176.5 176.1 175.1 173.9 172.5 172.2 170 166.3 161.8 160 159.1 158.5 157.8 156.2 154 151.3 149.9 148.1 138.1 146 144.3 140.9 135.8 128.4 122.3 108.4 98.3 97.6 97.5 96.2 92.6 103.2 116.6 129.7 129.5 127.4 128.4 135.2 149.2 148.7 149.8 150.8 153.9 156.1 155.7 158.6 158.9 156.2 153.3 151.2 149.9 148 145.8 143.8 142.9 140.6 140.2 143.2 138.4 132.1 141.4 140.9 140.9 141 140.9 141.3 143.5 146.6 149.7 151.7 152.8 150.9 148.3 145.6 145.1 144.8 143.9 128.6 115.9 103.3 109.6 127 142.2 157.8 164.1 168.2 171.1 170.6 171.7 177.1 181.6 184.7 187.1 189.4 196.2 200.4 203.1 205.7 208 209.7 213.7 217.6 223.9 232.2 240.3 247 257.7 269.2 275.4 277.4 275.3 263.2 251.5 241.9 235.7 232.4 231.4 231.9 232.6 231.1 229.6 232 235.9 240.6 245.4 249.4 254.9 261.7 266.5 271.1 274.9 276.7 278.8 280.2 282.8 286.3 289 294.5 297.5 298.7 299 299.3 300.6 302.6 304.3 306.1 307.6 310.2 312 314.6
134.1 121.3 106.4 108.8 110.8 112.5 113.2 112.3 116 122.7 126.1 127 127.2 128.7 127.8 122.9 117.6 108.5 107.7 104.2 102.7 110.1 120.6 121.6 126.4 127.8 137.1 145.9 150.6 156.9 160.1 162.4 162 161.9 163.2 163.5 165.1 168 169.7 172.2 174 175.4 176.2 175.7 174.4 175 175.8 174.8 174.4 172.3 172.5 171 170.4 169.8 168.4 168.1 167 164.3 160.8 157.5 155.1 155.1 153.8 152.4 150.4 148.7 144.6 142.4 135.2 136 134.1 131.8 126.5 124.9 111.1 102.5 98.5 97.5 97.3 92.6 98.3 113.1 128.5 135.8 141.9 128.6 128.1 136.6 149.2 150.8 153.9 157.2 159.9 161.2 159.5 161.5 160.8 157.9 155.7 153.8 152.3 149.2 146.9 144.3 143.2 142.4 142.9 142.7 139.7 132.4 142 140.8 141.8 141.6 141 142.9 145.4 147.6 150.5 153.1 154.6 152.8 150.8 148.3 145.7 144.8 144.7 134.7 118 101.9 107.6 124.6 139.8 155.4 163.6 168.5 170.7 171.7 176.8 182 185.7 188.5 192 192.5 196.9 201.1 203.9 206.4 208.6 209.7 212.9 216.8 220.7 228.4 238.6 246.5 258.7 271 277.6 277.5 270.5 259.5 245.4 237.5 232.3 229.1 227.5 227.2 227.7 227.9 227.2 229.8 232.9 236.1 239.7 244.5 249.4 253.8 258.6 263.5 266.9 268.7 273 276 277.8 281.7 284.1 289.1 293.6 296.7 298 299.2 301.6 303.7 305.4 307.1 309.1 311.7 314.7 317
139.3 119.8 106.4 108.7 110.8 112.7 112.5 113.2 121.6 129.3 129.7 129.4 129.5 129.3 128.9 127.3 121.6 115.5 107.6 104.9 101.9 104.5 113.6 119.6 120.6 125.1 126.6 134.5 144.1 148.8 153.6 157.5 157.5 157.7 159.1 159.2 160.9 163.2 165.9 168.5 170.2 170.2 171.8 172.2 170.5 170.2 170.4 170.4 171.5 169.5 168.5 167.8 166.7 165.5 164.2 163.5 164.4 162.7 159.5 156.1 153.5 152.1 150.6 149.5 147.3 144.1 138 135 132.8 130.9 128.1 125.8 119.8 111.8 103 100.9 98.3 97.8 93.3 93.1 110.2 128.4 136.2 141.3 145.3 133.9 129.8 140.7 151.8 156.4 160.5 162.9 163.8 163 162.7 162.5 161.6 160 157.8 156.9 155.3 152.5 148.5 145.6 144.2 143.5 142.9 142 137.3 138.1 142 141.6 142 141.1 142.5 147.3 149.2 151 153.1 155.2 156.8 155.5 153.6 150.9 146.5 146 145.9 136.8 119.5 104.1 108.1 118.5 136.4 153.8 162.4 168.2 170.7 173 180.3 186.6 190.2 193.8 194.3 194.9 198.3 202.4 204.5 205.4 206.5 208.1 210.4 213.7 217.5 226.3 235.2 246.3 257.6 270.7 278.1 275.9 263.9 253.1 240.6 233.6 228.8 226.2 224.4 224.3 224.6 225.3 225.5 227.7 230.7 234 236.6 240.3 244.4 248.2 252 256.3 259.9 265.3 269.3 271.2 275.2 277.1 282 286 290.3 294.2 297.3 298.9 300.9 303.5 306.1 307.9 310.1 312.8 316.6 319.4
136.7 117.4 106.4 110.2 112 112.2 113.6 114.4 128.8 131.1 132.7 134.5 130.2 128.8 129.4 128.9 127.1 123.5 108.8 105 103.1 102 109.8 113.2 120.8 120.1 122.8 125.9 134.3 142.5 147.2 151.8 153.5 152.8 151.6 153.7 156.5 158.3 161.1 163.6 164.3 165.1 166.3 166.3 166.5 165.5 165.6 165.8 166.8 165.6 165.1 164.3 163.9 162.9 158.9 158 158.9 158.3 156 153.5 152.6 149.6 147.2 145 141.2 136.7 133.3 130.5 126.4 125.7 122.9 118 109.6 103.3 102.5 103.2 93.7 93.7 93.7 104.8 120.9 135.9 143.6 147.4 148.8 136.4 132.3 143.9 154.7 160.7 164.1 164.5 164 164.1 164.8 163.4 162.6 162.1 161 160.4 158.8 156.4 151.5 147 145.3 144.1 143.1 142.3 134.4 142.1 142.1 141.8 142.1 141.7 146 150.7 153.7 154.6 155.2 156.5 158.3 157.5 155.9 153 148.2 146.7 146.3 143 127.4 120.2 121.4 120.1 129.1 149.2 160.4 165.8 169.6 174.4 182.3 189.2 193.7 197.2 196.5 195.4 197.6 201.5 204.5 204.1 204.3 205.4 207.3 209.9 215.2 221.7 232.5 244.1 255.9 267.7 275.1 271.3 259.1 247.7 236 230.5 225.4 222 221.6 221.5 222.2 223 224.9 227.4 229.9 232.6 234 237.2 239.1 244 247.9 251.4 255.2 260.7 265 268.6 272.7 275.2 280.2 283.6 288.1 292.1 296.4 298.1 300.6 303.3 307 310 312.6 315.6 318.1 321.5
137.1 114.1 106.4 111.5 111.3 112.4 114.3 122.3 132.8 135.2 135.3 135.7 135.5 130.8 129.3 128.3 128.6 127.5 110.2 106.6 103.2 101.9 105.8 110.8 116.2 119 119.7 120.4 125.6 133 140 141.8 143 144.4 143.7 146.6 148.3 150.5 153.1 155.4 158 158.4 159.9 159.8 160.4 161.4 160.9 160 159.6 159.7 161.8 160.2 158.6 159.2 156 153 153 152.1 150.3 147.7 144.9 142.8 138.8 137.7 135.6 132.5 128.6 124.9 119.7 117.1 112.4 107.1 105 103.2 103.6 93.7 93.7 95.1 100.2 117.8 135.2 144.9 150.5 152.1 154.4 141.5 134.7 147.1 158.9 163.5 164.8 164.6 164.9 165.5 165.2 164.6 163.6 161.8 160.1 159.3 157.9 155.5 151.9 148.6 145.8 144.4 142.4 138.3 140.2 141.6 141.8 142 140.3 142.1 147.5 152.4 155.8 156.7 157.8 158.5 160.4 159.2 157.4 155.2 149.9 147.4 147.2 146.2 144.2 130.7 135 124.5 122.3 141.5 155.6 161.7 167.8 175.3 182.8 190.5 195.5 198 196.7 196.1 198 201.1 202.7 201.3 201.3 201.9 203.4 207 212.5 218.2 229.8 240.5 251.1 260.4 266.1 263.3 252.7 244 230.5 225.6 220.9 219.1 220.6 220.4 220.9 221.7 224.6 225.7 227.6 230.3 231.5 235 238.5 241.4 244.9 249.2 253.4 258.4 263.1 267.9 271.9 274.5 278.7 284.4 286.9 290.9 294.9 296.9 300.9 304.8 308.8 312.1 314 317 320.8 324.7
133 111.3 106.8 110.8 111.8 112.3 114.1 127.6 136.1 137.5 137.8 138.5 136.5 135.6 129.9 128.8 128.6 128.4 120.8 105.5 104.3 101.9 104.2 106.2 107.4 116.7 117.5 117.1 118.6 120.1 127.6 132.8 134 134.8 134.8 137.2 140.1 141.6 143.1 145 147.5 148.5 149.9 152 154.2 157.3 156.6 157 152.7 152.2 153.1 152.7 153.2 151.6 149.6 148.2 147.1 145.2 143.3 140.4 137.9 134 131.9 131.5 129.2 126.9 123.2 117.5 112.7 109.5 103.4 106.1 104.2 100.8 93.7 95.3 95.9 96 110 128.5 142.7 151.1 155.1 156.9 157.3 143.6 134.4 145 163.2 166 166 166.8 167.2 167.3 167 166.1 164.4 161.7 158.8 156.8 156 154.7 151.8 148.7 145.3 143.4 140.9 142.9 142 143 141.8 142.2 142 144.5 152.7 155.5 157.5 159.2 159.2 160.8 163.3 162.1 160.1 157.6 151.9 148.1 147.3 146.9 143.4 137.7 141.1 126 119.3 129.4 141.4 149.2 164.3 172.6 181.4 191.4 195.9 197.7 196.5 196.7 198 200.5 200.3 197 197 197.7 200.5 203.8 210.2 215.5 226 234.9 245.3 251.9 255.9 252.6 246.3 238.4 226.3 221.2 217.8 217.1 216.1 217.8 219.2 221.5 223.7 224.8 225.5 228 230.5 234.9 237.6 240.9 243.1 249.1 252.4 257.2 262 266.5 271.1 274.7 278.6 282.2 286.4 289.6 293.9 296.4 300.8 304.9 309.4 312.4 315.5 319.5 323.4 327.3
131.1 112.9 107.5 111.4 112.4 113.5 116.2 133.5 137.8 139.1 139.2 138.5 138.2 138 136.3 134.4 133 132.7 129.4 116 105 102.5 101.9 105.5 106.4 106.2 114.2 116.8 116.4 118 118.7 120.4 122 122.9 125 125.7 128.8 132.5 133 134.7 135.9 137.1 140.3 142.4 146.1 148.6 149.1 148.8 145.6 144.1 143.4 142.1 140.5 141.8 140.7 140.3 138.3 136.4 134.9 133.4 130.5 127.4 127.1 125 121.1 118 115.7 109.6 107.3 104.3 101.9 104.4 100 93.7 95.3 96.5 98.5 101.9 116.8 136.3 147.6 153.9 157.2 158.7 159.5 143.5 135.8 149.9 164.9 167.9 168.3 169 169.8 169.7 169.4 167.6 165.2 162.5 159.5 156.3 154.6 153.6 150.9 147.8 144 144.5 145.4 144.4 143.7 143.8 142.3 142.1 142.1 147.2 154.4 158 159.4 160.6 161.6 163.2 166 165.2 163.4 159.8 154.1 148.5 147.4 144.7 142.4 141.9 142.2 132.3 121.9 120.5 122.2 136 148.5 166.4 179.6 188.4 195.3 197.4 196.5 196 197.6 198 194.4 192.1 192.2 192.7 196.1 200.9 207.7 213.3 220.1 229.5 237.5 243.3 244.1 243.2 240.2 232.5 222.6 217.8 214.7 211.4 211.4 216.5 214.7 218.1 219.1 222.8 226.1 228.2 232.3 236.4 239.2 241.9 245.3 248.7 254 258.5 261.3 267.2 270.3 274.2 278 282.4 286.7 289.3 293.7 297.7 300.8 306.1 310 313.9 317.1 321.3 325.9 329.8
130.6 111.7 108.1 112.1 112.9 113.9 119.9 137 139.5 139.2 140.2 139.8 139.2 139.4 138.6 137.6 137.2 136.2 134.4 131.2 119.3 104 100.8 101.5 105.1 105.7 106 111.3 116.9 117.5 117.5 117.2 117.6 117.7 118.2 117.1 117.3 117.7 120.3 123.4 122.8 124.7 127.6 131.3 134.2 134.6 135.2 135.2 133.6 130.6 130.6 131.3 129.4 131.1 130.7 131.6 130.5 128.6 128 126.3 123.7 120 119.9 118.7 116.4 113.4 109.5 106.9 99.6 99.1 98.3 96.7 94.9 95 96.2 97.6 99.9 109.4 125.3 141.5 149.9 155.5 158.8 161.3 159.8 141.1 137.6 152.2 165.2 169.3 170.4 171 171.4 171.9 171.3 169.9 166.4 163.1 159.3 155.4 153.1 151.2 147.9 146.9 147.9 147.6 146.7 145.7 144.9 143.7 142.9 142.3 142.4 147.6 156.1 158.6 161.8 162.5 163.1 164.2 166.6 166.6 165.3 161.6 155.1 151 146.7 144.7 142.6 141.7 141.9 142.1 134.3 129.2 122.2 122.9 134.4 155.6 174.9 185.4 193.2 196.8 196.5 194.9 194.8 192.9 189.3 186.1 187 189.2 194.1 197.3 204.3 210.1 215.5 220.9 228 231.5 231.5 232.1 229.2 223 217.4 212.6 209.9 209.4 214.7 217.5 220.2 221.3 223.8 222.6 227.6 230.2 233.3 236.9 240 243.3 245.6 250.1 256 259.3 262.5 266.7 272.6 277.3 279.8 283.5 288.7 291.4 293.9 298.1 301.5 305.5 309.9 315.4 318.6 323.2 328.1 333.6
122.3 108.1 108.3 111.7 112.3 114.7 127.3 140.1 142.8 145.5 147.9 147.2 145.6 144.6 143.7 142.1 141.5 140.4 139.4 138.1 135.1 128.8 112.8 100.8 100.8 101.7 105.5 105.4 106.2 116.8 116.3 117.7 118.3 117 117.2 117.4 116.9 116.6 116.2 115 114.6 115.5 117.1 117.8 119.1 119.3 119.3 118.8 117.7 117.4 117.9 121.6 119.7 121.8 118 119.3 120.8 119.2 118.8 117.7 114.2 111.1 110.3 109.6 109.1 106.3 101.2 99.5 98.8 98 97.3 95.3 95.1 96.8 97 98.7 101.4 117.6 132.2 145.2 153.7 157.4 159.4 161.7 153.4 139 140.5 157.6 168.6 170.3 171.6 172.9 173.1 172.6 171 169.9 166.1 162.4 158.5 154.9 152.2 150.1 149.3 149.8 151.1 149.9 147.3 148.3 146.5 145.8 144.2 143.9 143.1 148.2 158.7 158.3 162.7 163.8 164.5 164.9 166.1 167.4 165.2 162.2 151.8 147.2 146.1 144.6 143.6 142.5 142.4 142.4 140.5 132.7 122.9 124.1 127.4 144.6 164.6 179 187.3 192.6 192.4 190.4 186.6 183.1 180 179.5 181.7 186.6 189.9 193.6 200.5 205.4 210.1 213 217.3 221.3 222.3 222.3 218.6 215.3 212.7 208.2 209 212.1 216.2 220.6 223.5 225 226.6 227.1 226 230 232.7 236.4 240.3 245.1 248.4 252.9 258.9 261.7 266.1 269.4 274.5 278 281 286 290 293.1 295.3 298.3 303.5 308.1 312 317.5 323 329.9 336.5 341.3
115.7 108.4 108.5 111.3 112.9 116.2 130.4 144.3 148.4 150.1 150.6 150.3 150.7 150.3 150.5 150.6 149.2 148.1 147.2 148.3 145.5 142.3 137.7 126.9 118.9 104.9 100.8 100.8 100.8 105.3 110.5 115.9 115.8 118.5 118.3 118 117.3 116.3 115.9 114.3 113.9 114.7 114.9 115.4 114.5 114.4 112.7 113.1 112.7 112.1 110.6 109.1 107.1 104.4 101.6 103.6 105.7 108.3 107.9 106.7 104.7 103.3 101.9 102.7 100.7 99.4 99.8 98.7 98.1 97 95 94.8 95.6 98.4 98.1 100.2 107.2 122 137.9 149.5 154.8 151.9 152.8 159.5 149 140.1 143.6 159.7 169.1 172.1 173 174.2 174.1 173.4 171.5 169.6 166.6 162.3 157.4 155.4 153.3 153 152.5 151.8 152.5 151.1 151.4 151.8 153.1 153.1 151.7 145.9 144.1 144.7 152.3 158.2 162 165.5 165.6 165.8 167 167.2 164.8 159 154.2 151.6 146.3 144.7 143.9 143.2 143.5 142.7 136.8 123.9 123.6 124.8 126.1 138.5 155.5 173.3 180.2 185.1 186.4 183.6 178.5 175.1 174.5 175.6 177.9 182.3 185.2 187.8 192.5 199.7 204.5 206.3 209.6 212.2 212.1 210.6 212 209.8 202.7 204.2 208.6 213.1 217.4 222.2 226.2 228.9 230.7 231.7 231.2 230.7 233 237.2 241.4 247 251.6 256.4 260.9 265.9 270.4 272.5 276.1 279.2 283.2 287.5 291.5 294.4 297.6 300.9 305.7 310.3 314.1 320.7 328.6 337.5 346.1 350.5
