ncols 200
nrows 83
xllcorner 210000
yllcorner 740550
cellsize 50
302.7 263.4 231.8 202.2 175.1 144.7 122 98.5 72.9 54.7 40 25.5 11.5 3.2 -1.2 -1.2 -1.2 -1.2 -1.2 -1.2 -1.2 -1.2 -1.2 -1.2 -1.2 -1.2 -1.2 -1.2 0.4 2.1 7.9 13.4 20.5 29.7 39.7 52.3 65.9 79 94.2 118.1 150.5 178.8 183.6 201.6 228.2 241.6 264.8 284.9 299.7 313.9 331.5 353.8 366.1 356.2 330.6 313.8 301.8 334.2 368.8 409.4 443.9 466.9 484.8 493.3 499.7 500.4 489.6 453.2 408.6 365.2 330.1 296.2 267.6 243.7 228.4 224.5 240.1 258.5 263.9 262.9 247.2 235.2 230 225.9 235.5 246.5 254.1 266.8 277.7 291.6 306 324.3 345.5 367.3 389.5 414.6 442.3 472 500.7 530 561.6 596.1 630.4 666.9 701.6 735.2 773.9 798.5 825 846 857.7 862.9 868.4 868.6 871.8 875 878.4 880.9 888.5 891 894.4 900 910.5 917.3 926 938.2 946.4 955.1 966.8 978.3 989 1002.9 1015.1 999.8 938.7 906.6 892.1 871.9 856.2 843.8 837.1 815.5 787 763.2 750.2 742.4 749.8 752 756.8 761.5 760 754.2 754.3 752.5 750.6 747.3 740.8 738 732.9 726.9 721.4 717.7 713.3 705 696.1 688.4 679.9 670.8 662.7 666.5 672.8 687.9 702.7 721 745.6 767.9 786 805.4 836.6 856.3 873.8 886.2 894.7 898.2 894.6 857.9 824.5 804.5 781.2 746.9 723.4 698 699 685.4 671.6 642.9 601.7 557.3 507.5 471.4
288.6 249 218 189.4 161.9 135.4 107.7 87.9 65 47.9 33.7 18.3 6.6 -1.2 -1.2 -1.2 -1.2 -1.2 -1.2 -1.2 -1.2 -1.2 -1.2 -1.2 -1.2 -1.2 -1.2 3.6 4 9.1 16.9 23.8 32 43.8 58.1 67.7 81.6 97.4 118.5 138.9 167.5 207.4 230.3 240.5 257.2 268.9 296.7 321.9 334.3 362.1 374.3 389.5 398.7 394.1 382.4 349 331.5 337.2 377.4 413.1 453.6 476.5 496.1 499 506.7 505.2 488 445.8 404.9 362.1 327.6 295 266.6 246.1 231.6 237 258.9 278.6 287.2 283.3 266.7 250.6 239.8 236.3 235.3 246.5 253.8 264.9 275.6 287.1 301.9 320.6 340 359 380.8 408.2 431.6 461.7 489.9 519.3 550.6 583.6 615.1 651.7 686.9 720.9 754.3 787.6 817.8 841.5 856.2 864.6 869.3 873.5 876.6 880.7 882.9 885.8 891.4 896.4 901.1 906.1 912.4 918.4 926.6 937.4 946 955.5 966.9 978.6 989.4 1003.7 1015.2 981.3 942 923.2 903.8 888.9 868 852.4 842.8 826.4 808.9 792.3 778.5 757.4 749.6 749.5 753.8 756 753.3 748 739.5 732.5 726 716.7 708.2 705.4 700.3 695.2 690.6 688.1 683.2 677.5 669.8 663 651.6 642.7 634.8 640 646.1 659.9 671.6 692 716.2 736.1 746.6 780.2 805.4 827.3 852.8 869.4 880.7 886.8 885.3 847.9 816 785.4 762.7 742.1 708.8 676.1 653.3 641.7 633.9 615.2 587.9 550.7 503.9 470.2
270.4 237.2 209.3 173 148 122.5 99.6 78.1 56.5 39.7 26.6 12.1 2.9 -1.2 -1.2 -1.2 -1.2 -1.2 -1.2 -1.2 -1.2 -1.2 -1.2 -1.2 -1.2 -1.2 4.8 9.2 11.6 17.6 24.6 34.8 44.7 57.5 69.5 86.4 97.8 114.1 137.6 158.5 188.9 224.7 254 272 285.5 291.9 325.2 351.3 380.7 390.5 416.7 435.5 439 431 421.4 391.2 369 361.2 393.9 422.4 460.3 486.7 498.2 510.5 514.4 512.4 489 436.9 398.2 361.3 326.2 293.9 269.4 249.6 235.3 247.6 271.7 300.7 302.6 299.7 284.6 269 254.7 247.4 240.2 246 255.3 263.9 273.9 285.6 299.7 315 335.5 354.3 373.8 398 422.4 451.2 479.2 508.3 539.5 572.1 603.5 635 668.4 704.9 736.7 772.1 805.6 830.1 847.5 859.3 866.4 875.6 880.4 883.3 887 887.8 892.6 897 903.1 907.9 913.9 919.4 927.4 936.6 945.1 955.9 967.3 979.1 991.6 1005.3 1014 988.1 952.1 931.6 915.2 902 883 862.2 853 849.2 830.6 816.7 807.5 778.6 761.2 755.7 757.2 755.9 748.3 738.5 729 716.9 706.5 692.2 681.4 675.5 670.3 665.3 662.6 656.2 655.5 652.2 645.3 637.5 624.2 613.1 607.2 608.7 616.5 630.8 643.2 663.9 683.2 700.5 724.3 749.6 775.6 797.7 823 843.8 854.6 862.2 874.6 841.8 809.3 781.3 753.1 734.9 702.1 673 639.2 610.2 601.4 588.6 565.9 532.5 495.6 463.3
257.9 223.9 197 163.9 134.4 112.2 87.8 68 50.8 32.2 19.2 7.9 -1.2 -1.2 -1.2 -1.2 -1.2 -1.2 -1.2 -1.2 -1.2 -1.2 -1.2 -1.2 -1.2 -1.2 9.6 14.6 17.9 25.6 31.6 46.3 55.9 72.9 83.7 99.4 114.5 128.3 155.7 192.3 214.7 251.7 282.5 298.8 312.6 328.1 354.5 382.4 413.8 437.8 452.2 461.4 475 464.5 451.1 424.5 408.4 381.8 411.5 440 474.5 495.4 506.8 521 522.4 516.3 492.1 441.2 400.3 360.3 326.9 297.2 271.1 255.6 234.3 254.8 279.6 313.6 328.6 320.3 303.3 285.1 270.3 259.4 250.3 247.9 257 266.9 277.1 287.4 298.4 315.5 332.6 352.1 371.3 389.8 413.4 440.4 468.7 498 527.5 557.4 588.5 620.2 654.4 688.7 721.6 758.6 787.4 812.4 830 848.2 865.2 875.5 880.2 886.5 890.5 892.1 893.9 896.2 901.1 906.2 913.2 918.1 926.2 935.6 943 953.6 966.8 978.8 991.7 1003.9 1011.2 995 968.3 945.4 929.9 911.8 893 886.3 874.8 867.8 854 835.1 833.8 798.1 776.2 772.8 764.7 765.8 757.7 740.9 722.6 706 693 672.9 658.2 650.2 643 639.1 633.7 628.1 624.9 625.7 617.2 610.4 597.6 585.8 581.6 581.8 589.4 600.3 613.2 631.1 649.4 658.5 692.6 712.7 737.4 767.2 791.3 814.2 816.5 828.2 856.5 845.1 810.7 777 755 734.5 702.2 676 642.6 610.4 582.7 557.4 549 519 483.5 454.7
240.9 211.1 174.7 146.3 123.1 100.8 81.8 58 42.5 28.2 14 6.4 -1.2 -1.2 -1.2 -1.2 -1.2 -1.2 -1.2 -1.2 -1.2 -1.2 -1.2 -1.2 4.9 8.3 14.9 19.3 24.9 33.9 43 56.4 73.4 82.5 99.6 115.4 132.3 148.5 181.7 219.5 245.1 272 302.9 316.9 337.2 367.7 375.2 409.2 443.2 477.3 494.2 516 509.2 504.9 476.4 451.4 439.7 420.1 437.4 457.5 490.7 505.7 524.4 535.5 533.8 525.8 494.5 444.6 402.3 361.7 328.3 299.7 274.7 259.9 250.9 263.1 290.2 322.1 349.8 343.7 321.2 301.4 287.4 272.3 261.7 254.4 259.9 267.2 276.4 286.3 297.6 314.4 329.9 346.8 364.7 385.4 405.2 433.6 461.6 487.9 516.6 544.7 577 607.3 637.1 669.6 703.2 740 766 786.7 806.7 833.2 861.8 874.9 879.6 888.8 893 895 896.5 898.9 900.5 903.6 909 915.4 920.7 932.9 941 950.4 965.6 978.3 991 1001.7 1009.4 1011.5 981.6 959.4 940.1 924.1 910.2 901.2 893 889.4 877.6 859.1 857.4 827.8 808.3 785.8 789.4 785.9 767 754.4 736.3 715.3 690.9 670.1 646.1 624.9 619.4 614 608.3 602.1 596.2 594.7 591.4 583.9 570.9 557.1 558.2 558.5 566.5 574.2 584.1 600.3 616.3 633.9 656.4 678.3 701.8 726.4 752.9 768.9 770.9 799.6 839.1 836.9 821.7 797.8 770.3 741.4 714.1 683.8 650.5 615.4 580.8 535.6 500.4 499.9 470.8 444
223 194.1 163.3 135.1 113.2 94.8 73.3 54.6 37.9 24.3 15 6 -1.2 -1.2 -1.2 -1.2 -1.2 -1.2 -1.2 -1.2 -1.2 -1.2 -1.2 4.4 8.2 14.1 19.6 24.9 36 42.9 53.6 65 83.2 97.1 114 129.9 146.1 171.5 198.5 232.5 268.6 298.4 315.5 333.5 360 395.2 421.3 434.6 469 502.6 531.7 551.2 544 530 508.7 478 465.7 451.6 463.5 483.9 508.7 532.8 551.7 563.9 558.7 532.9 496.1 446.7 401.8 365.4 333.8 304.2 280.1 267.3 263.1 263.4 300.2 342.1 368.4 365.4 341.7 316 301.6 287.3 275.3 265.3 265.8 271.3 279.2 289.1 302.1 316 329.8 350.4 360.8 379.5 398.8 422.8 449.6 476.1 503.4 532.3 563.1 591.9 621.8 650.5 683.8 713.3 739 761 788.4 819.9 849.5 872.7 880.5 888.1 892.1 895.2 898 902.5 904 908 912.5 917.1 923.4 932.4 943.3 954.3 965.2 977.5 986.5 997.7 1005.6 1011.2 1016.8 984.6 955 939.4 928.9 920.9 918.4 910.2 897.4 887.8 875.5 852.6 840.2 824.1 805.1 812.4 787.1 763.6 755.5 734.7 703.4 678.5 657.5 639.4 619.8 592.9 582 578.8 574.6 569.4 565.2 557.9 546.2 536.8 537.9 538.1 545.6 548.5 555.8 569.7 584.2 605.6 623.8 643.7 662.3 692.8 712.2 714.7 757.6 794.6 799.9 794.4 809.9 801.4 779.3 755 730.5 699.6 666.4 631.3 595.2 551.7 515.4 467.5 458.4 437.6
204.2 180.1 150.4 122.7 102.1 84.2 66.7 48.1 33.5 21.4 10.7 2.6 -1.2 -1.2 -1.2 -1.2 -1.2 -1.2 -1.2 -1.2 -1.2 -1.2 -1.2 6.9 11.6 17.6 25.1 35.4 44.3 51.8 65.1 76.2 89.7 109.1 126.4 145.3 161 186.5 223.4 249.6 277.6 304 328.6 351.6 381.3 415.6 457.8 485.9 495.2 528.4 564.1 584.3 581 558.4 534.2 510.6 494.7 481.6 490.9 513 529.3 558.2 577.4 586.9 579.2 536.6 490.1 448.6 406.3 370.4 338.2 308.8 285.9 274.3 270.6 275.4 307.4 350.1 380.1 379.1 360.2 339.8 319.3 302.3 289.7 278.2 273.1 278 285.7 291.5 303.2 318.6 330.5 343.8 358.1 376.3 394.2 417.9 437 464.5 491.1 522.9 549.1 576 605.7 634.5 663.5 689.6 711.2 736.7 769.1 800.9 835 863 877.6 885.5 889.2 893.9 897.1 902.7 906.2 908.7 912.8 917.7 923.1 931.3 942.7 954.1 963.8 973.2 982.2 992.3 999.7 1005.6 1014.2 1022.4 987.8 966.4 955.3 946 942.5 938.4 922.8 910.9 896.2 875.9 867.2 850.4 833.2 834.3 815 790.5 769.1 746.4 721.1 692.9 670 647.8 626.3 605 585.3 565.8 556.8 549.2 540.5 533.8 523.9 518.4 518.1 518.6 526.1 526.2 532.7 543.7 560.4 577.7 594.3 614.6 632.5 653.8 662.2 708.3 740.6 756.5 750.2 757.7 786 790.2 784.5 759.4 738.7 711.6 681.5 645.3 607.6 571.3 531.1 495 456.5 433.4
186.3 166 141.1 113.4 92.5 74 55.9 38.8 28.2 16.5 10 2.7 -1.2 -1.2 -1.2 -1.2 -1.2 -1.2 -1.2 -1.2 -1.2 -1.2 -1.2 12.3 16.8 22.5 30.9 39.7 56.3 62 75.7 87.1 101.5 120.3 138.4 158.5 174.9 196.3 224.6 253.8 287.9 314.3 339.6 376.1 403.1 445.5 479.7 510.4 542 575.7 593.3 620 611.8 587.3 557.1 534.2 518.5 510.7 527.3 538.5 555.7 590.8 607.6 610.4 579.4 536.4 496.8 450 409.9 375.6 340.7 310.8 289 281.6 261.8 288.2 313.9 349.7 383.3 387.7 385.7 362.6 338.1 318.9 303.6 293.6 283.2 286.6 289.9 297 306.9 321.4 331.7 343.4 360.7 375 391.3 411.1 429.2 451.9 478.6 506.8 533.5 561.6 588.6 616.2 642.3 665.3 690.4 718.6 749.7 780.4 815.4 842.8 865.4 876.8 883.4 890.3 893.7 899.5 904.1 908 912.9 916.2 921.8 929.6 939.2 948.9 958.1 967.5 976.4 983.9 990.2 996.6 1005.3 1015.2 1026.2 1033.5 1029.5 1006.4 980 977.5 958.3 935.6 917.2 901.9 895.4 880.3 860.8 857.9 839.5 817.5 794.5 763.3 730.3 702.1 681 657.3 636.1 609.3 584.7 565 551.1 537.3 526.9 518.3 508.5 503.5 501.6 502.4 504.9 504 512.5 521.5 537.6 550.5 567.8 581.9 601.2 615.8 632.7 653.3 671 687.8 700.7 737.6 742.3 745.7 758.1 743.8 740.9 716.5 688.5 653.6 618.3 580.3 535.1 492 449.3 425.4
175.1 152.2 125.7 102.6 78.8 63.2 46.3 31.8 19.9 13.4 7 -1.2 -1.2 -1.2 -1.2 -1.2 -1.2 -1.2 -1.2 -1.2 -1.2 -1.2 6.5 14.6 24.7 30.6 40.1 52.5 63.5 75 85.5 97.6 113 134.8 149.9 169.2 187.2 209.4 237.5 270 297.6 324.1 352.1 389 430.2 465.5 513.5 556.9 574.9 616.6 637.9 639.7 629.7 606.2 572.5 550.3 536.7 538.9 547.4 561 592 624 629.3 619.5 587.4 542.1 497.4 454.7 413.9 379.7 346.8 317.5 292 284 262.6 294.7 320.4 351.6 387.1 403.2 409.8 383.7 355.7 333.7 317.7 305 294.6 287.9 298 304.5 312.6 322 335.6 348.1 360 374.4 389.8 406.6 427.1 445.4 465.1 494.6 518.2 544 572 598.4 622.1 645.3 672.5 700.1 728.8 759.1 790.1 819.1 846 865.7 874.6 882.2 889.9 896 901.3 906 910.9 914.5 919.8 924.6 933.7 942.6 951 958.9 965.3 972.1 977 983.1 990.8 1001.3 1013.3 1026 1032.8 1033.4 1028.8 1008.7 985.7 962.3 940.9 924.6 919.4 908.7 892.2 879.3 863.3 838.6 813.8 785.5 756 722.8 694.7 667.5 645.6 615.7 587.5 560.8 547.6 532.5 521 511 501.7 495.2 487.2 485.6 486.3 486.2 495.6 503.4 515.8 529.2 543.6 554.8 568.3 582.9 600.2 617.3 629.5 645.4 675.5 708.7 699.1 703.9 700.7 710.1 730.3 711.3 687 655.4 614.2 579.2 526 469.8 437.3 411.2
158.6 137.3 117.2 93.5 72.3 54.6 37.6 26 14.7 9.1 -1.2 -1.2 -1.2 -1.2 -1.2 -1.2 -1.2 -1.2 -1.2 -1.2 -1.2 -1.2 9.6 16.1 26.2 39.3 45.1 57.4 69 85.1 97 108.7 125.8 145.7 162.8 181.3 199.1 226.3 248.3 274.4 306 337.3 370.2 417.2 454.1 495.5 536.7 588.2 613 643.9 655.5 656.3 647.4 621.9 592.3 565.1 556.3 556 567.4 587.7 622.3 649.8 646.7 628 593.8 547.1 500.1 457.1 419.4 385.3 352.4 320.9 296.1 290.9 269.9 299.1 325.9 357.1 391.7 416 420.5 409.8 372.9 349.1 330.1 316.4 303.2 296.9 303.2 307.8 319.9 331.9 338.8 348.3 360.3 374.8 389.3 404.4 420.9 438.1 458.5 478.8 502.4 528.9 553.5 579 603.1 628.4 652.6 679.9 708 738 767 790.4 819.4 846.1 860.9 870.9 883.3 893 898.6 904.5 909.2 913.8 918.3 922.9 928.7 935.5 942 948.3 954.1 958.3 962.8 968.9 974.1 984.6 996.5 1009 1015.5 1012.3 998.7 977 961.5 947.2 928.3 911.6 902.6 895.5 889.7 886.6 886.3 881.3 858 814.8 773 744.7 722.5 691.3 656.2 622.2 593.8 563.1 542.6 530.3 517.4 507 496.7 487.6 480.6 475.7 471.9 474.7 479.3 488.1 497.8 507.9 518.3 529.7 539.4 551.2 567 582.2 592.8 602.9 632.8 645.1 654.6 660.8 659.2 679.1 697.9 679.3 661.9 632.6 593.3 553.8 501.8 458.4 428 396.4
145.3 124.3 103.3 81.2 62.6 45 29.3 18.7 10.9 3.8 -1.2 -1.2 -1.2 -1.2 -1.2 -1.2 -1.2 -1.2 -1.2 -1.2 -1.2 5.9 12.6 21.4 31.4 39.8 52.6 66.4 81.9 92.4 108.7 119 136.7 158.7 175.3 195.2 220 243.8 268.8 296.5 323.8 350.8 391.4 440 483 522.4 566.7 611.7 656 672.4 678.8 677.6 669.5 636.3 600.1 579.4 575 573.9 588.2 619.7 647.6 671.3 665.6 641.9 600.1 552.2 502.2 458.5 421.6 388.6 353.3 321.7 299.5 296.5 273.8 307.5 334.7 363.6 395 425.7 451.5 438.2 389.2 363.6 345.7 326.5 312.9 306.2 306.6 314.1 321.8 332.8 342.6 356.3 362.7 375 389 405.2 419.2 432.2 450.4 471.2 491.1 512.8 534.2 560.2 584.2 607.2 633 659 686.6 713.4 738.2 763.2 792.4 817.6 839.3 855.7 875.3 887.6 895.9 903 906.9 911.9 917.2 920.4 924.1 926.8 931.8 937 941 945.1 946.1 953.6 960 968.2 978.2 989.6 994.5 983 953.3 932.8 918 905.7 890.5 875.5 869.8 873 870.7 874.6 878.3 881.9 880.4 842.2 802.8 763.9 739.4 719 685.2 639.2 608.4 576.1 553.1 533.5 519.8 508.1 495.3 482.8 473.1 467.9 459.6 462 465.3 470.8 479.1 487.1 494.9 504.4 513.8 523.6 535.9 547.5 556.3 560.9 572.5 583 594.1 603.4 600 649.7 664.6 645.9 622.6 596.2 558.8 511.3 465.1 432 398.4 373.6
136.4 111.5 92 72.8 55.2 38.5 24.5 13.8 7.8 -1.2 -1.2 -1.2 -1.2 -1.2 -1.2 -1.2 -1.2 -1.2 -1.2 -1.2 -1.2 9.1 17.9 27.2 37 46.5 58.3 71.9 85 98.7 119.1 130.3 146 170.5 187.1 206 227.9 256.5 280.1 309.7 341.9 378.2 423.5 467.9 511 545.3 594.7 644.4 683.4 700.9 706.3 701.4 683.6 649.8 622.2 608.1 597.6 603.5 614.6 648.1 675.6 688.1 675.3 648.8 606.9 557.6 508.5 459.9 422.2 385.6 350.9 322 307.2 300.3 286.8 315.8 340.9 371.4 401.5 434.2 456.8 452.6 404.7 379.3 359.3 337.6 324 314.5 311.9 317.3 323.7 336.5 347.3 359.7 374 375.8 389.1 403.1 416.3 431.1 442.5 461.6 480.2 500.3 521 544.1 564.1 585.1 611.8 638.2 661.9 686.7 710.7 739.1 766 789.8 812.2 833.3 857.9 880.5 893.4 901.9 906 910.7 915.6 916.6 919.2 921.2 922.8 925.4 927 931.4 931.2 936.2 945.7 954.1 963.1 967.8 968.8 938.5 919.4 902.5 888.7 875 862.7 849.5 842.9 841.1 847.3 856.6 863.5 868.9 870.2 867.6 831 792.4 766.8 747.2 728.2 678.4 638.7 597.5 571.3 545.9 530.9 517.5 502.2 486.1 475.9 463.4 452.3 448.7 451.7 456 461.3 468.2 474 479.4 488.2 494.9 505.2 515.4 521 526.8 533.1 540.3 550.3 553.9 578.3 612.4 628.9 617.4 586.4 556.4 517.6 478.5 430 405 377.4 358
125.6 105.2 80.5 62.8 44.6 31.9 18.9 9.4 -1.2 -1.2 -1.2 -1.2 -1.2 -1.2 -1.2 -1.2 -1.2 -1.2 -1.2 -1.2 -1.2 11.2 17.6 26.5 39.2 47.9 62.3 74.7 90.2 107.8 124.7 142.5 151.9 177.4 194.1 216.2 234.9 261.3 292.5 324.7 361.2 398.9 442 486.5 531.5 579.9 625.4 672.7 703.3 720.9 730.9 729.4 710.5 673.3 652 637.2 636.7 637 662.9 688.7 704.5 706.6 684.4 651.4 606.5 559.4 502.3 459.9 421.7 383.5 351.3 325.2 312.8 307.8 303 324.8 349.2 376.9 406.3 438.6 457.6 453.8 419.9 393.9 371.2 349.4 334.3 323.3 320.1 323.9 330 338.4 354.9 366.1 379.9 389.5 393.9 403 413.1 425.1 437.3 451.1 470.1 485.1 504.9 526.5 543 565.2 589.9 615.5 639.2 661.2 685.3 715.4 738.9 762.6 786.3 810.2 832 863.4 887.2 899 902.4 908.1 914.1 915.1 916.1 915.5 916.2 917 916.5 918.1 915.3 923.7 933.3 940.5 947.4 950.2 939.9 915.5 893.2 881.8 870.6 855.2 840.2 825.6 818.1 819.1 822.1 836.2 846.5 851.8 855.4 857.5 853.8 828.1 791.4 770.9 750.8 729.6 690.7 624.9 595.5 567.7 543.3 530 516.7 503 483.5 467 454.2 443.1 438.1 443 447.5 451 454.6 458.1 464.4 467.3 474.7 482.6 489.9 494.1 499.1 504.3 514 519 524.5 547.4 580.1 589.1 556.6 512.3 467.6 437.4 404.4 380 359 346.7
120 93.9 73.4 57.4 39.4 24.9 15.6 6.5 -1.2 -1.2 -1.2 -1.2 -1.2 -1.2 -1.2 -1.2 -1.2 -1.2 -1.2 -1.2 -1.2 10 16.5 30.2 41.4 54.3 65.1 82.8 97.6 113.1 134.6 156.4 168.4 187.8 204.8 224.4 249.5 275.5 305.8 339.2 374.7 417.8 459.7 503 548.5 592.3 643.8 680.9 714.3 739.7 751.9 748.3 737.2 702.3 677.6 670.3 677.7 684.5 708.6 730 731.3 719 693 652.4 607.8 547.6 500.5 453.8 415.3 383.5 356.9 333.7 318.5 314.4 310.4 334.1 356.3 381.7 408.5 438.3 464.3 465.7 432.5 406.4 382.4 359.5 344.2 331 328.5 329 335.3 344.7 362 377.7 388.8 401.1 404.9 408.3 412 420.7 433.7 444.8 458.3 475 492.5 510.3 526.7 548 572.5 594.3 614.1 637.5 661 687.9 712.3 734.8 760.1 784.5 810.5 840.3 868.4 888.1 897.4 907.1 912.1 914.2 914 910.7 911.1 909.5 908.2 908.4 905.4 912.2 920.5 927.1 929.9 931.2 916.9 892.3 878.8 863.4 853.5 836.6 819.8 807.1 799.5 798.1 796.1 810.3 820.5 832.3 838.8 842.3 844.2 841.7 827.1 798.6 768.9 749.1 725.2 692.8 643.7 599 565.6 547.8 532.5 517.3 497.7 477.2 459.1 446.2 433.7 432.8 435 437.6 436.1 437.1 440.9 446.1 450.7 457.3 460.3 464.2 469.1 475.9 478.8 482.8 486 491 501.2 532 520 479.2 437.8 409.5 383.8 364.5 346.7 338.8
108.2 85.2 68.2 48.4 31.8 19.9 10.2 -1.2 -1.2 -1.2 -1.2 -1.2 -1.2 -1.2 -1.2 -1.2 -1.2 -1.2 -1.2 -1.2 -1.2 8.9 19.9 33.1 45.9 60.2 72.6 84.9 103.8 120.4 138.9 165.8 187.7 185 209.7 234.9 260.7 287.7 318.4 349.7 384.1 429 471.6 512.6 554.8 599.5 641.1 678.5 714.7 750.1 766.5 766.7 763.9 729.8 713.1 706.3 713.4 730.1 749.5 760.2 752.5 730.9 691.9 649.5 598 534.1 500.6 458.5 418.6 382.1 353.9 332.8 322.6 323.3 320.1 341.7 362 384.4 406.9 436.8 466.8 471.9 445.5 418.6 395.9 372 352.7 341.1 335.5 335.9 343.8 356.3 370.4 387.6 401.2 409.4 415.5 420.7 423.9 426.2 432.7 440.8 454.3 467.8 483.1 497.9 516.8 534.6 553.3 574.4 597 614.7 638.7 662 683.6 710.4 737.2 763.9 787.4 814.6 841.5 868.3 885.6 897.1 903.3 907.1 909.1 906.3 905.4 902.8 901 899 896.9 899.3 905.8 909.8 912.9 910.7 893 874.1 857.1 846.3 833.5 819 801.3 789.4 779.3 776.5 773.1 786.9 793.2 804 819.8 828.1 832 831.3 824.8 813.4 796.5 770.7 755 729.4 695 642.2 595.9 570.2 554.1 537.6 514.7 488 467.2 449.8 436 423.4 425.8 425 421.3 421.7 421.9 425.4 425.9 431.9 434.1 437.1 441 445.7 446.3 450.9 455.3 456.2 460.6 467 469.7 444.2 416.5 388.9 367.9 351 339 331.3
98.6 76.9 61.9 41.8 27.8 14.5 6.6 -1.2 -1.2 -1.2 -1.2 -1.2 -1.2 -1.2 -1.2 -1.2 -1.2 -1.2 -1.2 -1.2 4.5 13 26.6 38.5 53.1 65.3 81 93 107.9 127.5 152.6 173.9 197.5 213.5 216.2 233.5 263 293.1 326.4 361.1 396.6 435.1 468.8 509 549.5 592.2 632.8 670 712.8 758.1 770.9 777.2 777.4 772.7 748.7 748.5 753.9 767 780.7 776.4 764.3 738.8 691.8 638.1 587.3 558.5 503.1 461.2 418.5 383.4 355.3 335.8 330.8 335.1 330.4 346.8 367.3 388.7 408.5 438 476 485.9 457.2 431 408.7 385.9 365.2 354 344.1 347.5 352.4 366.1 375.2 394.8 406.7 415.5 425 429.1 435.6 439.6 442.6 445.1 452.7 466.2 479.9 497.2 512.1 525.8 540.8 558.1 575.3 597.6 617.8 634.4 661.2 685.6 713.5 744.4 767.6 790.2 814.4 839.7 867.4 884.7 891.6 899.3 901.7 898 900 897.8 893.3 889.5 889.6 889.4 891.1 892.3 890.8 888.2 876.5 859.2 837.8 828.5 818.5 802.5 773.4 768.6 762.2 756.4 754.5 766.2 767.4 778.1 794.2 809.9 818.6 820.4 818.3 811 801.2 790.1 773.7 739.6 717.2 686.2 644.9 613.2 579.6 571.2 545.5 504.8 478.2 454.2 438.2 424.5 414.6 415.7 412.3 407.7 407 406.5 408.5 411 414.4 413.5 416.8 419 419.3 422.3 423.8 425.5 426.8 433.8 434.7 413.5 399.4 374.5 356 340.7 329.7 323.5
89.9 70.4 54.6 35.1 22.8 10.3 5.4 -1.2 -1.2 -1.2 -1.2 -1.2 -1.2 -1.2 -1.2 -1.2 -1.2 -1.2 -1.2 -1.2 7.3 18.3 31 43.8 56.5 72.2 86.5 98.1 113.9 134.7 156.4 179.8 205.7 230.8 239.5 242.8 265.8 287.9 318.7 346.9 371.7 406.3 449.2 495.2 538.9 582.5 619.4 666.1 707.2 757.8 772.7 780.9 790.8 796.3 793.1 793.7 791.9 797.5 800.5 789.5 766.1 741.3 687.4 659.1 612.9 558.3 502.8 462.9 421.4 386.1 358.9 342.6 342.4 345.7 336.9 354.1 371 390.6 412.9 444.7 494.8 499.1 469.4 446.4 421.5 399.5 378.5 365.7 352.9 353.9 358 367.2 382.6 394.9 411.7 426.2 436.6 440.2 446.9 455.2 455.2 459.3 462.8 463.9 477.9 495.3 509.8 520.6 531.7 546.5 566.4 580.1 599.9 619.8 640.7 665.3 693.6 719.1 741.2 764.6 788.7 813.5 841.2 866.2 881.9 889 890.9 892.7 894.7 889.3 883.8 880 879.8 878.3 875.3 877.7 872.8 867.4 855.7 839.4 821.8 814.9 801.2 783.6 756.6 747 744.1 739.6 732.8 751.9 755.9 757.7 767.7 789 801.6 807.9 808.2 804.3 797.1 788.3 777.2 759.5 737.2 714.9 691.1 652.8 623 603 596.4 539.6 492.4 463 442.4 428.4 416.4 404.1 401.1 397 395.4 394.1 393.9 393.2 395.5 393.6 394.2 396.7 395.3 391.4 394.7 395.9 398.2 398.5 398.3 391.4 381.2 364.8 345.1 334.5 324.7 318.3
81 60.7 43.9 29.8 17 7.2 -1.2 -1.2 -1.2 -1.2 -1.2 -1.2 -1.2 -1.2 -1.2 -1.2 -1.2 -1.2 -1.2 -1.2 10.5 24.7 37.1 48.7 62.7 75.6 90.1 106 125.7 143.5 165 190.9 214.6 240 266.8 258.2 271 288.1 321.2 350.7 385.9 424.2 458.1 493.6 538.7 583.9 624 665.3 709.5 745.3 772 785.7 799 808 819.6 822 818 810.1 803.6 786.4 760 730 701.7 662.2 611.2 558.8 509.5 464 424.4 390.7 363.8 353.6 354.9 360.2 349 363.7 376.3 400.4 427.2 456.5 498.7 508.9 485.3 459.8 435.2 414.3 392.7 378.2 363.6 360.4 366 373.2 393.5 401.6 420 438.7 448.4 452.1 458.6 466.2 471.5 472.5 475.5 477.7 479.6 493.8 505.6 517.1 528.6 543 556.9 568.6 586 608.3 624.5 645.1 668.5 691.6 713.3 739.6 760.6 786.3 812.6 840.8 864 875.2 878.7 886.3 888.4 886.7 878 876.1 870.8 866.6 861.5 861.9 855.8 846.9 837.1 826 813.6 803.4 788.8 764.6 746.8 733.9 729.1 720.6 716.5 733.5 738.1 736.5 746.9 766.1 781.6 793.1 797.1 795.2 789.1 783.3 773.5 758.2 742.1 721.8 702.2 675 656.1 629.2 622.9 582.9 514.7 480.5 452.1 432.1 419.5 409.8 399.8 392.3 386.1 382.8 382.5 382.3 381.3 379.9 377.9 377.5 374.5 370.9 369.3 372.8 374 373.3 375.3 373.8 362.8 348.6 339.3 327.5 317.6 313.2
72.3 54.2 39.9 27.7 13.7 4.6 -1.2 -1.2 -1.2 -1.2 -1.2 -1.2 -1.2 -1.2 -1.2 -1.2 -1.2 -1.2 -1.2 -1.2 15.8 27.9 40.1 55.1 66.3 82.6 99 114.7 136.3 159.8 174 204.8 227.5 260.7 293 299.6 283.2 295.6 321.3 346.9 379 415.8 452.4 490.3 531.4 566.3 610.2 654.1 720.7 751.1 770.8 786.1 800.2 816.5 822.7 835.2 831 822.7 790.1 767.8 743.2 714.4 687 646.6 599.5 556.5 516.2 471.4 430.6 404.6 371.5 366.1 372 375.4 345.1 371.8 387.3 411.7 441.5 472 512 521.5 498.8 471.7 447.5 426.1 406.4 392 375 366.4 372.2 381 398.8 413.2 426.2 448.1 464 466.8 471.8 480.8 489.7 492.5 489.1 490.9 494.4 499.6 509.2 516.2 526.7 539.1 550 562.9 575.1 591 610.3 629 651.4 670.9 693.9 715.8 736.2 760.6 785.9 813.8 843 860.1 864.3 877.1 881.2 884.4 876.9 871.1 863.3 858.9 853.2 847.5 840.9 835.9 825.4 813.7 795.8 789 775.2 751.1 731.6 720.2 711.7 692.2 692.9 707.5 714 719.7 726.4 745.9 762.6 778.2 784.9 786.5 781.7 776.4 767.1 753.9 735 718.9 701.7 675 653 635.4 620.3 619.4 556.8 498.2 463.9 439.6 423.9 415 403.4 396.9 389.7 381.6 374.8 368.6 369.4 367.3 367.2 365.3 362.4 356.9 352.8 353.1 356.8 356 357.2 354.7 348.5 335.1 327.4 322.9 314.9 308.7
63 48.2 33.9 20.7 11 -1.2 -1.2 -1.2 -1.2 -1.2 -1.2 -1.2 -1.2 -1.2 -1.2 -1.2 -1.2 -1.2 -1.2 9.6 20.3 34.7 46.5 60.3 76.4 89.5 104.6 122.2 143.1 169.5 192.2 214 242.8 287.3 314.7 344.7 326.1 307.2 319.1 352.2 385 416.3 443.4 481.7 516.4 556.9 602.6 654.8 699.1 737.1 758.9 773.8 791.1 820.5 841.9 847.4 836.2 812.1 781.1 741.2 713.6 689.6 657.9 618.9 584.7 553.6 521.1 474.3 436.8 407.5 383.8 379.2 384.5 387.2 353.7 384.5 400.3 423.9 453.2 485.9 543.3 541.6 513.7 485.5 458.8 435.5 418.3 402.5 386.4 374.5 381.5 388.9 399.9 419.4 438.2 456.3 472.3 485 489.3 497.9 504.9 507.1 506.6 502.3 504.6 508 519.4 528.2 533.1 540.3 551.7 559.2 572.9 585.1 599.9 616.3 637.5 656.6 674.4 694.8 716.3 739 763.8 789.6 819.8 839.4 857.3 868.9 875.3 880.6 877.2 867.4 860.1 852.8 846 840.4 832.5 825.5 815.2 799.5 783.7 770.5 763.1 743.9 716.9 706.4 691.3 669.6 669.4 681.7 688.1 703.3 709.6 723 741.9 759.6 772.4 776.6 776.6 771 763.8 753.6 733.1 713.2 692 667 640.1 625.4 607.3 618.2 603.7 526.9 483.2 456.7 435.9 422.3 411.5 403.2 394 386.4 379.1 373.9 366.1 360.7 355.5 355.2 351.4 347.4 344.3 342.1 339.9 343.8 341.5 339.1 334.2 325.8 316.1 312.8 310.9 305.4
56 41.2 28.9 18.4 6.7 -1.2 -1.2 -1.2 -1.2 -1.2 -1.2 -1.2 -1.2 -1.2 -1.2 -1.2 -1.2 -1.2 9.5 15.1 28.5 38.4 56.1 69.8 82 96.9 113.4 133.6 157.1 174.3 199.7 228.8 268.8 308.1 339.9 369.3 384.6 347.2 339 341.2 381.8 416.6 448.1 484.6 526.5 566.5 602.5 642.2 689.5 714.5 734.2 762.1 791.9 824 852.6 855.8 833.7 797.7 754.8 719.9 689.2 658 628.9 601.3 588.6 558.9 534.1 485.6 445.3 414.8 399 392.6 400.3 398.7 371.5 394.1 411.8 436.4 472 510.3 556.9 558.7 527.7 498.3 469.9 448.7 431 413.4 397.4 385.1 388.6 399.1 410.2 426.5 452.2 464.3 488.3 500.3 507.1 513 517.4 521 519.3 521.9 520.3 522.4 529.7 534 540.2 543.9 555.7 562.7 575.5 586.2 598.9 612 625.8 641.6 657.8 676.8 698.4 721.1 741.6 764.4 784.9 817.8 841.7 860.8 869.8 876.6 876.5 868.4 860.1 853 845.3 837.7 828.1 817.6 808.2 793.2 776 760.6 749.5 729.7 706.8 691.9 673.1 650.2 649 655.2 674.3 687.2 701.4 709.6 722.3 740.9 760.2 765.1 766.5 767.3 762 750.7 732.2 709.7 684.4 643.2 619.9 608.7 592.4 595.4 604.1 574.1 515.3 481.9 456.3 438.9 423.7 412.9 402.3 392.8 385.3 379 372.2 367.6 361.3 353.2 347.1 338.8 336.8 333.7 331.4 332.3 331.5 327.2 322.6 313.5 306.4 302.8 298.8 295.9
48.1 33.7 20.6 10 -1.2 -1.2 -1.2 -1.2 -1.2 -1.2 -1.2 -1.2 -1.2 -1.2 -1.2 -1.2 3.7 8.1 15.5 25.4 33.6 46.7 63.4 75.5 88.5 105.8 121.3 140.6 163.4 188.8 214.4 248 289 327.5 361 389.8 416.7 393.6 376.7 380.9 386.7 415.6 449.8 481 518.8 554.9 588.9 634.4 661.7 702.3 749.6 779.2 807.7 832.7 858.9 850.7 820.5 777.4 734.5 700.3 675.5 651.4 611.1 585 576.3 560.8 537.7 495.3 457.3 428.2 409.1 406.8 412.9 409.1 390.7 403.1 422.4 448.8 486.9 520.7 563.5 571.4 542.7 511.3 481.8 458.6 439.4 422 408.3 397.4 399.7 410.4 422.1 438.7 460.6 474.9 499.9 518.1 526.8 529.1 536.2 538.8 538.8 540.3 544.4 542.7 545.5 551.7 552.9 555.7 561.8 573.2 583 590.9 602 608.6 619.6 632.7 646.1 666 686.9 704.3 723.6 744.8 772 803 828.4 846.9 855.5 869.4 875.1 872.2 863.4 857.8 847.8 836.8 827.6 817.4 805.4 793.2 781.5 764.7 744 729 707.4 682.7 661.7 639.7 639.3 643.2 657.9 674.4 694.8 702.2 708.5 722.5 743.2 751.8 757.6 760.6 754.9 742.8 726.1 702.8 672.6 624.2 602.2 589.8 579.1 583.7 591.2 596.5 558 512.2 482.8 461.8 444 430.2 419.7 408.5 401 395.3 387.7 381.9 375.9 365.7 355.7 346.9 344.5 341.3 337.3 331.3 322.3 314.4 307.3 300.6 298.1 293.8 291.2 289.1
40.2 27.1 15.5 -1.2 -1.2 -1.2 -1.2 -1.2 -1.2 -1.2 -1.2 -1.2 -1.2 -1.2 -1.2 -1.2 7.9 12 20.4 31.2 42.2 52 68.2 81.5 95.5 112.3 131.9 156.1 175.5 196.9 228.4 265.7 304.6 341 380.7 416.6 446.1 450.7 417.3 421.5 404.4 424.9 460.6 492.5 528.9 562.9 605.1 639.8 683.8 719.5 753.6 785.7 825.9 849.4 867.4 823.8 789.9 760.9 727.6 697 669 643.6 613.8 578.1 559.4 549.4 542.4 509.5 470.7 437.9 427.3 425.7 428.3 420.2 399.8 413.6 431.3 458.6 492.5 523.5 566.4 581.9 558.9 525.3 494.9 472.4 449.4 434.1 420.6 408.9 409 421.8 433.6 448.6 468.6 493 513.8 539.5 545.2 554.8 560.8 563.5 565.7 567.9 569 572.6 570.6 574.5 578.9 576.5 575 583.6 596 601.2 611.3 617.8 626.1 631.5 642.5 658.8 682.2 696.9 712.5 733.9 755 787 814.2 831.4 847.4 859.5 870.2 874.2 868.8 861.7 853.6 845.7 838 826 813.7 802.8 791 776.4 754.6 727.2 703.7 675.1 653.7 635.7 635.7 633.2 645.6 665 688.8 695.3 698.5 706.4 723.4 738.8 747.9 749.2 745 731.4 714.1 693.4 657.7 609.3 588 574.8 569 579.2 582 597.8 580.6 550.4 511.9 493 474.2 455.7 444.2 433.8 427.4 416.7 408.5 399.9 395 384.3 374.5 367.1 360.2 352.7 346.6 341.1 333.2 323.8 314.5 302.3 293 286.4 280.9 283.1
33.3 21.7 10.1 -1.2 -1.2 -1.2 -1.2 -1.2 -1.2 -1.2 -1.2 -1.2 -1.2 -1.2 -1.2 8.4 14.5 17.6 28.5 37.6 50.7 61.4 72.8 87 105.7 119.4 135.7 167.3 186.1 211 248.5 284.6 316.2 355 391 439.4 476.3 502.7 470.6 459.1 435.5 436.3 457.2 496.3 539.4 576.8 614.8 649.9 686.5 720.7 752.8 796.5 837.5 857.4 858.7 811.1 782.2 760.9 732.6 700 680.3 649.3 611.3 580.4 565 543 522.7 503.6 465.8 469.7 451.1 444.7 441.3 431.3 411.2 418.6 439.7 466.1 503.2 529 571.5 601.8 576.8 541.9 510.9 486.3 460.8 445.6 432.7 422.9 416.5 430.1 444.5 456.1 477.8 500.8 524.2 550.3 576.8 582.6 593.5 593.2 595.6 598.5 596.6 599.8 596.7 594.7 597.6 597.8 595.2 593.3 606.7 613.3 622 628 636.3 639 647 659.2 677.1 687.6 701.8 719.7 739.4 767.6 790.8 817.8 832.4 842.8 856.2 866.7 868.6 863.9 860.5 853.9 842.4 831.5 821.2 812.8 801.2 784 766.1 747.9 715.9 671.1 647.4 632 629.8 631.3 641.2 660.8 681.9 691.9 694.8 694.1 704.3 722.8 732 733.1 728.7 716.5 698.5 680.3 646.5 594.4 578.1 562.8 560.4 566.2 575.7 586.1 581.7 578.5 562.6 541.9 511.4 491.4 475.8 463.2 455.8 442 432.1 425.7 416.1 408.4 399.4 387.2 380 371.2 362.6 351.3 341.8 331.1 319.5 307.1 290.9 283.2 274.9 269.4
28 15.6 7.9 -1.2 -1.2 -1.2 -1.2 -1.2 -1.2 -1.2 -1.2 -1.2 -1.2 -1.2 -1.2 12.9 17.2 24.8 31.7 42.3 55.4 70.1 79.2 93.6 110.9 128.2 147 172.3 195.7 226.5 260.4 296 329 364 413.7 462.4 498.7 528.5 526.3 494.1 458.7 460.1 486.5 506.2 534.2 556.9 607.7 638.1 669.8 707.2 743.7 794.1 837 858.5 862.4 818.9 780.9 757.4 736.1 712.9 681.5 651.2 620 593.4 575.4 562.7 538.3 519.3 502.7 491.7 476.6 462.1 452.6 439.1 420.3 426.3 444.4 474.7 507.8 533.2 575 613.5 599.3 560.6 527.7 502.7 475 458.6 445.8 435.2 429.9 439.5 452.1 467.8 485.6 510.9 536.6 564.8 592.4 618.6 626.9 629.7 632.4 631.1 629.5 631.3 634.2 626.4 627.4 624.5 624 618.3 618.3 624.6 634.5 639.6 643.9 650.2 653.5 671.1 678.3 683.5 697.1 712.3 730.8 752.2 769.6 792.9 809.6 824.1 835.5 845.8 857.8 860.3 857.5 854.5 849.4 838.9 830.2 819.8 809.1 794.3 780.8 762.3 729 675.5 644.4 629.2 625.4 631.7 640.9 658.5 676.1 683.4 686.1 681.5 690.8 704.8 713.5 720.2 711.1 699.4 680.4 658.2 624.3 588.3 567.3 555.2 551.2 558.4 560.8 560.3 561.5 565.4 563.6 565.8 559.6 537 517.3 494.7 483.7 472.2 463.3 453.1 443.9 433.6 426.5 411.3 398.1 388.5 376 364.6 351.7 341.4 326.9 311.7 295.6 282.4 271.3 265
25.2 15.5 4.2 -1.2 -1.2 -1.2 -1.2 -1.2 -1.2 -1.2 -1.2 -1.2 -1.2 -1.2 7.5 17 23 32.3 40.3 53 62.4 73.6 89.5 103.1 117.5 135 158.6 179.7 205.6 237.2 268.8 304.8 339.6 378.8 433.7 480.1 525.8 554.5 563.8 528 498.4 497.4 497.1 526 559.5 590.3 613.2 647.6 673.4 717.9 753.1 795.7 831.4 854.5 861.7 824 790.8 761.2 736.3 712 689.8 660.8 640.3 623.4 600.8 589.8 572.8 542.4 525.1 513.7 496.7 480.3 463.9 447.3 428.5 431.7 451.7 480 507.8 535.2 578.7 622.4 619 587.4 551.3 521.1 499.6 476.4 462.6 451.5 445.2 444.2 462.6 479.9 500.8 523.1 551.2 581.7 610.2 643.9 667.8 678.7 674.8 675.4 678 674.2 674.3 670.4 672.1 666.4 665.9 647.4 633.7 631.8 645.6 646.8 658.7 661.4 668.2 683 684.4 686.1 695.7 705.5 727 738.4 754.3 768.6 781.5 789.5 797.7 810.5 829.6 845.9 849.6 849.7 849.7 843.7 834.5 828 812.5 800.2 787.2 767.4 724.1 686.5 650.5 629.5 625.3 632 640.1 651.2 663.7 670.4 673.2 669.5 677.3 687.8 694.8 705.3 697.2 682.8 661.2 636.4 611.3 585.6 564.7 551.5 544.3 548.2 542.7 545.1 550.1 554.1 551.5 560.1 564.6 567.8 562.9 543.9 515.7 504.3 497.6 489.2 478 464.4 456.2 441.8 420.5 406.9 393 377.2 362 349.7 339.9 316.9 299.5 280.5 272 264.6
20.6 13.6 -1.2 -1.2 -1.2 -1.2 -1.2 -1.2 -1.2 -1.2 -1.2 -1.2 -1.2 -1.2 11.8 20.5 27.5 37.3 46.6 58 72.5 82.1 99.9 113 123.9 141 162.3 187.4 216 246.4 278.1 313.9 350.2 390.6 440.6 494.5 535.1 573.5 598 570.1 536.5 534.8 534.4 543.9 572.6 601.8 639.3 668 704.7 738.7 767 800.8 837.2 861.4 877.3 835.9 799 769.6 747 720.6 694.8 669.2 653.6 636.3 632.6 605.3 591.5 573.5 552.8 541 519.8 495.3 474.3 457 437 434.8 451.1 477.7 506.2 538.5 578.6 625.1 634 607.2 575.9 545.8 517.3 496.1 481.8 471.1 461.3 456.5 468.6 490 511.7 534.2 559 592.1 627.1 661.4 699.2 722.2 736.2 737.8 730.6 728.1 728.9 724.3 718.4 715.6 700.5 684.4 653.2 649.1 665.5 669.2 674.1 677.4 683.9 690.1 692.9 696.7 705.2 708.5 718.4 729.4 736.8 745.2 752.6 757.6 765.7 777.2 796.4 820.1 842.1 847.3 846.5 843.1 836.5 830.2 822.6 807.7 786.2 754.4 722.1 691.7 661.6 629.3 623.6 631 636.8 643.3 650.2 655 657.6 651.5 660.6 672.2 680.6 691.3 688 672.1 654.3 632.3 605.2 587.8 567.3 548.3 539.6 534.5 533.6 535.1 535.1 531.5 539.1 539.3 543.6 554 554.7 552.3 541.1 538 524.7 522.3 514.5 508.8 490.2 478.8 456.5 432.1 410.2 392.3 373.5 355.1 338 324.8 303.2 280 268.6 261.8
15.6 9.1 -1.2 -1.2 -1.2 -1.2 -1.2 -1.2 -1.2 -1.2 -1.2 -1.2 -1.2 7.1 14.4 22.2 31.3 39.5 51.3 64.4 76.5 85.9 104.8 119.5 133.7 151.7 174 198.5 228.4 257.5 289.2 324.4 362.9 403.7 454.9 501 541.3 585.9 619 608 584.2 570.3 568.9 577.5 583.6 612.5 648.6 685.3 723.7 760 783.8 821.1 855.9 881.1 888.1 843.5 806.4 772.3 749.7 725.5 711.8 675.7 673.4 660.4 646.7 624.1 612.8 600.4 583.9 568.1 558.6 530.1 495.3 469.5 448.5 438.8 454 479.3 508.6 542 573.4 623.9 646 623.8 596 568.8 549.4 522 499.6 484 471.7 466.2 475.9 493.8 520.8 545.2 568.6 603.6 639.8 676.6 716.1 755 785.4 787 788.8 771.9 784.4 775.4 759.7 748.5 734.3 703.1 672.9 671.6 673.7 683.2 695.4 696.1 700.3 705.6 707.4 717.5 721.7 733.3 728.9 735.3 740.8 734.6 731.9 732.4 741.6 751 769 794.5 826.2 841 843.7 842.2 838.9 833.2 825.1 816.9 799.2 779.1 751.7 707.4 673 638 620.4 632 637.5 642.1 644.8 648.4 649.2 638.7 653.1 659.3 670.8 682.3 690.1 680.5 667.1 649.7 617.3 589.6 572.3 553.9 539.7 533.8 532.6 525.8 521.1 520.3 525.5 530.7 528.8 523 516.5 515.1 520.4 537.1 535.2 534 530 526 516.9 503 488.1 463.6 437.3 412.7 387.1 364.5 341.2 320.3 298.4 278.8 266.7 257.6
15.8 6.8 -1.2 -1.2 -1.2 -1.2 -1.2 -1.2 -1.2 -1.2 -1.2 -1.2 -1.2 6.8 17.6 25.6 35.1 47.2 57.7 70.2 83.1 96.2 108 123.8 140.9 158.2 182.7 208.4 237.3 266 301.5 331.9 369 411.1 460.9 510.2 545.7 582.3 627.6 660.4 637.1 609.6 606.2 609.5 605 623.5 654.7 689.8 730.3 765.7 798.8 832.6 868.7 887.5 898.6 844.2 809.2 768.4 744.8 727.7 712.7 707.8 699.7 683.9 668.7 654.4 642.4 630.9 616.1 598.5 582.2 550.4 516.4 486.2 459.9 444.4 461.1 486.3 515 543.1 573.6 619.5 656.8 639.2 611.7 589.9 590.1 552.2 523.5 498.3 483.6 478.3 486.7 501.6 524.4 553.4 582.4 615 650.9 686.3 718.9 758.9 799.7 829.4 822.6 816.2 822.5 810.8 799 773.7 756.6 708.3 688.8 683.1 689.6 695 713.2 714 723.5 723.3 725.8 735.6 746.8 763.1 758.6 750.2 736.1 721.4 710.9 709.6 719.4 729.2 745.3 767.1 796.9 821.2 833 835.9 832.7 828.4 821.9 813 804 781.4 751.9 715.4 682.7 633.6 614.1 624.4 636.3 643.6 644.7 643.3 640.3 630.6 636.9 648.6 664.1 676.9 690.5 691 683.3 664.5 643.4 606.2 583.5 566 545.8 533.5 530.6 529.1 524.2 518.8 520.8 525.8 523.8 514.6 508.5 511.4 510.1 535 545.7 534.1 533.8 538.5 539.1 536.8 509.8 484.8 459.2 429.7 400.3 370 339.7 322.6 302.8 284.2 267.3 254.9
13.7 7.8 -1.2 -1.2 -1.2 -1.2 -1.2 -1.2 -1.2 -1.2 -1.2 -1.2 -1.2 7.8 16.3 28.3 39.5 51.2 63.5 77 89.4 105.2 117.8 129.1 147 171.1 191.8 218.7 247.1 276.1 308.8 346.3 381.1 419.9 468.9 512.2 562.4 597.6 643.7 681.3 688.6 659.3 645.3 641.9 642.8 645.8 667.6 698 736.6 769.1 802.5 838.4 873.8 899.7 873.9 835.5 803.9 764.8 741.1 726.6 725.5 722.9 724.1 717.6 695.7 685.1 678.1 665.4 648.7 627.2 600.3 566.4 537 506 476.8 457.3 466.1 488.1 513.2 543.4 568.7 604.9 646 653.6 624.3 608 607.6 574.2 548.8 520.6 496.4 494 500.4 510.6 534.1 561.2 590.4 623.2 661.6 698.5 740.1 772.5 810.1 845.9 870.9 866.1 857.9 845.8 831.6 809.3 773.6 731.8 707 700.4 701.2 709.2 727.7 735.3 742 744.5 757.5 769.2 775.6 783.2 778.8 756.4 729.8 704 689.2 691 698.9 709.6 720.4 739 762.4 790.7 814.3 824.8 822.4 819.7 811.6 800.3 792.2 766.9 733 706.3 679.9 639.6 596.4 611 632.2 640.8 639.9 637.7 633 623.3 629.1 643.6 656.7 673.4 684.5 687.5 688.2 681.4 660.6 634.4 601.1 576.8 553.4 536.4 519.7 524.4 519.8 515.8 510.2 512.1 514.3 504.6 501.7 505.8 511.1 521.8 535.4 535.5 532.6 534 541.8 550.9 539.5 510.8 479.5 440.5 400.7 362.7 332.8 315.9 300 282.5 269.6 257.3
9.9 5.5 -1.2 -1.2 -1.2 -1.2 -1.2 -1.2 -1.2 -1.2 -1.2 -1.2 -1.2 12.8 20.5 29.9 38.2 51.1 66.5 79.8 94.9 109 126.5 139.1 159 182.6 207.5 229.2 257.2 288.1 320.6 357.5 390.1 435.1 481.5 524 572.8 625.5 668.2 710 718.1 709.2 690.2 676.1 672.6 675.4 683.1 711.8 745.1 774.9 805.8 843.5 875.7 902.3 872.4 828.1 791.4 763.4 745.9 740.1 738.4 740.9 749.1 741.1 725 725 730.5 721 691.9 647.8 614.2 582.2 550.8 521.5 494 463.3 478.6 494.7 517.8 544.2 570.5 602.9 653.8 652.4 641.1 627.6 613.8 586.7 559.1 530.8 509.8 507.6 510 526.4 544.4 573.3 600 631.9 669.5 707.7 749.3 786.1 824.7 862.2 891.1 903.5 896.3 883.2 860.6 826 790.2 754.2 742.5 736.4 734 727.8 741.3 753.4 763.4 767.6 784.5 806.5 821.8 821 798.3 775.4 732.4 698.7 671.7 672.6 678.5 687.7 698.9 713.7 735.4 759.9 784.3 805.8 808 805.6 799.3 789.1 775.8 749.7 723.8 694.7 671.3 644.2 600.3 594.5 624.9 639.9 637.8 634.8 627.5 619.3 622.1 634.5 648.1 667.4 678.2 683.7 686.4 678.8 672.3 647.4 618.8 585.2 560.1 540.1 507.6 511.1 505.9 505.2 496.9 496.6 500.2 498.8 495.5 499.6 506.7 517.8 525.4 532.1 534.5 535.5 542 553 545.5 521.3 490 448.3 414.2 369.7 334.3 311.7 295.6 279.2 269 257.9
5 3.8 -1.2 -1.2 -1.2 -1.2 -1.2 -1.2 -1.2 -1.2 -1.2 -1.2 -1.2 14.5 23.1 33.3 43 53.1 66 83.1 99.5 115.3 130.4 147.4 160.3 189.6 214.9 240.2 266.2 295.8 332.6 365.6 406 454 492.8 530.3 580.2 624.1 668.6 706.5 745.9 762.4 732.7 711.6 705.7 707.2 717.3 737.8 754.7 784.1 820.8 860.1 891.6 916.8 866.4 826.9 790.9 769.9 761.1 756.7 751.5 766.2 770 762.2 761.9 786 784 751.1 696.1 658.6 622.3 592.7 561.2 534.7 505.1 478.6 492.3 505.6 524.3 549.3 572.5 599.6 655.7 660 650.8 640.6 615.9 588.4 562.1 538 526.7 524.2 519.3 538.5 558.2 582.3 607.4 636.5 676.9 718.3 761.1 797.1 838.8 874.4 906.5 929.6 926.5 912.9 874.2 843.3 816 797.2 763.6 757.8 760.3 754.1 763.7 775.5 779.2 792.5 809.1 834.4 852.8 813.8 779.2 763.7 726.5 678.4 655.1 653.8 658.6 665.4 676.5 690.6 709.5 731.9 757 779.7 793.4 792.7 787.3 774.7 762.2 732.3 708.5 682.7 662.1 639.7 598.9 573 619.5 632.5 634.4 628.9 621.5 610 612.3 622.8 636.1 655.8 669.2 677.3 680.1 672.9 667.4 649.9 623 590.2 562.3 537.7 512.7 496.6 489.7 496.7 489.9 487.6 486.4 490.9 493.7 496.6 501.1 512.7 526 533.6 537.9 539.2 539.1 543.5 541.7 516 480.1 442.7 410.1 371.7 333.7 307.4 288.1 272.6 263.4 255.9
-1.2 -1.2 -1.2 -1.2 -1.2 -1.2 -1.2 -1.2 -1.2 -1.2 -1.2 -1.2 6.2 15.7 25.4 35.1 46.7 59.8 75.3 87.8 101.4 119.8 136.9 157.8 181 195.9 216.3 246.9 278.1 306.7 340.1 375.3 414.1 453.6 493.1 538.2 580 617 642.2 673.2 742.2 779.5 780.9 755.3 741.6 747.1 753.7 772 783.7 801.2 840 879.3 910.8 937.3 874.2 837.3 804.2 790.2 790.3 780 775.3 797.8 799.9 798.4 810.5 823.8 811 757.2 705.9 670.3 638.4 609.2 575.5 550.4 520.5 503.5 500.3 512.6 532.6 552.1 577.2 604.9 657.5 663.1 657.4 649.9 618.7 588.8 566.3 549.6 538.1 535.8 546 552.8 571.2 594.3 618.4 646 682.9 723.5 764.7 802.4 845.6 882.6 923.2 953.2 957 937.8 893.9 861.5 840.7 822 791.2 794.6 793.4 792.6 799.1 805.7 802.7 816 841.7 861.7 852.2 804.9 749.1 735.2 689.9 656 641.4 635.8 638.3 642.7 652.4 667.2 685.8 707.5 728.4 752.2 777.4 780.5 774.8 763.1 748.8 717.3 699 674 659.2 635.8 595.7 566.2 602 618.9 623.3 616.8 610 600.2 598.7 610.6 628.1 644.2 657.3 670.1 674.2 669.1 657.5 638.7 615.1 586.6 561.3 532.8 510.3 488.7 484 486.7 484.2 478.9 481.5 486.7 491 494.3 498 508.6 521.1 532.7 531.4 533.3 533.7 537.5 529.8 505 466.7 428 395.3 361.5 327.7 301.9 280.1 268.9 257.2 252.6
-1.2 -1.2 -1.2 -1.2 -1.2 -1.2 -1.2 -1.2 -1.2 -1.2 -1.2 -1.2 10.1 16.7 26.3 38.5 48.4 62.2 78.3 95.2 114.7 131.6 147.1 165.8 187.9 211.7 234.3 216.3 273.3 314.5 348.9 381.5 419.2 455.8 493 527.4 562.4 587.7 613.5 648.1 688.8 743.4 780.1 797.1 784.1 787.1 797.6 806.8 816.4 827.9 853.3 889.8 923.1 948.2 889.1 858.1 841.1 821.4 819.4 813.5 810.2 819 822.3 829.2 844.1 851.3 815.5 751.3 715 682.1 656.3 632.1 599.1 564.8 536 519 495.2 522.3 540 557.2 584.4 613.2 663.8 664.3 662.6 658.3 631.5 610.8 585.9 568.7 556.6 554.5 561.4 572.3 583.4 606.4 629.2 654.4 688.3 731.7 778.1 814.7 852.4 892.1 932 970.4 984.7 958.1 920.2 892.6 866.8 847.4 829.2 828.8 823.3 822.8 820.3 834.3 831.5 842.8 864.6 877.8 841.7 791.8 734.8 690.4 659.1 637.4 623.2 617.2 621.2 625.2 634.3 646.3 664.1 684.7 705.4 729 756.6 766.2 763.1 754.5 740.3 718.4 686.6 662.6 652.4 629.9 580 560.8 588.4 617.2 617 598.5 589.7 583.5 582.7 593.2 612.8 636.9 656.7 665.4 666 663.1 651.2 630.4 601.8 575.3 547.7 521 506.8 489.3 478.2 475 475.3 473.8 476.6 482.3 488.5 491.8 496.8 505.5 516.8 523.1 523.6 525.8 517.2 521.5 510.8 487.3 446.6 411.9 373.5 338.2 307.2 289 272.7 262.3 252.3 247.3
-1.2 -1.2 -1.2 -1.2 -1.2 -1.2 -1.2 -1.2 -1.2 -1.2 -1.2 3.9 10 18.3 27.5 38.9 52.4 68 85 100.8 120 135.3 157.5 176.9 199 225 247.5 265.7 245 295 345.8 377 406.3 440.9 474.3 509.7 532.7 554.6 590.5 622.6 658.4 702 753 788.8 828.6 850.1 852.3 846.7 848.9 859.4 882.5 910.4 942.6 965.1 931.9 894.2 871.4 851 848 840.4 832.3 836.3 847.3 859.2 876.1 863.5 796.9 754.6 723.3 695 671.3 642.7 606.3 582.9 558.3 541.2 535.8 531.8 550.2 566.6 590.5 621.7 661.1 666.1 665.3 665.3 649.4 629 611.4 589.5 582.1 575.7 581.7 587.9 598.8 615 636.7 663 693.8 738.1 785.7 824.8 861 903 942.7 981.5 997.2 976.6 948.4 918.6 895.9 872.1 861.7 867.7 864.5 855.8 851.7 859.8 864.3 873.4 882 874.2 836.6 780.3 729.3 680.2 649 624 613.7 608.7 609.2 613.5 621 631.9 645 660.4 681.4 707.1 729 745.9 748 747.2 734.5 714.9 690.2 657.2 642 623.2 565.1 547.8 580.3 599.3 596.1 579.2 565.5 564.3 564.1 576.5 595.9 624.9 646.4 656.3 660.5 655.3 638.3 627 592 557.4 532.6 513.2 499 486.5 476.5 472.5 471.8 469.7 472.8 479 485.5 493.4 494.4 503.9 511.6 513.7 515.9 507.1 503.3 499.3 470.3 434.1 411.9 378.7 344.5 314.1 288.5 275.9 267 258 250.2 243.5
-1.2 -1.2 -1.2 -1.2 -1.2 -1.2 -1.2 -1.2 -1.2 -1.2 -1.2 5.8 12.8 22.4 30.3 39.6 54.1 69.9 83.8 99.7 122.5 148.5 166 187.2 202.7 235.8 262.9 283.8 307.7 298.9 332.3 351.3 382.6 424.6 459.9 472.7 504 533.9 571.3 606.3 642 676.5 716.3 758 804.9 829.2 857.4 895.7 886.9 896.9 916.7 941.1 965.2 991.7 951.2 911.7 894 881.9 869.1 856.3 846.3 854.1 880.6 891.1 903.8 865 797.6 763 735 710.7 682.5 658.3 631.5 603.9 581.4 563.3 551.2 546.5 552.6 570.6 595.2 619.4 650.6 665.7 668.8 672.5 670.4 649.7 631.8 623.2 608.7 608.5 604.9 606.7 612.2 624.7 647.6 673.8 705.2 750 788.5 817.6 862 901.2 941.2 976.3 987.9 980 966.5 946.9 925.6 904.5 893.5 895.4 893.9 887.4 881.4 882.8 888.2 894.4 892.3 866 818 766.7 729.1 674.7 640.9 622.3 610 602.1 602.1 605.6 611.8 618.8 628.6 642.4 658.4 680.7 705 723.3 730.4 731.4 726.8 710.8 681.9 653 634.7 611.8 557.1 533.5 562.9 571.5 559.7 550.4 544.2 542.4 549.3 565.5 583.2 612.1 627.6 642.6 651.3 626.6 606.5 598.2 585.6 549.6 521.8 504.2 490.5 480.3 475.6 469.7 471.4 467.6 470.3 477.4 482.5 490.4 492.5 499.2 501.5 502.8 500.4 499 486.9 461.5 418 389.1 363.5 344.2 318.8 295.2 278.9 270.4 264.4 257.7 251 244
-1.2 -1.2 -1.2 -1.2 -1.2 -1.2 -1.2 -1.2 -1.2 -1.2 -1.2 8.3 16.7 28.4 33.7 42.6 59.1 72.9 87 106.3 126.9 150.2 175 201.5 226.5 252.7 276.6 304.2 329.1 346.1 365.3 386.9 376.7 389.3 407.7 435.4 478.6 516.2 560.3 592.2 619 659.4 696.7 751.3 758.3 817.5 876.7 932.9 925.5 937 954.3 970.4 989.8 999.4 962.4 936.3 920.9 904 887.6 874.9 870 876.2 902.3 920.6 916.1 857.4 806.5 777.4 750.3 723.6 699.1 680 656.1 630.5 609.5 584.8 568.8 558 559.2 570.3 599.7 623 642.9 662.4 672.1 681.2 683.3 677.5 662.3 653.3 643.3 640.7 634.4 634.8 631.9 644.5 664 689.2 715.5 750.1 790.4 830.9 868 901.7 937.5 965.5 967.3 956.6 943.8 931.2 919.6 910.8 900.7 898 892.2 890.2 887.9 887 888.5 887.4 880.7 864 811.8 768.8 736.7 683.9 643.3 618.3 609.3 601 598.1 596.4 599 604.9 611.5 622.3 634.6 652 679.8 696.3 710.7 710.6 714.2 705.4 677.3 644.4 625.4 590.6 546.3 528.5 545.4 546.4 532.8 530 525.4 529.7 533.8 550 568.1 592.9 615.6 630.2 619.2 594.5 575.4 557.4 544.3 530.5 507.7 493.4 480.7 476.7 472 467.6 468.3 468.2 471.9 476.7 481.4 486 491.9 497.4 494.3 492.1 488.7 483.7 466.6 431.2 394.2 366.2 343.6 318.8 298.4 284.4 272.3 266.8 263.7 259.6 255.9 248.4
-1.2 -1.2 -1.2 -1.2 -1.2 -1.2 -1.2 -1.2 -1.2 -1.2 -1.2 11.1 20.7 27.2 36.9 48.7 59.3 77.4 94.2 115.2 134.8 159.8 185.8 211.5 239.4 270.3 291 318.9 348.5 379.8 402.4 424.9 431.7 443.4 462.6 481.8 507.5 527.3 540.1 573.3 605.1 644.5 685.2 725.8 769.8 833.2 888.6 946.3 963.7 977.7 988.5 1004.5 1025.9 1004.8 973.4 949.1 935.3 906.1 895.3 887.1 891 896.5 927.6 943.6 904.9 856.7 820.4 792.1 765.4 742.1 721.1 700.1 678.3 654.4 634.3 608.3 591.9 578.6 578.5 581.8 604.1 627.7 645.6 657.7 673.8 684.4 691.2 702.4 688.8 684.6 675.8 671.1 664.1 662.7 659.7 664.1 690.6 717.2 748.3 771.5 802 838.8 882 910.7 936.3 948.4 942.3 928.5 914.1 902.4 889.8 878.7 871.9 868 865.5 864.2 865.9 864.3 861.8 862.5 862.3 851.1 815.9 778.2 733.7 693.3 650 618.5 606 600.4 594.4 590.5 587.9 591.1 595.5 602.7 612.3 624.5 647.5 658 678.6 686.6 693.9 692.5 669.5 637.6 614.7 583.3 542.7 517.2 528.7 525.8 514.4 512.3 510.6 516.5 522.9 534.7 553.8 572.1 592.7 594.6 570.4 556.1 542 531 516.6 497.4 483 474.4 468.4 467.7 465.1 464.8 466.7 466.7 471.6 476.1 478.8 482.8 487.9 485.9 486 480.7 476.9 467.7 450.6 408.2 378 349.7 327.1 307.3 290.2 280.6 268.4 263.4 260.3 258.7 256 252.8
-1.2 -1.2 -1.2 -1.2 -1.2 -1.2 -1.2 -1.2 -1.2 -1.2 5.6 13 22.2 32.1 43.1 53.6 65.2 81.2 104 123 146.8 171 194.8 221.6 253.1 285.3 311.6 309.1 363.6 399.7 437.9 463.6 472 480 496.9 515.3 538.1 563.6 578.8 603.8 627.2 635.5 687.4 736.7 792.1 839.1 884.6 932.2 963.9 996.9 1026.9 1046.3 1040 1000.3 964 947 924.8 910.9 899.3 897.5 912.8 927.7 966.2 941.5 895.5 866.1 836.9 809.9 784.4 761.2 739.5 726.6 708.4 684.9 666.6 640.3 622.9 605.1 598.5 603.1 617.1 638.5 648 657.2 672.3 686.4 700.1 716.1 738.3 719.4 714.8 706.2 696.5 694.1 697.9 698.8 703.9 738.1 789.4 805.3 828.7 861.1 894.7 921.6 934.5 930.4 919.6 901.3 886 872.4 857.4 844.5 837.6 834.1 835.7 837.6 836.4 833.9 831.8 834 838 833 815.3 768.1 728.1 689.8 655.3 624.4 609.2 602.3 596.5 591.3 580.6 581.1 581.3 585.7 593.1 602.9 615.1 630.9 646.9 660.7 670.3 684.5 660.4 635.5 610.6 570.4 535 495.4 511.6 505.9 502.4 497.4 499.1 504.5 510.2 520.6 535.8 543.6 552.9 562.1 543.1 526.8 516.3 505.1 493.7 476.8 466.9 461.7 460.1 457.8 459.2 465.4 465.9 466.2 470.4 473.7 477.1 475.9 478.8 475.7 471.7 468.7 464.8 454.2 432.8 383.3 355.6 335.2 316.3 302 286.5 277.2 267 261 258 256.1 255.1 252.3
-1.2 -1.2 -1.2 -1.2 -1.2 -1.2 -1.2 -1.2 -1.2 -1.2 9.6 17 27.3 37.4 47.3 59 73.6 90.3 113.1 134.6 158.3 183.3 205.7 234.7 267.7 302.4 330.2 352.9 355.8 411.9 450.4 485.7 511 521.1 537.8 551.1 572.1 594.5 619 640.6 663.1 688.8 697.7 732 791 839.8 881 926.8 969.4 1005.8 1049.8 1076.9 1028.7 991 966.2 952 928.8 908.7 904.1 922.2 938.6 958.4 994.9 982 918.8 885.7 857.1 835.4 811.2 785.1 768.1 757.1 748.3 729.6 699.6 670.7 652.6 636.2 618.4 616.8 630.6 638.7 646.4 657 666.2 688.7 706.1 731 765.6 768.3 757.2 753 746.9 731.2 745.2 747 735.2 757.2 800.6 833.1 861 883 901.8 911.6 914.2 909 898.7 878.4 859.4 843.8 826.1 811 802.3 800 802.8 807.1 806.7 803.5 801.3 804.3 808.3 806.8 790 763.5 719.2 692.2 655.9 636.1 611.6 602.8 599 591.2 579.5 572 569.5 573.3 575.8 582 590.3 603.8 618.5 629.9 645.1 659.2 647.8 632.6 605.2 568.8 529.8 488.5 494.9 492.8 485.9 484.9 487.7 492 499.5 506.6 516.7 516.7 520.4 522.2 519 510.3 499 491.3 478.8 465 455.3 453.1 453.8 456.5 459.4 464.3 466.2 466.9 468.5 471.7 470.8 469.6 464.2 455.3 451.3 448.5 445 431.2 401.6 364.3 332.1 317 312.1 303.1 288.2 275.5 268.7 263.1 258.8 259.1 260.5 254.6
-1.2 -1.2 -1.2 -1.2 -1.2 -1.2 -1.2 -1.2 -1.2 7.1 12.8 21.3 30.8 41.3 52.6 68 80.6 100.2 124.3 146.4 169.4 195.6 222 254.1 284.9 317.1 349.4 377.8 402.5 383.4 457.2 496.3 535.2 573.9 585 595.1 606.9 640.1 670.7 669.3 702.5 717.5 728.3 748.8 769.7 833.5 907.4 935.9 971.9 1010.4 1052.1 1070.9 1039 1003.5 979.1 952 943.3 934.6 933.1 950.6 965.6 985.9 1015.1 986.4 942 915.8 884.2 860.5 837.2 816.2 803.5 799.6 801.5 772 732.7 700.8 686 667.2 642.3 638 632.3 636.2 646.2 658.1 671.3 691 716 743.2 781.3 810 824 805.7 783.9 765.8 769.9 784.1 774.1 769 803.5 844.7 871 880.3 885.9 887.4 885.6 875.6 867.7 855.3 834.8 816.7 797.2 782.7 772 769.2 770.2 773.5 773.8 771 768.6 771 778.3 775.3 762.1 741 714.4 669.5 651.4 627.3 613.3 603.7 595.6 589.5 577.8 565.7 556.5 557.7 560.3 563.6 570 581.1 594.8 605.7 620.1 625.9 627.6 623.8 598.1 566.4 520.5 482.9 479.2 477.1 474.5 474.4 478.4 480.2 492.4 496.2 500.9 501.8 502.4 499.1 497.2 496.3 489.6 478.6 468.6 459.8 452.3 446.7 449.2 451.9 456.6 462.7 465.4 468.3 468.4 469.2 466.7 461.1 453.1 438.3 429 423 418.1 408.1 378 348.1 323.8 315 308.8 303.5 290.1 275.7 268.1 263.3 261.1 261.7 260.8 258.5
-1.2 -1.2 -1.2 -1.2 -1.2 -1.2 -1.2 -1.2 -1.2 10.3 17.4 26.9 39.3 52.1 60.4 75.4 90 108.3 136.2 158.1 182.1 211.4 235 265.7 296.3 332.5 365.1 398.4 433.5 456.2 425.9 491.2 549.3 591.6 635.3 646.1 659.6 670.1 716.4 725.9 737.9 760.8 772.4 778.5 805.9 843.6 910.2 957.2 987.1 1016.7 1048 1057.4 1054.3 1012.5 987.4 980.4 973 967.4 970.2 983.8 993.4 1012.2 1007.2 997.9 972.2 951.4 928.6 897.2 876 870.6 844.4 851.4 839.9 809.1 769.5 734.1 719.2 698 660.9 643.9 640.7 644.2 649.4 663.8 680.9 704.7 728.8 759.7 797.3 834.6 861.1 862.7 830.9 805.6 803.2 804.6 810.8 795.6 816.5 847.8 858.9 861.5 861.5 856.4 849.2 839.3 830.8 818.1 806.1 785.6 768.1 755.1 743.8 738.7 738.5 739.9 739.2 735.1 734.3 740.5 743 737.3 724.7 709.3 690.3 654.5 628 610.5 597.1 589 589.1 586.1 574.8 562.1 549.2 544 546.7 548.2 551.2 559.9 569.3 580.7 593.4 602.1 610.4 610.7 596.9 562.3 517 487.8 468.1 464 462.9 466.2 472.2 476 481.7 486.7 488.4 489.2 485.1 481.2 481.4 479.2 476.3 468.6 461.1 454.1 446.1 440 442.2 446.4 451.9 456.4 463.4 466.3 466.7 467.2 460.1 451.5 438.3 425 412.9 406.6 401.7 382.7 361.7 335.7 317 309.4 301.9 297.1 287.4 276.7 271.9 264.1 261.4 260.9 264.3 259.6
-1.2 -1.2 -1.2 -1.2 -1.2 -1.2 -1.2 -1.2 3.9 13.3 21.6 30.5 45.8 59.8 74.4 88.1 102.5 121.6 143 170.8 191.9 222.5 250.8 280.3 310.7 344.6 382.3 428.9 458.9 488.3 498 487 547.2 604.7 655.4 685.8 706.9 730.1 772.8 782.7 800.8 803.1 814.2 817.7 842.1 872.2 903.9 960.9 998.9 1022.3 1031.1 1041.1 1055.1 1040.4 1026 1012 1010.1 1006.1 1004.7 1016.2 995.4 977.1 969.4 968.8 960.3 947.6 936.2 923.4 910.4 894.8 881.9 868.3 856.5 836.7 800.5 764.8 738.8 704 682.9 667.7 656.4 657.5 666.6 690.2 695.6 721.7 752.4 776 819.2 864.4 886 889.4 867.3 847.6 840.7 829.9 830.9 823.3 824.2 836.5 833.3 831.1 827.7 820.2 808.1 796.2 784 776.3 769.2 747.5 738.3 722.1 712.2 707.2 705.8 705.3 702.8 697.6 700.6 705.5 705.3 698.9 687.2 674.2 656.4 637.2 615.5 601.8 591.7 581.4 579.2 576 567.8 555.7 544.4 536.8 535.9 533.7 537 541.3 546.8 555.4 563.8 575.3 582.8 586.6 580.9 552.5 507.9 483.4 454.1 457.7 457.5 461.3 466.5 472.6 476.8 479.7 479.2 477.2 474.6 472.6 470.4 468.8 463.4 458.5 451.8 447.8 440.5 430.1 438.1 439.8 441.5 445.2 460.9 466.1 463.7 462.1 452.5 443.1 425.6 411.7 400 389.8 378 364.8 348.6 323.4 309.2 304.2 298.4 292.6 284.6 275.6 269.2 263.9 259.9 259.7 262.2 255.6
-1.2 -1.2 -1.2 -1.2 -1.2 -1.2 -1.2 -1.2 9 17.9 25.6 36.5 49.3 64 81.3 97.5 114.4 137 154.6 179 200.2 227 258.3 292.4 324.8 358.6 402.2 459.7 487.7 513.9 543.9 509 553.5 603.1 664.8 705.5 744.8 789.1 816.9 859.9 849.9 849.2 850.4 848.9 878.2 909.3 934.1 963 995.5 1003.7 1013.8 1027.2 1043.6 1058.3 1060 1047.3 1042.7 1041.4 1015.1 991.1 963.3 952.4 940.9 930 929.6 914.7 901.1 888 875.3 860 849.4 840.5 833.9 826.6 813.1 778.3 755.8 730.3 711.2 704 687.7 682.5 689.6 715.2 718.1 749.4 781.9 801.4 839.1 879.9 880.4 872.1 856.2 846.5 836.3 821.7 810.3 801.3 800.3 803.1 800.7 793.2 787.8 778.1 765.4 753 746.4 736.1 722.9 715.1 703 691.8 678.4 674.7 670.3 670 665 658.3 667 668.6 663.5 657.4 644.6 633.6 619 608.2 595.3 581.5 571.6 565.5 564.3 560.8 555.2 546.3 537 528.8 524.3 523.3 521.6 523.1 527.4 534.3 540.6 548.6 551.6 556.1 550.1 524.4 492.5 471.5 435.7 449.5 445.7 454.8 463.1 469.2 474.8 476.8 474.4 473.1 468.5 463.9 461.5 458.4 454.5 450.4 447 441.4 432.8 424.9 425.4 428.8 432.1 441.1 449.3 458.5 460.2 460.1 447.5 432.4 409.8 395.3 383.1 371.9 362.4 348.7 338 320.3 307.4 300.9 294.6 288.5 283.1 273.8 265.1 258.5 256.9 260.2 256 253.7
-1.2 -1.2 -1.2 -1.2 -1.2 -1.2 0.5 6.2 12.4 22.9 30.8 40.8 56.5 72.6 88.8 107.4 128.9 142.2 167.2 189.7 210.5 238 273.4 307.8 346.7 376.4 417.4 465.7 506.8 538.3 567 560.1 602.2 645.8 666.8 712.6 753 796 842.1 884.9 883.2 885.2 883.1 882 914 945.5 973.6 979.1 976.5 982.7 998.8 1015.6 1036.6 1052.1 1061.3 1064 1067.5 1029.6 1003.4 974.1 948.9 927.6 913.8 902.8 909.6 896.8 874 861.9 846.3 826.7 816.3 807 800.9 797.3 792.4 784.7 772.8 757.3 739.6 734.6 714.5 712.3 726.6 739 748.4 776 814.3 848.9 857.7 856.8 845.6 834.6 821.4 809.4 800.8 787.7 773 764.8 764.1 763.6 762.1 755.7 746.2 741.1 723 713 701.8 691.9 682.1 679.3 667.7 652.5 640.9 638.7 632 630.9 627.7 621 629.4 626.2 616.2 607.8 598.9 592.2 583.3 576.3 568.7 559.1 553.8 548 544.2 540.1 534.7 531.7 525.7 519.1 512.8 508.9 507.8 509.2 507.1 512 516.8 521.4 523.7 520.6 507 488.6 474.4 462.2 426 436.5 437.2 447.6 459.4 465.3 470.9 473.9 474.4 470 465.6 462.1 454.6 451.5 446.6 441.8 439 431 425.9 417.6 412.6 417 424.6 431.4 439.4 446.5 449.3 452.3 445 422 394.2 378.2 364.6 355.1 343.8 336.7 329.3 315.7 299.9 296.3 288.4 280.7 276.8 267.9 261.7 255.4 253.2 253.2 249.6 246.3
-1.2 -1.2 -1.2 -1.2 -1.2 -1.2 5.9 11.4 19.5 27.4 38 46.6 61.7 79.6 94.9 113.9 134.5 153.6 174.6 195.5 228.4 250.6 279.1 320.6 359.4 397.3 437.1 476 526.6 555.3 587.3 594.9 629.6 672.6 711.3 736.8 767.8 814.2 852.3 895.5 915.5 930.7 922.8 920.7 944.9 958.1 957.2 955.1 954.9 966 987.4 1009.8 1030.4 1044.6 1058.9 1063.5 1055.9 1009.9 980.4 954.8 932.3 913.9 905 893.9 883.3 877.4 867.3 850.2 826.9 810.2 795.2 786.8 779.6 774.9 768.6 764.7 763.1 768.8 756.4 753.3 754.9 761.5 765.9 768.5 785.6 798 846.6 852.4 833.1 824.3 808.6 794.6 783.6 771.6 762.1 748.7 734.1 721.5 723.1 719.6 718.8 713.6 701.8 691.7 679.5 674.1 663.6 653.9 642.7 641 626.7 612.1 605.4 596.8 590.6 589.5 587.4 585.1 583 573.8 564.6 561 555.1 549.2 542.9 539.4 533.9 530.5 527.4 523.3 519.9 514.2 508.5 509 508.8 507.3 501.8 496.7 493.6 490.6 489.8 487.8 493.6 495.5 496.4 492.5 479.1 467.2 458.3 446.5 431 426.6 428.8 438.6 452 461.4 469.4 473.1 476.1 471.9 464.3 458.3 451.6 445.6 439.2 434.3 432.6 425.2 419.1 411.1 402.2 410.7 416.9 423 430 438.1 436.1 436.8 435.5 409.8 383.5 368.3 352.9 337.2 327.7 321.3 312.8 310.3 298.1 295.7 287.7 277.8 272.5 267.6 260.1 253.2 251.2 250 246.1 243.8
-1.2 -1.2 -1.2 -1.2 2.1 5.8 11.9 20.3 26.6 36.1 46.3 55.6 70.2 84.5 99.7 117.2 136.2 159.9 184.1 214.1 228 261.1 293.3 326.7 365.3 403.1 451.4 491.6 533.5 575.6 603.4 629.5 661.6 677.5 706.6 759.7 791.7 818.3 855.2 901.3 927.4 936.3 938.4 935.3 932.4 930.4 929.8 929.9 934.4 952.1 977.6 1002.4 1021.6 1042.3 1054.4 1057.7 1043.5 996.4 967.7 943.2 926.4 908.6 898.5 882.8 873 862.8 848.8 841.3 814.2 796.4 779.5 769.3 761.3 751.2 747.1 742.6 744.4 756.1 766.6 776.8 790.7 799 801.2 803 812.3 828.3 847.8 832.5 808.3 785.6 765.9 754.3 745.5 734.4 723.3 710.8 694.1 685.7 686.7 678.6 674.7 662.7 652.9 640.4 636.1 630.1 620.4 608.4 603.9 596.2 580.8 573.4 565.3 557.7 553 548.9 543.9 542.3 538.2 530 523.3 519.6 516.6 512.3 507.1 503.5 499.8 494.9 494.2 491.1 489.1 487.8 483.7 482.9 485.2 486.8 488.6 483.2 480.4 473.4 470.9 469.1 469.4 471.8 472 466.2 458.3 449.3 440.1 436 422 413.8 425.2 429 446.8 458.1 467.4 470.9 476.6 475.5 469.1 459.2 452.1 442.8 436.7 428.5 424.3 418.6 409 405.5 396.1 400.8 407.2 412.6 422.1 426.2 423.4 421.1 421.8 396.8 371 353 337.7 325.2 313.4 306.7 301.4 301.3 292.1 284.8 281.5 275 270.7 263.5 259.4 254.1 250.6 248.7 247.9 238.1
-1.2 -1.2 -1.2 -1.2 3.6 11.4 23.1 27.8 32.4 40.8 53 65 79 89 107.3 122.8 142.2 164.6 189.2 219.8 249.9 279.3 302.5 323.7 368.9 408 448.1 492.1 536.2 581.7 617.1 652.3 688.2 729.4 756.3 786.1 815.7 855.4 874 913.4 919.4 919.8 915.1 912.5 906.8 901.9 900.4 905.3 924.6 945.5 965.1 992 1010.6 1027.3 1036.7 1042.9 1035.5 989.6 956.3 938.4 926.5 907.9 892.2 865.5 861.1 852.8 842.2 825.8 812.4 787.1 766.6 751.4 739.3 729.6 721 721.6 724.1 739.1 755.4 774.6 797.2 816.5 830.9 840.4 843.6 835.3 822.4 795.1 776.4 748.2 733.6 710.4 701.6 693.5 691.2 673.5 658.3 647.8 643.8 635 627.2 621.3 613.5 603.9 598.5 589.5 580.8 570.3 563.8 554.2 542.4 537.1 531.2 522.9 515.7 513.1 510.9 507.6 501 493.5 488.2 482.7 479.8 477.7 475.8 469.5 470 465 462.6 463.2 463.1 463.1 461.3 460.5 459.6 463.1 468.7 468.9 460.2 456.3 452.2 450.6 445.6 445.4 446 443.2 435.1 429 428.3 422 416.7 405.8 413.3 422.5 437.9 454 467.1 473.9 476.5 475.5 471.5 461.9 452.2 444.1 437 427.5 417.9 410.4 403.9 397.3 391.3 391 395 402.8 411.6 416.5 410.7 408.1 400.9 387.5 356.7 342.8 323.3 313.1 305.5 303.9 292 287.5 284.4 277.9 275.2 274 268.9 263.4 256.5 250.4 250.9 249.2 244.6 235.6
-1.2 -1.2 -1.2 4.8 11.6 20.9 25.5 33.6 40.2 49.2 61.7 73.8 85.6 98.5 111.7 128.1 148.9 173.9 200.6 228.4 259.8 293.3 325.6 358.1 378.5 398.9 436.5 488.3 533.3 588.3 624.8 662.4 699.8 745.6 783.9 814.3 843.5 873.9 904.2 905 899.7 894.8 887.4 882.8 877.9 871.9 870.5 890.7 915.5 933.7 951.5 970.1 983.2 999.8 1011.4 1021.7 1019.7 998.7 962 937.6 932.3 910.2 882.9 864.9 855 844.4 829.7 821.1 802.8 785.1 759.7 733.4 716.6 707.3 699.2 701.9 706.6 722.1 739 757.8 782 804.7 819.7 826.4 823.2 811.8 798.1 767.5 744.1 714.6 697.1 680.4 664.5 658.8 646.6 637.4 624.7 616.6 610.8 602.8 594.6 588 579.5 573.5 565.7 555.9 546.3 537.5 529.4 522.8 512.7 506.3 499.4 496.9 490.6 485.7 479.9 472.7 468.4 461.3 457 452.1 448.2 447.3 446.6 444.8 441.6 438.9 435.3 436.5 438.2 439.1 437.1 437.6 438.3 442.8 446.5 449.4 443.6 437 431.8 429 427.8 421.1 417.7 415.6 413.1 411 412.9 411.2 409 391.9 407.2 418.2 431.7 451 465.5 477.6 477.3 476.8 473.4 465.9 455.7 448.7 438.8 430 416.8 408 397.4 390.7 385.5 382.1 385.6 390.5 398.4 401.5 398.1 393.9 386.4 368.8 344.3 329.7 315.8 304.3 299 290.7 278.2 281.7 277.9 273.5 268.8 267.8 265.3 258.7 251.9 248.9 246.9 246.8 241.1 233.5
-1.2 -1.2 -1.2 9.6 18.9 28.6 33.9 39.3 48.9 59.4 69.1 81.4 95.8 105.2 120.4 138.3 157.3 182.3 211.1 238.1 269.4 302.6 336.6 378.8 421.3 438.3 464.9 507.9 538.3 591.9 634.9 669.2 706.3 746.2 785.8 825 862.9 879.5 886.8 882.5 871.8 864.8 856.7 850.7 843.6 839.2 854.6 881.2 901.1 915.3 930.5 938.8 952 966.7 981.8 991.6 998.6 1000.5 984.3 956 932 912.1 889.5 868.3 855 840.1 820.9 797.9 792.7 786 752 722.7 698.8 687.6 683.9 686.3 693.7 706.2 722.1 740 762.4 781.6 798.7 804.5 798.6 784.6 762.6 734.3 706.8 685.2 669.7 648.4 635.5 622.3 616.2 606.5 597.1 589.9 582.7 575.5 567.1 559.3 551.1 544.4 536.2 526.3 516.7 507 500.3 493.3 485.7 479.4 472.8 470.1 467.1 462 452.5 446.5 439.5 433.6 428.8 425.8 421.6 420.5 422 420.2 417.9 414.4 412.6 412.7 413.6 414.6 413.3 413.4 415.1 421.4 424.4 425.9 422.4 418.1 416.7 406.5 402.3 401.3 396.7 393.5 394 388.1 393.5 396.3 396.6 390.3 397.9 409.5 425.3 444.7 462.1 477.3 481.1 477.6 475.5 469.9 460.9 453.8 443.8 433.1 420.6 408.1 396.9 385.6 373.7 360.5 378.2 378 383 384.8 381.2 375.9 367.6 346.8 327.9 314.9 307.1 296 291.1 278.7 275.5 269.5 267.5 264.9 264.6 263.7 264.8 259.2 248.8 244 245.2 241.9 237.8 236.1
5 6 10 19.1 25.8 34.2 41.1 51.4 59.4 67.1 78.2 89.9 98.5 112.3 127.9 146.9 168 196.1 221.4 246.7 279.4 311.2 350.8 395.5 451.4 485.4 496.4 520.7 563.9 591.3 635 671.3 707.6 747.3 791.2 826.5 844.8 854.5 857.1 850.4 838.1 829.5 822.2 816.6 808 816.4 847.8 867.1 882.2 896 903.9 909.2 913 929.6 949.2 967.7 977.8 987 979.7 963.9 940.9 914 898 868.2 837.4 824.2 807.3 790.3 782.3 755.9 741.8 714.6 697.1 685.7 677.8 677.4 683.6 694.4 710 726.1 741.4 757 769.8 780.8 774.3 754 724.2 691.2 668.7 656 637.3 622 607.2 595.9 589.7 580.3 574.7 569.5 562.9 552.7 542.5 532.9 523.4 515 507.6 498.6 487.7 479.8 471.6 468 461.7 457.9 452.6 448.2 446 440.4 431 423.3 415 409.4 405.7 402.3 399.1 399.7 400.8 398 398.4 394.1 393.5 393.7 395.5 393.9 392.5 389.8 393 396.3 400.8 401.5 399.9 395.3 392.8 389.4 383.4 380.5 375.7 374.9 371.8 373.6 374.8 378.1 382.4 360.6 387.6 402.2 419.1 436.9 458.9 475.3 481.3 480.1 478.5 474.5 468.3 460.4 451 437.5 423.9 411.3 399 381.9 368.8 355.4 367.4 367.9 370.3 368.6 360.1 356 352.8 328.1 311.5 303.5 295.3 289.1 283.5 272 267.1 265.4 261.6 257.3 253.8 257.2 257.3 257.4 251.3 244.9 244.9 242.2 242 238.2
12.6 16.6 20.2 27.6 32.8 39.8 48.4 60.8 68.6 77.9 86.4 96.4 106.9 119.2 137.9 155.9 177.8 200.9 230.5 259.6 293.9 328.2 369.2 416.2 472.5 524.8 545.7 561.6 590.3 630.8 656.5 683.2 719.5 754.4 787.6 805.5 817.4 822.6 824.2 818.6 803.9 797.1 788 782 774.8 807 828.5 849.5 858.6 867.5 873.1 875.9 878.8 891.1 913.2 937.8 955.9 965.3 967.3 954.1 931.8 902.3 877.9 844.1 822.2 809.6 791.9 782.7 776.6 756.6 734.3 713.4 697.8 687.8 679.2 674.7 677.8 686.5 701.4 711.1 725.5 730.4 743.6 751.3 758 727.5 691 666.4 644.5 623.8 612.2 597.3 582.4 573.8 564.8 559.7 555.7 550.1 541.8 530.3 521.1 511.7 502 490.3 483 472.7 465.5 456.1 452.2 446.3 442 435.1 430.6 428.8 426.2 418 414.9 403.1 395 389.4 383.6 382.8 382.3 382.8 382.6 378.4 377.6 378 377.4 375 374 374.2 375 373.6 371.7 371.8 376.1 378.7 377.8 374.6 376 369.6 363.9 358.9 356.2 356.3 352.9 355.6 357.7 360.4 364.9 344.4 376.8 391.9 410.9 431.2 454.7 467 479.1 482 480.9 477.8 475.8 470 459.7 444.9 429.2 414.2 398.3 377.4 363.4 354.3 357.6 353.6 358.9 360.7 344.8 339 331.1 311.4 301.4 294.3 286.6 283.3 279 270.5 262.8 263.4 258.1 259.8 251.4 241.4 245.7 249.3 248 244.4 243.5 242.7 243.2 239.3
16.3 21.2 27.7 33.8 41.9 47.8 54.4 66.6 77.1 83.7 93 106 116.4 128.2 146 164.3 188.5 215.3 243.4 273.9 310.1 345.3 389.1 444.6 492.1 532.1 563.2 587.7 612.6 646.7 674.6 700.8 726.5 745.6 760.7 774.8 783.9 788.8 791.9 788.7 770.8 763 755.8 746.6 769 799 814.9 826.1 835.7 837.8 838.8 841.7 845.4 860.9 878 901.9 929.8 946.9 952.2 941.1 919.8 893.1 860.7 831.5 815.6 799.1 790.6 774.2 758.7 742.7 725.5 711.6 698.8 687.6 678.4 672.9 672.9 684 691.5 699.2 705.5 707.8 712.4 722.1 735.8 708 668.8 641.4 617.6 603 587.9 574.7 561.8 555.6 550.6 542.1 535.4 529.1 523.5 516.3 504.7 493.9 481.6 471.7 462 455.4 448.4 439.9 432.4 427.1 424.8 420.6 414.3 412.1 411.5 406.1 398.4 389.1 378.1 372.8 370.1 365.8 366.2 367.5 367.5 364 363.2 365.6 363.4 361.1 359.6 358.2 356.6 357.2 356.6 355.5 355 357.5 361.5 355.9 356.1 350.4 343.4 340 336.5 336.6 334.9 336.9 339.1 345.4 349.2 353.5 358.7 378.6 401 420.6 440.8 463.6 468.6 483 487.5 489.3 486.6 482.8 473.1 457.6 438.1 419 389.9 373.1 359.2 347.9 345.9 342.6 346.1 342.1 335.7 325.8 311.8 299.6 292.3 284.9 279.4 275.2 271.7 266.2 258.9 255.5 252.1 244.8 244.5 244.8 239.1 239.9 250.2 241.6 246.7 243 240.8 240.6
22.5 26.9 32.8 42.5 47.6 57.1 62.9 73.1 83.5 90.1 100.9 112.6 124.8 138.9 155.7 177.6 203 229.9 259.7 289 329.7 365.8 410.4 456.4 495.9 533.5 563.7 588.6 614.7 643 670.3 690 704.9 716.9 731.1 740.2 748.8 757.1 760.3 760.1 741.5 728.2 719.9 740.6 769.4 784.9 794 800.2 807.3 807.9 806.9 807.5 814.1 831.3 844.6 862.7 897.8 916.3 932.5 933.6 910.9 880.7 844.4 823 809.3 799.8 784.8 765 748.3 729.9 712.8 703.1 691.9 685.2 679.3 673.2 672 678.4 681.7 687 689.9 689.9 692.3 694.6 702.5 685.4 642.2 615.4 595.7 578.8 568.2 560 544.4 537 534 524.6 518.4 515.8 506.9 498 486.5 475.2 466.5 455.8 447.5 441.5 434 425 419.3 412.6 408.4 404.9 403.1 400.3 397.2 392.9 384.5 376.2 368.2 359 355.2 352.9 352.1 352.4 351.4 351.3 351.9 353.2 353 346.5 346.7 345.2 342.8 340.8 338 336.7 337.4 339.6 337.2 337.3 336.3 329.5 325.8 320.8 319.2 321.7 321.5 321.1 321.9 327.4 332.2 336 341.4 363.7 389.6 410.2 429.6 453.2 460.4 473.2 488.9 495.2 495.6 498.1 490 473.9 447.1 420.3 390.2 368.9 355.2 343.6 334.9 330.1 327.6 326.2 318.7 308.9 299.6 288.5 281.9 276.2 271 269.5 264.7 260.9 254.9 251.9 248.8 243.6 241 241.4 246 239.6 231 232.1 236.2 239 236.2 239.1
27.7 34.5 39 48.3 55.7 67.5 70.9 77.6 91.4 96.9 110.8 123.8 134.7 148 169.6 194.7 219.2 246.5 274.4 308.4 343.1 386.4 441.4 485.8 513.1 539 560.6 580.5 605.5 629 645.5 662.9 676.5 689.1 698.8 707.2 718.9 727.4 730.9 730.1 707 688.5 708.4 736.7 754.6 762.5 768.7 771.9 773.4 775.7 774 776.6 787.5 792.9 810 834.4 855.4 887.5 919.1 920.1 901.8 870.8 845.1 826.5 809.2 802.1 785.4 755.9 737.3 726.2 712.8 701.5 692.5 680 674.7 669 665.6 669.3 676.8 681.9 678.4 678.1 679.3 676.5 680.8 662.3 628.8 600.7 580.2 561.7 551.2 545.1 531.7 526.6 521.3 511.5 507.6 501.5 491.4 481.1 474.1 464.1 454.4 446.5 436.3 429 424.8 414.1 408.3 402.5 398.4 392.6 389 387.7 385.2 380.9 374.3 367.3 357.3 348.5 343.7 340.9 341.3 341.5 340.1 340.9 338.4 337.9 338.6 339.2 336.9 334.7 328.8 329.6 326 321.9 322.8 325.4 324.5 322.1 318.1 310.1 306.7 305.3 304.3 306.1 308.8 308.8 311.5 311.9 315.4 321 320.3 351.2 373 391.8 411.1 439 447.3 460.1 470.1 492.4 505.2 509.7 506.3 493.6 464.8 419.1 391.6 369.1 353.4 340.5 328.2 320.4 318.2 312 305.5 299.7 291.2 281.3 274.6 272.1 265.7 262.9 260.2 257.4 250.1 249.1 247.2 245.1 240.4 239.7 242.2 237.9 236.4 230.9 229.5 228.9 233.4 230
32 37 45.8 52.7 63 74.4 76.4 87.4 99.3 106.7 118.4 131.4 144 159.4 180.4 206.2 234.3 263.1 293.4 321.7 357.2 399.8 464.7 503.5 507.9 528.7 548.8 566 584.4 602.1 617.5 631.4 644.8 657.7 667.2 676.2 689.9 705.7 709.1 705.9 686.7 666.5 694 714.4 728 733 735.7 737.5 739.8 742.8 744.2 747.2 756.1 769.3 779.4 811.1 831.7 865.2 899.6 905.4 893.1 869.8 842.4 824.5 812.8 800.2 775.8 753.5 734.1 723.2 712.5 697.5 687.7 681.4 677.8 667.7 659 661.4 669.4 673.2 674 674.9 674.8 671.6 667 647.7 618.1 594.4 574.9 556.3 540.3 536 521.4 516 510 502.9 495.9 488 480 470.8 463.6 452.8 445.4 435.7 428.1 419.7 414.1 405.7 400.2 394.2 389.9 384.4 380.1 375.8 375.2 370.9 365.9 359.6 350.1 341.3 334.4 331.1 331.4 330.8 330.6 329 327.5 325.6 327.1 327.3 325.1 319.4 318 316.1 313.2 311 310 309.6 309.4 307.7 302.3 297.8 293.7 291.6 295.9 292.5 294.7 297.7 302.5 302.4 301.4 311.6 318.9 336.1 354.5 372.6 392.1 414.5 423.9 444.9 458.2 480.7 493.8 510.3 513.1 508.1 472.7 426 395.5 372.5 354.4 339.7 325.4 315.9 309.3 304.2 296.9 292.9 286 276.1 268.8 264.8 259.7 257.1 255.9 252.3 246.8 245.7 246.4 243.1 239.2 239.2 239.6 238.2 233.3 232.1 226.6 226.6 226.6 228.1
38.2 43.9 50.7 60.9 69.8 79.9 84.8 94.8 105.7 114.6 129.1 143.1 157.8 172.9 193.3 217 243.6 272.6 305.9 337.5 374.3 422.6 461.3 477.7 494.9 511.5 526 541 557.3 572.1 588.1 600.1 615.9 628.4 640.9 652.1 662.1 671.5 677.7 676.8 661.8 644.6 672.3 686.5 695.2 698.9 701 703.2 708.1 712.8 717.3 724.8 734.3 748.2 766.3 785.8 817.4 859.4 884.1 895.1 889.7 866.2 841.6 828.8 805.6 790.7 771.5 751.4 730.5 718.5 709.9 697.3 687 681 676.9 664.2 656.1 653.3 656 662.3 661.2 666.6 674.2 677.3 673.2 654.1 627.4 599.7 575.4 552.2 538 524.6 515.1 506.5 499.5 491.9 487.5 477.4 471.5 463.4 454 447.4 437.6 431.4 419.9 413.4 408.1 402.5 393.4 385.2 382.2 376.5 373.1 369.4 367 363.8 360.6 353 345.6 337.9 330.3 325.2 323.1 321.6 320.5 321.9 322.2 319.1 319.6 316.8 315.2 310.1 307.6 304.2 300.5 299.1 296.8 297.8 296.2 296.4 289.2 284.7 280.6 278.1 280.1 280.5 281 283.7 288.4 289.9 291.8 295.4 305.6 320.5 338.2 352.5 369.5 385.6 404.6 420.6 438.1 457.9 468.7 478 497.2 503.3 475.6 431.7 399.7 374.8 357.7 339.9 324.5 313.2 304.1 296.3 293.6 289.4 280.5 270.7 263.9 261.3 255.8 250.6 251.4 250.9 246.2 245.1 243.2 241.6 241.9 239.8 241.8 240.8 237.1 229.9 229.6 226.6 226.6 226.7
43 50.1 56.8 64.2 75 86.6 93.8 103.3 113.2 124.7 139.4 153.8 168.1 185.9 206.3 226.6 255.8 282.8 316.6 359.1 400.2 421.2 442.2 455.6 470.5 483.3 498.1 515.2 528.7 542.9 554.7 568.8 583.9 598.5 612.3 626.1 636.6 643.4 647.9 645.6 635.5 623.6 645.5 655.1 662.5 664.8 667.2 673.7 679.9 687.1 694.8 707.8 718.9 734.7 756.9 782.8 812.9 857.1 878.2 893.7 890.7 861 838.2 814.6 796.9 779.1 766.4 743 729.2 716.4 707.1 695.5 689.1 680.1 667.7 660.3 654.1 647.6 645.4 646.6 645 659.6 676.7 673 678 663.6 637.3 607.7 578.5 553.3 534 521 510.2 498.3 491.5 483.6 477.6 471.1 463.9 455.3 448 440.2 432 424.6 414.7 409.1 401.8 392.5 388.1 382.2 376.5 372.1 366.1 362 360.9 356.5 351.8 347.7 341.4 333.1 327.8 320.2 318.4 318.5 316.5 315.9 315 312.6 311.7 309.3 306.5 302.6 299.7 296 291.7 290.9 286.6 287.5 288.2 287.4 278.4 273.8 270.6 267.7 266.5 269.3 276 272.8 276.6 279.6 283.9 288.5 292.4 306.3 320.6 335.4 350.1 369.4 383.3 396.1 411.2 427.8 446.1 458.1 469 487.5 479.8 437.1 404.4 380 359.5 342.7 326.1 312.8 302.8 292.7 286.9 284.2 276.7 268.1 258.3 255.3 251.3 248 246.7 249.8 248.2 245.5 245.4 244 240.9 240.6 241.3 240.3 238 232.4 229.9 230.6 235.3 231.6
45 56.1 63.4 71.4 82.4 93.6 102.2 115.3 122.2 134.1 148.9 162.7 183.2 201.3 222 241.8 266.5 296.2 326.1 373.5 397.5 408.8 420.3 429.6 444 456.2 469.6 485.5 500.7 513.6 526.2 540.8 554.8 569.7 583.1 594.9 607 615.4 619.1 616 608.2 597.5 616.5 623.8 630.8 631 635.5 645.1 652.5 666.2 687.6 706.8 723.1 741.3 760.3 791.1 821 857.9 879.8 896.2 893 861.9 834.1 805.3 785.1 771.3 761.2 748.3 731.8 718.7 709.4 701.5 692.2 681.9 669.2 660.8 651.3 641.5 633.5 632.9 633 649.4 661.1 661.3 666 661.4 641.8 617.8 588.4 556.9 533.3 519 504.9 494.4 486.9 477.3 469.8 462.2 455.8 451.7 441.8 435.2 426.9 419.3 412.1 404.6 398.6 391.2 386.3 378.8 375.3 368.7 362.4 359.5 352.6 347.2 342.4 339 334.5 326.5 320.6 318.4 314.9 317.4 313.8 314.1 312.1 309.9 306.1 303.1 301.3 295.8 293.1 285 283.1 282.2 276.9 278.6 277 275.4 271.6 265.5 262.2 258.4 258 258.7 264.7 264.3 267.9 269.8 275.2 277.3 280.5 292.7 303.6 316.7 328.2 347.9 359.3 373.1 384.6 398.9 420.3 432.4 449.7 466.4 462.2 449.2 411.2 386.8 364.6 348.4 329.7 314.5 299.7 288.4 281.9 277.7 273.5 264.2 255.4 250.1 247.9 246.7 246.7 249.2 249.8 247.8 246.5 244.4 242.5 241.3 240.6 239.7 238.4 235.6 236.9 238.3 239 237.8
48.3 56.8 65.8 75 85.6 95.9 107 116.7 129.2 141.4 156 172.5 188.9 208.2 229 250.9 275.9 304.4 337.8 357.3 369.3 382.1 388 399.4 411.9 427.3 446.2 459.9 473.6 486.5 498.4 509.2 522.3 540.7 555.4 567.5 579 586.8 587.2 581.8 574.1 570.8 586.6 592 595.6 601.9 600.3 621.9 651.1 676.7 696.1 718.1 737 758.1 779 806 835.2 872.1 896.5 907.7 900.8 873.3 841.2 808 793.5 772.2 759.1 743.7 731.7 721.5 713.5 707.3 699.3 686.8 673 659.3 651.5 634.7 626.5 618 617.5 626.6 644.5 648.5 649.5 650.9 646.4 626.1 590.9 562.2 536 522.7 503.3 490.8 481.4 476 467.5 459.5 454.2 444.8 436 429.4 424.9 418.6 413.1 404.3 397.5 392.1 385.9 382.8 377.2 370.8 364.1 356.2 354.7 351 343.6 337.5 333.5 328.3 321.1 316.4 313.1 311.1 311.2 308.1 305.4 304.8 299.6 300 296.5 291.4 285.5 282.9 278.1 273 271.4 269.1 270.9 269.5 265.6 259.1 256 252.5 252.2 253 253.4 255.9 259.7 262.2 266.7 269.1 269.4 280.7 291.8 301.8 313.4 320.4 335.6 351.5 364.4 372.6 386.4 404.5 427.7 438.8 441.6 448.8 419.5 392.7 369.9 349.6 330.5 314.5 301 288.1 280.2 274.1 268.1 261.6 252 248 246.8 246.7 246.7 246.7 248.9 249.8 247.7 245.9 244.6 246.7 245.6 242.9 239.4 234.8 237.4 241.9 241.1 239.4
54.4 56 67.6 83.1 93.6 99.8 107 117.8 126.7 142.3 158.3 177.7 192.6 210 229.3 251.5 278.6 298 309.7 325.1 336.7 349 357.1 370.4 381.6 396.7 415.7 432.1 442.7 456.6 466.7 485 497.7 514.4 527.5 543.7 552.8 557 554.4 544.9 537.8 551.7 560.2 562.4 562.8 583.4 608.4 637.6 662.3 686.4 709.6 734.9 758.4 781.3 799.5 825 850.5 888.9 908.4 913.5 905.4 882.5 843.2 816.1 800.3 779.7 765.3 741.1 725.9 720 715.7 707.7 701.8 692.8 676 660.3 646.3 628.1 615.9 604.2 602.7 610.1 618 628.5 623.1 632.6 639 629.4 593.1 567.8 545 524 503.7 492.7 486.4 476 468.3 463.2 455.3 448.4 443.7 435.8 428 422.7 416.1 409.1 403.4 393.5 389.1 381.5 377.3 373.8 369.7 362.8 361.3 355.2 350.8 345.3 341.5 333.6 326.6 321.4 315.7 313.7 307.2 302.8 299.6 296.8 293.6 292.4 293.2 284.3 281.5 273.7 270 266.9 266.7 263.8 262 263 260.9 256.3 251.6 249 248.1 249.6 248.5 250.5 253.4 254.9 258.1 259.7 262 269.2 278.8 284.9 294 302.3 311.5 322.8 337.6 351 365 384.1 404 411.4 425.2 430.1 436.4 400.3 373.7 354.4 333.3 314.8 300.5 288.6 278.6 270.7 264.8 258.3 252.2 248.3 246.7 246.7 246.7 246.8 249.4 251.2 247.9 248.1 245.9 248.3 246.6 244.4 241.6 239.1 240.4 243.1 244.2 246.6
55.6 63.9 73.1 86.6 98.7 108.4 120.9 136.2 146.6 155.1 153.3 160.4 171.3 192 216.2 231.8 248.5 258.6 271.9 290.1 304.7 315.1 327.1 340.8 353.4 368.5 386 400.5 416 427.3 442 451 470.8 489.5 508.1 519.7 526.7 526.3 516.7 506.6 512.1 529.5 543.2 563.9 587.2 606 627.8 653 676.7 702.6 728.4 753.7 780.2 804 823.8 846.5 874.8 901.6 917.2 914.4 894.1 867.4 839.3 816.3 796.2 783.4 764.3 745.1 728.9 721 715.1 711.1 704.2 691.2 671.1 657 634.4 615.5 601.5 592.3 589.1 588.6 595.6 601.1 600.4 608.3 621.1 621.4 598.8 583.7 561.8 536.8 518.6 500.9 491 480.1 471.1 466.2 458.3 451.3 446.1 439.2 429.6 424.4 417.3 411.1 405.3 397.8 392.7 388.4 384.3 380 375.4 370.5 367.7 362.1 356.9 351.1 346.5 339.5 333.5 327 320.7 316.2 311.8 309.1 305.7 301 296.1 294.6 290.2 283.2 279.5 275.3 270.6 267.2 263.6 260.8 257.1 255.1 255.7 254.4 249.7 246.5 244.3 245.7 245.1 245.5 247.4 250.4 252 253.6 254.4 257.3 263.1 271 278.2 285.7 297.9 304.2 317.5 333 346.2 365.9 379.7 395.6 413.3 422.3 423.6 412.8 380.2 357.6 334.7 317.2 300.1 287.9 277.1 268.7 262.9 257 251 248.7 246.7 246.7 246.7 246.7 249.1 250.7 249.3 248.7 247.9 246.6 247.4 245.2 241.3 240.5 242.2 248.1 254.9 254.6
57.6 67.8 76.4 88.5 102.1 113.5 124.6 141.3 155.8 172.6 186.9 196.4 188.9 189.4 195.6 209.6 220.1 231.5 241.4 252.5 263.7 282.3 299.1 312.3 322.9 340.2 358.3 372.6 384.9 399.2 409.6 427.2 446.6 465 483.4 495.8 502.2 496 473.3 464.5 510.4 537.5 562.7 582 600.3 621.6 645.6 669.3 695.6 723.3 751.4 777.2 802.8 830 852.1 870.2 895.9 915.6 925.2 900 876 842.7 812.9 794.1 779.7 770.8 758.9 744 731.9 725.9 718.6 709.2 695.9 675.6 660.7 644.2 622.2 601.6 588.9 579.5 573.8 571.3 575.4 578.1 586.9 590 610 616.1 619.8 611 583 546.7 534.4 516 501.3 487.3 477.7 470.7 462 457.2 449.1 442.1 434.4 428.9 421.8 415.3 412.1 406.7 396.7 394.4 390.6 387.7 383.4 378.7 374.4 369.5 364.3 358.4 355.5 346.6 340 333.1 327.8 323.7 317.9 314.1 311.9 309.2 303.6 300.7 299.9 291.9 288.1 282.3 277.7 274.6 269.9 267.7 264.5 260.3 254 249.4 247.7 245.9 243.1 240.7 241.8 242.5 244 245.4 245.6 248.8 249.8 251.9 253.3 260 264.9 268.4 276.8 287.3 299.5 311.8 327.7 344.5 360.6 375.3 396.9 409.1 411.4 417.2 389.5 362.6 341.3 320.7 300.8 287 275.9 267.9 261.4 256.2 250.2 246.7 246.7 246.7 246.7 246.8 246.7 246.7 249 249.1 249.8 246.4 244 243.7 244.2 245.6 248.2 254.6 258.1 258.7
61.7 71.3 82.2 94 105.5 116.2 130.5 144.2 164 188.6 209.7 220.8 232.8 229.5 224.6 217.3 229.9 233.2 244.6 251.7 261.5 271.5 279.5 291.8 302.8 311.7 323 340.7 353.5 365.4 379.5 400.8 416 434.9 457 469.4 471.5 462.3 462.5 490.1 516 543.6 569.4 591.3 615.9 637.5 663.9 689.3 716.8 743.4 771.4 797.9 826.7 855.8 874.9 889.1 908.1 925.5 914.7 887.4 859.5 828.4 795.3 776.5 762.1 748.3 744.9 737.7 728.1 726.3 716.1 706.2 682.6 660.9 644.9 622.5 610.5 588.2 578.2 570.5 563.3 559.6 565.1 566.5 576.1 588.6 610.9 626.6 625.2 622.2 605.8 568.4 548.5 529.6 512.9 497.4 483.9 474.1 468.3 462.4 456.8 449.9 441.7 432.3 428.4 420.8 418 412.3 406.1 403.3 398.5 395.8 390.7 387.8 382.4 378.2 373.7 366.6 364.4 354.4 347.6 341.1 337.1 333.6 329.6 326.6 325.5 323.2 316.1 312.8 309.4 304.4 299.9 294.6 289.3 286.8 280.7 276.1 270.6 267.1 259.9 253.1 249.9 246.1 243.4 242.1 239.3 240.1 241.1 242 242.6 245.3 245.8 246.1 243.6 247.6 252.3 255.4 262.4 272.6 285.2 294.9 306.4 323.9 347.3 354.5 370.2 380.1 392.2 405.5 407.4 374.7 348.2 324.3 303.9 286.7 273.1 266.1 260.2 254.5 249.9 246.7 246.7 246.7 246.7 250.3 248.1 246.7 246.7 247.2 246.9 244.2 243.9 245.7 249 253.7 252.3 257.8 262.4 261.4
65.5 71.9 84.5 97.1 107.4 118 137.2 150.4 172 205.6 229.3 247 260 266.4 265.2 257.3 262.6 266.3 275 281.7 287.3 291.5 292.8 299.8 310.2 322.8 334.1 341.7 349.3 355.4 366.4 378 391.7 408.7 426.1 439.5 441.1 445.3 457 485.9 521.6 550.1 572.4 597.5 620.1 648.8 676.9 705.4 732.9 770.9 795.4 821.4 852 877 892.4 902.3 915.2 906.7 887.3 864.2 834.9 804.1 778.8 763.4 749 731.3 720.2 712 712.5 715.1 708.8 684 661.8 640.4 615.8 601.4 588 577.8 569.2 563.3 557.4 553.1 555.8 560.3 571.8 582.3 597.7 620.2 631.5 624.5 620.8 594.6 569.5 547.9 527.9 509.6 495.6 482.7 474.9 468.3 460.9 454.2 446.5 440.9 432.8 429.9 423.2 419.6 414.8 409.6 407.5 402.9 401.3 398 392.9 387 382.8 379.5 374.9 366.3 357.7 352.4 348.5 345.5 343.5 341.1 339.9 335.4 333.7 328.8 326.7 321.8 318.3 313 308.2 300.9 296.9 290.1 282 276.4 269 260.9 255.4 250.5 245.6 243.4 238.8 236.4 238.3 238 239 242.8 240.3 242.4 240.8 238.9 241.9 246.6 251.9 261.8 271 278.8 291.2 307.2 326.1 332.9 351.6 359.2 367.2 374.4 387.6 387.9 360.9 328 304.8 286.8 272.2 262.7 257.9 253.9 249.2 246.7 246.7 246.7 249.9 254.9 255.3 247.5 246.7 247.6 249.6 248.6 246.4 250.2 255.6 262.9 261 261 266.9 267.2
64.8 77.2 86.8 100 110.9 124.5 142.3 159.7 180.9 218.6 252.1 270.4 282 295.5 301.7 297.1 300.4 299.1 309.1 316.7 319.6 323.4 325.6 331.3 338.8 347 357.1 362.4 371.1 374.8 384.9 386.5 396.5 407.8 413.5 422.2 442.8 464.4 484.1 488.7 500 533.2 565.3 601.5 623.9 650.2 678.1 706.6 743.1 773.7 808.7 839.1 864.5 887.1 897.5 896.5 897.3 881.1 859.4 834.7 812.7 782.5 762.7 745.7 730.3 714.2 701.2 695.4 696.3 699.5 686 665.6 642.6 622.5 596.2 582 571.9 566.7 562.3 553.7 549.1 547.1 548 554.1 563.3 576.2 590 605.5 628.5 631.3 638 625.5 594.4 567.5 545.4 527.3 507.2 493.7 483.9 476.2 468.2 459.2 452.5 445.7 443.8 438.7 430.6 427.3 423.5 418.8 418.7 416.5 412.6 411.7 408 401.9 398 392.5 390.6 381 376.1 370.2 366 363.9 360.7 358.5 354.5 353.4 350.9 346.9 345.3 340.6 336.5 330.6 324 322 312.3 306.3 298 289.1 282.5 271.9 264 256.5 251.2 244.4 240.1 235.9 233.7 234.2 235 235.1 236.1 235.8 237.1 235.4 234.8 238.9 244.2 251.2 258.9 266.8 276.6 289.8 305.7 314.3 319.9 330.3 337.9 342.2 352.5 371.8 361 337.5 305.7 286.1 269.7 260.4 254.3 250.5 248.6 246.7 246.7 249.7 251.1 256.1 257 253.8 249.3 251.6 251.5 251.1 251.3 254.1 257.7 264.6 263.4 264.5 268.5 269
65.8 77.2 87.1 99.6 113 132.2 148.6 177 192.7 226.9 268.6 286.3 306.8 322.6 332.5 337.4 338.8 334.8 345.4 354.3 359.6 358.1 361.5 364.7 372.2 379 385.4 394.6 396.9 406.4 411.4 415.1 421.9 430.2 446.2 453.3 465.7 488.4 506.5 518.1 533.6 550.6 566.6 589.2 620.8 644 670.8 699.4 729.7 757 792.5 826.2 858.3 880.1 892.5 887.3 870.6 851.6 830.7 806.7 783.2 764.4 747.8 728.6 711.8 695.2 685.4 675.7 673.6 674.6 662.5 645.1 623.8 603.4 580.3 569.6 559 556.2 550.7 545.4 546.2 542.7 540.2 545.6 557.2 574.2 585 605.2 630.8 643.1 650.2 642.5 630 600.8 571.1 546.2 525.2 507 493.5 483.9 475 466.8 462.5 453.5 450.7 445.3 441.7 439.5 434.9 433.1 431.1 431.9 430.1 429 426.9 419.9 417.3 413.5 410.5 404.7 396 390.9 387.8 383.4 378.7 375.6 373.6 370.4 369 367.2 361.4 358.1 356.1 349.9 344 338.8 332.9 324 315.5 305.6 297.6 286.1 274.9 266.2 259.9 251.6 245.4 239.6 235.3 232.6 234.2 232.7 233.6 232.7 233.8 233.9 230.3 232.1 235.8 242.8 249 257.2 264 276.2 287.5 298.3 306.5 306.1 311.4 314.7 321.5 340.6 352.6 340.2 308.1 282.2 266.9 255.5 249.8 245.6 245.3 246.9 249.5 249.7 251.4 254.3 259.3 258.2 255.9 257.4 256.8 254.9 258.7 258.5 262.3 265.2 265.5 269.1 272.5 272.2
66.6 75.4 87.3 99.2 113.9 135.3 154.5 190.4 202.6 229 267.3 295.4 325.5 344.9 359.9 368 375.7 374.4 382.2 390.3 397.4 397.5 407.3 410.4 418 420.6 421.2 432 433.3 442.6 446.4 448.3 457.2 463.4 474.2 476.5 490.7 508.4 530.7 547.1 566.4 581.4 594.3 609.8 626 645.2 672.2 696.9 722.6 750.4 790.7 824.2 855.2 874.3 878.1 867.6 847.1 821.5 799.7 788.7 766.5 752.4 732.5 714.2 699.4 682.3 669.2 666.1 660.1 652.6 644.6 629.3 603.9 586.3 571.2 559.8 549.3 544.5 539.1 537.3 538.6 535.2 535.2 542.6 550.4 568.8 586.9 610.9 640.8 656 660.2 665.1 656 631.8 595.3 568.9 545.9 521.8 507.1 495.7 485.3 475.4 472.7 467.4 463.8 461.9 453.8 453.5 451.1 448.7 445 446.8 447.8 448.7 447.6 444 443.6 441.4 439.6 430.4 423.5 416.2 410.9 402.5 398.5 396.9 392.2 390.6 386.7 384.3 378.9 377.4 373.9 369.8 362.9 358.4 350.5 344 333.4 323.1 313.6 301.8 290.2 278.3 271 259.8 252.5 247.9 241.4 236.9 232.7 228.3 228.9 227.3 227.5 228.7 227.8 228.1 230.7 234.4 241.2 249.8 254.9 265.9 274.7 283.4 287.5 292.9 295.4 295.7 303.6 313.6 335.2 330.9 302.9 280.6 265.5 252.7 243.8 242 248 254.6 248.6 250.2 251 256.1 257.9 263.5 263.7 259.3 263.2 264.8 264.1 260.8 263.4 267.7 268.5 271.4 273.9 276.5
65.7 75.7 87 99.7 117 139.6 158.3 194.1 211.3 238.5 271.1 311.7 343.2 360.1 382.3 396.9 408.8 412.8 420.7 428.7 437.5 438.4 450.8 453.7 461.2 458.4 459 463.7 473.4 481.2 482.8 483.9 491.2 497.1 508 509.8 514.2 535.9 551.6 573.6 592.4 610 626.1 639.1 655.7 672.1 690.4 712.1 730.6 755.4 788 826.6 859.1 866.1 860.6 840.9 819 801.5 784.9 763.8 753.3 736.6 719.4 701.9 686.7 673.2 657.2 649.5 644.5 630.1 623 607 591.3 574.2 563.8 547.5 540.5 534.3 532 532.2 529.7 529.7 535.5 540.7 548.7 569.2 591.4 616.5 640.5 659.5 665.7 688.5 687.7 666.6 623.2 595.4 569.2 543.4 526.1 514 506.9 494.6 486.7 483 476.1 474.4 469.2 467.7 467.4 467.4 466.9 466.8 469.7 474.6 474.1 474.4 473.5 472.3 472.5 462 453.9 442.4 435.1 426.8 419.1 414.9 413.7 407.8 407.4 402.1 400 397.2 392.4 388.6 383.3 378.7 370.9 361.9 353.3 339.6 329.6 316.9 307.2 294.9 283.8 271.7 261 256.2 250.6 245.2 239.3 237.4 230.5 226.6 225.2 223.9 223.5 223.9 226.9 229.4 234.2 241.8 247.4 257.6 265.9 271.2 274.6 277.1 278.8 282.8 285.7 299 317.5 313 299.2 279.8 261.1 248.3 240.3 240.6 248.1 256.5 249.1 250.9 252 255.1 259.9 263.1 265.1 266.1 268 271.5 265.6 262.5 267.9 267.4 273.4 272.3 275.5 279.1
65.3 73.5 86.2 100.9 119.8 143.3 163.5 188.6 218.8 244.8 276.8 324.5 345.3 377.8 401.9 420.4 436.2 444.5 454.4 464.1 472.8 481.4 493.3 503.7 507 504.8 503.7 501.4 510.7 517.4 522.4 526.6 530.7 535.3 541.6 538.2 544.4 555.4 578.9 598.8 620.4 641.4 659.3 673.4 688.2 702.4 720 738.6 755.3 776.3 801.9 838.4 861.1 851.4 835.2 815.6 800.3 788.8 771.4 756.7 737.1 717.5 703.6 693.1 676.5 665.3 650.4 635.9 625 614.8 605.4 593.7 577.3 562.2 550.9 538.1 532.6 528.2 529.5 525.5 526 530.1 533.3 541 550.4 570.3 596 611.1 633 655.8 671.4 698.1 709.4 702.3 652.7 615.5 588.6 573.8 552.9 538.2 522.8 516.1 509.4 499.1 492.3 490.6 485.9 492.5 491.4 488.3 485.8 492.3 493 498 503.8 507.4 507.3 507.7 506.5 496.3 484.9 474.9 461.1 453.4 445.2 439.9 436.5 431.1 426.8 422.6 417.3 416.3 412 409.4 406 399.7 391.3 383.1 372.4 359.2 345.8 333.1 319.5 307.5 296.1 285.4 276.1 267.2 259.6 253.7 247.3 242.6 235.2 230.6 226.5 223.9 223 222.3 223.8 225.4 227.9 233.2 240.7 248.3 256.1 262.7 264.8 268.3 270.2 270.6 273.3 277.8 293.7 301 294.5 278.6 258.2 245.8 240 241.6 242.5 246.5 248.8 250.5 253.2 255.8 260.4 265 269.3 270.6 270.8 270.5 266.9 263.5 272.9 273.4 274.3 274.9 277.7 282.2
68.7 78.6 92.7 104.7 120.3 145.6 166.3 192 222.2 249.3 300.5 330.2 360 387.2 412.5 435.7 454 465.6 478.6 494.4 509.6 527.7 533.4 546.7 554.8 557.2 543.8 552.9 554.3 548.5 568.9 572.5 573.1 575.3 579.9 570.5 575.2 577.9 599.3 624.3 646.9 672.8 694.3 713.5 727.3 741.5 756.7 776.3 791 809 830.7 850.3 853.1 836 815.8 799 784.1 774.9 765.8 744.6 733.9 708.3 690.4 677.5 670.9 653.3 643.4 635.8 616.2 601.7 591.6 581.1 569.7 553.7 542.7 533.2 527.8 523.7 522.8 521.4 522.3 528 534.4 542 554.8 570.5 598.6 610.2 622.9 649.2 681.4 699.5 712.3 720.8 674.3 637.7 612 606.9 579 564.5 552.6 538 526.1 520.1 515.4 512.6 513.2 515.4 514.3 517 513.4 512.4 515.3 523.2 533.6 540.3 545.6 545.3 542.7 532.4 523.9 508.1 494.1 486.7 476.9 468.9 464 456 450.1 445.3 440.9 438 433.4 430.3 426.1 422 413.7 402.8 392.7 377.7 362.1 347 335.1 321.2 309 299.1 287.2 278.7 270.6 262.6 256 249.7 242.4 237.7 229.6 224.7 222.1 221.4 220.9 219.7 225.6 227.9 234.4 242.5 247.1 254.5 258.1 260.3 263.4 265.8 266.9 264.1 269.9 283.7 280.6 274.4 254.3 246.4 240 240.8 242.9 244 245.5 249.7 252.1 262.5 265.2 268.8 272 273.5 277 275.4 273.5 272.5 275.3 280.1 278.1 278.6 280.7 285.1
73.9 87.6 98.6 112.3 127.3 150.1 176 206.1 235.2 261.5 312.3 342 373 396.2 416.6 447.3 460.2 476.5 499.7 523.6 543.9 559 571.7 591.2 602.6 605 597.2 609 608.4 612.6 625.2 633.8 625 624 626.3 608.9 608.4 610.6 627.1 639.5 669.6 695.5 725.7 749.4 771.7 778.8 804.9 819.4 830.5 841.5 853.8 864.1 854.2 828.3 806.8 791.9 777 760.5 750.3 737.8 722.1 707.7 682.1 668.3 654.2 646 636.6 626.5 602.2 591.9 580.3 571 559.6 547.9 535.1 526.7 523.5 517.9 517 517.7 521.3 527.1 534.8 540.8 550.8 569.2 591.8 609.6 628.9 652.3 674 692.1 706.6 724.8 695.7 664.4 645.8 634.8 613 589.3 578.7 567.5 555.6 542.2 538.7 542.6 538.4 541.6 539.6 541.5 540 536.2 540.9 551.5 560.5 582.7 587.1 586.2 588.7 579.9 565.9 553.4 534.4 521.1 510.1 498.4 495.7 484.1 476.4 473.8 467 463.7 457.5 453.9 450 442.6 436.5 426.4 411.6 398.9 382 364.1 347.8 334.1 320.9 310.8 300.9 290.1 281.3 273.7 266.8 258.7 250.7 243.4 239 230.7 225.4 222.7 218.6 218.3 222.5 224.9 228.6 234.9 243.5 247.6 250.2 253.4 259.7 261.5 260.9 256.1 256.4 267 270.1 270.9 253.5 244.8 241.5 238.2 239 242.8 241.4 247.1 251.8 262.2 269.2 274 275.2 275.5 276.7 278.3 277.4 279.8 277.6 279.9 281.3 282.2 285.9 286.1
78.6 92 103.6 117.7 136.3 159.4 192.9 217.7 249.2 279.9 314.2 347.7 370.5 394.3 420 444.6 461.9 479 506.3 541.5 565.2 583.6 601.5 621.2 638.5 648.6 647.2 644.1 660.7 668.4 649.7 678.6 679.3 678.7 670.2 651.3 644.1 639.4 648.2 670.3 690.4 716.3 747.6 777 802.2 821.5 837 851.8 866.4 872.7 875.9 870.2 847.1 826.9 807 793.3 779.6 761.8 745.7 730.8 713.9 698.8 679.7 660.2 650.5 638.1 628 611.9 592.2 584.1 571.5 561.5 551.4 541.3 529.8 524.7 518 514.6 514.8 515.3 519.6 522 527.4 537.2 552.2 572.4 596.7 619.4 641.6 663.9 685.1 694.8 713.4 737.1 722.5 693.7 672.8 661.6 649.4 628.8 609.9 596.9 585.6 570.2 566.5 564.9 563.4 558.1 563.8 560.1 565.1 569.4 571.8 581 588.8 610.6 626.8 628.7 631.8 625.6 607.4 590.2 571.4 554.4 546.6 535 530.1 514.7 506.1 501.7 495.9 490.8 485.1 482.1 481.6 469.7 459.7 447.7 432.2 419.7 401.5 382.1 364.7 348.5 334.1 321.8 312.1 303.5 293.2 285.2 278.6 271.1 261.9 253.6 245.8 236.4 232 226.1 220.8 217.7 218.4 222.2 224.2 228.3 238 240.8 246.2 248.3 253.2 253.9 255.5 253.2 251.6 255.3 260.7 261.2 247.8 242.8 239.7 238.6 236.2 239.2 239.9 243.4 249 259.3 268 275.9 278.6 278.1 277.3 279 284.2 280.8 281.4 281.5 282.8 285.9 289 287.5
85.5 96.7 107.5 122.8 145.4 164.8 197.3 224.6 252.4 283.2 310.3 340.1 358.1 385.1 410.6 431.6 455.1 477.6 502.3 550.2 580.2 607.8 626.5 646.3 663.3 679 695.5 685.6 688.2 709 701.3 719.1 722.7 723.8 706.5 692.8 680 679.1 681.5 697.2 719.2 742.3 768.7 796.8 820.9 846.2 865.5 882 894.5 904 895.6 872.8 850.3 829.1 809.6 793.7 780.1 767.1 752.6 734.2 716.3 693.6 676.3 659.2 647.5 645.3 635.9 618.7 598.7 578.5 566.6 553.2 543 535.2 525.9 519.7 514.6 512.7 512.8 514.4 514.9 521.1 528.4 542.6 559 575.1 604.8 623 647.1 668.2 692 709.2 729.3 746.9 744.4 726.4 701.2 682.7 686.7 666.6 643.6 630.5 616.3 601.9 588.3 590.6 593.7 586.5 578.7 584.7 591.2 600.8 610 613.9 622.9 632.9 655.3 669.2 664 657.7 642 619.1 606.2 590.9 581.4 571.9 566.6 543.2 539.7 533.2 527.8 522.6 519.2 513.7 517 502.8 489.2 469.5 451.9 437.8 420.9 400.6 380.3 363 347.5 333.7 324.9 315.2 307.7 300.4 290.7 283.6 273.4 265.7 257.2 247.2 239.1 231.4 224.2 217.9 217.1 221.6 223 222.6 230.9 236.8 242.9 247.4 250.9 252.2 254 253.9 253.1 251.6 254 251.5 243.9 237 236.4 238.4 240.7 236.2 238.5 241.8 247.6 255.2 267.3 278.6 280.7 280 279.2 281 285.8 285.5 284.4 284.6 285 287.8 290.1 292.5
89.2 100.7 114.7 126.9 149.5 174.7 201.8 223.4 249.7 272.5 301.6 329.5 352 376.8 400.4 427.1 453.3 479.6 510.3 551.4 593.2 619.4 644.5 664.7 685.9 703.2 723 732.5 737.4 740.2 752.2 766.9 770.9 763.5 730.3 733.5 721.2 733.4 725.4 741.4 763.2 784.5 798.5 823.4 845 864.8 877.1 887.5 903.3 902.9 892.6 878 861.2 836.6 816.3 797.1 782.2 769.3 752.6 733.7 720.4 696.8 676.2 658.9 645.4 653.8 637.3 621.2 600.3 578.4 562.7 549.9 538.7 527.6 521.4 517.1 512.9 510.9 511.3 511.3 513.3 519.1 528 543 564.2 585 609.5 640.1 662.4 684.9 710.1 732.3 756.5 769.3 768.7 748.8 734.3 707.8 716.5 702.2 676.9 668.3 651.7 647.9 633.6 622.4 611.2 605.2 609.7 608.4 625 632.4 642.2 647.5 656.9 655.3 673.5 692 691.8 678.6 673.4 653.1 636.2 620.8 609.6 600.5 592.1 579.8 566.4 563.2 557.9 561 549 546 545.4 533 514.6 494.4 472.3 458.2 441.1 418.5 395.6 377.3 361.4 348.4 336.9 330.9 321.5 314 304.3 296.5 285.9 277.4 267.6 258.3 247.9 239.8 231.5 224.1 215.9 218.3 221.1 222.3 226.8 232.2 239.2 243.9 249.2 255.8 255.9 255.6 253.3 247.2 245.8 244.8 236.7 231.2 232.9 236.2 241.8 236.2 236.2 242.8 250.5 258.4 268.9 275.5 282.2 284.8 282.7 287.4 288.5 290.1 288 287.8 289.2 288.2 293 296.4
91.9 103.6 119.8 134.3 153.7 179.7 203.2 225.7 250.3 269.7 300.2 323.9 348 375.8 403.3 430.5 451.9 485.7 512.7 547.2 587.1 626.3 651.4 671.4 699.4 719 738.9 747.4 755.4 770.9 786.3 799.7 802.4 796.1 784.6 779.6 778 778.5 756 778.2 809.1 834.1 846.1 854.6 859.8 845.8 838.2 852.6 870.5 870.6 866.4 856.6 840 825.1 807.3 795.9 780 767 748.7 730.8 718.3 698.3 681.6 660.7 645.4 649.5 635.8 621.9 598.1 579.5 562.4 549.6 538.9 529.3 522.4 515.5 512.5 511.4 510.2 510 511.7 517.5 530.9 546 558.3 588 619.5 655.9 675.7 699.9 728.8 752.6 775 798.8 792.2 773.9 757.4 735.4 746.3 738.4 719.3 705.7 693.6 683.2 681.3 658 647 634.3 641.2 645.5 648.1 660.7 672.9 676 691.2 687.2 686.6 685.4 681.4 671.6 676.1 675 672.7 656.5 655.5 630.8 619.6 609.8 597.6 592 594.7 597.4 585.4 574.1 576.1 566.3 541 519.5 495.1 477.6 457.1 435.1 414.1 395.1 377.7 362.2 354.1 344.8 337.3 329.5 320 311.9 301.5 291.5 281.5 269.3 259.8 247.4 238.3 230.5 222.2 214.5 218.1 221.4 224.7 230.4 237.5 245.2 252 254.6 258.7 262.6 256.5 245.1 239.1 238.2 230 226.5 229 234.8 236.5 236.2 237.3 242.4 254.2 262.7 269.6 275 278.4 284 286.3 293 289.9 292.9 292.1 293.5 298.5 298.2 298.2 300.8
92.4 103.3 120 137 156.3 179.9 204.8 226.4 255.7 274.2 297.6 324.9 353 381.6 405.1 430.6 458.1 485.6 511.8 544.3 583.5 619.7 650.8 670 702.5 722.8 737.5 747.4 764.1 783.4 798.7 801.6 811.2 819.7 816.6 803.6 802.8 809 793.7 816.4 830.9 821.7 816 836.6 831.3 818.3 799 819.7 830.8 831.5 819.9 822.8 813.5 795.9 785.2 774.6 768.3 753.7 738 721.1 710.9 699.6 676.1 664.9 644.6 640.7 626.8 616.1 593 576.6 562.8 549.5 536 527.3 519.1 512.9 511.4 510 509.6 509.7 511.4 520.2 532.5 548.6 567.5 588.4 618.7 653 684.6 712.5 744.6 778.2 803.6 829.9 812.4 798.7 780.1 767.2 776.9 766.2 758.4 741.9 728.6 721.8 706.3 693.3 676.4 659.2 667.9 680.9 684.7 687.3 699.4 702.1 718.5 705.6 690.3 675.8 670.2 660.8 662.7 654.9 667 671.7 690.6 678.3 652.1 643.8 635 632.9 631.7 636.6 625.9 612.3 606.9 594.2 576.8 551.3 520 501.1 477.5 456.5 432.4 412.6 392.6 381.8 370.1 360 352.7 342.4 334 326.1 319 306 295.6 282.3 270.8 258.7 246.5 236 227.7 221.9 215.6 215.9 221.6 227.2 233.2 243 252.9 257.9 265.1 271.5 256.4 244.8 233.9 230.8 221.6 221.4 226.4 231.4 236.6 236.3 238.5 242.1 252.8 261.6 268.6 272.6 276.5 283.9 289.2 291.7 290.9 294.5 296 298.3 304.2 302.5 304.1 307.2
92.7 106.4 123.9 140.4 158.6 179 199.8 223.5 249.3 273.1 300.1 327.2 356.4 381.7 409.8 433 458.4 485.7 512.2 545.1 583.6 615.8 646.5 669.9 707.5 723 735.4 740.1 759.8 774.3 772.2 773.4 789.4 798.3 798.4 786.7 778 779.9 783.6 780.1 795.8 781.8 779.1 804.5 799.1 785.6 758.4 789.9 787.9 788.6 764.2 770.4 764.6 763.1 757.3 749.7 732.5 730.5 713.7 700.3 691.5 689.2 671.2 670.8 649.9 627.9 620.4 604.4 587.8 573.7 560.1 548.1 536.8 525.7 519.1 512.3 510.3 508.3 507.9 507.4 512.3 522.5 536.3 550.5 573.5 594.5 621.7 659.8 692.1 726.8 767.9 808.6 828.1 850.1 841.3 820 808.4 795.9 795.4 798.9 785.4 778 759.4 751.4 737.7 723.2 697.9 689.4 696 708.9 718.6 719.7 727 732.3 736 709.7 686.9 671.2 660.6 648.7 637 641.8 649.3 659.2 685.5 697.4 694.1 683 673 668.6 668.3 666.7 661.5 649.9 641.2 630 610.6 586.3 551.6 521.7 500.5 477.7 451.1 427.2 411.3 399.3 386.4 375.1 366 357.1 352.5 343.2 332.9 322.8 310.9 298.5 285.3 268.5 257.9 245 235 225.1 218.8 214.2 214.5 222.3 230.1 242.2 254.2 253.7 256.8 268.5 255.7 245.1 229.9 221.7 215.2 221 223 229.6 233.6 236.2 239.6 242.7 247.7 256.7 266.4 274 277.7 285.3 290.6 289.9 290.9 295.8 299.1 301.8 306.5 307.8 312.1 316.4
91.9 105.1 119.7 139.6 161.3 189.5 211 232.4 256.4 279 296.3 332.6 366.3 385.5 415.2 439.8 465.2 488.4 517.5 547.5 587.8 617 639.8 673.3 706.3 717.5 726.4 734.1 739.5 741.1 737.4 740.8 757.6 758 754.9 752.1 731.3 740.4 746.1 745.2 735.3 726.5 731.6 752.5 753.3 737.2 727.5 747.3 734.2 726.2 719.3 725 715.5 718.8 715.2 717.8 709.1 698.6 688.3 674 668.7 669.1 671.7 664.4 652 620.9 612.6 597.6 585.5 571 560.6 548.9 536.4 526.2 518.7 512 508.8 507.3 508 508.9 515.7 524.6 536 557.5 574.8 600.3 636.9 674.1 700.8 736.2 781.3 814.3 841.4 865.1 865 846.2 834.9 823.9 817 826.8 818.8 803.2 775 775.2 763.7 754.6 726.5 714.8 720.2 734.7 744.9 749.6 753.2 753.3 738.1 711 685.3 666.4 653.3 643.1 633.3 629.5 630 646.9 669.3 689.2 706.9 718.9 715.2 720 711.9 705.5 698.9 689.4 680.8 666.9 649 631.8 592.1 552.3 530.6 502.4 472.2 449 430.1 418.3 404.6 392.1 382.8 371.5 364.9 359.8 351.1 338.8 328.3 315.3 297.9 281.6 266.8 253.8 241.9 230.4 222.6 216.9 214.1 218.2 226.2 236.1 251.4 252.5 250.6 254.8 244.9 235.2 228.7 218.3 209.7 207.8 214.4 222.7 230.3 235.7 240.4 243.2 247.5 254 265.2 273.1 279.6 284 287.7 290.3 294.7 297.5 301.5 306.1 310.2 312.5 319.5 321.6
95.8 107.9 123.1 141.2 164.4 184.7 211.1 231.1 261 287.7 317 344.4 366.4 390 413.5 443 470.3 498.3 526.8 553.8 592.6 620.9 647.2 674.6 691.2 695.2 702.5 707.6 713.5 705.3 693.3 698.6 711 707.7 713.7 711.4 692.9 699 704.9 711.8 685.2 675 682.3 703.3 704.5 684.1 685.7 684.6 678.6 671.1 664.6 666 674 669 674.5 680 691.5 679.2 670.6 655.6 653 650.4 665.6 646.4 642.2 621.2 612.8 596.9 583.9 573.3 563.3 552.6 537.4 526.4 519.8 512.6 507.8 506.2 506.7 509.6 517.4 528.4 538.7 556.6 577 604.3 646.2 680 710.1 739.8 775.8 807.1 840.6 866.3 884.2 883.1 867.5 850.2 844.3 851.8 841.2 830.7 812.5 805.5 794.1 777.7 751.3 739.9 756.6 758.2 767.8 779 772.7 753.7 737.4 715.9 687.7 660.7 645.1 637.4 627 626.4 627.8 632.9 652.5 674.7 694.4 718.8 727.5 741.9 738.6 735.9 724.5 719.6 715 699.6 679.3 661 628.2 593.9 555.3 522.9 493.3 466.9 452.7 438.9 425.5 412.4 398.4 388.4 382.2 377.1 367.4 357 345.3 331.3 313.1 296.6 279.1 264.6 250.1 236.5 225.4 217.4 211.6 219.3 221.8 228.6 238.5 247.6 244 245.6 241.3 226.7 222.5 215.1 207.3 209.4 212.6 214 226 234.9 241.4 245.9 248.6 256.3 266.9 275.1 279.1 283.3 288.8 291 299 303.8 308 313.4 317.3 321.9 321.1 327.3
94.5 105 120 142.2 165.4 189 214.5 240.7 265.1 290 318.5 344.8 372.5 400.5 424.6 447.9 474.8 504.7 534.8 560.4 589.3 621 642.1 654.3 660.2 664.2 665.9 667.1 674.1 660.2 650.1 656.2 659.1 668.3 674.2 671.1 654.3 662.2 655.9 662.1 650.5 643.2 630.7 626.5 636.6 629.6 630.1 631.8 630 625.8 630.6 626.3 626.7 623.6 634.9 649.2 654.7 650.6 648.8 637 632.4 628.7 641.6 637 639.4 621.1 609.1 595.8 584.9 573.3 564.1 555.5 542.5 527.9 519.3 511.3 506.6 505.9 505.8 511.9 521.7 530.6 543.1 564.3 582.5 613.9 648.5 677.3 704.4 735.8 773.3 803.7 825.7 858 889.4 908 899.4 883.9 879 882.7 865.8 856.3 848.8 837.6 821 798.7 772.2 766.8 773.4 772.9 772.3 774.5 767.6 748.5 739.6 713.9 685.4 658.4 640.4 632.8 625.1 623.6 627.2 630.6 642.9 656.2 675.3 701.3 711.8 732.1 725.9 732.2 730.8 722.6 726 719.2 703.3 687.1 664.1 626.2 588 550.3 518 494.6 478.2 462.6 446.6 431 419.2 409.5 399.8 392.7 386 377.3 366.9 354.2 334.8 312.9 293 274.2 261.8 245.2 232.5 220.8 208.8 212.3 218.1 222.2 228.5 237.1 241.2 234.5 230.6 221.4 212.6 205.9 203.5 209.3 213.5 217.6 223.7 231.7 240.1 244 247.2 255.3 264.8 278 283 287.8 290.5 295.8 302.5 309 314 321.9 326.6 327 324.9 330
96.1 107.9 123.7 146.5 171.4 198.9 224.4 247.4 272 296.1 324.4 353.3 382.8 407.1 434.8 461 488.9 520 543.5 564.5 581 604.7 625.6 625.4 631.8 632.2 637.5 630.2 628.9 621.7 619.5 612.4 616.5 632.4 627.7 625.8 618.2 626.5 614.9 611 612.8 607.5 603.3 591.3 593.8 595.1 586.7 587.2 588.4 588.6 586 583.8 587.2 583.4 587.1 592.8 601.7 615.7 611.9 613 606.5 605.4 611.2 631.7 640.2 621.1 606 595.8 586.8 574.3 563.8 553.7 543.4 528.5 517.5 511.3 505.6 503.6 504.9 512.2 521.4 530.4 546.2 568.2 587.1 616 642.9 677.4 706.9 736 773.6 806.8 821.4 851.2 887.7 915.6 926.6 928.6 909.8 915.5 905.9 896.8 893.6 877.4 848.8 827.9 814.2 797.4 787.2 773.6 766.2 767 760.3 738.9 729.9 714.3 686.3 662.3 641.4 627.5 620.2 623.4 625.3 630.4 640.8 650 659.6 678.5 687.9 702.2 701.3 707.5 718.3 721 712.6 721.8 709 694.2 675.6 649.4 614.5 576.9 543.5 519.4 502.2 488.6 469.2 453.3 439.6 431.2 422.4 411.6 406.3 398 386.6 375.7 357.1 334.8 308 287.3 267.5 255.3 241.5 226.2 215.4 209.5 209.3 214.7 218.2 223.8 229.9 229.3 218.8 210.9 203.7 200.9 201.9 205.1 214.5 222.3 228.5 235.4 241.5 241.6 244.3 255.5 267 282.1 287.9 291.4 294.8 300.4 304.2 313.1 321.2 326.8 332.3 329.7 327.3 333.2
98.6 112.2 127 151.5 178.2 204.9 230.3 251.2 275.6 302.8 337.1 356.4 385.5 414.7 441.8 468.3 497.8 526.8 549.6 565.3 572.7 584 590.1 592.4 599.9 606.6 596.3 592.3 596.9 584.6 584.3 572.5 583.3 591.7 594.9 587.8 586.8 580.1 579.7 576.3 576 573.3 565.6 563.1 563.4 564.4 558.4 547.9 549.5 547.4 552.3 549.1 550.3 552.9 554.3 554.5 559.9 569.2 578.1 579.2 578.1 585.9 599.4 625.3 642.5 626.5 605.5 598.6 586.3 575.2 563.8 551.3 541.5 527.4 517 508.2 504.1 502.4 503.9 511.7 521.9 535.1 551.8 575.3 595 617.4 639.3 671.1 705.1 739.6 775.6 809.1 830.9 863.3 896.6 923.9 941.2 953.4 937.9 929.5 924.2 910.1 899.4 879.4 860.9 848.5 831.6 805.7 790.5 771.4 763.9 754.6 748.1 727.1 707.4 692.4 670.4 659.5 638.6 623.8 619.7 617.7 622.3 627.3 641.1 646.7 649.3 656.7 660.4 667 666.2 675.9 693.1 693.4 694 703.4 692.9 688.6 681.2 661.4 642.2 609.3 572.8 547.6 529.1 512.9 494.7 476.5 463 454.5 445.9 438.6 428.9 421.3 410.3 396.1 375.1 350 321.8 298.4 277.4 259.6 245.4 232.9 217.9 208.8 205.1 208 205.9 214.2 223.9 217.7 210.3 205.6 200.8 200.3 201.3 202.3 221.2 227.6 234.4 241.2 244.9 244.5 244.4 255.6 269.1 284.2 292.7 293.9 298.7 302 306.4 315.3 324.8 330.7 335.9 333.7 333.2 339.9
