ncols 200
nrows 82
xllcorner 230000
yllcorner 891700
cellsize 50
267.7 279.9 292.8 308.8 322.9 337.2 345.6 353.5 364 375.1 381.8 387.6 392.4 394.5 396.1 393.2 388.7 382.6 381.8 378.3 376.8 373.7 368.9 367.3 366.5 362.7 358 350.9 344.5 342.1 341.7 342.7 339.7 332.5 329.4 326.8 322.6 318.4 311.3 308.5 303 298.5 291.3 287.2 284.4 276.5 269.1 264.2 253.5 249.5 240.7 240.4 238.1 228.3 222.8 215.8 211.3 204.6 198 192.1 188.5 184.8 181.9 175.3 169.6 162.9 155.9 148.8 141.2 133.4 137.1 149.7 133.7 148.4 154.4 161.5 172.2 185 194.2 205.4 216 223.8 228.8 236.2 246.3 255.8 262.2 268.9 273.8 279.8 286.5 292.1 297 303 309.6 318.2 325.2 331.2 338.6 345.3 350.6 355.3 359.8 363.6 367.4 374 377.8 380.7 381.8 381.8 381 379.5 375.9 369.8 363.1 353.8 350 341.2 338.4 337.2 335.2 335.9 335.9 335.3 339 342.7 347.9 354.7 363 373.9 383.6 393.3 402.1 407.8 411.8 412.5 408.7 403.6 398.2 392.6 387.1 379.2 372 362 346.5 329.4 316.1 307.1 303.6 300.8 295.5 287.6 279.2 270.8 264.7 257.5 249.3 245.6 238.7 230.8 223.8 216 209.3 204.4 195.8 188.6 192.8 195.5 192.7 193.6 197.4 201.9 197.7 192.1 190.1 191.3 192.6 197.6 203.1 200.1 197.5 198.2 197.3 197.2 190.5 193.6 193.1 192.9 189 188.6 186.8 184.3 182.1 178.9 178 178.7 179.8 175.8 181.7 181.5
282.1 296.5 311.8 323.8 336.2 344.8 353.7 365.8 377 387.3 392.4 398.1 401.9 403.9 403.2 398.8 391.9 387.2 381.8 378.2 375.3 374.4 371.8 370.4 368.2 363.8 358.6 354.2 350.1 346.3 343.9 345 343.7 334.9 331.4 327.1 322.9 316.7 308.9 310.6 304.6 301.1 287.3 283.3 276.5 271.3 264.9 258.8 249.7 242.1 239.8 234.2 231.4 221.4 217 211.4 205.6 198.4 190.6 185.6 180.2 174.9 169.6 163.9 155.3 148.4 144.1 136.8 138.9 147.7 153.2 156 139 149.4 156.6 162.8 173 183.1 195.4 204.1 212.5 221.2 229.1 236.4 244.2 254.1 261.8 267.9 271.3 278.4 284.1 290.1 298.5 304.8 313.8 320.9 328 335.7 343.7 351.1 356.5 361.6 365.6 370.3 375.2 377.7 381.1 382.8 382.3 381.4 379.8 375 368.6 361.4 355.1 348.1 342.1 335.5 334.3 334 333.7 334.3 334 334.5 338.7 342.7 347.3 354.4 364.4 373.6 382.7 390.5 397.6 403.6 407.7 407.6 406 402.3 399.5 397.3 393.3 387.4 378 367 354.8 338.8 326.1 317.5 312.5 307.4 296.7 288.9 277.9 266.2 259.8 248.8 243.3 235.4 230.2 223.8 217.7 209.7 200.8 185.3 195.3 199.3 202.5 205.7 207.9 203.6 203.9 205.7 200.5 198.1 196 195.2 196.4 196.8 200.4 201.7 201.6 202.2 201.1 200.7 198.3 198.2 197.1 197 194.5 192.8 189.8 188.3 188.2 185.8 184.6 187 180.4 183.5 187 190.1
302.8 313.8 327.1 338.1 344.4 353.3 364.4 374.5 386.6 396.1 401.4 405.7 408.9 411 407.7 403.7 395.3 388.1 383.5 378.8 376.3 375.9 373.5 373 368.8 364.1 359.8 358.8 352.1 349.8 345.8 345.3 341.5 336.2 331.5 327.3 322.6 315 311.7 308 300.3 294.1 287.3 280.3 273.3 268.7 263.9 253 248.5 240.1 230.1 225.6 221.6 214.9 209.3 202.8 196.4 191.3 185.2 177.6 172.5 164 157 148.7 144.9 141.7 137.7 146.9 156 159.2 158.5 160.2 151.4 152.3 159.3 164.1 174.5 185.1 194.5 203 212.1 220.4 229 236.5 242.8 251.7 257.4 265.7 271.1 277.7 285.3 293 300 308.1 315.5 323.3 331.7 341.3 349.4 355.9 362.4 367.3 372.3 378.4 381.8 385.3 386.4 386.5 383.4 379.6 374.1 366.8 360.3 354.8 344.7 337.7 334 332.3 330.9 331.2 331.3 332.5 331.4 334.1 337.8 341 348.7 355.8 362.5 371.6 379 385.6 390.1 392.9 396 397.7 397.1 394.6 394.1 389.6 383.9 374.8 368.2 354.5 340.9 322.3 310.4 308.8 304.6 297.5 287.9 282.6 274.2 265.1 249.2 242.5 239.3 232.3 226.4 215.7 204.5 188.3 196 202 209.9 213.7 209.8 211.6 211.8 211.7 211.6 209.3 206.9 203.4 203.6 202.6 203.6 201.7 203.9 204.3 204.4 204.5 203.9 202.9 201.2 203.9 202.9 200.9 199.8 197.6 195.2 193.6 192.5 191.4 191.2 191.2 188.8 188.2 190.9 193.7
318 326.9 339.7 346.2 353.7 364.3 375.6 386.7 393.4 404.2 410.9 413 414.5 414.2 409.9 404 394.2 389.7 386.7 381.2 379 376.5 375.2 372.6 367.8 366 361.3 359.5 356 352.1 348.2 344.3 341.5 335.7 330.9 327.8 321.6 312.3 305.3 301.8 298.7 294.5 285.4 278.9 267.3 262.7 256.6 248.9 243.3 234.3 228 218.9 211.3 207.8 200.6 194.7 189.3 183 176.9 170.3 161.3 152.7 146.9 142.3 140.6 145.4 152.6 162.9 164.5 164 163.4 165.1 160.1 152.7 162.5 166.6 173.8 184.3 192.5 201.7 209.6 218.4 226.5 234.1 241 248.9 255.8 263.9 270.6 279.5 288 294.8 301.6 309.4 318.8 327.7 335.6 344.2 352.4 360.4 367 371.6 377.7 383.6 386.5 386.6 386.7 383.9 378 372.8 367 360.5 351.6 344.1 336.9 330.6 330.5 329.5 328.2 329.3 329.3 329.5 329.4 333 336.2 340.6 348 354.7 360.5 367.3 372.6 376.5 378.7 379.7 383.4 385.6 386.5 383.8 380.7 376 363.5 355.1 338.9 319.3 310.2 297.6 295 292.1 288.1 285.3 285 282.6 268.3 256.4 242.4 232.5 226.8 220.7 214.5 203.6 202.7 206.3 208.4 214 216.8 216.5 216.2 216.8 216.9 217.1 217.5 218.2 215.4 210.6 214.7 212.2 210.8 210.1 208.9 207 206 205.9 208.1 207.8 205.7 206.6 206.3 206.1 206.2 206.8 205.3 201.1 201.6 201.5 200.5 199.4 197.4 197.2 198.4 200.5
330.5 341.2 347.5 357 365 374.8 386.9 395.6 403 410.5 417.7 421.3 420.2 415.7 409.9 404 395.4 391.2 386.2 385.5 381.5 378.3 375.8 374.2 371.7 367.9 362.6 359.5 356.7 354 350 346 343 333.7 329.5 323.9 318.8 309.5 303.6 299.5 296.3 290.8 282.4 271.7 268.3 257.7 253.7 246.1 238.7 230.1 223.2 215.3 206.7 197 194.3 188.8 179.8 176.7 168.7 163.2 150.4 143.7 140.6 152.1 159.8 161.9 165.8 168.3 167.7 168.4 169.8 169.4 167.6 148.2 158 165.3 171.4 182.8 192.1 202.2 209.8 216.9 225.7 234.1 242.2 252.2 258.4 264.2 272 281.1 288.9 296.8 304 311.6 319.9 330.5 338.5 348.1 355.8 363.1 368.5 373.3 378.5 381.2 381.3 379.9 375.3 367.6 366.9 366.4 359.3 352.2 344.7 336.2 330.4 325.5 326.1 324.8 323 326.3 326.8 325.4 327.5 332 335.1 340.2 345.4 350.6 354.6 359.5 362.3 364.3 364 365.8 367.3 367.6 363.8 360.3 357.5 348.4 335.4 322.4 306.2 294.8 288.7 285.7 286.1 283.4 277.3 271.8 273.3 269.7 250.4 239.9 231.5 228.9 221.7 212.4 202.1 197.8 213.3 214.4 218.3 222.7 222.1 223.3 223.4 221.6 221.8 222.3 222.2 222 221.8 219.3 218.8 218.2 217 214.7 212.5 212.6 210 212.3 211.7 211.7 211.9 211.1 213.8 215.9 215.2 215.2 214.2 208.2 206.5 206.9 206.8 207.2 208.9 207.5 206.9 208
344.8 354.5 361.7 370.2 379.1 387.1 397.7 405.4 412.4 417.6 421.3 422.8 421.5 417.7 410.2 403.4 397.3 391.3 389.1 388.5 383.6 379.9 376 377.1 373.5 370.8 366.5 362.1 357.9 354.4 350.2 345.3 338.9 331.4 324.2 320.5 314.6 306.3 301.8 294.2 290.5 281.3 273.2 265.2 261.7 253 244.1 237.7 231.1 224.3 216 209 201.8 193 181.8 180 174.1 167.9 157 146.9 143 146 154.7 166.9 169.1 166.3 169.6 171 173.3 176.1 178.3 176.3 174.1 172.3 151.6 158.2 173.1 182.1 191.7 203.1 211.4 219.5 228.2 236.4 244.6 254.2 261.2 267.3 275.1 284.2 292.5 298.9 306.1 315.4 324.4 333.4 342.6 349.4 357.1 363 368.1 372.3 374.5 374.9 373.8 367 363.2 358.2 356.8 353.6 346.9 342.4 334.6 323.5 323 320.8 318.7 317.4 317.5 318.7 320 320.5 323.5 328.1 331.7 335.7 340.3 343.1 347.2 350.1 352 351.7 350.8 351 348 344.6 341.1 335.3 327.9 318.5 312 302.8 290.1 285 276.1 268.6 267.7 265.2 262.2 255.5 251.6 249.9 239 229.9 222.5 218 205 206.4 213.9 221.9 224 223.1 225.7 231.2 231.8 229.4 229.5 227.6 226.4 227.2 227.3 224 224.5 223 222.2 221.8 220.4 218.8 218.4 218.2 216.8 216.3 215.9 216.4 218.4 218.2 221.5 221.1 221.1 221.2 215.5 216.7 216.7 215.4 214.9 215.4 215.5 216.8 216.9 215.8
355.9 365.3 373.6 383.2 390.7 397.1 409.5 417.2 423.7 426.3 426.5 425.3 423.5 417 411.5 404.9 396.9 391.5 391.1 389.3 385 380.3 380.8 379.1 375.8 371.6 368.2 364.7 360.1 354.1 348.2 342 334.6 326.9 321.3 315.9 310.4 302.9 296.5 291.4 282.7 275.9 269.9 262.6 257.1 249.6 241.9 233.3 228 217.5 210.5 203.2 194.8 188.9 180.7 163.4 164.4 154.8 147.2 145.1 149.5 162.1 167.9 170.7 169.5 170.2 172.7 178.1 179.9 182.4 183.4 181.8 179.1 179.8 172.3 155.2 169 181.9 194.5 204.9 215.1 224.3 232.6 241.2 247.6 255.4 263.6 271.7 280.6 286.6 294.5 302 309.4 318.5 328 337.3 344.7 350.8 355.8 360.7 365.5 367.3 365.6 363.1 359.1 354.4 352.6 350.4 346.6 338.2 332.8 328.4 321.5 317.7 315.8 314.6 312.7 311.9 313.1 312.8 312.5 315.9 318.7 321.8 324 326.7 331.5 334.6 337.9 340.3 342 336.1 334.9 334.8 330.2 327.9 319.9 314 305.5 295.3 289.6 279.8 272.5 264.4 255.5 253.1 246.7 246.6 241.2 239.4 229.3 228.1 226.4 220.4 208 203.4 213.5 221.3 229.5 235.6 236.4 236 236.1 236.5 236.9 233.6 232.9 231.8 230.7 231 226.6 227.5 228.6 226.4 226.2 226.2 226 226.1 224 223.8 226 224 222.2 225.2 224.9 224.7 226.5 225.6 224.3 224.4 226.9 228.3 228.9 228.3 228.1 226.9 224.9 223.6 223.8 226.1
365.8 374 381.7 391.5 399.6 408.2 418.3 425.8 431.7 434 431 427 422.8 417.1 411.5 406.3 400.3 396.5 392 389 386.9 386 384.5 382.4 380.1 376.7 372.9 367.9 361.4 356.6 350.4 343.1 334.3 326 318.3 313.6 307.2 298.3 290.7 281.6 277.1 270.6 266.1 260 251.6 245.4 239.5 230.3 222.2 213.7 208.5 197.9 191.2 183.9 174.9 163 153.6 148.3 146.9 147.7 162.7 169.6 172.6 173.6 175.6 177.8 180.4 182.2 184.5 188.2 188.5 186.3 182 183.4 181.3 162.6 165 184.8 197.1 209 216.8 228.4 237.5 243.3 250.9 257.4 265.9 274.7 283.3 290 297.1 303.6 312 322.1 329.8 338.8 346.3 351.3 354.1 354.1 354 351.3 349.4 345.3 343.6 342.3 340.6 339.5 332.4 325 319.4 316.9 313.7 311.9 311.2 310 309 307.9 309.8 309.1 307.6 309.9 313 315.9 316.9 317.8 322.5 324.1 324.4 326.5 328.1 326 320.8 314.6 307.6 304.7 296.9 294.7 283.8 274 268.6 267.5 257.3 244.6 238.6 241 234.9 232 225.4 220.8 213.3 210 209.8 205.5 215.3 222.1 228.1 231.9 237.5 239.4 243.1 244 243 239.7 237.6 234.7 236 236.9 236.6 233 231.1 231.6 231 231.9 231.4 231.6 231.6 232.9 232.1 232.3 233.7 231.1 230.9 235 232.8 231.1 230.9 229.5 230.7 234.4 235 234.7 235.9 239.9 236.8 238 236 234.8 232.4 233.2
375.6 380.5 388.1 397.9 407.4 414.9 425.3 431 436.9 438.6 435 428.7 423.1 417.8 412.6 407.8 402.1 396.8 394 389.8 389.9 386.4 386.7 384.8 382.4 379.3 376.1 371.2 365.3 360.4 352.9 344.6 335.6 325.5 316.4 309.3 303.5 296.2 287.6 279.1 272.7 266.7 259 254.2 246.3 239.3 233.5 225.9 216.2 208.5 202.3 192.4 184.7 177.6 166.3 153.5 151.4 148.8 149.9 163.8 168.8 174.2 174.9 178.4 181.6 185.5 188.2 189.7 190.8 194.6 196.9 190.2 188.9 187.7 178.3 159.4 180.2 190.7 202 211.5 221.4 230.7 240.1 246.4 253.1 262.4 269 277.1 285.2 291.7 298.7 305.9 314.8 322.6 330.1 338.3 344.1 347.6 346.2 342.7 339.7 336.6 333.7 331.3 329.8 326.5 325.2 322.6 319 315.4 312.5 310.2 309.3 308.1 307.6 306.8 305.4 303.4 304.3 304.8 302.8 305.5 307 308.5 309.2 309.5 310.6 311.6 311.8 312.4 315.7 311.6 307.4 297.8 291.7 282.5 277.8 273.2 265.4 256 248.7 246.1 246.8 233.6 226.2 227 224.2 217 214.9 212.9 212.7 212 221.8 229.9 231.7 238.5 238.9 240.9 244.1 242.6 241.9 241.9 241.4 237.7 236.4 237.4 239 239.7 240.8 234.8 237.3 237.4 237.3 236.9 236.9 236.7 239 240.2 238.8 239.3 238 239.3 238.4 241.2 240.7 237.3 237.1 235.7 236.9 240.2 241.4 243.6 247.3 246.9 246.1 247.7 244.7 244.2 242.2 239.3
381.9 388.8 396.2 405.1 412.8 420.2 427.7 434.8 438.8 440 436.6 430.1 422.9 416.2 410.8 406.1 404.7 401.4 392.8 393.8 390 390.2 388.7 388.2 386.2 383.7 380.3 373.7 367.3 359.9 351.8 341.8 332.6 324.5 315 305.8 299.5 292.3 284.4 275.6 268.4 261.3 254.2 245.4 237.9 234.1 226.2 217.2 210.5 203.3 192.7 186 178.5 170.3 156.5 153.6 150.6 151.2 166.9 173.7 176.9 179.3 181.1 183.4 189.4 193.1 192.7 191.9 194.9 198.6 198.7 196.2 193.7 190.9 172.2 168.9 187.5 194.6 204.8 216.7 226.4 232.9 241.9 250.9 255.8 265.1 272.7 280 286.9 292.5 298.9 307 314.2 321.8 328.8 335 339.6 340 340.4 339.6 336.5 331.1 328.1 325 323.4 320.9 317.8 315 312.6 310.9 309.3 307.2 306.9 305.1 301.9 300 300 298.5 298.4 297.8 298 299.8 300.5 299.3 300 298.9 296.8 299.6 299.4 299.1 301.3 293.6 292 289 276.2 268.3 260.6 255.4 249 243.4 235.2 237.9 229.7 225.8 220.2 218.9 216.9 215.2 214.2 217.1 221.5 228.6 237.1 243.6 240 241.9 245.5 246.5 244.9 243.7 241.5 240.1 239.1 236.9 241.4 242.9 244 242.7 243.2 237.9 243.2 243.2 242.6 241.6 243.3 242.8 246.7 247.2 245.4 245.9 248.4 246.7 245.3 243.7 243.9 243.1 244 245.8 245.8 247 248.8 250.9 252.7 252.5 252.8 253.6 254.4 252.5 251.8 250.1
384.4 391.8 400 407.4 414.5 422.5 427.9 435.5 441.3 440.7 437.2 430.9 423.6 417.2 412.2 406.5 403.7 399.2 398.9 396 392.9 393.2 391.6 390.6 388.2 384 379.3 374.4 368.3 360.2 350.9 339.8 328.7 321.2 310 300.2 292.6 285.1 278.2 271.3 264 257.1 249.6 240.1 230.6 226 218.6 210.8 204.4 197.2 188.5 179 166.2 160.2 156.8 153.2 152.3 162.2 174 180 182 184.3 189.5 192.7 195.8 197.7 197.7 197 198.6 202.4 203.8 198.2 195.3 194.8 180.7 173.5 190.3 197.2 210.8 220.9 228.3 238.3 244.4 252.7 259 268.5 275.1 282.8 289 294.8 300.8 306.5 313.9 321.9 330.3 334.8 337 337.8 337.9 335.2 331.6 326.1 320.9 316.6 316.3 315.3 312.7 310 305.9 305.3 304.7 303.4 302.2 301.2 296.9 293.9 293.9 291.8 293.2 294.1 291.3 290.5 291 292.5 289 286.5 286.7 286.8 287.2 283.8 282.7 280.8 276.8 267 260.9 256.3 247.3 241.2 237.6 232.3 228.2 224.7 219.8 220.8 221.6 222.6 223.3 224.9 227 234.3 238.3 240.5 245.7 247.3 246.9 248.7 248.7 246.4 242.2 239.7 239 238.4 238.1 237.9 241.3 244.1 245.9 245.1 244.5 241.5 244.3 247.4 246.9 246.8 248.6 249.2 253.3 252.1 251.9 252.5 253.1 252.1 250.8 249.5 247.4 247.9 249.2 251.5 250.8 251.7 252.8 255 256.9 258.5 262.1 262 261.5 260 260.4 260.8
387.4 395.1 401.7 409.8 417.3 423.4 428.4 435 439.2 438.9 436.7 431 423.8 416.4 412.7 408.5 405.7 401.8 401.7 401.1 397.9 395.9 394.5 393.3 391 386.1 379.1 372.6 366.4 357.9 347.6 336.3 326.6 316.9 303.4 293.8 286.6 279.5 271.8 265.1 258.4 253.1 243.8 234.6 226.2 217.6 211.2 204.5 197.6 191 182.7 172.3 159.9 154.5 153.4 154.1 165.6 177.6 184.4 186.3 186.8 191.3 196.4 200.2 201.3 203 203.4 203.3 203.7 205.5 205 202.4 198.3 197.4 190.6 173.1 191.1 202.2 214.9 223.2 231.1 241.5 249.6 256.2 264.1 273 280.4 286.3 291.3 296.4 302.2 308.5 315.5 322 329.7 331.6 332.4 332.4 331.3 326.8 319.5 314.5 309.9 309.3 308.2 306.5 303.7 301.8 298.2 299.4 299 297.6 297.1 296.4 292.2 287.7 287.1 285.9 288.3 286.9 284.2 282.7 283.2 283.6 278.6 275.8 276.5 275 276.2 271.5 264.3 270 259 249.5 245.9 244.4 240 234.8 231 226.4 223.1 225.6 227.8 232.7 234 234.9 237.6 242.5 249.1 259.4 268.9 265.3 264 265.9 265.9 261.1 256.4 252.6 248.7 245.2 240.8 240.2 238.3 239.1 239.2 243.8 246.4 246.3 245.4 243.3 243.3 252.3 254.3 255 257.9 254.4 254.6 254.8 255.7 255.5 258.3 259.9 260.9 261.3 257.2 257.3 257.5 258.9 259.1 257.5 257.4 259.6 259.9 263.9 265.1 265.9 265.9 265.3 266 267.2
387 396.6 403.9 410.9 418.9 424.5 429.5 434.6 437 437.8 435.2 430.8 426.3 420.3 415.3 410.9 405.8 404.7 404.5 404.7 402.7 398.4 396.2 394.3 393 389.4 379 370.2 362.5 351.8 340.5 329.6 320.9 309 296.8 289.3 282.5 273.6 265.9 259.7 252.5 246.6 237.5 230.8 221.3 211.8 204.8 198.9 191.4 184.5 175.5 159.1 154.4 156.7 156 171.6 179.4 186.6 191.2 191.7 196 199.9 203.6 208.6 207.7 210.6 210.7 207.6 207.7 209.5 208.7 207.4 202.2 200.9 195 175.3 189.4 203.4 215.3 223.7 233.8 242.9 253.5 260.3 268.4 276.8 282.9 287.3 292.9 298.6 304.9 310.7 316.1 322.7 326.7 326.8 325.4 322.1 318.7 315 310.8 306.9 303.3 302.6 300.2 298 296.5 294.5 292.2 290.6 288.4 286.7 287.6 288 285 279.6 278.9 278.2 279.6 278.3 277.3 276 275.5 275.4 270.6 265.7 266.9 263 262.7 258.1 253.8 251.5 247.3 241.1 238.8 234.6 234.4 228.5 224.3 225.9 231.5 237.9 244.6 249.6 247.5 254 261 281.7 288.3 291.5 288.3 286.8 283.7 280.5 278.1 272.8 266.7 262.3 258.2 254.8 250.9 247.6 245.9 245.7 246.1 248.3 252.3 249.3 249.2 248.1 253.2 254.8 258.2 259.8 260.5 259.8 260.8 259.3 260.4 262.9 262.6 264.1 265.7 265.2 266.1 265.3 265.7 266.4 264.5 264.2 265.1 264.5 265 266.2 267.8 268.6 270.1 270.1 270.7 272.2
389 396.7 403.3 412.1 418.6 424 429.5 433.2 436 435.9 435.4 432.5 427.7 422.4 418.4 415 411 405.9 407.2 406.4 405.5 401.4 397.5 394.4 392.1 386.4 376 366.4 356.5 346 333.8 321.5 308.4 299.7 290 283.5 275.7 267.3 260 254.8 248.7 239.5 232.1 224 215.4 206.4 199.2 190.4 184.4 175.8 159.3 156.6 162.6 167.2 171.9 183.5 188.7 193.6 196.7 199.6 205.2 208.3 214.2 214.4 215.5 215.2 215 212.7 212.1 213.9 213 212.1 206.8 205 196.2 178 192.4 204.3 213.6 224.9 234.5 244 255.5 263.5 270.8 279.8 285 290.6 294.8 300.2 306.3 310.7 316 322.5 324.1 323.4 322.2 319.2 314.5 310.6 305.7 300.3 297.7 295.1 294.5 294.5 292.6 291.4 289.5 285.8 282.5 279.9 279.4 277.7 275.7 275.2 274 270.2 270.2 269.8 270.3 268.6 268 262.2 263.4 257.8 256.5 253.4 248.8 251.5 244.2 234.5 232.2 230.8 229.9 229.2 227.4 226.7 230.3 234.1 242 251.3 260.7 269.6 281.8 304.7 314.5 320.9 319 323.1 318.4 312.1 307.9 300.7 293.2 285.7 278.4 273.2 270.8 268.2 266.2 262.4 260.9 262.5 261.4 262.8 263.4 262.3 261.9 257.3 260.2 262.7 264.4 262.8 261.8 264.8 265.7 266.2 268.4 271.8 271.4 271.4 270.6 270.5 272.3 272.5 272.4 272 271.6 271.5 269.8 270 271.1 272.1 271.3 273.6 274.1 274.7 275.5 277.3
388.2 397.3 401.6 410.4 417.8 422.8 428.7 432.2 435.5 435.2 434.1 433.1 430.6 426 423.4 420.5 415.2 411.1 409.4 408 406.7 405 400.4 395 390 381.6 372.1 360.7 349.8 337.4 327.3 314.6 302 293.1 283.5 276 270.1 262.3 256.3 248.7 242 234 225.2 217.1 208.6 201.4 192.3 183.3 176.6 161.8 158.5 164.5 165.9 176.9 183.5 190.7 197.2 201.7 208.2 210.2 210.9 212.3 215.9 217.3 218.9 219.9 219.7 220.2 218.9 219 217.6 214.7 210.3 207.8 205.7 186.2 191.8 205.7 214.3 225.9 234.9 243.2 253.1 263.2 272.3 282 288.9 293 294.5 298.5 303.9 307.9 314.7 320.6 321.4 320.5 319 315.6 310.5 306.1 300.7 294.1 292.7 293.6 292.8 290.5 289.2 288.7 286 282.6 279.8 277.5 275.4 272.8 270.8 269.2 266.7 266.1 262.3 261.3 262.7 261.8 258.1 253.7 252.7 248.5 245.6 245.9 240.4 239.4 235.1 234.1 232.5 231.1 230.5 229.2 230.8 235.6 241.7 250.1 258.9 269.4 288.5 309 326 339 344 348.9 345.2 345.3 340.1 332.2 326.4 320.7 313.8 305.3 298.7 293 288.6 284.6 281.5 276.1 278.4 278.5 274.6 272.7 273.1 267.1 263.6 263.6 263.1 269.3 270.8 270.4 271.4 273.4 276.4 275.8 276.6 280.9 280.9 280 279.3 279.5 281.1 280.2 279.4 278.6 277.1 277 275.4 275 276 276.9 277.7 278.9 278.7 279.4 279.9 281.7
388.7 397.3 403.7 406.4 414.7 420.5 425.5 430.2 433.4 433.8 434.8 433.7 432.8 430.3 427.7 424.6 419.8 415.8 411.9 408.5 408.3 406 400.5 395 386.6 377.7 367.3 353.9 341.9 330.4 319.9 308.4 297.2 287.1 277.3 271.3 263.8 257.5 249.8 241.5 234.5 227.5 219.3 210.5 201.6 195.3 189.4 181 162.6 162.6 164.1 173 178.3 184.7 190.6 198 205.1 208.8 218.1 216.4 215.7 218.3 220.7 221.6 226.3 225.8 225.4 225.5 221.4 222.5 221.3 219.1 214.6 212.8 210.8 206.8 189.2 206.1 215.5 224.1 234.6 244.8 253 263.6 273.1 283.4 289 290.1 293 295.1 301.5 306.2 310.8 315.9 316.3 312.4 310.9 307.9 305.2 300.8 295 291.6 290.2 292.2 291.3 287.1 285.6 285.2 282.1 278.1 275.3 272.5 269.9 268.1 265.1 264.8 262.1 260.8 257.7 254.6 255.5 252 247.3 246.3 242.8 240.1 237.1 237.3 237.8 238.3 236.7 234.8 234.3 232.8 233.7 236.8 242.2 250.1 259.7 271.8 287.2 293.5 311.3 328.2 344.5 355 363.8 363.8 366.4 370.1 362.8 354.4 357 352.4 340.9 327.5 320.6 314.8 312 303.8 297.8 291.1 284.4 285.8 282.7 278.4 272.9 269 268 267.6 269.1 274.1 277.4 278.4 280.2 282.6 285.1 285.6 286.2 288.6 288.8 290 289.2 289.7 290.7 289.7 288 286.7 286.1 283.5 282 280.3 280.7 281.3 282.9 284 284.3 284.6 284.5 285.6
388 395.6 400.8 406.6 412.7 420.7 424.4 427.5 433.5 434.8 435.5 434.7 433.5 433.9 429.7 426.1 422.3 417.6 413.8 412 409.4 404.8 399.3 392.7 383.2 370.2 358.5 344.4 330.8 321.1 311.1 299.6 290.4 280.9 273.8 266.4 258.8 251.5 244.1 235.9 229.6 222.3 212.5 204.1 195.5 189.9 185.5 170.5 164.1 165.2 172.4 183.1 187.9 192.1 198.7 205.9 213.7 220.4 226.2 222.2 219.5 228.4 229.2 235.6 234.8 230.4 230 229.9 226.5 225.8 224.7 223.6 218.6 216.3 214.5 205.4 192.5 202.7 213.6 225.2 233.9 242 250.9 260.5 267.7 274.7 280.8 283.7 288.9 292.7 292.3 297 301 302.6 303.9 305.7 305.2 302.7 297.7 295.4 291.2 286.5 287.7 290.4 288.4 284 282.6 282.9 277.1 271.4 270.3 265.8 265.5 262.7 260.9 257.7 256.5 254.9 250.9 249.8 247.4 246.2 242.4 243.9 240.5 238.8 237.7 238.3 239.1 239.2 237.8 235.9 236.9 241.8 249.6 262.3 263.1 266 273 289.2 302 318.4 330.7 341.6 353.9 362.1 367.4 372.5 375.4 376.9 372.8 370.5 366 358.3 359.8 353.9 354.3 351.2 341.9 329.5 315.3 306.5 303 299.7 294.4 285.3 278.8 276.2 277 280.1 280.6 284.3 289.1 287.9 291.8 292.5 295.1 295.1 296.1 297 297.5 297.2 298.3 300.1 300.4 299 296.5 294.8 294.1 292.9 290.9 289.5 288.1 286.6 285.8 286.9 288.3 288.3 288.3 289.4
384.7 395.2 400.1 405.2 414.5 418.8 420.9 427.9 433.7 433.7 436.7 436.3 436.3 432.9 431 426.9 423.1 420.3 416.8 413.3 409.3 404.4 396.7 386.5 374 360.7 345.4 334 324.1 315.5 306.2 293.9 285.1 276.4 269.2 261.2 252.1 245 236 230 222.7 214.9 205.6 197.7 192.1 185.8 182.1 167.9 165.4 177.5 183.2 189.6 198.1 204.2 211.6 220.5 228.2 237.1 234 230.2 230.3 234.8 243.8 244.5 238.5 236 235.2 233.9 232.5 232.2 228.3 226 223.1 219.8 218.2 214.4 200.1 196.6 208.8 222.8 229.9 238.1 245.7 254.8 262 267.7 272.3 277.2 282.5 285.8 286.9 286.9 290.1 293.2 295.9 299.2 298.8 296.4 294.5 290.7 285.3 282.3 283.6 286.6 283.2 278.3 276.3 274.7 270.2 265.8 263.9 260.1 262 258.3 255.8 256.4 251.6 249.9 243.5 243.3 244.9 240 239.2 239.4 239.5 238.7 238.7 238.9 239.7 240.6 239.8 237.5 244 256.6 264.4 274.3 273.2 276.4 287.6 294.1 311.2 325.9 335.9 344.6 353.2 359.8 370.9 376.8 377.8 380.1 378.9 376.5 376.2 377.6 376.3 382.6 381.5 380 369.1 353.6 339.7 325.4 315.6 304.4 298.4 293.5 289.5 289.1 290.9 292.6 294.6 297.4 301.1 301.1 301.4 301.6 304.9 306.7 306.5 306.7 306.9 307.2 307.6 308.1 308 308.2 306.1 303.1 301.8 301 299.8 297.3 295.8 292.1 289.1 289.2 290.2 290.6 289.2 289.9
382.1 391.3 400.7 403.1 410.9 417.5 418.4 427.5 432.3 436.5 437.3 437.1 437.5 436 432.8 430.5 425.9 422 418.4 413.6 408 401.1 390.6 379.1 365.8 352.8 339.4 326.5 316.3 307.6 298.5 287 279.6 271.6 263.5 253.8 247.6 237.8 231.6 222.6 215.8 205.2 197.8 192.9 186.7 175 166.5 165.4 167.7 185.2 194.4 199.4 206.8 214.4 222.6 228 236.2 242.6 242.4 237.9 237.1 241.1 247.7 248 244 240.6 238.5 237.4 237.3 235.1 233.2 230.3 227.4 223.1 221.3 218.9 214.4 213.7 198.4 218 225.1 231.9 239.5 248.1 255.5 260.7 266.9 270.6 274.9 276.6 278.1 279.8 281.1 284.3 287.6 291 293.2 293.1 288.8 284.8 279.5 276.9 279.9 282.6 277 272.7 269.6 268.6 266.5 261.5 256.3 254.2 258.3 253.8 254.4 248 251.5 247 242.2 239.1 239.3 239.3 238.7 239 239.5 239.3 239.9 240.2 241.6 241.4 241.4 240.8 253.7 265.8 270 278.4 275.9 282.7 293.4 301.7 317.9 327.7 336.9 346.2 353.1 360 368.8 374.3 375.7 378.2 382.5 383.7 386.2 390.3 395.7 392.3 386.1 381.8 367.6 355.8 345.2 333.7 322.9 314.2 308.8 301.1 299.5 303.2 303 305.6 307.9 310 312.4 311.4 309.9 311.4 316.8 318.7 321.8 322.5 321.2 319 317.7 316.6 315.8 316.5 314.9 311.8 310.3 309 307.6 304.9 301.4 297.2 293.5 291.7 292.3 291.5 290.4 289.5
386.5 391.6 398.1 405.2 409.1 412.9 420.2 429.9 436.7 440.4 441.2 438 440.1 438.6 434.2 431.5 427.5 423.3 418.2 412.1 403.6 395.2 384.9 372 357.3 345.7 332.1 319.2 308.8 299.1 290.2 280.4 272.7 266.4 258.2 249.4 239.6 230.4 220 215.4 206.8 198.4 192.7 187.3 173.1 169.3 169.6 169.9 183.7 192.3 203.7 206.9 216.7 222.7 230.2 237 246 249.9 250 248.3 245 245.8 250.3 251.1 248.4 243.3 240.6 240.2 240.4 238.2 236.7 234 230.5 226.8 225 222.8 221.7 221 205 207.8 220.8 226.6 233.5 240.8 246.6 252.2 258.3 262 265.6 268.8 270.6 272.6 274.3 275.6 277.1 281.8 285.4 284.3 282.5 278.1 274 271.5 274.3 272.7 270.1 265.7 264.7 263.1 258.6 253.6 251.9 251.1 251.2 248.8 248.7 247.6 243.1 242.5 242.7 239.3 237.8 238.9 238.5 238.7 238.5 238.9 239 240.5 242 243.7 244.6 241.8 256.9 265.8 274.4 278.2 280.5 289.4 298 306.9 324.2 340.5 352.3 360.3 364.5 367.3 369 371.5 378.3 384.3 384.4 383 386.3 389.2 387 380.6 372 369.8 368.1 354.3 344.7 335.6 324.5 318.8 311.8 308.8 310.4 313.5 314.7 318.3 318.6 320.7 319.7 320.5 321.8 327.1 331.5 332.9 336.4 338.1 337.6 333.5 330.8 328.8 327.8 327.7 325.5 323.1 320.6 317.2 315.2 311.6 306.8 304.4 300.6 294.5 291.5 290.2 288.4 288.2
389 394.6 395.6 402 409.7 414.5 422.3 431.5 439.3 443.9 443.4 438.4 437.6 437.7 435.3 431.2 427.2 422.3 414.7 407.6 400.7 390.6 377.7 364 349.9 336.9 325.6 314.6 304.5 294.9 283 276.8 267.9 258.7 251.2 242.9 232.3 223.3 214.7 206.4 198.9 193.4 188.2 176 170.4 172.2 174.8 181.3 191.8 203.8 210.6 217.6 227.3 233 240.8 246.9 256.7 269.4 265.7 259.4 250.5 251.1 251.7 253.6 251.2 247.5 243.5 243.9 244.2 241.4 239.1 237.5 234.6 232.3 228.3 226.2 225 224.2 222.2 203.6 217.4 225.3 227.9 232.5 238.9 243.6 247.2 250.2 255 260.4 264 266.8 267.9 266.3 267.3 271.1 271.9 272.2 270.8 269.1 265.3 264.9 266.8 263.9 261.5 258.8 256.7 253.7 250.9 248.3 247.1 246.4 249.4 246.1 245.2 243.2 241 244.4 239 238.3 238.3 238 238.4 238.8 238.3 239.3 240.5 244.2 246.7 249.1 247.4 245.8 249.7 261.6 268.7 273.7 284.1 294.1 303 314.2 334.5 345.8 355.1 360.8 366.9 370 370.9 372.4 375.8 379.6 380.4 380.8 379.6 379.6 377.4 369.9 362.8 356.5 351 345.6 341 333.4 326.8 320.1 320.4 320 320.9 323.6 325 327.7 327.9 330.7 333.3 335.3 342.3 346.2 347.9 349.1 349 352.3 351.6 347.7 345.7 341.8 340.4 340.7 340 335.9 333 328.4 324.1 319.9 316.4 309.4 306 300.5 292.7 287 285.2 286.1
390.8 395.6 396.7 399.8 406.8 412.5 421.3 430.4 437.4 442.5 442 438.4 435.9 433.7 430.9 427.4 422.2 417.3 410.6 402.4 394.4 384.1 371.3 355.4 341.8 330.9 319.3 304.8 297.1 287.3 278.4 270.6 261.6 252.4 242.5 234.6 226.7 217.9 205.9 198.4 193.7 188.8 174.2 170.9 176.3 176.6 182.5 190.8 201 209 217.1 230 236 245.6 252.8 257.4 269.5 276 274.9 268.3 259.6 257.1 255.5 256.4 254.3 250.1 246.8 245.3 246.5 244.9 242.8 239.9 238.7 235.1 230.5 229.3 228.3 226.6 225.2 204.7 207 220.1 226.5 228.5 230.6 233.3 237.6 241.5 246.5 251.9 254.4 257.6 259.1 258.1 259.3 262.9 262.4 260.3 259.6 258.6 256.4 258.7 256.6 253.7 254.3 251.8 250.2 246.9 245.4 245.1 243.1 241.4 241 239.7 242.3 237.9 238.5 239.3 238.7 238.1 237.4 237.8 238 238.6 239.1 241.4 246.7 249 249.8 251.8 252.2 250.6 245 264 270.4 278.7 292.2 300 306.3 315.2 328.7 342.1 352.4 360.6 367.5 369.5 372.8 371.6 372.6 372.9 376.2 378 379.7 379.8 377.7 371.4 364.5 353.1 347.8 345.5 341.4 336.7 330.9 327.7 327 326.9 328.5 330.9 333.9 335.1 337.9 342.9 347.8 353.9 358.7 359.8 360 359.9 359.9 361.8 361.3 361.6 360 357.6 356.3 356 355.6 351.3 345.6 340 334.7 327.3 318.6 312.9 307.8 301.3 295.1 284.4 282.4 283.2
389.6 394.3 397.2 397.2 404.1 412.6 420 425.5 431.9 436.7 438.4 436.4 433.8 430.9 424.4 421.4 417 411.8 405.6 398.2 389.4 376.8 362.5 349.5 336.6 324.2 313.5 300.5 292.6 280.9 274.1 266.6 255.5 245.9 238.6 230.9 220.1 211.5 201.2 192.1 188 173.7 175.5 175.3 175.7 180.9 189.6 201.2 209.7 221.9 231.1 239.1 245.5 254.8 261.8 268.3 275.5 281.8 282.1 274.7 266.7 261.7 259.6 259.5 257 253.2 249.4 247.8 248.5 247.4 245.7 243.3 241.4 238.9 236.3 232.8 230.2 228.7 227.5 210.3 208.1 208.6 216.4 225.8 226.9 229.2 230.6 233.3 237.1 240.3 242.6 245.4 246.5 249.7 250.7 252.1 253.7 249.1 248.5 248.9 248.1 249.5 247.9 244.8 246 246.6 246.4 243.4 239.9 239 238.9 237.6 237.6 236.6 236.7 237 237.5 237.7 237.5 238.2 238.4 239 240 241.5 245.2 250.2 254.7 257.7 256.6 260.2 259.2 264.4 247.3 261.6 269.5 285.6 292.2 297.3 304.3 312.8 322.5 337.8 349.8 355 358.7 363.8 367.8 369.4 369 368.5 371.3 374.5 378.2 379.6 374.3 364.3 357.3 348.2 344.1 341.7 338.9 337.5 332.7 335.6 338.8 337.9 338.2 339.3 342.9 345.2 349.6 354.1 361.2 365.6 367.1 368.1 368.9 370.6 371.8 372.4 372.8 373.8 373.7 372.6 370.1 369.9 367.6 362.6 356.8 351.7 345.1 335.8 326.5 317.4 311.7 304 296.5 288 283.8 282.9
389 394.5 397.5 398.1 401.3 410.5 416.8 420.9 425.9 430.8 433.3 432.1 430.6 426.4 420.3 413.3 410.7 404.7 399.6 393.1 385.2 370.9 355.7 344.4 329.9 318.6 307.8 297.4 285.4 275.6 266.4 258.7 248.6 241.6 233.6 224.6 215.1 204.9 195.9 190.7 179.9 174.5 176.6 176 181.4 189.7 200.6 211.6 221.1 232.8 238.9 247.2 258.4 266.2 272.8 278.5 283.3 287.6 285.7 276.5 269.5 264 261.6 262.8 260 256.3 253.9 251 250.4 249.8 248.2 245.9 243.3 240.7 240 237.4 233.2 229.7 228.3 226.4 212.1 211.1 211.2 216 217.1 225.3 222.5 228.6 230.3 233.3 235.1 236.3 237.2 239.2 240.8 242.1 242.8 240.7 238.9 239.3 241.3 241.5 240.5 237.8 237.8 239 239.5 238.1 237.9 236.5 236.5 236.5 236.3 236.7 236.9 237 237.9 239.8 240.9 242 240.7 240.4 243.6 249.5 251.2 256 259.2 266.9 268.1 269.7 267.4 273.3 252.8 259.4 266.3 273.7 280.5 289.8 300 308.4 317.7 327.9 338.5 344.9 349.8 358.2 362.2 362.9 362.6 363.1 366.1 369.6 372.5 370.6 365.4 359.4 352 345.9 341.1 339.1 337.5 336.7 335.6 340.2 339.9 341.4 343.1 345.1 349 354.9 359 362.7 367.9 370.6 374.2 376.5 380.7 382 383.5 382 382.7 383.2 384.4 385.5 385 386.9 386.7 383.7 377.8 370.4 357.3 345.3 332.6 320.7 314.5 309.1 302.3 293.1 285.2 283.8
388.5 395.3 396.5 397.6 400.1 407.4 412.1 416.7 419.9 423.1 425.9 425 422.9 419.2 414.4 408.3 404.7 401.2 397 390.1 379.4 363.7 350 336.7 324.9 313.1 299.3 289.9 277.5 268.2 257.3 249.8 242.3 235.2 225 216 207 199.7 193.1 187.9 178.6 174.9 177.4 181.3 189.8 200.3 211.1 222.1 232.7 241.4 249.3 258 271.7 279 282 287.5 293.3 293.3 289.6 283.9 276.2 272.8 268.5 266.8 264.2 260.9 257.8 256.2 252.8 251.8 249.8 247.2 244.4 243.2 241.8 239.3 234.7 231.2 229 226 218.3 211.3 222 226.9 227.6 226.6 228.1 225.5 226.9 228.5 231.7 233.4 232.1 234.3 237.1 238.2 237.9 237.5 236.5 237 236.6 235.6 236.3 236.5 236.6 236.6 236.7 237.1 236.9 237.6 237.5 237.1 237 239.1 238.2 239.9 243.8 245.4 246.2 246.5 244.4 248.2 253 254.2 256.7 260.6 266.7 272.6 274.6 274.3 273.3 277.2 273.8 260.5 257.1 267.9 277.9 282.1 291.8 301.2 312.6 323.2 331.4 336.2 342 349.2 354.6 359 359.2 358.7 361.9 366.9 369.2 366.1 362.2 355.4 349.4 344.4 340 336.7 335.6 335.4 335.4 336.3 339.4 341.4 345.7 350.3 355 361.3 365.7 369 371.9 377.8 382.8 386.5 388.2 389.4 390.3 390.4 390.7 393 396.4 397.6 398.1 399.7 402 399.3 396.1 390.1 374.5 359.4 348 335.4 324.6 316.3 310.3 303.2 289.2 287.1
389.4 392.7 393.7 396.5 399.4 403.8 405.9 410.1 413.5 416.1 417.7 417.2 415.6 411.7 408.9 403.1 399.2 396.6 393 383.7 372.8 359.1 343.5 329.1 315.7 305.1 293.4 282.5 269.8 260.4 250.6 241.5 232.4 226 216.4 208.2 202.2 196 189.9 179.5 176.9 177.8 185.2 189.9 199.4 212.2 224.4 234.5 243.1 250.3 260.3 271.6 280.6 288 290.7 295.9 298.2 297.2 295.2 291.5 289.7 282.7 274.9 271.4 269.5 263.9 262 260.7 256.2 251.7 249.8 248 246.5 245.2 242.6 239.9 235.5 232.7 231.3 230.5 214.6 216.1 224.6 228.5 229.4 230 230.9 230.8 232.2 233.2 232.6 233.9 234 234.7 234 237.1 237.8 236.4 235.4 235.6 235.9 236.1 236.1 235.7 235.5 235.4 236 235.6 236.4 238.9 237.8 238.3 239.4 240.9 242.4 246 249.5 251.1 252.6 252.8 251.5 256.6 262.2 261.7 263.8 266.5 276.2 279 279.7 279.3 279.9 279.1 286 283.6 277 267.2 273.1 281.8 287.8 296.4 306.5 315.5 322 327.6 333.1 339.4 350 353.9 354.4 354.4 356.9 361 365.1 365.2 359.8 352.4 348.2 345.2 340.3 340 337.3 336.1 335.9 335.5 339.5 343.7 348.9 354.2 361.2 368.1 372.9 376.5 380.5 383.5 386.8 389.6 391.1 392.9 394.9 397.5 399.7 400.9 403.3 406.5 411.6 415 414.9 413.3 411.8 408 397.5 384 368 355.3 348.2 335.6 331.8 320.5 304.2 292.3
388 391.3 393 394.7 397.4 400.3 402.5 404.3 405.2 406.9 408.8 407.2 406.1 404.1 401.9 398.1 396.1 389.8 384.8 377.2 367 352.9 340.1 321.2 309.3 296.5 285.9 273.4 261.4 252.3 242.6 233.7 224.8 214.9 208.2 202.5 197 192.1 185.2 179.6 178 181.9 191 199 212.2 223.9 234.2 244.2 251.2 260.9 268.9 279.4 287.8 294.5 297.5 300.7 303.8 307.2 303 297.4 296.4 292.9 281.8 274.5 272.5 269.1 263.4 262.3 257.4 254.5 252.2 250.9 248.9 245.8 242.1 241.2 237.5 234.4 231.5 229.7 215.8 218.2 225.9 229.2 231 232 232 232.3 234.1 235.2 234.7 236.4 235.5 238 238.8 238.7 238.8 238.3 236.2 236.7 236.4 236.7 236.4 235.9 236 236.2 236.6 236.6 237.6 239.5 240.2 241.6 242.9 242.8 251.3 252.3 252.5 254.4 256.9 258.1 258.1 264.1 269.4 268.2 267.7 273.5 280.6 283.3 283.7 286.8 287.8 283.7 287.8 289.2 283.6 281.5 267 276.3 283.7 290.9 299.2 307.3 314.6 321.4 327.3 333.6 340.5 345.3 349.6 352.5 353.8 356 357 356.4 354.8 350.7 348.9 346.2 345 340.7 338.6 338.3 338.2 338.8 341.5 347.6 354.3 361.4 366 374.3 379.9 383.4 385.9 387.7 391.1 392.6 394.9 397.4 399.4 400.3 401.5 404 407.1 411.7 416 420.9 423.8 421.6 417.1 416.1 408.5 397.6 384.9 377.6 371.8 362.7 351.5 341.4 319.3 305.2
389 390.9 391.9 394.7 393.7 395.7 397.8 397.6 399.1 399.8 400.6 399.3 398.9 398.1 396.2 392.7 390.5 385.3 377.8 370.8 360.7 348.9 330.8 313.4 298.7 287.7 275.9 264.3 253.5 244.3 236 226.3 216.9 210 204.5 199.9 194 187.4 181.2 177.6 183 190.5 197.8 210.1 222 232.4 242.2 251.9 259.4 268.8 281 295.5 304 307.6 311.6 308.9 311.6 312.7 306.2 300.9 299.7 295.6 285.1 276.5 272.4 270.3 265.6 261.9 259.8 256.6 255.1 251.9 248.5 244.1 244.5 241.5 238.5 234.8 232.4 229.4 220.5 219.7 229.9 229.7 232.3 233 234.1 235.2 236.7 238.4 237.5 238.9 238.3 239.4 240.5 240 239.4 238.3 236.9 237 236.7 237.7 237.6 236.3 236.4 236.2 236.2 237.1 238.3 241.4 243.4 247.2 247.2 254.2 255.6 257 257.5 262.5 260.5 262.9 268.1 272.6 274.2 273.9 273.8 277.5 286.2 286.7 288.1 290.8 292.1 289.1 289.5 292.9 289.5 287.1 287.2 270.5 276.9 283.4 294.9 299.5 306.5 313.3 320.2 329.6 338.3 343.8 346.8 348.9 352.3 353.5 355 355.5 355.8 354.4 351.4 347.1 345.6 346.5 346.1 343.7 342 341.4 343.9 351 358.7 364.6 373.4 380 385.8 388.9 390.6 392.3 394.3 395.2 397.8 400.2 401.3 401.8 402.1 403.7 405.8 408.7 411.7 416.4 420.1 419.5 417.1 413.9 411.7 406.9 398.9 393.2 391.4 387.4 378.9 364 342.5 319.9
388.7 390.6 391.3 392.8 391.4 390.6 391.2 390 391.8 392.3 393.4 391.7 392.8 392.3 390.7 389.3 386.4 379.2 372.1 363.6 353.5 343.1 326.9 310.9 292.2 280.8 269.6 256.8 247.6 237.3 229 220.1 212.6 206.7 201.7 197.1 187.7 182.1 180.5 180.3 191.6 197.8 208.2 219.4 231.9 241.9 251.9 261.8 271.3 278.6 296 309.6 319.5 326.2 323.3 322.7 317.6 314.7 307.9 303.4 300.8 296.1 288.9 280 275.6 271.9 266.6 263.2 260.8 258.9 257.4 254.2 248.3 246.7 246.2 244.3 239.6 235.4 234.7 231 220.2 228.4 233.3 232.1 235.1 237.1 238 239.6 241.3 242 240.5 240.5 239.7 239.8 241.8 241 239.2 238.7 238.2 237.8 238 240.7 239.9 238.8 237 236.6 237.1 239.8 243 248.8 247.3 251.7 254.7 258.7 257.4 260.8 260.1 262.2 264.6 270.1 274.7 277.6 278.9 281.6 282.1 282.3 287.4 290.6 293.7 295 294.4 292.1 294.5 294.8 295 290.3 294 293.6 272.6 278.4 287.8 293.2 299.5 305.9 314.1 324.8 334.4 339.9 341.6 346.1 351.9 355.9 356.3 358.6 357.9 355.2 353.2 349.2 349.9 350.5 347.6 345.7 345.5 342.9 346.3 354.7 360.7 368.2 376.2 382.3 386.6 389.2 392.9 395.8 397.8 398.7 398.9 398.1 401.1 401.1 403.3 402.9 402.4 402.6 403 404.2 407.9 408.6 408.7 405.5 401.8 400.2 399.7 401 397.3 391.6 380.9 372.5 356.7 335.4
390 390 390.9 389.7 387.9 385.9 385.3 384.4 384.3 384.2 386.2 386.9 385 382.4 381 381.4 379.7 373.1 365.4 355.9 343.4 332 316.2 298.6 286.9 274.6 261.8 249.5 240.4 230.2 221.3 215.4 208.7 203.2 198.8 193.9 182.5 183 182 190.4 196.6 205.1 216.9 229.9 241.9 251.8 260.7 271.1 280.3 292 307.8 327.5 337.7 340.2 335.6 333.2 325.3 319.5 308.9 303 298.9 294.5 291.8 283.1 276.1 271.9 268.3 263.4 261.7 259.4 256.8 254.5 250.3 248.8 246.8 245.1 239.6 236.6 235.1 221.9 227.1 234.5 235.1 236.4 236.6 238.3 238.9 239.7 241.9 242.6 241.7 243.2 242.3 242 243.8 244.3 243 243.3 243.1 240.8 239.2 241.3 240 242.8 241.8 239.5 242 244.5 251.5 254.7 250.9 255.3 259.5 262.6 262.2 263.2 266.6 267.5 271.1 272 276.3 280.6 281.9 286.6 289.3 290.1 293 295.6 295.7 298.6 297.2 295.3 297.8 297.4 297.6 295.8 296.5 297.7 296.6 286.6 277.8 282.9 294.4 301.8 310.4 318.9 326 331.2 338.3 343.5 350.3 352.1 352.9 353.7 354.7 354.4 354.4 354.2 354.2 352.6 350.8 348.2 347.3 346.5 349.4 354.6 362.1 369.2 374 379.8 384.4 387.6 392 395.6 396.8 397.7 398.1 399.9 402.1 402.7 403 401.3 398.9 398.4 399.1 396.8 394.1 394.3 393.7 391 389.9 390.5 391.9 391.7 385.8 381.3 369.3 359.8 348.2 337.2
389.8 388.9 388.3 384.9 384.5 381.9 380.6 378.3 377.4 378.3 378.1 376.6 376.1 373.4 374.2 372.6 370.8 366.9 356.6 344.9 331.7 318.8 304.4 289.3 276.9 264.1 251.1 242 232.9 224 217.3 210.7 205.8 200.8 196.3 186.5 183.2 183.9 189 196.9 202.7 213.6 226.7 239.3 250.4 261 271.7 281.4 293.3 307.4 328.1 345.8 351.9 349 344.6 340 333.6 323.8 314.5 303.5 297.4 292.3 289.8 283.4 275.9 272.4 269.3 265 262.9 261.2 259.5 257.1 252.1 249.4 245.6 244.3 239.4 236.9 234.1 226.1 233.9 235.4 236.7 239 238.2 238 238.5 240.1 242.8 245.6 244.4 244 243.4 244.8 245.9 247 244.4 243.6 245.9 242.8 241.8 245.2 245.1 247.7 248.7 244.5 248.2 249.4 254.7 257.9 259.4 259.7 266.5 269.3 269.4 265.8 268.7 273.9 278.9 278.3 283.4 287.7 288.4 293.4 292.8 296.3 296.5 299.9 300.2 300.8 302.6 301 301.5 302 300.4 300 295 301.2 300.3 298.7 295.1 281.8 290.2 299.3 306.7 314.6 319.1 324.6 332 337.7 341.5 344.9 348.6 352.7 355 356.6 357 358.5 356.5 355.2 350.6 348.1 348 347.1 349.6 353.4 358.8 363.3 368.2 373 377.7 381.8 386.6 390.4 392.4 394.6 398.3 401.6 405.4 406.7 403.3 399.6 395.2 391.1 390.3 386.5 383 381.4 379.7 378.2 378.8 380.3 377.9 371.7 369.5 360.7 352.6 346.6 337.7 324.1
388.4 384.5 384.3 381.8 381.9 378.8 375.7 372.6 371.7 370 367.9 367.3 367.6 367.3 365.8 366 361.9 357.2 348.3 335.3 321.4 308.8 295.2 282.9 268.9 257.2 245.8 236.3 227.3 219.5 211.8 206.9 201.8 198.2 192.2 185.5 184.8 186.2 196.6 202.8 213.4 223.7 234.1 247.9 261.1 272.1 281 294.5 311.4 328.7 345.9 360.2 362.9 361.4 353.9 345.2 338.9 326.7 317.7 308.4 296.9 291.6 286.2 280.9 275.3 272.7 271.3 267.3 264 263 261.8 256.7 254 250.7 246.9 242.8 239.5 235.7 232 223.6 236 236.1 239.6 241.1 240.7 241.6 241.9 245.1 246.4 248.4 248.4 248.2 247 246.1 250 249.5 247.1 247.7 249 249 247.7 245.1 247.1 251.3 254.1 255.3 256.9 255.8 260.2 264.6 264.7 266.2 270.4 272.4 273.8 272.7 275.9 279.3 281.4 284.4 288.8 292.1 295.3 297.5 298.9 300.8 302.7 304 305.1 305.6 306.5 304.6 305.7 304.7 303.3 303.1 298.2 298.9 301.8 302.6 302.4 289.8 284.4 289.5 300.8 304.7 312 318.4 325.2 331.8 335.2 337.7 343.9 351.8 356 357.1 356.9 360.7 352.5 352 348.8 347.8 347.2 348 349.3 352.7 353.8 355.2 361.4 366 370 372 375.8 378.8 381.6 387.3 392.4 396.1 398.3 400.3 398.7 392.8 386.9 380.8 379.7 379.3 373.3 370.1 367.4 365.2 365.7 366.3 360.3 355 350.4 346.8 341.4 334 325.2 308.5
384 382.6 380.4 380 377.6 372.9 369.7 367.1 364.7 361.2 360.8 361.5 362 362.4 361.1 358.8 354.4 348.5 337.7 323.8 311.6 298.8 287.7 276.6 263 251.2 240.8 231.5 224 215.8 209.3 204.2 199 192.2 188 184.5 187.8 195.7 201.3 212.3 221.7 233.5 245.1 260 271.9 282.8 295.6 309.2 326.3 344.2 365.7 372.9 372.6 367.2 357.3 347.7 331.9 324.3 317.3 310.2 296.1 291 285.3 280.5 275.8 272.1 270.6 269.6 266.2 263.2 260.9 257.2 255.1 248.6 243.5 241.3 237.6 237.2 236.1 227.7 234.6 236.5 239 244.5 244.8 246 246.8 247.2 249 251 251.5 250.3 250.8 249.5 253.6 251.7 249.8 250.2 251.9 253.5 254.2 248.9 253.7 257.7 259.9 261.6 263.6 263.9 265.1 270.5 273.7 272.1 274.1 276.1 279.8 277.2 281.7 282.7 286.1 292.9 295.1 298.3 300.1 303.3 306.6 308.1 309.8 308.6 311 310.7 311.6 309.1 308.9 307.2 306.2 305.7 302.2 301.8 300.6 305.9 306.1 304.1 300.2 290.2 289.6 298.8 305.1 312.3 318.2 324.4 330.4 334.9 339.7 346.5 350.5 354.7 354.3 352 348.9 348.2 348.8 347.4 345.5 348.4 349.8 350.1 349.6 350.2 351.5 356.5 360 360.7 364.8 367.8 367.2 372.1 375.6 379.6 384.8 387.9 387.2 381.6 380 372.8 367.7 368.6 364.3 360.2 359.1 352.7 346.5 347.2 350.2 343.3 340.2 336 330.8 323.9 322.9 323.3
381.1 378.5 375.4 374.2 370.9 367.7 362.9 360.4 359.2 357.5 356.7 355.3 353.9 353.9 353 348.6 345.7 336.3 327.3 314.6 304.6 293 280.6 269.6 261.1 249.3 238.6 227.4 220.1 214.3 207.9 201.9 197 190.1 187.2 189.4 196.8 200.1 208.7 220.5 233.1 243.9 257.2 270.8 283.6 297 310.7 326.7 342.7 362.9 378.1 380.6 376.2 366.9 355.5 343.5 325.2 317.8 311.3 307.1 295.5 289.5 283.7 280.9 278.8 273.8 271.4 269.3 265 263.1 261 258.2 255.3 248.8 245.7 241.9 237.6 236.8 226.4 230.8 235 239.4 242 246.6 248.1 250.3 248.9 250 252.5 253.5 254 254.8 254.2 253.2 254.4 253.4 252.5 252.2 257.1 259.6 261.7 261 259.3 262.9 266.4 273.8 269.5 267 270.6 276.1 275.2 275.2 277.8 281.9 283.5 284.1 289.9 289.9 295 297.6 300.2 305.1 307.8 311 312.9 315.4 315.1 315.2 316.5 316.9 316.7 315.2 314 312.7 312.1 310.3 308 304.6 305.8 304.5 308.5 308.1 306.6 305.8 302.1 289.3 296.7 306.7 312.8 319.2 323.7 329.3 334.6 339.7 343.6 349.9 346.7 346.8 347.3 347.9 347.1 346 343.4 344.5 346.9 346.9 346.3 345.6 346.2 346.5 349.3 351.6 347.4 349.8 353.8 355 358.4 362.2 366.6 373.1 370 368.5 364.8 360.1 355.1 355.5 351.4 349.7 351.6 350.7 340.3 339.3 340.9 336.7 333.3 333.8 337.8 341.8 342.5 346.2
377.8 375 373.1 373.1 368.5 363.6 360.7 357.6 355 352.9 351.8 349.1 346.6 344.7 342 340.6 335.2 328.3 317.6 308.3 297.5 284.9 274.8 265.9 256.8 246.2 236.4 225.8 217.2 211.4 205.8 197.2 189 187.6 188.3 195.7 200.5 205.7 214.9 229.5 240.9 253.7 268.7 280.9 296.5 309.6 328.5 342.6 358.8 374.1 382.5 379 370.9 360.2 347.3 332.1 319.3 311.9 305.8 299.5 294.5 288.8 282.9 280.9 278.7 274.5 270.7 268.3 264.7 261.7 259.7 256 253.2 248.1 245.6 241.8 236.9 233.6 226.9 231.6 237.3 244.4 247.2 248.5 250.6 251.1 251.4 252.4 254.5 257.1 257.9 258.3 259 256.8 257 258.5 259.8 259.7 260.9 265.3 268.8 268.3 264.4 265.4 271.6 273.1 271.3 271.4 276.6 281.2 279.2 281.8 284.3 287.3 289.7 293.1 294.3 296.2 300.1 302.4 307.3 311.2 315.8 318.6 319.4 321.7 321.1 320.5 320.9 321.2 321.3 320.5 320.9 316.5 315 312.4 311.6 309 308.2 305.7 307.7 310.2 308.4 308.2 308.4 305.7 293.5 297.2 306.7 312.9 317.4 321.8 328.3 331.2 335.5 337.6 338.1 340.3 343.2 343.9 343.5 344.1 342.8 342.3 340.8 343 341.5 341.6 340 340.7 340.6 339.9 338.1 335.6 341.3 343.2 344.3 347.1 352.9 355.5 353.4 352 352.4 348.3 346.2 345.8 346.5 344.4 344.1 344 340.7 338.4 336.8 340.5 344.4 347.8 356.6 361 364.7 365.9
374.3 371.5 368.9 367.5 363.3 359.4 354.6 349.8 346.4 343.8 343.7 339.7 335.4 333.8 332.6 329.8 325.5 320 310.6 300.5 291.2 279.1 266.9 258.6 251.3 241.6 234.1 224.1 215.5 209.5 203.9 191.9 189.2 189.1 192.9 199.3 204.2 214.8 225.4 236.4 250.2 264.1 279.4 294.4 311.5 332.6 343 355.2 375.4 388.8 392.6 386.3 370 354.7 344.2 326.4 314.8 307.5 300.6 295.4 291.8 287 282 280.5 278.3 275.3 271.1 268.1 263.5 258.3 255.2 252.7 250.8 244.3 240.7 238.9 236.2 230 227.1 233.7 241.3 247.7 250.7 253.2 255.7 256.3 256.3 256.4 259.3 260.5 262.8 261.9 261.8 261.1 261.9 263.3 266.4 267.5 267.7 269.9 271.7 270.7 267.8 269.5 274.4 278.1 274.7 275.7 279.1 280.7 284 285.7 289.6 291.7 293.7 298.8 298.8 301.1 308.1 310.4 317.1 319.2 322.3 324.1 326.3 327.3 327.4 325.2 326 325.7 325.8 324.8 325.2 321.3 319 317 314.9 313.3 311.8 309.3 306.4 310.2 310.6 309.2 309.2 308.1 308.2 294.9 298.8 308.3 313.6 316 319.6 323.6 326.9 330.2 334.5 336.5 336.4 339.9 341.2 342.5 342.6 342.3 340.1 336.9 338 340.4 336.3 338.7 337.5 334.3 330.7 331.3 330.7 332.8 330.7 335.4 340.8 345.7 338 343.9 344.6 339.2 336.4 340.4 345.6 343.7 342.4 343.1 344.4 352 352.9 362.9 366.1 373.2 378.8 381.1 385.5 387.5
372 368.3 363.3 359.6 358.3 353.9 350.9 347.4 344.8 342.5 337.7 333.9 330.9 330.9 329.5 326.6 320.2 314.7 306.2 295.5 284.2 275.1 264 255.3 245.4 236.4 230.1 222.7 214 208 203.3 197.1 189.8 196.9 199.5 202.7 208.6 223.7 233.5 244.6 259.5 275.4 290.9 306.4 325.1 344.6 357.8 373.3 388.4 396.8 397.1 386 373.4 360.3 337 323.6 312.3 303.7 297.1 292.8 290.1 285.1 280.9 279 277.4 274.8 270.6 265.7 262 258.6 252.6 248.8 245.9 243.9 240.1 236.5 231.6 230.5 227.2 236.7 245.4 250.5 253.2 256.5 260.5 261 261.3 260.5 262.3 263.5 266.4 266.4 266.7 266 266.7 268.4 271.4 272.5 273.3 276.1 276.6 278.8 278 277.6 278.3 284.7 285.9 288.2 288.6 290.4 292.3 291.8 296 298.9 299.6 303.7 311.1 312.3 316 320.2 326 325.8 328.9 331.3 332.8 333.3 333.5 333.7 333.5 332.5 332.3 329.6 330.4 327.4 324.3 322.5 318.9 317.4 315.2 311.5 315.5 308.5 312.2 312.1 311.5 309.5 310.9 310.5 304.3 297.4 304 315.2 316.4 317.9 319.9 322.9 327.4 328.8 332.3 336.7 340.6 341.9 341.5 341 340.8 339.5 339 337.2 340.7 340 332.7 330.7 330.7 330.7 330.7 330.7 330.7 330.7 330.7 338.5 337 333.9 333.7 336 336.1 337.8 341.7 346.5 353.1 358.1 363.1 368.1 377.5 382.7 388.1 393.7 401.3 407.5 412.2 413.9
365.4 361.5 359.9 356.1 353.7 348.3 346.1 344.9 342.4 339 335.8 332.7 325.6 324.1 323 320.6 315.3 308.4 298.7 289.9 279.6 270.8 258.9 250.3 239.5 234 227.5 219.9 213.3 208.1 203.8 195.6 189.8 199.9 202.4 207.1 218.2 231.3 243.5 254.8 270.7 289.6 304.8 320.7 339.2 358.1 375.4 386.2 396.3 399.4 394.5 383.8 366.7 350.2 337.8 326.5 314.1 303.3 296.6 292.7 290 284.2 279.9 275.8 274 272.5 268.4 265.3 260.9 256.3 251.7 248 244.9 240.5 239.4 233.7 229.8 228.6 234.9 243 248.8 253.4 256.7 261.4 266.2 265.9 263.7 264.8 266.8 268.1 268.6 269.7 269.2 269.5 271.6 274 279.2 282 284.5 287 289.7 290 289 288 286.5 292.5 294.1 294.7 296.9 296.6 296.7 297.7 301.2 301 306.8 311.9 318.4 320 324.2 330 332.1 332.7 335.6 337.1 339.5 341.3 341.4 342.4 341 339.3 338.1 334.5 334.9 331 332.3 329 325.7 321.3 316.8 314.4 317.1 310.5 310.7 312.4 313.4 309.2 312.8 313.2 312.2 310 302.4 309.5 316.2 316.1 317.2 318.3 320.7 324.2 325.6 335.1 337.9 340.2 341.4 342 339.5 344.6 341.5 338.3 335.7 337.1 331.4 330.7 330.7 330.7 330.7 330.7 330.7 332.6 330.7 330.7 330.7 334.3 337.4 338.6 339.8 349.2 357.7 364.8 370.5 373.1 379.7 390.1 391.2 397.6 405.9 412.7 420.7 428.8 435 442.3
359.8 358.5 356.2 353.4 351.3 345.2 342 340.4 337.6 336 330.8 325.7 324.8 323 318.9 313.7 308.1 300.3 291.5 284.5 275.8 266 253.6 243.1 235.3 228.8 223.9 218.7 213.1 209 199.1 190.9 192 202.7 205.6 213.1 224.5 239.2 251.5 265 283.1 302 316.5 332.1 351 366.8 380.1 389.5 395.9 395.4 392.2 380.5 367 352.9 339.6 328.9 317.3 304.1 296 292.3 290.6 284.1 280.5 275.6 271.5 268.1 266.9 263.4 260.1 255.4 250.3 246.5 244 240.3 235.1 230.1 229 233.8 241.4 247.8 251.3 256.3 262.3 265.7 270.2 270 266 268.7 270.9 271.6 272 272.9 273.9 276.9 282.4 287.1 289.4 290.2 291.9 295.4 297.7 299.8 301.3 302.2 300.7 300 301 302.3 304.4 304.5 299.9 305.9 307.7 308.7 316.1 322.6 323.8 326.6 333.4 333.6 337.9 340.1 342.3 344.3 347.2 348.7 349.7 349 348.9 345.3 342.4 342.1 338.2 335.6 335.8 332.6 333.7 324.9 319 316.2 317.4 315.7 313.8 311.8 313.1 313 313.1 314.9 314.1 314.1 305.8 305.1 314.3 314.1 317 316.1 317.1 323 322.9 328.7 336.1 339.6 343.2 344.1 340.7 343.9 341.7 336.9 332.2 332.3 335.5 330.7 330.7 330.7 330.7 330.7 334.9 337.6 336.5 336.6 335.9 340.8 344.3 350.9 354.3 359.6 371.1 372.5 384.8 385.6 389.8 399 405.5 411.9 418.9 426.9 436 444.8 452.4 459.9
356.2 353.9 352.2 348.4 345 339.7 335.9 334.5 332.4 329.6 324.4 321.4 317.3 314.2 312.1 307.1 302.5 297.3 287.6 278.4 271.4 261.5 251.8 241.1 234.4 227.8 221.7 216.5 211.4 206.1 196.7 192.5 196 206.9 207.5 220.1 235.4 244.6 260.8 275.9 294.2 310.2 325.5 341.5 357.6 369.6 380.7 389.1 394.7 395.7 396.7 395.5 388 364 345.3 329.3 317.4 304.3 297.1 293.6 290.2 283 279.2 274.6 269.1 266.1 261.7 259.7 255.4 252.8 249.8 246 243.4 237.2 230.2 230.8 232.5 240 245.6 251.4 257 258.6 261.9 267.8 272 271.7 269.7 271 273.7 273.5 276.3 278.6 281.1 286.5 292.8 298.9 296.9 298.2 299.2 302 307.7 312.3 312 312.9 312 309.2 312.6 311.6 311.1 309.7 305.9 310.1 311.6 315 321.4 328.2 331.3 333.2 337.6 341.3 343.4 347 350.1 353.8 355.3 356.2 356.1 355.1 354 352.2 347.3 347.7 344.2 342.1 338.9 336 334.3 332.8 324.2 319.5 317.2 320.2 318.7 312.2 313.5 317.5 315.1 315.4 315.3 316.6 313.9 305.2 313.2 316 316.6 317.6 316.2 318.6 321.3 324.9 331.6 337.7 345.9 345.9 338 336 337.2 334.3 330.5 329.8 332.3 333.4 336.6 337.2 337.6 337.3 340.5 341.2 338.6 339.3 340.8 347.5 362.4 358.7 368.1 365.8 374.4 383.7 393.8 393 401.4 407.9 414.8 422.1 431.6 439.5 446.9 454.4 462.3 470.7
350.8 348.2 345.9 341 338.2 332.2 328.6 325.7 325.6 321.9 318.9 314.7 308.5 306.9 305.2 301 294.7 291.7 281.1 271.3 263.8 254.8 245.2 238.2 232.2 225.7 219 213.7 210.4 199.2 194.6 192.6 205.5 208.7 214.7 227.9 242.6 253.8 269.8 288.7 305.7 320.2 333.5 344.3 360 371 378.3 387.8 402.2 412.2 415.4 410.2 393.3 368.6 345.4 329 314.6 303.9 296.7 292.6 285.8 280.4 276.6 272.6 266.1 263 258.4 255.7 253.1 251 246.8 242.7 239 232.2 232.6 236.4 241.3 244.5 250.7 254.2 258.3 261.9 264.3 268.7 271.6 273.3 272.4 273.4 276 277.8 279.5 284.5 289 294 299.4 307.2 308.2 308 309.6 314.6 318 321.2 321.7 321.2 319.6 318.2 319.2 316.6 316.5 313.5 313.4 316 318.4 323.3 327.5 332.2 336.1 339.7 343.6 347.3 350.3 355.7 358 360.2 360.9 362.7 361.7 361.4 360 357.5 354.8 354.1 350.5 347.3 341.9 339.6 336.2 336.7 330.2 325.3 322.3 320.1 321.3 316.6 313.3 314.4 318.2 317.1 316.6 318.1 315.4 307.9 311.7 317.8 317.6 318.9 319 319.4 322.8 322.9 325.2 332.4 338.7 340.8 333.4 331.8 327.3 328.4 332 331.6 333.9 343.7 345.5 345.5 344.8 346.9 344.9 345.5 346.5 349.3 346.9 356.2 368.9 368.3 372.9 379.7 379.1 385.5 395.4 398.6 407.5 413.9 420.5 430.2 439.6 447.7 455 462.3 469.3 478.2
341.6 338 336.2 333.2 332.3 325.3 320.9 319.2 316.3 314 312.4 309.8 305.3 303.1 299.6 294.9 289.6 283.3 272.8 265 256.2 248.2 242.6 234.7 226.3 223.2 215.4 213.2 210.9 198.3 193.9 196.6 209.7 213.3 225.9 237.3 248.2 260.4 277.6 296.9 314.6 327.6 337.1 346.9 359.5 370.4 377.3 394.3 409.5 420.1 421.5 409.3 385.7 363.6 341.9 323.1 311.8 304.4 296.8 287.6 281 279.4 274.1 268.3 262.7 260 256.1 251.7 247.1 243.8 240.7 237.7 234.1 232.5 236 241.4 246.2 250 251.3 256 259.8 263.5 265.6 269.8 272.6 274.4 276.6 277 278.6 281.6 286.1 290.8 294.1 299.6 304.8 312 315.3 316.9 319.6 323.9 326 328.1 328.6 327.6 326.3 324.3 323.7 322 321.5 321.1 320.1 322.4 324.5 330.5 335.9 339 342 345.3 349.1 353.7 358 360.9 364 366.4 368.6 368.8 369.2 367.9 366.7 365.6 363.1 358.3 356 353.5 347.3 345.1 341.4 340 334.4 329.1 323.2 320.3 320.8 321.3 318.1 314.9 318.5 319.1 319.5 320 317.2 308.8 312.6 319.2 319.7 320 320.3 321.2 320.5 322.3 320.9 324.2 328.8 334.5 330.6 330.3 327.1 333.7 336.8 332.1 343.3 345.8 349.5 352.8 351.6 353.4 354.8 354.6 351.4 358.9 356 367.5 371.8 373.7 380.5 385.1 386.9 395.2 399.1 406.2 413.4 420.2 430.2 437.1 443.7 450.1 457.8 465.6 472.9 482
333.6 331.6 330.1 327.5 324.4 318 312.6 311.4 309.4 307.9 305.1 303 301.5 294.7 290.2 286.2 282.6 276.5 268.4 258.7 250 242.8 236.2 230.9 223.3 218.5 213.4 210.8 208.9 198.1 195 201.6 209.4 219 233.4 244.7 254.2 268.3 283.2 300.3 317 328.5 339.3 347.9 360.6 370.5 379.4 397.4 410.3 419.5 415.1 399.1 377.5 356.2 335.6 320.5 309.1 302.5 293.5 287.4 282.6 275.4 268.3 264.6 260.2 256 252 247.8 243.4 240 238.8 235.6 233.6 236.9 239.8 245.1 249.7 254.2 256.2 257.3 259.9 263.9 268.7 272.2 276.2 278.6 279.4 281.1 284.7 287.5 292.9 297 299.5 305.4 310.8 316 322 324.8 328.9 331.7 334.1 335.5 335.9 334.2 332.6 330 329.5 328.3 328 327.8 326.7 329.5 331.2 336.9 342.5 346.1 347.7 351 355.7 360.3 364.8 366.8 370.3 372.1 374.2 375.7 375.3 373.8 372.9 371.6 368 363 360.8 359.9 358.1 352.4 347.8 344.2 339.8 333.7 325.7 322.9 321.6 322.7 325.3 317.9 319.2 321 322 321.8 318.8 309.9 311.3 320.5 321.3 322.4 322.2 323 322.8 322.5 323.9 324.7 321.5 324.2 326.1 328.3 329.2 330 344 344.3 354.6 356.7 359.6 363.3 363.3 361.3 360.5 363.9 365.3 369.3 370 377.9 381.9 385.5 389.5 392.7 398 403.3 408.5 413 421.1 428 435.5 441.1 446.5 453.1 458.9 465.6 473.4 482.1
326.6 324.2 324 321.9 320.2 311 306.9 305.6 304.1 300.2 298.6 297.4 292.8 288.2 284 280.7 276.9 268.6 259.5 252.6 248 240.5 232.8 224 220.3 215.1 211.6 209.7 206.3 195.1 197.5 202.2 212.1 225 234.7 249.4 262.3 273.6 287.8 305 317.9 327.9 336.3 348 358.8 369.7 380.7 395.1 408.7 414.3 405.1 388 360.7 343.2 330.1 318.3 305.6 298.2 291.3 285.2 279.4 274.6 267.8 262.9 259.5 253.3 248.2 243.8 241.7 238.5 236.9 234 238.2 241.6 244 246.4 252.6 257.2 260 262.1 264.5 267.6 270.6 275.1 278.5 280.7 282.8 287.2 290.4 294.4 297.7 303.3 305.4 309.8 316.5 321.6 327.3 331.3 335.6 338.9 341.8 342.3 341.5 340.9 338.3 336.5 335.4 334.5 334.5 332.9 334 335.1 338.8 343.3 348 351.5 354.1 357.3 361.6 365.5 369.3 373.6 375.3 377.7 379.2 379.6 379.5 378.6 376.5 374 371.3 368.1 366 365.8 364.1 360.8 353.4 346.7 341.8 337.1 330.6 328.5 325.6 323 327.4 320.6 320.4 322.9 323 322.7 317 311.4 320.3 315.7 320 322.6 323.1 324.3 323.6 324.4 324.3 324.5 326.1 326.9 332.2 332.4 338.9 344.7 349.7 360.2 369.3 373.4 373.3 377.7 375.7 374.3 372.7 372.8 376.2 382.5 388.7 395.2 398.1 401.3 401.8 403.1 407.5 411.6 416.1 419.1 426.4 434.3 442 447.1 452.5 458.3 462.8 468.8 476.3 483.5
320.7 319.1 316.3 313.7 311 304.9 300.2 299.1 297.9 296.5 294.9 295 286.9 283 279.8 274.8 267.1 261.5 256.8 251 244.6 236.7 228.9 223.4 216.6 211.6 209.5 207 199.3 199.6 199.5 209.7 217.4 227.3 241.5 255.6 265.5 280.1 291.5 304.9 318 327.9 337.6 347.4 357.7 370.1 382.3 392.5 403.1 403.7 387.1 366.3 346.4 336.2 327.3 311.7 305.7 295 289.1 285.2 278 271.3 264 259.3 252.6 249.1 247.6 244.2 241.3 235.4 235.1 237.8 241.2 244.2 248.3 250.5 255.3 260.5 262.5 266 269.4 273.4 275.4 276.9 280.9 284.9 288 289.6 294.5 300.6 303.8 307.6 311.1 315.8 323.6 328 334.2 338.1 341.4 345.2 348.6 348.2 348 346.7 344.4 341.5 341.6 341.4 341.2 339.5 340.1 341.4 344.9 349 352.2 356.7 360.1 363.9 368.2 371.9 375 379.3 380.8 382.6 384.1 385.2 384 382.8 380.7 376.8 374.8 373 373.4 372.9 369.4 364.1 359.5 352.4 347.5 343.1 338 332.4 330.3 325.5 329.4 327.7 323.9 325.7 323.9 323.2 319 312.6 321.7 320.4 320.3 320.5 324.1 325.1 325.4 326.2 325.4 326.5 326.6 329.9 334.8 338.8 346.1 357.3 364.1 375.1 384 385.3 385.2 389.7 388.6 388.4 386.3 384.4 387.4 398.1 402.3 409.2 411.5 412 413 413.2 415.4 416.7 420.1 426.1 433.7 440.3 445.5 452.5 458.1 462.6 469 474.8 481.1 486.3
314.1 311.7 309.4 308.1 306.3 300.6 294.3 290.6 288.3 287.2 286.6 285.7 279.2 276.6 272.7 264.9 259.2 255.9 250.1 245.4 238.5 230.2 225.9 219.9 214 211.2 208.4 204.4 199.7 203.7 208.8 216 221.4 232.9 248.2 260.1 269.2 280.4 291.3 303.8 317.7 327.4 336.3 347.9 356.9 371 383.6 394 398.5 390.6 370.8 352.9 337.6 328.6 316.1 311.5 299.5 292.8 288 280 272.2 265.9 262.1 259.3 253.7 250.7 245.9 242.7 238.2 236.8 237.2 241.7 244.9 247.9 250.4 255.3 259.5 263.1 266.6 271 275.1 278.5 281.8 281.6 285.5 289 291.9 295.9 299.9 304.7 307.5 310.5 315.6 323.2 329 334.7 341.3 344.4 347.2 351.5 354.3 353.2 352.1 351.9 350.4 347.7 345.8 346.1 345.8 345.5 346.3 348.3 350.5 354.5 358 362.2 366.9 370.8 374.3 377.3 382.3 384 386.7 387.7 389.5 390 388.8 386.9 385.7 383.8 381.5 380.1 380.1 377.4 372.7 366.1 361.6 352.8 348.9 343.4 340.4 336.5 333.5 328.7 330.5 327.4 326 326.6 324.4 324.6 317.1 313.8 321.2 322.3 323.9 322.4 321.9 324.5 325.8 324.2 328.7 329.4 325.4 333.7 339.9 349.3 357.6 366.7 376.9 386.2 393.7 399.9 401.2 404.1 401.7 400.4 398.6 396.3 399.3 411.3 418.6 423.7 426.9 427.4 427.9 426.9 425.6 426.2 427.2 433 437.6 443.2 449.2 455.5 461.1 467.4 472 477.3 482.8 489.4
309 304.4 301.8 300.8 299.9 292.3 291.5 290.6 285.5 282.1 280.9 276.9 270.6 267.9 262.9 258.7 251.4 248.5 241.7 235.9 229.9 225.5 222.1 215.3 211.5 209.3 207.2 205.5 198.8 209.4 216 218.9 232.9 236.8 250.1 258 269.6 281.4 295 303.7 315 327.4 337.8 348.7 359.5 371.9 385.7 395.6 400.9 392.1 366.7 349 332.3 321.2 312.6 306.4 296.8 288.2 279.9 273.2 267.8 264.9 259.6 254.5 251.3 246.9 243.4 239.1 237 240.8 245.4 248.6 250.7 255.1 255.9 258.7 264.5 268.6 273.3 277.3 280.1 282.3 285.1 288 290.6 292.8 298.1 304.1 305.9 307.1 310.3 314.4 320.9 329.4 334.7 340.2 346.8 349.1 353.7 357.6 359.5 358.7 358.7 357.3 355.8 353.1 350.9 349.8 349.3 348.5 349.5 351.7 355.5 360.1 363.9 367.8 371.3 375.8 380.1 383.9 387.1 389.2 392.2 393.8 394.2 394.3 392.5 391.2 390.3 388.8 386.1 385.4 383.6 380.5 376.3 368 359.3 355.4 349 347.3 342.3 338 334.7 331.2 333.9 329 327.4 326.4 325.8 318.7 316.4 317.8 322.1 324.4 326 324.1 324.7 325.5 325.6 326.5 324.8 329.1 332 342.3 348.5 359.8 368.2 375.8 386.9 401.7 414.7 420.5 419.7 415 410 409.8 408.1 406.3 412.9 423.2 433.4 439.8 441.3 437.6 435.4 432.5 431.7 433.3 434.7 437.5 441.6 447 453.2 458.7 464.7 469.4 474.4 479.8 485.5 491.2
301 298.1 297 296.7 295.5 288.1 287.2 285.5 280 272.9 271.3 269.3 263.7 258.6 255.7 252.3 245.5 239.9 234.6 229.4 225.4 221.4 216.7 210.6 209.2 209 209.5 206.2 201 218 218.3 220.9 238.8 242 257 261.8 267.4 279.4 292 299.5 313.1 328.6 339 349.5 360 373.3 388.4 398.7 399 384.8 371.1 345.3 328.3 316.5 308.1 298.3 289.3 283.7 274.4 271 264.6 260.1 253 251.7 247 244.8 241.4 238.8 240.6 248.1 252.3 254.2 257.1 260 261.9 264.9 271.4 275.3 278.9 281.5 284.6 287.7 290 294.5 297 298.6 302.6 306.7 309.7 309.7 313.8 320.1 328.3 334.9 341.5 346.3 352.7 357 359.6 361.7 363.9 362.8 362.4 362.3 360.2 358.2 356.1 354.7 354.6 351.5 354.2 357.6 360.5 364.3 368.7 372.1 376.8 381.3 385 389.4 392.7 394.2 395.7 398.2 398.4 398 396.5 395.2 394.3 393.9 392.1 389.4 385.6 382.3 376.8 371.6 364.8 358.3 357.2 350 344.4 343.9 336.1 331.7 334 331.3 328.5 327.9 326.7 319.1 320.2 324.9 326.2 326.4 327.9 326.8 328.1 328.4 326.1 327.4 327.5 331.7 335.1 346.1 354.8 366.2 374.2 385.3 400.8 417.3 428 430.9 428 419.8 416.4 415 411.4 413.3 420.6 430.7 438.1 443.5 443.1 439.9 436.7 434.9 433.5 435.5 437.8 441 446.4 451.7 457.3 462.7 467.5 472.3 478.7 483.3 489.3 494.6
293.6 292 292.2 292.5 287.3 280.7 275.9 273.2 270.2 268.7 264.3 262.3 259.4 253.5 247.9 245.7 240.5 233.3 226.4 222.1 220.1 214.7 210.9 209.3 210.2 212 203.2 200.5 210.7 215.8 219.2 228.2 244.4 251.2 254.5 266.5 268.9 275.7 287.8 300.4 315.2 328.4 340.2 350.4 363.3 373.5 390.8 401.2 395.3 380.7 362.4 334.2 321.7 309.6 300.5 292.8 285.5 282.2 275.1 268.8 260.6 259.1 250.4 246.7 243.5 243 241 241.3 247.7 253.9 257.3 260.8 263.9 267.1 270 273.8 278.1 282.2 286.6 286.6 288.5 292.1 294.8 300.5 304.9 304.5 306.4 309.5 313.6 317.9 319 325 334.1 341.4 346.7 351.9 357.9 362.1 364.1 367.2 368.9 368.4 367.5 367.4 364.2 362.3 359.6 358.1 358.1 352.7 358.9 361.1 364.7 368.4 372.3 377.4 382.1 385.8 390.1 394.1 397.2 399.6 401.1 401.2 402.4 401 400 399 398.5 397.4 393.5 391.7 388.3 382.7 378.7 373.6 366.3 358 353.2 351.2 348.2 345.8 340.6 333.9 334.2 334.2 330.7 328.8 322.9 320.5 323.2 326.8 328.7 328.2 330.1 328.8 330.1 328.9 329.7 326.8 333.8 333.7 341.9 350.1 359 369 379.6 394 410 424.3 431.8 433.6 428.1 420.5 416 416 416.2 418.4 423.9 428.6 433.9 436.6 437.8 437.1 435 434.5 434.9 437.2 441.1 445.9 450.4 455.3 460 465.1 470.2 475.5 480.8 486.5 492.1 497.1
287.8 286.8 286.7 286 279.2 272.6 264.2 264.4 263.8 262.8 257.2 252.9 253.3 246.7 240.7 237.3 232.4 223.6 222.3 215.6 211.4 209.6 209.5 209.3 210.4 201.8 200.1 206.4 215 219.5 223.4 240.2 244.5 254.1 256.9 270.5 272.5 276.8 283.4 298.2 313.5 328.2 340.7 351.1 361.3 370.7 386.2 395.7 388.1 366.1 353.2 328.7 313.6 307.6 300.4 292.7 285.8 277.1 268.3 263.6 261.9 256.2 250 246.1 240.9 240.6 241.9 250.6 257 264 268.2 270 273.9 278.4 279.2 279.8 282 286.3 291.1 292.5 294.7 297.8 298.2 303.9 308.5 306.7 308.6 313.2 316.4 320.8 323.1 330.2 339 346.8 351.6 357.1 363.5 366.7 369.7 371.7 373.8 373.2 372.8 371.6 369.3 366.4 364.4 362.4 361.6 357.7 361.5 364.2 368 372.8 376.2 381.4 386.3 390.4 395.4 398.9 401.8 404.1 406 406.2 405.8 405.5 404.4 402.4 401 399.3 396.3 392.7 388.2 383.2 379.4 373.8 366.2 359.1 356 352.5 350.1 347.7 343.8 336.6 335.4 336 333.3 328.8 322.3 326.9 328.9 329.8 331.1 329.8 332.2 333.5 334 335 331.4 331.6 331.6 339.2 345.8 353.1 361 371.9 383.2 396.6 410.9 421.4 427.5 429.3 424.5 418.3 414.9 416 417 418.5 421.8 426.4 428.7 429.9 431.5 433.4 432.4 434.6 437.1 440.3 444 449.6 454 456.4 461.4 466.9 472.1 477.4 484.2 490.5 496.4 502.2
283.5 284.4 279.3 275.5 270 263.3 257.8 258.1 255.1 251 247.3 241.4 244.8 236 231.3 227.1 219.8 216.3 211 206.6 205 204.2 203.6 202.7 201.7 201 202.9 210.7 216.3 222.9 230.6 241.7 252 258 265.8 272 274.6 279.1 286.1 294.9 311.6 327.4 338.8 349.4 360.1 370.1 378.5 386 378.1 354.9 334.1 322.7 308.1 302.1 295.8 285.5 277.4 270.6 268.8 262.2 254.7 250.9 247.7 243.5 246.6 247.2 252.3 259.6 266.8 277 282.4 284.4 285.2 285.2 287 288 288 290.8 294.2 298.8 300.2 299.3 302.6 304.2 308.1 309 312 317 321 322.8 327.5 334.4 343.6 351.4 358.4 363.4 369.2 373.4 376.1 378.6 379.8 379.6 378 375 373.4 370.5 369.6 366.7 364 361.4 363.2 367.6 369.9 376.5 381.5 385.3 388.3 394.7 399.2 403.4 406.5 408.6 409.1 410.1 409.9 409.2 407.1 404 401.7 400.4 398 393.4 389.4 382.6 377.3 373.5 366.6 359.5 354.9 352.4 348.9 347.6 344.9 339.7 335.6 334.8 332.5 323.3 325.5 330.9 333.6 334.7 334.9 337.7 338.7 340.9 340.8 337.5 331.6 335.3 335.2 340.4 348.1 354.2 362.3 372.6 383.9 395.3 407.2 414.9 419.9 422.1 417.9 414.2 414.1 413 415.6 417.3 420.3 422.9 425.9 427.6 429.4 431.8 435.1 438.3 441.6 445.3 448.7 451.9 456.6 459.7 465 469 474.5 480.9 486.2 494.3 501 508.5
277.7 273.8 270.3 267.7 263.4 255.8 251.4 251.5 249.8 241.5 238.6 231 235.2 225.1 220.6 217.3 212.5 207.6 205.8 204.1 203.6 202.7 202.6 202.6 202.1 201.1 208.6 219.1 220.4 231.2 238.3 246 258.6 263.7 271.8 274.5 275.9 280.1 292.7 299.4 310.2 323 337.5 346.4 356.6 366 370.8 368.4 358.5 338.2 325.3 313.2 302.5 300 287.3 281.9 273.5 271 266.3 255.9 252.6 248.5 246.3 245.6 248.4 250.1 259.7 266.8 278 292.4 300.3 299 291 288.5 290.6 293.8 299.5 302 302.4 304.8 304.8 302.5 305.7 307.6 310 314.5 317.9 320.9 324.1 327.4 330.5 339.3 348.1 355.1 363.9 369.9 375 379.9 382.9 384.6 385.6 384 382.3 380.6 377.8 374.1 371.7 368.8 365.3 363.9 365.7 368 372.3 379 384.1 388.7 392.7 398.4 403.7 408.6 411.4 412.4 414.4 414.2 413.1 412 408.6 404.6 402.1 400.2 398.1 394 386.7 380.1 373.1 372.2 366.4 360.7 356.1 353.2 349.5 347.1 344.4 341.6 336.1 332 326.5 326.2 333.7 336.4 340.1 344 348.4 348.3 351 352.1 348.5 342 335.4 339.9 337.8 342.8 349.6 355.4 362.9 370.7 382.5 392.1 402.5 410.4 414.7 415.7 413.8 411.9 411.2 412.1 415 416.8 420 424.1 426.8 428.5 433 436.9 440.4 443 446.3 449.3 452.8 456.5 460.4 464.5 468.5 473.5 478.8 484.9 491.7 500.8 509.1 517.2
270 266.4 266.4 260.8 253.9 249 247.5 244.8 237.9 231.4 225.2 221.6 219.2 213.5 212.3 211.5 206.8 205 205.3 204 204.4 203.3 202.8 202.6 203.4 210.6 213.3 223.5 225 236 239.5 254.5 260.3 266.1 275.8 278.2 280.6 287.1 297.9 300.7 310.3 319.9 332.5 346.8 356.7 361.6 365.5 356.2 338.7 328.2 314.2 306.6 300 289 282 276.7 272.8 269.9 260.3 256.1 252 247.1 246.9 247.9 248.8 256 266.7 276.1 289.3 304.3 307.9 299.4 293.4 294 299.3 306.2 311.5 311.9 308.7 308.1 308.5 309.3 309.7 312.8 312.1 317.9 320.9 322.1 325.4 331 336.7 343.7 352 359.9 368.8 376.5 381.3 386.3 388.9 391.5 391 390.1 387.6 383.9 380.1 376.3 372.1 369.7 366.7 367.3 367.5 371.2 376.2 381.6 388.3 395.4 398.7 404.5 409.8 413.6 415.7 416.4 418.4 417.2 416.1 412.8 410.6 405.9 403.2 400.4 396.5 391.8 386.4 380.1 374.4 368.4 363.5 360.1 356 352.4 350.1 347 343.7 340.9 336.6 330.6 327.7 332.7 338.3 343.1 346.7 354.6 356.4 359.1 360.7 360.5 353.5 346.7 342.4 343.3 340.2 344.8 349.6 355.5 362.2 369.5 379.5 389.6 398.3 404.7 406.8 408.8 410.3 408.9 410 413.1 415.3 418 421.4 425.7 429.6 434.1 438.4 442.5 445.5 447.4 449 451.8 455.2 460 463.9 466.6 470.4 477.2 484.3 491.1 498.6 507.2 516.9 526.8
264.2 263.3 263.9 256.4 251.3 245.2 236.7 233.6 225.5 223.8 218.6 214.1 212.5 209 207.7 207.5 206.4 206.2 205.7 204.5 204.5 204.4 205.3 208.7 207.6 212.6 213.4 226.8 232.2 242.3 249.9 257.8 262.9 270.7 280.8 282.5 283.9 290.1 303.4 304.8 310.3 321.3 329 336.4 349.7 352.6 354.3 343.1 331.5 322.7 313.1 304.9 292.4 284 278.8 275.6 270.7 267.5 260.2 255.1 249.4 249 249.7 251.3 254.2 263.1 274 283.8 294 306.4 306.2 300.3 297.4 303.3 313.3 319.4 321.7 319.6 318.6 316.8 316.9 314.9 314.5 316.5 319 320.2 323.6 324.3 327.5 333.5 340.4 349.4 355.9 363.9 373.4 380.2 385.6 390.8 394.5 394.9 395.5 392.4 390.6 388.5 384.1 379 374.9 370.5 367.4 369.4 372 376.4 381.2 387 393.6 399.9 406.8 412 416.6 419.6 421.3 421.1 421.5 421.1 418.5 415.3 410.4 406 403.9 397.9 393.4 391 386.5 381.1 374.6 369.1 364.3 365.5 361.3 351.5 348.7 344.5 340.5 340.8 338.7 331.3 327.6 337.7 345.3 354.1 361.7 368.2 368.8 369.5 369.6 366 359.7 353.8 346.2 346.6 346.5 344.8 349.9 355.4 362.4 368.8 377 386 394 399.7 402.3 404.5 404.7 408.7 412 414.9 416.3 420.2 425.8 431.3 436.8 441 445.9 450.4 454.5 458.2 458.9 461.6 464.8 468.5 471.2 472.5 475.4 481.5 488.7 496.8 505.8 514.9 525.7 536.4
257.2 254.4 258.3 249.7 242.9 233.8 225.8 220 218.4 218.9 215.6 211.1 208.3 207.5 207.7 207.2 205.9 206.4 205.1 207.3 208.6 207.2 207.8 209.8 210.7 213.1 223.5 232.8 238.5 247.5 254.8 262.5 268.3 275.2 281.2 283 287 294.9 302.5 306.4 308.3 319.7 328.2 335.5 338.9 342.7 343.4 335 326.5 317.6 307.2 301 289 283.1 278.7 277.7 271.4 265.3 260.2 252.7 248.6 254 252.5 257.1 265 272.6 283.1 292.3 308.7 305.9 304.8 302.8 304.7 315.2 325.7 336.3 332.6 331 333.6 336.3 325.9 321.5 318.2 320.4 323 321.7 324 326.5 333.2 336.4 345.8 353 360.6 369.5 377 383.1 389.5 393.4 398.2 398.6 398.7 395.8 394.9 391.2 387.8 382.5 377.8 374.3 371.7 374.5 378.7 383.4 389.8 393.8 399.7 406.8 413.9 420.6 423.8 426 427.1 426.9 424.6 424 420.2 415.3 411 405.4 402.3 397 391.7 387.7 385.2 380.5 372.7 367.4 365.2 363.9 362.6 357.6 351.6 346.6 339.9 337.3 330.5 329.1 331.2 343.5 351.9 365 374.7 384.3 385.6 379.6 376.4 372 367.2 359.2 352.8 350.2 349.3 348.9 351.2 357.4 362.5 368.5 374 382.3 389 394.1 396.3 400.5 405.2 409 412.4 414.4 419.7 425.8 432.3 438.7 444.3 451.8 458.1 464 471.4 476.4 478.4 480.4 480.7 482.1 482 482.5 483.9 486.6 491.5 500.2 510.2 522.6 534.1 546.4
250.2 247.7 248.5 236.5 230.6 224.8 218 213.2 212.5 211.4 209.4 208.8 208.1 208 208 207.7 206.6 206.2 207.9 213.1 211.7 209.6 212.1 214.1 220.6 222.2 236.7 239.1 244.8 253.6 259.7 266 273.5 277.1 283.6 285.6 291 299.1 304.7 308 314.3 325 334.9 341.8 341.6 339.9 338.2 332.2 326.7 314.9 304.4 299.4 290.4 284.7 282.3 273.1 268.1 261.4 256.5 256.1 249.9 257.9 257.3 264.4 273.6 280.4 289.7 297.9 303.5 305.4 307 311.7 322 331.9 339.8 343.5 342.2 342.3 348.7 344.8 336.1 328.1 321.7 323.5 326.2 325.5 326.2 331 340 340.7 349.6 355.9 366 371.5 378.7 385.7 391.2 397.1 400.2 401.4 399.7 399.9 396.8 393.8 391.4 387 382.9 379 377 380.5 385.4 391.3 395.9 400.9 407 416 422.5 427.8 431 434.2 434 431.8 428.6 426.3 421.8 415.6 411 405 400.6 395.7 390.9 387.1 383.2 378.8 371.5 365.8 362.2 361.4 360.5 355.8 349.3 347.3 340.5 334.5 330.4 330.7 340.9 349.6 361.1 372.5 383.9 394.1 398.2 390.6 385.4 381.3 376.2 368.9 360.4 356.3 353.6 354.7 353.1 356.6 362.2 367.9 373.4 378.7 384.6 387.7 393.7 399.3 405.5 408 411.7 416.8 422.8 430 438.1 445.5 454.2 462.4 471.8 479.1 487.3 492.9 494.8 496.4 496.4 495.3 496 496.1 495.5 497.1 501.1 507.7 516 526.7 539 553.6
245.8 242.6 240.8 228.4 225.5 218.6 213 211.2 210.3 210.3 209.9 209.2 209.2 208.8 208.3 209.7 207.2 211.3 210.2 211.8 214.4 214.3 214.6 221.8 224.1 226.9 244.9 245.5 249.5 259 264.4 268 274.2 279.3 289.5 293.1 295.4 302.1 307.8 314.3 324.8 334.9 339 342.2 343 338.7 335.4 334.5 326.1 314.5 305.7 300.6 293.2 286.6 280.2 272 269 262.5 260.5 257.7 254.1 260.5 263 271.5 281.5 289.9 294.6 299.7 302.9 306.7 315.6 325.1 335.5 344.9 352.1 353.8 355.2 359.9 362.4 357.6 349.6 338.3 329.9 328.8 333.6 332.7 332.7 337.5 342.9 348.5 353 360.3 369.2 374.6 380.7 386.5 393.8 398.8 402.6 402.8 403.3 402.3 399 397.3 394.3 391.2 388.5 386.5 383.9 386.3 391.9 397.9 402.7 409.5 417.7 424.6 431.1 435.4 439.4 441.1 444.3 439.5 433.7 428.3 420.8 414 409.1 403.9 398.1 393.9 389 385.4 382 376.8 371.6 364.6 360.8 359.8 358.8 352.6 347.6 344.1 342 335.8 333.2 333.6 347 354.7 366.2 379.9 389.8 398.5 402.8 402.8 401.2 394.4 386.6 378.3 369.4 363.7 357.9 357.7 357.7 355.9 360.4 367.2 371.6 376 380.2 387.5 394.3 400.5 405.5 410.1 415.2 420.8 426.9 436.6 443.9 454.3 465.4 475.1 489.7 499.3 506.9 514.5 516 515.5 513.8 512.8 511 509.7 507.7 509.4 512.2 516.8 524.5 532.4 544 558.7
236.6 233 233.2 224.1 222.5 217.8 212.5 211.8 211.6 210.4 209.9 209.8 211.6 213 214.1 211.5 220 219.8 216.8 213.8 222.9 224.4 217.4 226.2 231.6 239.3 247.1 249.7 255.7 262 266.8 271.1 275.4 282.1 292.9 296.5 298.2 304.9 312.5 322.4 333.5 338.6 345.5 347.9 345.5 339.7 333.1 332 330.3 321.7 317.4 304.8 295.5 286.5 280.8 276.4 269.5 264.9 260.6 257.9 254 261.3 265.3 274.7 283.8 291.9 297.6 304 311.6 319.4 328.6 335.2 350.2 365.9 369.5 364.1 373.7 383.6 382.8 379.1 366 352.1 340.5 337.6 338.2 340.5 340.6 340.7 346.1 352.2 358.5 365.4 372 377 383.5 390.3 396.1 399.1 404 405.3 405.2 404.1 402.3 400.4 398.3 396.4 394.5 392.3 390.9 395.3 399.7 404 410.5 417 425.3 433.3 439.3 443.9 447.5 451.3 453.6 448.5 440.6 430.6 421.5 412.4 406.2 401.5 396.7 392.5 387.6 381.7 378 375.5 372.8 367.2 360.5 358 357.9 353.7 349.7 344.5 341 334.6 332.6 337.5 353 364.6 374.4 386.7 395.6 403.2 409.6 414.3 412.6 409.2 400.4 390.8 379.1 372.8 364.7 361.3 360.5 357.5 363.8 367 371.7 375.5 381.4 387.7 394.9 400.3 405.8 411.2 417.8 424.1 431.6 443.1 454 466.5 480.4 493.1 505.7 516.5 524.4 530.4 536 537.1 538.2 536.6 532.7 528.2 525 523.7 525.5 532.1 537.3 545.8 554.8 564.2
233.9 228.2 231.4 225.5 225.6 218.8 212.4 211.9 211.8 211.2 209.6 210.2 219.5 217.1 214.3 215 224.5 227.4 221.4 221.1 224.4 226.8 222.7 230.8 235.7 240.7 247.2 253.1 261.3 266 269.6 275 280 291.2 294.2 297.3 300.1 307.2 315.4 327.8 339 347.5 350.6 352.8 348.7 345.3 338.6 337.5 339.6 321.6 313.3 302.1 295.1 289.2 284.7 276.7 269.9 264.3 260.9 259.1 253.8 261.8 270 276.1 284.7 293 303.1 315.3 323.3 325.5 336 345.3 359.9 370.4 374.4 375 398.9 409.4 407.2 396.6 383.7 367.3 354.9 346.9 342.5 343.5 344.3 349.5 354.4 357.8 363.6 370.1 374.1 379.9 386.7 393.4 397.9 400.4 405.2 407.3 406.9 407.3 407.1 404.8 403.3 402 401 399.3 399.7 401.9 406.3 411.9 418.3 426.3 434 441 448.4 453.2 458.3 462.9 462.2 455.8 445.6 431.3 421.7 411.5 402.7 398.2 395 390.6 387.2 382.4 376.3 372.7 370.4 368.6 363.7 359 354.6 350.2 349.9 345.8 335 334.8 335.9 350.1 363.1 374.3 383 395.2 405.1 411.8 416.8 419.7 420.1 419 415.4 406.9 389.1 378.9 369.7 365.1 362.7 362.2 365 367.8 370.7 373.7 379.6 386.4 392.6 397.9 405.6 413 420.8 429.6 440.9 452.1 466 480.1 493.1 507.4 522.8 535.5 549.7 558.9 563 563.3 562.3 557.6 551.8 547.3 544.1 542 544.4 551.1 557.4 562.4 567.7 574.8
232.9 227.4 223.3 216.5 213.4 212.8 212.4 211.8 211.6 210.5 213.9 212.8 224.5 219.1 217.8 223.2 227.3 230.8 226.4 228.9 227.5 228.5 230.4 235.7 240.1 247.1 257.6 258.9 264.9 272.3 277.7 278.1 287.7 294.5 297 297.8 300.7 308.8 318.4 330.6 343.6 352.8 355 355.4 351.8 349.4 346.8 345.7 348.5 334.2 322.1 303.8 297.5 288.8 282.5 275.8 273.1 265.6 262.5 259.7 255.6 266.1 274.5 280.4 289.1 298.9 308.6 317.4 326.7 332.5 342 353.7 364.6 379.2 385.2 413.2 428.5 436.9 429.8 417.1 396.9 383 369.9 358.2 349.8 348.2 353.8 357.5 358 363.6 370.3 373.4 377.1 381.1 388.5 395.6 399.9 402.4 406 407.7 409.1 409.4 410.2 408.8 409.7 409.1 409.1 408 408 409.1 412.8 419.6 426.5 433.5 440.7 449.7 457.5 464 468.3 469.6 466.2 458.6 450.3 436.1 424.3 410.1 399.8 396.3 393.2 388 385.5 381.1 378.4 375.5 368.3 362.8 360.4 357.8 352 347.6 343.5 337.7 336.7 337.5 346.5 356.5 373.3 382.6 392.9 403.7 414.6 421.4 425.2 427.3 425.9 424.8 423.9 419.2 401.9 385.6 376.1 369.2 366.8 365.3 364 366.2 368.9 373.4 380.7 387.2 392.3 399.5 406.9 415.9 426 437 449.5 460.5 475.4 489.9 506.3 523.8 543.9 560.9 573.3 581.9 589.2 591.3 588.5 583.2 578.4 572.4 568 567 568.6 569.4 577.1 580.1 583.9 587.2
228 222.7 218.5 214.5 213.6 212.8 213.7 211.9 213.6 213.5 212.7 226 224.7 222.5 227.4 229.2 229.5 229.9 231.7 235.8 233.4 237.7 242.9 244.2 245.3 254.7 264.4 267.8 269.2 277.7 282.1 282.1 290.2 294.5 297.6 302.4 304.2 310.9 320.5 328.2 346 355.5 356.4 356.4 354.4 352.6 353.7 348 352.3 335.5 321.4 311.3 296.7 288.4 284.2 278.8 269 263.4 259.3 257.6 258.2 271.3 278.7 286.8 299.8 305.5 313.4 325.8 332.9 341.3 355.7 367.2 380 391.2 421.3 439.7 446.1 445.5 438.9 425.4 415.6 395 381.8 369.8 364.7 365.1 365.9 365.6 366.2 371.6 375 375.5 378.1 383.9 390.9 396.5 399.8 405.3 407.7 409.5 411.7 412.6 413.8 414.5 415.4 416.6 417.8 417.7 417.8 418.7 422.5 426.3 433.7 440.2 448.1 456.7 465.7 471.7 474.9 474.6 471.8 465.5 455.4 438.6 421.9 408.8 398.4 394.7 391.4 386.5 381.6 379.2 377.1 374.5 370.3 362.3 357.8 355.3 349.7 346.2 340.8 338 339.9 347.1 354.5 365.1 381 389.9 401 411.4 422.1 430.1 435.2 436.2 436.9 434.8 432.2 422.6 411.2 394.2 380.7 372.1 368.4 365.9 366 366.9 370.9 375.5 380.7 386.5 392.6 401.5 410.5 419.9 429.8 442.3 454.6 468.2 483 499.3 517.9 536.8 557.4 574.3 589.6 607.3 616.4 617.1 612.4 607.7 603.6 597.4 593.7 591.9 592.4 594.9 601.4 599.9 602 600.6
221.9 221.3 216.9 215 213.8 216.7 215.7 215.3 214.4 215.2 221.9 226.3 225.2 231.1 232.3 233.5 233.2 232.9 235.7 242.9 242.1 248.3 249.1 248.4 250 262.5 266.5 268.4 271.5 278.1 280.1 282.5 286.1 290.3 298.4 304.2 305.2 313.3 322.2 330 343.6 355.6 360.4 360.2 359.5 356.8 353.5 348.4 343 335.9 322.1 312 299.2 293 284.7 273.5 266.8 262.6 259.6 257.5 262 275.6 282.4 290.2 301.2 310.7 317.6 328.6 340.6 355.2 370.3 385.2 400.8 413.4 428.5 436.7 443.2 444.3 439.8 432.4 423 400.7 389.4 385.2 381.6 377.4 375.9 374.2 372.4 379.3 378.1 379 382.6 387.4 392.4 398.3 402.1 405.9 409.7 411.6 413.3 416.2 418.5 420.2 422.1 424 427.3 428.3 429.3 429.7 433.6 437.3 441.3 447.7 454.9 463.3 472.3 477.9 480.7 480 473.3 465.6 451.7 435.9 418.3 405.6 396.7 391.9 389 385.2 380.7 376.9 375.5 373.2 370.1 365.9 360.5 356.8 353.1 348.9 341.8 339.5 346.8 352.6 361.7 372.9 388.1 398.1 409.9 419 428.7 435.9 441.3 446.7 446 443.4 439.3 431.3 418.5 398.8 385.3 376.4 370.5 368.8 367.9 369.5 373.6 377.6 382.5 387.3 394.6 403.3 412.4 422.3 434.8 448 459.8 474.5 490.8 506.4 525.3 545.2 562.3 578.8 600.1 622.1 634.7 645.3 643.8 637.5 631.8 625.8 620 619.1 620.7 623.2 626.2 623.6 621.7 618.5
218.5 219.9 217.9 215 216 216.5 215.9 215.2 219.7 225.5 227.2 228.5 235.7 240.8 235.4 239.5 243.1 242.6 242.7 249.9 249.2 255 256.6 254 264.4 264.8 267.9 271.8 276.9 281.1 280.7 284.4 287 290.9 303.2 307.3 307.9 317.9 319.5 327.8 334.9 350 362.2 362.5 360.4 357.5 352.5 346.8 340 331.5 320.2 310.5 300.8 292 277.9 270.8 266.7 262.9 259.4 261 266.1 277.5 285.3 292.1 301.9 310.6 318.7 330.4 348.6 363.6 376.7 398.1 402.1 413.7 420.4 428.7 434.7 437.1 435.5 430.8 417.9 404.7 399.6 398.4 394.1 389.8 385 379.3 377.1 380.7 383.2 383.4 385.3 390.2 395.9 402 406.1 409.8 411.7 413.6 418.1 421.3 425.6 427.3 429.7 433.2 437.6 439.5 441.9 440.7 444 447.2 452.1 455.6 461 469.9 475 479.4 479.4 476.1 469 457.8 440.9 429.9 417.3 403.7 395.5 389.3 385.6 383.6 381.6 375.6 372.6 369.8 367.9 365.6 360 354.8 352.9 345.7 341 347.7 352.3 357.6 367.7 382.4 397 406.7 414.9 424 432.5 440 445.9 447.9 448.8 447.2 443.3 435.3 422.9 403.3 390.3 379.3 372 370.5 370.1 373.6 375.4 379.1 383.9 390 396.9 405.3 415.1 426.5 439.4 451.6 464.8 479.3 494 511.2 529.1 547.3 562.5 580 601.2 619.7 633.1 644.9 651.7 652.5 650.9 650 648.1 641.3 641.5 645.7 648.6 649.3 645.6 637
229.5 222.6 219.3 214.3 217.8 217.8 217.4 219.1 227.1 230.7 230.8 236.4 242.4 244.5 241.7 246.5 249 248.6 248.9 255.9 255.4 258.7 265.6 263.8 268.7 271.2 275.6 273.6 281 281.1 284.3 292.3 292.3 293.1 308.8 310.8 311.6 319.6 318.3 324.9 332.2 336.9 351.5 359.3 357.4 353.9 349 343.1 334.6 324.8 315.9 308.3 299.1 287.1 277.7 269.8 267.3 261.1 261.2 264.5 268.5 278.7 286.1 293.1 303.6 311.7 319.6 334.2 352.1 367.1 381.2 390 398 403.1 410.7 418.5 424.1 428.7 429.9 425.1 416.4 412.7 410.9 408.9 404.7 398.2 391.5 386.4 383.2 386.3 387.8 388.1 389.9 395.6 401.1 405.1 409.8 411.5 414.7 418.6 424.3 428.5 432.4 435.1 439.7 444.6 447.7 452.1 452.4 452.1 452.7 455.2 457.5 460.5 465.7 469 473.6 475.8 473.6 469.1 459.2 446.4 433.6 424.7 413.6 401.2 393.7 389.7 385.5 381.8 379.2 377.1 374.4 371.1 367 364.5 356.7 351 352.8 342.4 342.8 352 357.1 366.4 377.9 391 402.4 411.1 418.3 425.9 435.4 441.3 445.8 448.1 449.4 446.4 442.7 434.7 420.3 411 393.4 381.4 375.3 374 373.3 375.2 377.9 380.4 383.4 388.9 398 407.3 417.2 429 442.3 455 468.5 482 496.2 511.8 528.8 544 559.3 578.2 596.5 613.6 626.4 638.2 648.2 653.6 657.3 659.3 661 663.1 664.4 666.8 668.7 667.6 662.7 653.6
228.9 221.5 218.2 219.2 218.6 217.9 219 226.1 231.3 234 235.2 243.3 247 245.3 245.4 247.1 251.6 253.3 258 259.9 262.6 267.7 267.8 269 273.3 276 281 277.3 281.7 283.5 288.7 294.9 300.1 301.1 307.8 313.3 312.9 315.5 317.3 324 330.9 334.1 339.2 345.9 350.7 348.1 344.9 338.4 330.4 322.1 313.4 306.5 293 284.6 274.9 268.9 263.7 262.4 263.4 265.1 270.8 280.1 286.6 295.5 308.6 314.7 325 338 350.7 363 372.6 382 390 394.8 402.7 409.8 416.8 421.3 424.3 422.2 419.2 419.1 418.2 419.3 414.2 407.1 400.3 394.9 390.1 392.8 393.4 394.7 396.3 400.5 405.4 410 412.1 415.6 419.1 424.9 430 434.9 438.7 444 450.3 454.8 458.7 461.5 460.4 459.6 460.8 462.2 463.5 463.7 464.8 467.8 470.3 469.2 466.8 460.2 451.2 441.8 431.8 420.8 408.8 399.8 391.9 387.6 385.6 382.7 377 374.3 372.4 370 366.7 365.1 358 350.4 346.4 343.2 353.3 356.6 365.3 375.6 386.8 399 408.4 415.6 422.1 429.6 435.1 441.2 446 447.8 448 443.4 439.9 432 423 411.1 395.1 382.1 376.6 374.4 373.5 376.6 379.3 382.1 387.3 394 400.2 404.9 418.5 430.7 443.1 455.5 469.3 482.1 495.7 509.3 525.7 539.8 554.8 572.7 588.4 604.4 620.2 632.9 643.4 652.3 659.5 664.5 669.7 675.6 682.2 686.5 686.6 681.7 672.8 662
232.5 222.1 218 220.9 219.8 221.9 223 229.9 235.8 236.3 239.7 251.3 252.3 250.6 254.9 255.8 255.6 263 265.3 265.7 266.4 271.9 275.5 276.4 279.4 282.2 284.8 283.5 286.7 289.6 295.3 298.6 304.3 305.3 305.4 312.1 316.1 317.2 324.9 330 332 336.8 337.2 338.7 343.5 344 341.4 335.4 327.9 318 311.2 302.5 292.2 282.2 276.2 270.8 263.5 265.7 266 266.6 270.5 280.5 288 298.5 309.5 316.9 326.8 336 349.2 355.8 365.6 374.3 382.2 386.9 392.9 400.7 408.2 413.3 420.3 423.3 424.4 427.1 426.7 424.5 420.1 412.7 405.6 401.3 396.6 398.5 399.2 401.4 403.6 406.2 409.7 412.3 415.1 419.4 425.8 431.5 436.1 442.1 445.2 452 460.4 464.4 467.8 468.7 467.3 465.8 466.4 466.6 464.6 463.7 465.2 466.2 466.1 463.3 458.9 451.8 445.4 435.1 426.1 417.3 407.1 398.5 390.9 386 383.3 379.8 375.3 371.8 368.3 364.6 361.9 361.2 358.8 349.5 345.1 353.2 357.3 364.7 375.2 386.5 397.1 405.5 413 419.3 425.6 429.6 432.6 437.2 439.6 440.4 438.8 437.8 435 429.5 420.5 410.9 393 382.8 378.9 376.3 376.8 376.4 379.4 382.1 388.5 397.2 405.5 414.4 421.3 426.9 441.2 453.3 467 478.7 491.5 505 518.7 533.8 550.5 564.4 581 595.9 611.1 625 637.1 647.7 656.9 665.6 674.3 683 689.9 696.8 695.1 692.9 682.3 668.6
229.8 216.3 226.8 225.6 222.8 227.1 230.7 231 242 242.8 249.9 261.2 256.1 259.9 263.4 261.6 261.5 269 269.8 269.6 273.8 275.3 281.1 285.1 286.5 290.9 294.5 293 290 293 294.6 297.6 304.3 307.4 309.5 316 321.3 321.2 320.4 328.7 329 334.3 338.2 339.7 337.5 338.7 337.6 331.2 325.4 315.9 307 300.6 291.6 282 276.2 269.5 266 266.6 268.1 267.4 272.7 283 290.5 302.1 312.9 318.7 326.4 332.5 340.9 352.5 358.8 365.4 371.9 374.5 383.5 393.1 402.6 409.2 416 422.9 429.1 433.5 432.2 430.9 426.4 416.2 411.5 406.2 403.6 404.3 405.9 406.8 408 409.7 412.4 416.3 419.7 425.3 431.7 436.7 440.8 446.9 452.4 459.8 466.5 471 473.6 473.8 471.8 469.5 469.1 467.4 464.4 462.1 462.9 461.6 459.6 454.8 450.2 444.7 436.1 427.7 420.4 411.5 403.2 395.6 391.2 386.7 381.4 377.5 372.9 369.7 365.4 360.2 355.4 354.8 352.5 346.1 347.4 358.3 365.1 373.7 386.2 398.9 407.1 413.2 417.1 423.1 427.8 429.3 430.7 432.3 432.7 431 429.3 427.8 425.5 423.1 416.7 404.2 390 383.8 380.6 378.2 378.4 378.4 381.6 384.4 392.2 399.7 409.4 420.1 427.8 434.9 441.9 445.4 460.7 473.5 487.3 500.9 513.7 530.8 545.9 558.4 572.8 588.9 602.5 615.3 630.4 642.4 654.1 664.6 677 687.7 695 697 695.7 691 685.8 673.7
221.2 225.8 233.5 229.1 229.7 235.2 239.8 243.2 239.5 248.5 261.4 262.4 260.9 261.2 264.4 266.7 266.6 268.8 273.4 278.8 276.5 283.2 286.7 290.3 291 292.6 294.6 295.1 293.7 296.6 298 304.3 309 311 314.4 318.3 320.5 321.7 320.4 326.1 326.7 329.6 336.4 337.2 336.2 334.2 333.4 327.9 322.2 312.8 306 297.2 288.6 281.6 274.3 267.6 268.2 269.1 271.2 272.6 274.3 286.3 296.1 305.7 314.6 319.6 326.6 332.7 339.2 349.6 353.9 360.1 365.8 370 379.6 389 398 405.6 413.8 422.9 430.8 436.1 439 436.9 429.2 422.2 416.9 412.8 412 410.1 409.4 410.2 411.6 414.2 417.9 422.6 427.8 432.8 436.1 440.6 445.4 452.1 460.1 467.7 475 479.7 478.7 477.2 475.6 472.5 469.8 466.4 463.5 459.9 457.2 454.2 451.7 447 441.5 435.9 429.1 421.2 413.8 406.8 398.5 392.2 386.2 382.5 377.9 374.7 370.9 365.2 362.7 360.9 356.1 348.6 347.7 347 358.4 366.7 374.3 387.6 398.4 407 415.6 418.8 422.2 426.1 427.3 427.8 428.4 427.9 426.4 422.2 420.6 418.3 416.3 414.4 409.9 399.3 388.2 383.5 381.5 379.2 380.2 379.9 381.9 386.6 395.1 404.9 414.4 423 432 438.5 447.3 457 464.6 470.3 479.6 493.9 509.5 526.8 541.5 555.9 567.8 580.6 596.2 611.4 624.7 639.5 651.8 664.3 676.8 689.1 699 698.3 692.8 687.2 680.4 668.8
220.4 218.7 232.5 231 236.4 247.1 256.1 254.9 255.9 250.7 254.8 263.3 266.5 263.8 274.6 277.4 272.3 274.2 282.1 287.8 286.8 284.1 288.4 292 295.3 297.3 297.1 302.3 302.3 302.4 309.8 311.6 311 312.7 315.8 316.3 320.5 320.6 326.9 329 326.8 327.4 332 333.3 332.3 328.4 324.1 324.2 318.2 312 302.4 293.3 287.2 281.1 272.5 272.2 272 269.9 271.5 275.6 275.8 288.7 296.6 301.7 311.8 320.9 325 334.1 339.8 343.9 348.4 353.8 361 367.9 377.3 389.1 398.6 407.4 415.6 423.6 432.8 438.7 441.7 438.5 434 429.6 426.4 420.4 419.2 416.6 416.7 416.7 419.6 420.4 426.3 429.6 435.3 439.3 444.4 448.8 454.7 462.1 469.2 475.2 478.7 482.2 482.2 479 477.5 473.2 469 465 460.7 456.8 452.1 448.8 444.9 439.6 434.4 428.4 421.9 414.4 407.7 401.5 394.7 388.8 385.4 381.1 376 369.8 366.3 361.2 359.1 354.6 350.3 350.5 350.7 356.5 361.2 373.7 386.2 399.3 409 415.2 420.9 425.1 427.1 429 429.8 428.2 427.3 424.9 419.2 415 410.9 408.6 406 403.4 400.5 396.2 387 383.6 381.8 381 380.7 381.9 383.8 389.9 397.8 407.3 417.2 426.1 434.6 441.7 451.1 462.8 470.8 478.8 490.4 500.4 513.8 526.1 541.8 554.9 566 578.8 591.5 608.3 621.9 634.9 647.5 660.6 674 688.5 699 700.4 693.1 682.7 672.8 655.9
220.1 220.3 238.1 238 247.6 253.8 257.6 260.1 260.4 254.7 262.9 264.9 262.7 266.7 276.6 278.5 277.9 285.7 289.1 287.6 286.3 286.4 289.4 295.5 300.3 305 303.5 309 309.9 309.8 308.3 311.8 316 318.4 318 318.8 319.3 321.2 325.6 328.2 326.4 324.6 326.8 328.1 327.8 324.9 321.3 323 316.7 311 302.5 293.6 289.4 281.1 271.3 274 274.1 272.1 273.6 278.3 280.6 289.6 300.2 306.8 314.9 321.9 329.2 335.2 342.2 346.5 351.1 353.3 358.8 367.9 381.8 391.7 405.7 412.1 419.1 428.4 438.1 445.3 448 447.7 444.3 440.3 438.2 431.7 429.5 427.1 426.4 426.3 427.3 430.8 433.9 438.8 444.2 448.7 454.6 458.7 463.4 468.9 474.8 480.1 482.3 483.1 481.7 478.7 476 471.5 466.6 462.8 457.4 452.8 446.6 442.7 437.8 433.1 427 420.5 414.5 407.8 402.6 397.4 391.5 385.2 381.5 377.3 375 370 365.8 361.8 354.9 351.8 351.7 357 356.9 363.3 369.8 385.4 400.1 408.8 416.1 421.8 427.6 430.3 432.1 432.8 431.9 429.5 426.6 423 418.2 410.2 404.3 399.8 397.1 393.8 393.8 389.6 384.3 382.1 382 382.2 382.6 384.4 387.1 393.2 401.5 411.1 420.5 428.8 438.7 448.2 457.1 465.9 474.7 485.8 498.9 513.2 525 536.4 546.8 557.9 567.5 578.3 589.8 606.3 620.5 632.9 645.5 660.2 671.9 684.3 693.8 697 692.1 680.4 662.5 647.8
227.8 234.2 249.1 248.2 250.6 257 264.4 266.7 261.3 261.7 268.1 271.7 273.6 277.9 286 284.5 285.3 288.2 288.1 288.6 287.9 290.2 298.4 301.6 304.9 307.4 308.2 314.3 311.9 312 316.2 319 320.2 325.1 326.7 321.6 323.8 325.6 323.1 323.3 323.6 324.8 327.5 327.5 326 322.1 319.7 318.2 314.4 310.2 301.5 294.6 288.5 280.3 272.6 275.8 276.8 275.5 278.8 279.4 286.5 293.2 300.6 308.6 318.4 329.8 335.9 337.9 345.4 351.6 354.5 354.5 360.6 376 388.7 398.9 408 419.1 424.3 437.6 444.9 456.1 460.7 461.9 460.2 456.7 451.9 447.4 444.6 439.3 437.7 437.6 438.8 440 444.9 449.8 455.3 462.5 465.1 468.2 470.8 476.8 481.8 481.2 482.2 482 481 476.1 472.6 467.6 463.2 457.8 451 446.2 441 434.8 430 425.3 419.8 412.6 407.4 401.5 396.3 392.2 386.8 381.3 377.1 371.6 369.2 368.4 363.4 353.4 352.6 352.5 356.2 361.3 361.1 367.9 383.2 398.9 409.1 418.2 424.4 430.2 433.8 436.7 437.5 438.1 436.3 434.9 431.9 426 418.7 411.4 404.7 398.1 393.1 389 386.6 386 383.3 381.6 381.1 381.8 383.2 385.7 390.2 396.6 404.5 414.9 425.5 434.4 444 452 460.1 474 485.2 497.8 510.8 522.3 534.7 545 553.3 562.6 571.6 581.4 593.2 606.1 619.8 631.9 644.5 657.9 668.2 676.4 683 686.8 682.1 670.4 653.4 634.3
234 242.4 249.3 253.2 257.9 261.5 269.5 272 265.8 265.7 267.4 275 280.8 282.6 289.7 293 290.5 292.4 295.7 295.5 295.7 299.1 304.8 305.3 308.8 310.8 312.5 314.3 314.6 315.9 320.1 321.7 323.3 329.4 327.6 326.5 326.9 326.4 323.7 323.5 322.9 324.9 325.9 326.5 324.7 321.2 319.1 315.6 312.8 308.3 300.7 294.5 289.3 282.8 275.8 280.3 280.4 276.3 283 284.5 290.1 297.8 308.9 312 322.1 333.1 337 342.8 349.7 354.2 358.6 362.4 370.4 384.1 395.9 405.2 418.5 432.1 444.9 448.5 461.9 479.5 482.3 476.2 475.6 471.3 466.5 461.4 457.2 457.4 452.1 452.5 452.3 456.3 461.5 465.5 470.8 472.3 474.5 474.9 477.1 481.3 483.5 482 481.4 481.2 478.2 473.4 468.5 463.1 457.7 452.1 445.1 439.7 433.8 427 422.2 417.2 410.9 405.2 400 395.7 390.4 387.1 383.6 377.8 372.9 368.2 363 362.2 355 354.8 353.8 357 359.8 361.4 370.8 375.7 395.7 406.4 418.2 426.1 431.8 435.8 438.8 441.8 442 440.9 439.8 438.3 434.2 429.5 422.2 413.3 408.7 400.8 393.2 388.8 386.7 383.3 381.1 379.2 380.1 381 381.9 386.9 391 398.1 407.1 421.5 431.7 440.2 447.9 458.4 468.8 481.5 496.7 510.4 521.6 533.3 544.7 554 562 569.8 579.4 586.7 598 608.6 621 634 645.8 656 664.7 671.6 674.3 674.2 668.3 656.1 639.3 621.8
241.3 248.8 256.7 263.5 263.7 268.4 272.5 276.1 271 271 271.9 280.7 287.5 290.1 291.1 296.7 295.8 300.3 306.2 304.4 302.9 307.3 309.1 310.1 315.7 315.1 314.9 314.9 320.7 321 322.5 321.6 322.6 328.7 326.6 329.4 330.1 327.5 324.9 324.3 324.2 325.5 325 322.8 320.7 320.1 318.1 314.3 312.4 306.6 300.8 298.4 291.2 281.8 281 287.6 289.2 284.5 286.3 290.1 294.1 310.1 320.9 320.3 325.1 333.1 338.8 345.3 349.5 355.1 362 368.2 378.3 389.3 402.2 414.4 431 447.1 452.7 468.8 482.9 496.9 495.2 488.5 486.6 484.1 479.4 475.8 479 473.8 469.1 468.4 469.9 471.7 478.7 480.9 482 481.2 480 481.9 482 482.7 482.1 482 481.1 477.2 473.1 469.1 465.3 459.2 452.7 446 439.6 433.8 426.3 420.4 414.3 408.8 403.8 398.7 394.4 390 384.6 381.4 378.9 373.9 369.4 363.6 361.1 358.4 356.4 356.7 361 360.3 363.7 369.9 375.2 390.6 404.4 415.3 424.6 432.6 437.4 440.8 444.7 447.5 447.8 445.8 443.5 440.4 436.7 431.4 424.3 416.5 410 403.9 395.1 387.2 384.5 383.1 380.5 377.6 378.7 381.1 382.3 386.7 393 401.5 414.4 426.7 435.8 445.7 455.9 466.5 477.1 492 508 519.3 531.2 544.5 556.5 566.7 574 580.4 589 595 604.2 612.4 624.1 635.6 644.7 652.1 657 663.2 666.3 663.3 655.1 637.3 618.1 605.8
249 255.7 259.9 264.4 268.5 271.9 273.2 274.9 275.1 276 275.4 280.9 289.6 295.3 293 299.3 300.4 306.7 312.7 309.3 312.2 313.8 310.6 316.7 319.9 315.8 323.2 324.9 322.9 323.7 323.4 322.7 322.9 327.9 328.5 330.1 329.8 327 325.5 324 324.3 323.9 323.9 322.4 320.2 318.4 317.1 313.4 311.2 304.9 304.4 299.7 291.2 284.5 289.4 288.2 290.5 289.8 288.6 293.2 301.8 321.2 328.8 328.8 332.5 337.5 345.1 349.5 355.8 360.9 366.6 376 385.7 394.7 408 426.2 436.2 451.4 467.1 479.7 490.3 499 497.1 494.5 496.1 494 492.9 494.7 492.8 492.4 489.1 487.5 489.5 489.3 489.5 492.4 492 487.1 484.6 484 483.5 481.6 479.3 479 477.8 474.2 470.4 466.3 461.2 454.7 447.8 440.2 434.3 426.9 420.4 414.3 408.1 403.3 398 392.8 388.4 385.3 380.8 376.1 374.1 371.1 367.7 366.8 362.7 361 358.1 360.5 362.4 367.9 368.2 378.8 388.2 402.4 413 423.7 430.6 437.8 442.7 447.6 449.9 452.6 452.4 450.9 447.3 442.7 438.6 433.1 427.8 417.6 409.9 406.2 398.1 388.2 383 378.2 376.9 377 378.8 381.1 383.3 388.4 395.8 406.7 420.5 432.2 443.2 454.8 465 476.4 488.9 501.5 515 527.7 541.3 554 568.9 581.3 589.9 597.3 603.6 610.3 617.2 625.5 634.2 641.2 645 648.6 650.6 654 655.6 650.8 637.9 616.6 600.3 586.2
251.6 261.3 263.1 266.3 270.1 273.9 277.1 277.1 279.1 281.1 284.2 286.2 294.9 300.1 294.6 302.7 306.9 309.8 317.3 314.6 315.4 316.7 315.5 321.1 323.3 322.1 327.6 328.1 327.2 326.8 325.6 324 323.2 326.9 327.5 325.7 330.8 327.3 325.5 324 323.8 323.3 322.9 321.8 318.5 316.8 314.4 311.1 308.7 306 305.7 301.7 297 292.2 294.5 291.9 293.1 299.6 290.4 295.1 307 322.4 338.2 332.5 338.1 339.9 346 355.2 366.7 366.9 376.1 383.6 392.7 404.2 418.2 432.4 443.2 458.5 472.6 482.1 490.1 494.4 494.1 498.1 501.3 498.8 502.7 506.7 508.4 506.2 504.3 503.5 505.2 500.5 499.2 498.8 494.9 491.1 488.6 485.8 483.6 480.9 479 476.3 474.5 468.8 466 461.6 455.1 449.2 441.4 434 428 420.9 413.3 407.4 402 397.8 392.5 387.2 383.4 379.8 376.4 372.3 369.5 367.8 365.6 367.7 366.2 358 356.7 370.8 365.6 375.9 380.8 387.7 401.4 411.8 420.9 429.6 437.4 445 449.8 453.9 456.3 456.6 456.7 453.7 449.1 444.8 440.1 432.9 427.7 422 411.7 406.5 398.8 390.6 382.6 378.1 377.1 376.5 378.3 381.8 385 390.3 400 413.5 427.5 437.7 451.2 461.8 473.5 484.2 496.1 508.3 522.9 536.1 549.3 563.5 582.1 593.7 604.7 613.7 621.9 628.5 632.5 637.8 643.9 651.9 655.3 650.8 648.7 649.9 648.8 641.2 625.1 602.1 581.7 567.7
256.9 266.8 267.1 269.5 272.5 274.7 280.6 282.9 285.5 285.9 291 290.5 301.4 303.3 297.6 306.3 308.8 311.7 316.9 318.1 317.9 319.1 318.7 324.4 326.1 329.7 330.7 330 329.2 328.1 325.9 325.8 326.2 329.4 327.9 326.9 325.7 326.7 325 324.5 324 325.1 324.3 321 319.8 317.4 314.8 311.8 311.5 308.7 304.9 302.7 295.4 299.4 297.1 293.5 304.8 306.6 295 297.4 308.7 315.8 322.5 330.1 336.5 342.4 348.9 361 372.3 374.2 385.7 392.9 402.4 414 425.1 437.6 446.8 459.8 470 476.9 483.3 486.2 490.7 496.1 500.1 503.6 509.3 515.4 518.4 517.7 515.8 515.7 509 504.6 501.3 497.6 493.6 490.5 487.7 484.3 481.5 478.5 475 471.7 468.2 464.3 460 454.2 447.9 440.1 433.8 426.5 418.9 412.6 407.3 401.9 396.3 391.5 386.9 381.7 377.3 375.9 372.5 370.1 365.9 364.1 362.3 360.5 359.8 365 362.2 375.5 376.3 382.6 391.2 401.1 413.2 420.4 428.2 435.6 443.7 451.5 457.6 462.1 464.6 464.3 462 457.9 452 448.1 442.2 433.8 427.4 424.3 414.6 405.9 397.1 389 380.7 377.5 376.5 376.2 377.4 380.4 385.6 391.7 403.7 417.8 430.5 442.5 455.3 466.7 478.6 490.1 503.1 515.7 529.6 543.5 559.1 577.2 590.6 605.6 617.8 631.8 642.1 646.1 649.3 652.9 657.6 659.2 662.1 661.2 652.5 649.5 645.3 635.8 623.2 599 570.2 555.5
259.1 265.6 269.5 275.3 277.6 286.5 285.9 294.3 292.5 292.6 294.1 298.1 300.9 303.5 303.6 304.7 312.7 313.5 315.3 319 322.5 320.6 323 328.4 329.8 333.3 334.1 332.7 330.7 327.8 331.1 327.1 331.4 330.3 329 328.4 327.4 327.6 328.8 327.9 326.8 325.5 324 320.5 317.8 316 313.4 313.8 311.9 307.6 305.3 301.7 297.2 302.6 299.9 304.3 309.4 307.5 306.4 298.2 310 318.1 321.1 327.4 336.9 342.6 350.8 362.9 378.9 382.7 391.9 401.6 416.5 424.3 430 439.4 448.4 457.1 464.8 470.5 475.7 480.2 485.2 491.1 496.1 503.2 510.5 517 522.4 523.6 519 516.1 511.3 505.5 500.5 495.8 490.1 487.3 483.8 479.5 477.4 471.8 468.9 465.3 462 457.6 452.1 445.9 439.3 432.2 425 418.8 411.2 406 401.8 397.6 392 386.3 382.9 378.6 374.5 370.9 369.6 368.5 366.3 362.6 361.3 361.7 363.3 371.5 367.7 374.1 382.7 392.2 402 415 423.9 429.5 436.2 442.9 450.3 458 464.2 468.6 471.4 470.6 469 464.6 456 450.3 442.5 434.1 425.8 424.8 418.9 406.8 397.9 387.3 377.8 376.8 376.4 377.1 377.5 379.6 385.3 392.8 405.5 418.2 432.6 445 458 470 481.5 494.4 509.1 520 535.9 549.7 566.7 581.4 597.2 611.5 628.9 645.1 653.6 652.1 651.3 651.7 657.9 661.8 663 664.2 661.7 646.6 639.4 626.5 610.4 586.5 555.2 543.6
263.2 269.8 273.9 279.1 281.9 288.1 291.4 299 298.3 298.5 294.9 297 301.9 305.1 308.1 309.3 316 318.2 316.7 323.5 327.4 324.8 324.7 327.2 330 332.5 332.4 332.3 331.9 331 334.5 327.4 327.3 330.5 328.9 328.8 331.4 327.1 326.6 325.8 325.8 324.6 323.9 319.5 317.3 316.6 314.7 313.2 310.9 307.2 305.4 299.4 304.3 308.6 308.2 309.1 310.7 310.4 313 318.2 302.8 313.7 318.9 326 336.2 343 353.3 367.2 375.1 382.7 391.5 404.1 415.4 424.9 431.5 438 445.2 452 458.3 463.5 468.7 474.4 478.3 484.5 494.6 501.4 509.1 517.7 526.1 528.9 528.4 517.4 509.7 505.1 497.8 489.9 485.8 481.5 476.9 472 468.4 464.7 461 459.4 455.7 450.9 444.1 437.2 430.9 424.2 416.1 412.1 407.2 401.1 396.1 392.6 388 382.8 378.4 377.1 374.3 368 366.4 364.6 364 365.8 367.2 370.2 368.3 373.9 383.3 385 392.5 401.1 414.7 427.1 433.7 438.3 445.4 450.9 457.8 465.4 471.7 475.2 477.2 477.9 473.2 466.6 457.9 451.1 442.3 435.1 426.1 420.3 419.2 409 396.7 388.8 378.8 375.3 375.2 377.4 378.2 381.6 386.5 394.6 406.2 421.8 434.6 447.9 459.5 471.6 483.6 499.3 511.7 526.7 541.2 554 568.7 583.6 598.9 613.4 627.7 641.1 645.8 645.3 645.8 650.1 651.6 654.9 658.9 663.5 663.9 656.6 632.1 618.2 594.9 577.2 545.6 529.6
268.4 273.4 276.9 284.8 288.7 291 292 299.4 300.4 300.4 298.1 296.6 308.8 313.8 311.1 316.4 320.1 321.7 322.1 328.5 329.6 328.8 326.2 328.9 329.9 333.1 333.7 335.9 335.5 333.8 333.1 328.3 331.3 331 328.5 328.4 330.2 326.2 324.4 322.2 325 324.8 322.9 317.9 317.7 316.8 313.2 311.2 309.3 306.6 303.4 303.8 308.7 310.3 309.6 308.8 313.5 317.6 320.9 324.2 319.1 312.4 327.5 327.9 330.1 339 349.8 362 370.3 378.4 388.5 398.9 408.8 418.5 427.5 433.3 439.3 445.9 450.4 456.3 461 467.3 474 482.2 492.1 501.3 509.5 523.2 532.5 538.4 536 519.8 509.8 501.2 490.5 483.3 477.4 473.9 468.9 462.6 460.2 456.3 451.8 450.2 446.8 441.4 435.8 429.7 422.3 416.9 410.4 403.2 400 395.3 390.7 387.4 384.6 382 377.5 376.1 372.5 368.7 368.1 370.2 372 370.7 371 373.7 376.5 383.1 393.1 395.5 403.4 414.6 427.2 436.8 443.5 449.2 455.4 460 466.9 473.7 479.8 482.6 483.8 481.4 475.9 467.7 458.3 451.3 442.8 434.6 426.6 419.6 414.8 407.6 395.7 384.2 378 376.2 376.1 376.5 378.7 381.9 387.8 395.9 407.8 423.3 436.9 449.6 461.2 473.7 489.3 502.7 515.5 529.1 542.1 554.7 567.3 581.4 594.6 606.7 619.5 630 635 634.7 634.5 641.4 645.1 647.3 656.2 658.9 658.8 659.8 633 607.4 587.2 559.8 535.6 523.4
274.4 275.7 281.3 289.4 292.8 293.1 295.1 302.4 303 300.4 300.3 303.6 311.9 317.6 314.4 320.1 324.4 325.4 325.9 330.3 331.5 329.9 330.5 331.9 332.8 336.3 336.3 335.9 334.8 334.8 334.4 330.9 331.6 330.2 329.5 328.9 328.9 325.6 324.3 322.6 321 324.4 320.9 317.3 317.7 314.4 313.5 311.3 308.7 306.5 304.1 306.3 309.3 310.9 311.4 311 315.4 320.7 323.6 326.6 330.7 320.8 321 333.7 336.3 337 346.8 357.7 366.3 372.7 381.1 392.5 404 413.6 421.6 427.7 432.8 439.5 444 450.9 457.6 464.3 473 481.9 492.6 502 511.8 525.7 538.4 543.8 539.8 529.8 506.8 495.8 483.6 474.7 470.1 467.6 461.3 456.2 452 447.5 443.2 440.9 437 431.9 424.9 420.2 414.3 409.4 404.8 400 395.1 388.4 386.2 383.6 380.9 379.3 376.3 375.9 370.1 375 374.3 371.1 375.5 376.8 376.1 378.1 388.3 393.9 402.9 408.7 418.9 429.1 438.9 446.1 452.5 458.6 462.9 468.7 475.3 481.8 487.6 488.5 490.9 487.2 480.5 474.1 463.9 451.4 441 433.1 424.8 418.2 410.2 402.5 390 380.6 376 375.3 376.1 376.6 379.1 382.4 388.5 396.3 409.2 423.1 438.4 451.5 464.7 477.6 491.6 504.9 516.8 529.1 541.4 553 565 576.5 587.1 596.9 604.8 612.5 618.2 619.5 620.3 625.9 632.7 639.3 650.3 655.5 651.9 647.5 630.8 603.1 581.3 549.8 530 519.1
286.6 279.4 280.3 286.4 291.2 296.6 297.8 304.4 306.8 304.4 305.1 312 317.1 320 319.4 320.6 324.7 326.6 328.5 331 332.9 331.6 334.4 333.9 335.2 334.9 335.6 336.4 335.2 334.8 334.2 334.3 331.7 333.8 328.9 331 329.4 325.5 325.8 323.9 321.4 323.3 321.3 317.9 316.6 313.7 312.3 310.3 308.1 306.5 305.5 308.8 311.2 312.9 314.8 315.1 317.9 321.8 330 332.6 334.3 332.8 325.8 328.2 338.9 343.2 344.7 353.3 362 371.1 381.2 389.2 398.2 407.9 416.6 422.8 425.6 432.6 441.4 449.9 458.3 466.8 476 485.6 495 505.7 517.5 532.3 544 545.7 540.4 521.1 503 491.9 479 470 464.8 460.6 454.4 451 446.2 439.8 435.2 431.1 427.4 423.4 418.2 413.3 407.5 402.6 396.4 390.7 387.5 383.5 380.1 379.7 377.5 377.3 377.2 373.3 374 377.3 376.8 375.2 375.6 383.3 386.8 388.5 397.2 405.5 413.2 421 428.7 440.1 449 456.1 462.4 469.6 475.5 481.1 486.3 490.9 493.9 493.1 493.1 490.3 484.5 476 463.5 448.3 438.9 431.2 421.8 415.6 407.4 398.2 386.4 378.7 374.9 374.3 375 378.4 381.7 382.3 388.9 398.7 411 424.3 439.6 452 464.2 477.8 491.8 505.4 517.4 528.5 539.3 549.6 559.5 567.1 577.5 584.5 590.6 595.3 597.8 600.5 602.3 609.6 618.7 626.3 640.1 644.9 645.4 641.8 625.8 593.6 564.4 545.4 526.9 511.2
289.7 285 284.8 290.3 294.3 302.8 303.1 306.4 308.7 309.3 310.7 316.1 321.1 322.6 322 324.4 325.4 326.7 330.9 333 333.9 333.9 336.1 335.6 335.7 336.4 337.7 336.6 336.1 335.2 334.8 335.6 332.6 333.3 329.7 330.4 325.7 324.5 324.4 321 321.3 321 320.5 317.2 314.2 312.1 309.1 308.1 306.4 306.4 309.6 310.7 312.7 315.8 317.3 320.1 323.3 330.6 338.4 339.2 340.1 341 341 333.7 327.6 338.3 344.8 349.7 359.2 369.7 379 385.7 394.2 405.8 411.1 414.9 418.8 431.7 441.8 449.2 461.4 470.7 482.2 490.7 501.6 513 526.6 538.1 542.6 539.9 527.8 513.3 500 484.9 469.4 464.8 460.1 453.6 448.5 445.2 439.1 432.6 427.1 422.9 421 417 410.9 405.9 400.4 394.3 390.7 387.1 383.7 382.7 379.4 378.5 376.8 375.9 375.1 378.1 379 381.3 381.3 379.1 379.5 386.1 395.6 401 410.6 414.3 422.7 430.5 440.1 448 456.5 465.3 474.1 480.5 485.9 491.7 494.7 496.4 496.5 494.8 492.9 489 482.5 473 457.9 446.7 437 426.5 418.6 411.9 402.8 392.3 384.7 376.4 373.6 375.1 375.3 376.9 379.8 383.5 390 400.2 412.3 426.4 438.2 451.5 464.4 477 490.9 503.7 515.3 525.2 535.2 544.9 552.1 558.4 563.4 567.3 572.7 573.3 575.9 580.6 584.6 592 601.7 612.6 626.7 634 639.1 638.1 626 592.2 556.5 538.3 521.8 508.6
