ncols 200
nrows 93
xllcorner 270000
yllcorner 862900
cellsize 50
-1.3 -1.3 -1.3 -1.3 -1.3 -1.3 -1.3 -1.3 -1.3 -1.3 -1.3 -1.3 -1.3 -1.3 -1.3 -1.3 -1.3 -1.3 -1.3 -1.3 -1.3 -1.3 -1.3 -1.3 -1.3 -1.3 -1.3 -1.3 -1.3 -1.3 -1.3 -1.3 -1.3 -1.3 -1.3 -1.3 -1.3 -1.3 -1.3 -1.3 -1.3 -1.3 -1.3 -1.3 -1.3 -1.3 -1.3 -1.3 -1.3 -1.3 -1.3 -1.3 -1.3 -1.3 -1.3 -1.3 -1.3 -1.3 -1.3 -1.3 -1.3 -1.3 -1.3 -1.3 -1.3 -1.3 -1.3 -1.3 -1.3 -1.3 -1.3 -1.3 -1.3 -1.3 -1.3 -1.3 -1.3 -1.3 -1.3 -1.3 -1.3 -1.3 -1.3 -1.3 -1.3 -1.3 -1.3 -1.3 -1.3 -1.3 -1.3 -1.3 -1.3 -1.3 -1.3 -1.3 -1.3 -1.3 -1.3 -1.3 -1.3 -1.3 -1.3 -1.3 -1.3 -1.3 -1.3 -1.3 -1.3 -1.3 -1.3 -1.3 -1.3 -1.3 -1.3 -1.3 -1.3 -1.3 -1.3 -1.3 -1.3 -1.3 -1.3 -1.3 -1.3 -1.3 -1.3 -1.3 -1.3 -1.3 -1.3 -1.3 -1.3 -1.3 -1.3 -1.3 -1.3 -1.3 -1.3 -1.3 -1.3 -1.3 -1.3 -1.3 -1.3 -1.3 -1.3 -1.3 -1.3 -1.3 -1.3 -1.3 -1.3 -1.3 -1.3 -1.3 -1.3 -1.3 -1.3 -1.3 -1.3 -1.3 -1.3 -1.3 -1.3 -1.3 -1.3 -1.3 -1.3 -1.3 1.6 5.2 7.4 8.9 9.2 8.6 7.8 7.3 6 4.1 1.6 0.5 0 -0.5 -0.9 -1.3 -1.3 -1.3 -1.3 -1.3 -1.3 -1.3 -1.3 -1.3 -1.3 -1.3 -1.3 -1.3 -1.3 -1.3
-1.3 -1.3 -1.3 -1.3 -1.3 -1.3 -1.3 -1.3 -1.3 -1.3 -1.3 -1.3 -1.3 -1.3 -1.3 -1.3 -1.3 -1.3 -1.3 -1.3 -1.3 -1.3 -1.3 -1.3 -1.3 -1.3 -1.3 -1.3 -1.3 -1.3 -1.3 -1.3 -1.3 -1.3 -1.3 -1.3 -1.3 -1.3 -1.3 -1.3 -1.3 -1.3 -1.3 -1.3 -1.3 -1.3 -1.3 -1.3 -1.3 -1.3 -1.3 -1.3 -1.3 -1.3 -1.3 -1.3 -1.3 -1.3 -1.3 -1.3 -1.3 -1.3 -1.3 -1.3 -1.3 -1.3 -1.3 -1.3 -1.3 -1.3 -1.3 -1.3 -1.3 -1.3 -1.3 -1.3 -1.3 -1.3 -1.3 -1.3 -1.3 -1.3 -1.3 -1.3 -1.3 -1.3 -1.3 -1.3 -1.3 -1.3 -1.3 -1.3 -1.3 -1.3 -1.3 -1.3 -1.3 -1.3 -1.3 -1.3 -1.3 -1.3 -1.3 -1.3 -1.3 -1.3 -1.3 -1.3 -1.3 -1.3 -1.3 -1.3 -1.3 -1.3 -1.3 -1.3 -1.3 -1.3 -1.3 -1.3 -1.3 -1.3 -1.3 -1.3 -1.3 -1.3 -1.3 -1.3 -1.3 -1.3 -1.3 -1.3 -1.3 -1.3 -1.3 -1.3 -1.3 -1.3 -1.3 -1.3 -1.3 -1.3 -1.3 -1.3 -1.3 -1.3 -1.3 -1.3 -1.3 -1.3 -1.3 -1.3 -1.3 -1.3 -1.3 -1.3 -1.3 -1.3 -1.3 -1.3 -1.3 -1.3 -1.3 -1.3 -1.3 -1.3 -1.3 -1.3 -1.3 -1.3 3.6 5.7 7.9 9.1 9.6 8.8 8.5 7.9 7.4 5.2 3.1 1.7 0.8 0.3 -0.1 -0.6 -1.3 -1.3 -1.3 -1.3 -1.3 -1.3 -1.3 -1.3 -1.3 -1.3 -1.3 -1.3 -1.3 -1.3
-1.3 -1.3 -1.3 -1.3 -1.3 -1.3 -1.3 -1.3 -1.3 -1.3 -1.3 -1.3 -1.3 -1.3 -1.3 -1.3 -1.3 -1.3 -1.3 -1.3 -1.3 -1.3 -1.3 -1.3 -1.3 -1.3 -1.3 -1.3 -1.3 -1.3 -1.3 -1.3 -1.3 -1.3 -1.3 -1.3 -1.3 -1.3 -1.3 -1.3 -1.3 -1.3 -1.3 -1.3 -1.3 -1.3 -1.3 -1.3 -1.3 -1.3 -1.3 -1.3 -1.3 -1.3 -1.3 -1.3 -1.3 -1.3 -1.3 -1.3 -1.3 -1.3 -1.3 -1.3 -1.3 -1.3 -1.3 -1.3 -1.3 -1.3 -1.3 -1.3 -1.3 -1.3 -1.3 -1.3 -1.3 -1.3 -1.3 -1.3 -1.3 -1.3 -1.3 -1.3 -1.3 -1.3 -1.3 -1.3 -1.3 -1.3 -1.3 -1.3 -1.3 -1.3 -1.3 -1.3 -1.3 -1.3 -1.3 -1.3 -1.3 -1.3 -1.3 -1.3 -1.3 -1.3 -1.3 -1.3 -1.3 -1.3 -1.3 -1.3 -1.3 -1.3 -1.3 -1.3 -1.3 -1.3 -1.3 -1.3 -1.3 -1.3 -1.3 -1.3 -1.3 -1.3 -1.3 -1.3 -1.3 -1.3 -1.3 -1.3 -1.3 -1.3 -1.3 -1.3 -1.3 -1.3 -1.3 -1.3 -1.3 -1.3 -1.3 -1.3 -1.3 -1.3 -1.3 -1.3 -1.3 -1.3 -1.3 -1.3 -1.3 -1.3 -1.3 -1.3 -1.3 -1.3 -1.3 -1.3 -1.3 -1.3 -1.3 -1.3 -1.3 -1.3 -1.3 -1.3 -1.3 1.2 4.5 6.8 8 9.1 9.6 9.7 9.1 8.8 8.6 7.8 5.2 3.1 1.7 1.2 0.7 0.3 0 -0.4 -0.6 -0.6 -0.6 -0.7 -0.6 -0.7 -1.3 -1.3 -1.3 -1.3 -1.3 -1.3
-1.3 -1.3 -1.3 -1.3 -1.3 -1.3 -1.3 -1.3 -1.3 -1.3 -1.3 -1.3 -1.3 -1.3 -1.3 -1.3 -1.3 -1.3 -1.3 -1.3 -1.3 -1.3 -1.3 -1.3 -1.3 -1.3 -1.3 -1.3 -1.3 -1.3 -1.3 -1.3 -1.3 -1.3 -1.3 -1.3 -1.3 -1.3 -1.3 -1.3 -1.3 -1.3 -1.3 -1.3 -1.3 -1.3 -1.3 -1.3 -1.3 -1.3 -1.3 -1.3 -1.3 -1.3 -1.3 -1.3 -1.3 -1.3 -1.3 -1.3 -1.3 -1.3 -1.3 -1.3 -1.3 -1.3 -1.3 -1.3 -1.3 -1.3 -1.3 -1.3 -1.3 -1.3 -1.3 -1.3 -1.3 -1.3 -1.3 -1.3 -1.3 -1.3 -1.3 -1.3 -1.3 -1.3 -1.3 -1.3 -1.3 -1.3 -1.3 -1.3 -1.3 -1.3 -1.3 -1.3 -1.3 -1.3 -1.3 -1.3 -1.3 -1.3 -1.3 -1.3 -1.3 -1.3 -1.3 -1.3 -1.3 -1.3 -1.3 -1.3 -1.3 -1.3 -1.3 -1.3 -1.3 -1.3 -1.3 -1.3 -1.3 -1.3 -1.3 -1.3 -1.3 -1.3 -1.3 -1.3 -1.3 -1.3 -1.3 -1.3 -1.3 -1.3 -1.3 -1.3 -1.3 -1.3 -1.3 -1.3 -1.3 -1.3 -1.3 -1.3 -1.3 -1.3 -1.3 -1.3 -1.3 -1.3 -1.3 -1.3 -1.3 -1.3 -1.3 -1.3 -1.3 -1.3 -1.3 -1.3 -1.3 -1.3 -1.3 -1.3 -1.3 -1.3 -1.3 -1.3 -1.3 2.9 5.5 7.1 8.4 9.7 9.7 9.3 10.3 14.2 15.2 10.3 6.9 5.4 2.9 1.9 1.5 1.2 0.9 0.7 0.4 0.3 0.2 0.1 0.2 0.1 -0.1 -0.4 -0.6 -0.3 -0.2 -1.3
-1.3 -1.3 -1.3 -1.3 -1.3 -1.3 -1.3 -1.3 -1.3 -1.3 -1.3 -1.3 -1.3 -1.3 -1.3 -1.3 -1.3 -1.3 -1.3 -1.3 -1.3 -1.3 -1.3 -1.3 -1.3 -1.3 -1.3 -1.3 -1.3 -1.3 -1.3 -1.3 -1.3 -1.3 -1.3 -1.3 -1.3 -1.3 -1.3 -1.3 -1.3 -1.3 -1.3 -1.3 -1.3 -1.3 -1.3 -1.3 -1.3 -1.3 -1.3 -1.3 -1.3 -1.3 -1.3 -1.3 -1.3 -1.3 -1.3 -1.3 -1.3 -1.3 -1.3 -1.3 -1.3 -1.3 -1.3 -1.3 -1.3 -1.3 -1.3 -1.3 -1.3 -1.3 -1.3 -1.3 -1.3 -1.3 -1.3 -1.3 -1.3 -1.3 -1.3 -1.3 -1.3 -1.3 -1.3 -1.3 -1.3 -1.3 -1.3 -1.3 -1.3 -1.3 -1.3 -1.3 -1.3 -1.3 -1.3 -1.3 -1.3 -1.3 -1.3 -1.3 -1.3 -1.3 -1.3 -1.3 -1.3 -1.3 -1.3 -1.3 -1.3 -1.3 -1.3 -1.3 -1.3 -1.3 -1.3 -1.3 -1.3 -1.3 -1.3 -1.3 -1.3 -1.3 -1.3 -1.3 -1.3 -1.3 -1.3 -1.3 -1.3 -1.3 -1.3 -1.3 -1.3 -1.3 -1.3 -1.3 -1.3 -1.3 -1.3 -1.3 -1.3 -1.3 -1.3 -1.3 -1.3 -1.3 -1.3 -1.3 -1.3 -1.3 -1.3 -1.3 -1.3 -1.3 -1.3 -1.3 -1.3 -1.3 -1.3 -1.3 -1.3 -1.3 -1.3 -1.3 1.6 4.1 6.1 7.4 9 10.2 11.7 18.4 25.6 25.2 21.8 15.3 8.9 7.1 4.7 5 5.9 2.1 1.9 1.7 1.4 1.2 0.9 0.8 1 1 0.9 0.7 0.6 0.7 0.9 0.6
-1.3 -1.3 -1.3 -1.3 -1.3 -1.3 -1.3 -1.3 -1.3 -1.3 -1.3 -1.3 -1.3 -1.3 -1.3 -1.3 -1.3 -1.3 -1.3 -1.3 -1.3 -1.3 -1.3 -1.3 -1.3 -1.3 -1.3 -1.3 -1.3 -1.3 -1.3 -1.3 -1.3 -1.3 -1.3 -1.3 -1.3 -1.3 -1.3 -1.3 -1.3 -1.3 -1.3 -1.3 -1.3 -1.3 -1.3 -1.3 -1.3 -1.3 -1.3 -1.3 -1.3 -1.3 -1.3 -1.3 -1.3 -1.3 -1.3 -1.3 -1.3 -1.3 -1.3 -1.3 -1.3 -1.3 -1.3 -1.3 -1.3 -1.3 -1.3 -1.3 -1.3 -1.3 -1.3 -1.3 -1.3 -1.3 -1.3 -1.3 -1.3 -1.3 -1.3 -1.3 -1.3 -1.3 -1.3 -1.3 -1.3 -1.3 -1.3 -1.3 -1.3 -1.3 -1.3 -1.3 -1.3 -1.3 -1.3 -1.3 -1.3 -1.3 -1.3 -1.3 -1.3 -1.3 -1.3 -1.3 -1.3 -1.3 -1.3 -1.3 -1.3 -1.3 -1.3 -1.3 -1.3 -1.3 -1.3 -1.3 -1.3 -1.3 -1.3 -1.3 -1.3 -1.3 -1.3 -1.3 -1.3 -1.3 -1.3 -1.3 -1.3 -1.3 -1.3 -1.3 -1.3 -1.3 -1.3 -1.3 -1.3 -1.3 -1.3 -1.3 -1.3 -1.3 -1.3 -1.3 -1.3 -1.3 -1.3 -1.3 -1.3 -1.3 -1.3 -1.3 -1.3 -1.3 -1.3 -1.3 -1.3 -1.3 -1.3 -1.3 -1.3 -1.3 -1.3 1.1 4.1 5.2 6.2 8 10.4 14.3 17.4 25.8 27.2 25.5 25.7 24.1 16.5 8.9 7 6 5.9 6 5.1 4.9 5.1 2 1.7 1.6 1.7 1.9 2.1 1.8 1.8 1.8 2.1 1.9
-1.3 -1.3 -1.3 -1.3 -1.3 -1.3 -1.3 -1.3 -1.3 -1.3 -1.3 -1.3 -1.3 -1.3 -1.3 -1.3 -1.3 -1.3 0.4 0.3 -0.1 -1.3 -1.3 -1.3 -1.3 -1.3 -1.3 -1.3 -1.3 -1.3 -1.3 -1.3 -1.3 -1.3 -1.3 -1.3 -1.3 -1.3 -1.3 -1.3 -1.3 -1.3 -1.3 -1.3 -1.3 -1.3 -1.3 -1.3 -1.3 -1.3 -1.3 -1.3 -1.3 -1.3 -1.3 -1.3 -1.3 -1.3 -1.3 -1.3 -1.3 -1.3 -1.3 -1.3 -1.3 -1.3 -1.3 -1.3 -1.3 -1.3 -1.3 -1.3 -1.3 -1.3 -1.3 -1.3 -1.3 -1.3 -1.3 -1.3 -1.3 -1.3 -1.3 -1.3 -1.3 -1.3 -1.3 -1.3 -1.3 -1.3 -1.3 -1.3 -1.3 -1.3 -1.3 -1.3 -1.3 -1.3 -1.3 -1.3 -1.3 -1.3 -1.3 -1.3 -1.3 -1.3 -1.3 -1.3 -1.3 -1.3 -1.3 -1.3 -1.3 -1.3 -1.3 -1.3 -1.3 -1.3 -1.3 -1.3 -1.3 -1.3 -1.3 -1.3 -1.3 -1.3 -1.3 -1.3 -1.3 -1.3 -1.3 -1.3 -1.3 -1.3 -1.3 -1.3 -1.3 -1.3 -1.3 -1.3 -1.3 -1.3 -1.3 -1.3 -1.3 -1.3 -1.3 -1.3 -1.3 -1.3 -1.3 -1.3 -1.3 -1.3 -1.3 -1.3 -1.3 -1.3 -1.3 -1.3 -1.3 -1.3 -1.3 -1.3 -1.3 -1.3 0.8 3.5 5.2 6.3 10.3 16.1 25.4 28 24.1 27.3 27.4 27.1 27 26.6 25.6 19.5 9.2 7.4 7.2 6.5 5.8 5.5 5 5.3 4.8 4.1 4.1 5.7 6.3 5.7 5.5 5 5.4 6.1
-1.3 -1.3 -1.3 -1.3 -1.3 -1.3 -1.3 -1.3 -1.3 -1.3 -1.3 -1.3 -1.3 -1.3 -1.3 -1.3 -1.3 0.9 2.1 1.7 0.8 0.2 -0.3 -0.4 -0.5 -0.7 -0.8 -0.9 -0.9 -1 -1.1 -1.1 -1.3 -1.3 -1.3 -1.3 -1.3 -1.3 -1.3 -1.3 -1.3 -1.3 -1.3 -1.3 -1.3 -1.3 -1.3 -1.3 -1.3 -1.3 -1.3 -1.3 -1.3 -1.3 -1.3 -1.3 -1.3 -1.3 -1.3 -1.3 -1.3 -1.3 -1.3 -1.3 -1.3 -1.3 -1.3 -1.3 -1.3 -1.3 -1.3 -1.3 -1.3 -1.3 -1.3 -1.3 -1.3 -1.3 -1.3 -1.3 -1.3 -1.3 -1.3 -1.3 -1.3 -1.3 -1.3 -1.3 -1.3 -1.3 -1.3 -1.3 -1.3 -1.3 -1.3 -1.3 -1.3 -1.3 -1.3 -1.3 -1.3 -1.3 -1.3 -1.3 -1.3 -1.3 -1.3 -1.3 -1.3 -1.3 -1.3 -1.3 -1.3 -1.3 -1.3 -1.3 -1.3 -1.3 -1.3 -1.3 -1.3 -1.3 -1.3 -1.3 -1.3 -1.3 -1.3 -1.3 -1.3 -1.3 -1.3 -1.3 -1.3 -1.3 -1.3 -1.3 -1.3 -1.3 -1.3 -1.3 -1.3 -1.3 -1.3 -1.3 -1.3 -1.3 -1.3 -1.3 -1.3 -1.3 -1.3 -1.3 -1.3 -1.3 -1.3 -1.3 -1.3 -1.3 -1.3 -1.3 -1.3 -1.3 -1.3 -1.3 -1.3 1 3.2 5.2 9.5 17 23.8 31 30.8 30.1 28.8 28.5 29.4 28.9 28.8 28.1 27.7 26.8 17.7 9.5 8.7 7.6 6.4 6.1 5.7 6.2 6 5.6 6.1 6.9 7.7 8.7 9.9 9.6 12.4 21.8
-1.3 -1.3 -1.3 -1.3 1.3 1.6 -1.3 -1.3 -1.3 -1.3 1.5 5.1 5.7 5.7 6.3 6.3 5.3 4.7 4 3.4 1.4 0.7 0.4 0.2 -0.2 -0.3 -0.4 -0.4 -0.5 -0.6 -0.7 -0.9 -1.1 -1.2 -1.3 -1.3 -1.3 -1.3 -1.3 -1.3 -1.3 -1.3 -1.3 -1.3 -1.3 -1.3 -1.3 -1.3 -1.3 -1.3 -1.3 -1.3 -1.3 -1.3 -1.3 -1.3 -1.3 -1.3 -1.3 -1.3 -1.3 -1.3 -1.3 -1.3 -1.3 -1.3 -1.3 -1.3 -1.3 -1.3 -1.3 -1.3 -1.3 -1.3 -1.3 -1.3 -1.3 -1.3 -1.3 -1.3 -1.3 -1.3 -1.3 -1.3 -1.3 -1.3 -1.3 -1.3 -1.3 -1.3 -1.3 -1.3 -1.3 -1.3 -1.3 -1.3 -1.3 -1.3 -1.3 -1.3 -1.3 -1.3 -1.3 -1.3 -1.3 -1.3 -1.3 -1.3 -1.3 -1.3 -1.3 -1.3 -1.3 -1.3 -1.3 -1.3 -1.3 -1.3 -1.3 -1.3 -1.3 -1.3 -1.3 -1.3 -1.3 -1.3 -1.3 -1.3 -1.3 -1.3 -1.3 -1.3 -1.3 -1.3 -1.3 -1.3 -1.3 -1.3 -1.3 -1.3 -1.3 -1.3 -1.3 -1.3 -1.3 -1.3 -1.3 -1.3 -1.3 -1.3 -1.3 -1.3 -1.3 -1.3 -1.3 -1.3 -1.3 -1.3 -1.3 -1.3 -1.3 -1.3 -1.3 0.2 1.4 4.6 7.7 16.1 27.4 35.2 34.4 34.2 33.8 32.6 32.1 32.4 32.6 32 32 31.6 30.8 29.4 25.6 13.7 20.6 18.6 12.5 10.2 13.9 10 10.9 12.3 11.4 14.6 15.4 28.3 25.9 24.7 29.3 43.2
1.6 2 4.4 6.4 7 8.6 8.6 6.8 5.7 7.7 9.9 12.3 12.6 11.9 11.9 11.6 11.6 5.6 4.1 3.2 1.7 1.2 0.8 0.3 0.2 0.1 0.1 0 -0.1 -0.3 -0.6 -0.7 -0.9 -1.1 -1.3 -1.3 -1.3 -1.3 -1.3 -1.3 -1.3 -1.3 -1.3 -1.3 -1.3 -1.3 -1.3 -1.3 -1.3 -1.3 -1.3 -1.3 -1.3 -1.3 -1.3 -1.3 -1.3 -1.3 -1.3 -1.3 -1.3 -1.3 -1.3 -1.3 -1.3 -1.3 -1.3 -1.3 -1.3 -1.3 -1.3 -1.3 -1.3 -1.3 -1.3 -1.3 -1.3 -1.3 -1.3 -1.3 -1.3 -1.3 -1.3 -1.3 -1.3 -1.3 -1.3 -1.3 -1.3 -1.3 -1.3 -1.3 -1.3 -1.3 -1.3 -1.3 -1.3 -1.3 -1.3 -1.3 -1.3 -1.3 -1.3 -1.3 -1.3 -1.3 -1.3 -1.3 -1.3 -1.3 -1.3 -1.3 -1.3 -1.3 -1.3 -1.3 -1.3 -1.3 -1.3 -1.3 -1.3 -1.3 -1.3 -1.3 -1.3 -1.3 -1.3 -1.3 -1.3 -1.3 -1.3 -1.3 -1.3 -1.3 -1.3 -1.3 -1.3 -1.3 -1.3 -1.3 -1.3 -1.3 -1.3 -1.3 -1.3 -1.3 -1.3 -1.3 -1.3 -1.3 -1.3 -1.3 -1.3 -1.3 -1.3 -1.3 -1.3 -1.3 -1.3 -1.3 -1.3 -1.3 1.2 2.2 8.1 13.8 25.7 35.7 38 37.6 37.3 37 36.4 35.5 34.5 34.9 35.3 35.1 33.9 33.1 32.4 31.5 29.9 18 28.1 29.1 29 25.3 27.1 18.9 29 30.4 26.3 24.3 31.7 41.5 43.1 46.3 47.1 52
14.6 14.7 15.8 19.3 21.9 21.8 21.4 21.6 20.4 19.9 18.7 18 17.2 16.1 15.5 14.7 14.3 11.3 4.7 3.5 1.9 1.4 0.9 0.7 0.6 0.6 0.5 0.2 0 -0.2 -0.4 -0.6 -0.8 -0.9 -1.1 -1.3 -1.3 -1.3 -1.3 -1.3 -1.3 -1.3 -1.3 -1.3 -1.3 -1.3 -1.3 -1.3 -1.3 -1.3 -1.3 -1.3 -1.3 -1.3 -1.3 -1.3 -1.3 -1.3 -1.3 -1.3 -1.3 -1.3 -1.3 -1.3 -1.3 -1.3 -1.3 -1.3 -1.3 -1.3 -1.3 -1.3 -1.3 -1.3 -1.3 -1.3 -1.3 -1.3 -1.3 -1.3 -1.3 -1.3 -1.3 -1.3 -1.3 -1.3 -1.3 -1.3 -1.3 -1.3 -1.3 -1.3 -1.3 -1.3 -1.3 -1.3 -1.3 -1.3 -1.3 -1.3 -1.3 -1.3 -1.3 -1.3 -1.3 -1.3 -1.3 -1.3 -1.3 -1.3 -1.3 -1.3 -1.3 -1.3 -1.3 -1.3 -1.3 -1.3 -1.3 -1.3 -1.3 -1.3 -1.3 -1.3 -1.3 -1.3 -1.3 -1.3 -1.3 -1.3 -1.3 -1.3 -1.3 -1.3 -1.3 -1.3 -1.3 -1.3 -1.3 -1.3 -1.3 -1.3 -1.3 -1.3 -1.3 -1.3 -1.3 -1.3 -1.3 -1.3 -1.3 -1.3 -1.3 -1.3 -1.3 -1.3 -1.3 -1.3 -1.3 -1.3 2.3 5.3 9.8 16.8 27.6 36.9 40.4 40.2 40.4 40.4 40.3 39.5 38.7 37.8 36.8 37.1 36.8 36.1 34.6 33.6 32.6 31.4 29.1 19.6 25.4 30.6 30.9 29.9 25.9 31.4 32.6 33.5 34.9 33 43.5 46.5 48.8 51.4 54.1 56.9
26.1 25.9 25.9 25.5 25.3 25.3 24.8 24.9 23.7 23.2 22.2 21.2 20.3 19.6 18.8 17.6 16.5 15.3 6.5 4.4 2 1.5 1.2 1.1 1.1 0.8 0.6 0.3 0.1 -0.1 -0.3 -0.4 -0.6 -0.8 -1 -1.1 -1.3 -1.3 -1.3 -1.3 -1.3 -1.3 -1.3 -1.3 -1.3 -1.3 -1.3 -1.3 -1.3 -1.3 -1.3 -1.3 -1.3 -1.3 -1.3 -1.3 -1.3 -1.3 -1.3 -1.3 -1.3 -1.3 -1.3 -1.3 -1.3 -1.3 -1.3 -1.3 -1.3 -1.3 -1.3 -1.3 -1.3 -1.3 -1.3 -1.3 -1.3 -1.3 -1.3 -1.3 -1.3 -1.3 -1.3 -1.3 -1.3 -1.3 -1.3 -1.3 -1.3 -1.3 -1.3 -1.3 -1.3 -1.3 -1.3 -1.3 -1.3 -1.3 -1.3 -1.3 -1.3 -1.3 -1.3 -1.3 -1.3 -1.3 -1.3 -1.3 -1.3 -1.3 -1.3 -1.3 -1.3 -1.3 -1.3 -1.3 -1.3 -1.3 -1.3 -1.3 -1.3 -1.3 -1.3 -1.3 -1.3 -1.3 -1.3 -1.3 -1.3 -1.3 -1.3 -1.3 -1.3 -1.3 -1.3 -1.3 -1.3 -1.3 -1.3 -1.3 -1.3 -1.3 -1.3 -1.3 -1.3 -1.3 -1.3 -1.3 0.3 1.3 2 2 1.2 1.3 1.7 2.9 4.9 7.4 8.4 10.7 15.1 19.8 30.6 39.3 42.4 42.4 42.3 42.6 42.8 42.8 42.4 41.7 40.9 39.4 38.3 38.6 38.2 36.8 35.3 33.8 32.8 31.2 24 22.5 28.9 31.7 31.6 27.8 32.2 33.8 35.7 38.3 41.4 45.7 48.7 51.4 54 56.6 59.2 62.1
29.4 29.1 28.6 28.5 28.3 28.4 28 27.4 26.2 25.4 24.6 23.6 22.7 22.6 21.9 21.1 19.7 18.6 16.7 5.8 2.2 1.7 1.6 1.4 1.1 0.8 0.6 0.4 0.2 0 -0.1 -0.3 -0.5 -0.7 -0.8 -1 -1.2 -1.3 -1.3 -1.3 -1.3 -1.3 -1.3 -1.3 -1.3 -1.3 -1.3 -1.3 -1.3 -1.3 -1.3 -1.3 -1.3 -1.3 -1.3 -1.3 -1.3 -1.3 -1.3 -1.3 -1.3 -1.3 -1.3 -1.3 -1.3 -1.3 -1.3 -1.3 -1.3 -1.3 -1.3 -1.3 -1.3 -1.3 -1.3 -1.3 -1.3 -1.3 -1.3 -1.3 -1.3 -1.3 -1.3 -1.3 -1.3 -1.3 -1.3 -1.3 -1.3 -1.3 -1.3 -1.3 -1.3 -1.3 -1.3 -1.3 -1.3 -1.3 -1.3 -1.3 -1.3 -1.3 -1.3 -1.3 -1.3 -1.3 -1.3 -1.3 -1.3 -1.3 -1.3 -1.3 -1.3 -1.3 -1.3 -1.3 -1.3 -1.3 -1.3 -1.3 -1.3 -1.3 -1.3 -1.3 -1.3 -1.3 -1.3 -1.3 -1.3 -1.3 -1.3 -1.3 -1.3 -1.3 -1.3 -1.3 -1.3 -1.3 -1.3 -1.3 -1.3 -1.3 -1.3 -1.3 -1.3 -1.3 -1.3 2.4 5.5 5.4 5.5 6.3 7.2 8.4 11 16.3 16 20.3 22.1 31.8 37.7 43 44.1 44.4 44.6 44.7 44.7 44.9 45 44.6 44.3 42.9 41.1 39.7 40 39.9 39 37.5 36 34.5 32.9 27.3 25.7 30.3 32.4 33.5 32.8 31.8 35.4 37.5 40.5 44 47.3 50.7 53.7 56.6 59.2 61.9 64.5 67.4
32.2 31.8 31.2 31 30.9 30.8 30.4 29.8 29.1 28.3 27.1 26.1 25 24.6 23.8 22.6 21.4 20.8 19.5 8.6 3.4 2 1.7 1.4 1.1 0.9 0.7 0.5 0.4 0.2 0 -0.2 -0.3 -0.5 -0.7 -0.9 -1 -1.2 -1.3 -1.3 -1.3 -1.3 -1.3 -1.3 -1.3 -1.3 -1.3 -1.3 -1.3 -1.3 -1.3 -1.3 -1.3 -1.3 -1.3 -1.3 -1.3 -1.3 -1.3 -1.3 -1.3 -1.3 -1.3 -1.3 -1.3 -1.3 -1.3 -1.3 -1.3 -1.3 -1.3 -1.3 -1.3 -1.3 -1.3 -1.3 -1.3 -1.3 -1.3 -1.3 -1.3 -1.3 -1.3 -1.3 -1.3 -1.3 -1.3 -1.3 -1.3 -1.3 -1.3 -1.3 -1.3 -1.3 -1.3 -1.3 -1.3 -1.3 -1.3 -1.3 -1.3 -1.3 -1.3 -1.3 -1.3 -1.3 -1.3 -1.3 -1.3 -1.3 -1.3 -1.3 -1.3 -1.3 -1.3 -1.3 -1.3 -1.3 -1.3 -1.3 -1.3 -1.3 -1.3 -1.3 -1.3 -1.3 -1.3 -1.3 -1.3 -1.3 -1.3 -1.3 -1.3 -1.3 -1.3 -1.3 -1.3 -1.3 -1.3 -1.3 -1.3 -1.3 -1.3 -1.3 -1.3 3.1 5.8 7.7 10.6 15.2 19.8 13.2 22.7 27.3 30.9 32.7 35.4 25.4 20 42.7 44.4 45.3 46.5 46.7 46.8 46.9 47 47.1 47 46.1 45.3 44 43.2 41.7 40.8 40.3 39.4 38.1 36.6 34.4 28.9 29.5 33.4 33.9 34.7 35.9 33.6 37.4 39.5 42.6 46.2 49.9 52.9 55.5 58.6 61.6 64.6 67.2 70.1 73.6
34.6 34.1 33.9 33.5 33.4 33 32.4 31.8 31.2 30.7 29.8 28.7 27.4 25.8 24.9 23.4 22.1 21.1 19.8 17.2 3.5 2 1.7 1.4 1.2 1 0.9 0.7 0.5 0.3 0.2 0 -0.2 -0.4 -0.5 -0.7 -0.9 -1.1 -1.2 -1.3 -1.3 -1.3 -1.3 -1.3 -1.3 -1.3 -1.3 -1.3 -1.3 -1.3 -1.3 -1.3 -1.3 -1.3 -1.3 -1.3 -1.3 -1.3 -1.3 -1.3 -1.3 -1.3 -1.3 -1.3 -1.3 -1.3 -1.3 -1.3 -1.3 -1.3 -1.3 -1.3 -1.3 -1.3 -1.3 -1.3 -1.3 -1.3 -1.3 -1.3 -1.3 -1.3 -1.3 -1.3 -1.3 -1.3 -1.3 -1.3 -1.3 -1.3 -1.3 -1.3 -1.3 -1.3 -1.3 -1.3 -1.3 -1.3 -1.3 -1.3 -1.3 -1.3 -1.3 -1.3 -1.3 -1.3 -1.3 -1.3 -1.3 -1.3 -1.3 -1.3 -1.3 -1.3 -1.3 -1.3 -1.3 -1.3 -1.3 -1.3 -1.3 -1.3 -1.3 -1.3 -1.3 -1.3 -1.3 -1.3 -1.3 -1.3 -1.3 -1.3 -1.3 -1.3 -1.3 -1.3 -1.3 -1.3 -1.3 -1.3 -1.3 -1.3 -1.3 1.7 6.6 8.8 14.6 20.5 23 25.8 27.7 16.7 30.9 33.8 35.5 38.1 41.4 44.1 36.6 37 47.3 47.9 48.9 49 49.1 49.2 49.2 49 48.3 47.7 47 46.6 45.4 43.7 42 40.5 39.4 38.4 35.7 31.9 33.5 35.7 35.5 36.3 37.4 38.6 39.7 40.4 44.1 48 51.8 55.5 58.6 61.1 63.5 66.4 69.2 72 75.4 79.3
36.8 36.4 36.1 35.9 35.6 35 34.4 33.8 33.2 32.4 30.8 29.7 28.6 26.5 25.1 23.6 22.4 21.5 20.6 18.8 3.8 2 1.7 1.5 1.4 1.2 1 0.8 0.7 0.5 0.3 0.1 -0.1 -0.3 -0.5 -0.7 -0.8 -1 -1.1 -1.3 -1.3 -1.3 -1.3 -1.3 -1.3 -1.3 -1.3 -1.3 -1.3 -1.3 -1.3 -1.3 -1.3 -1.3 -1.3 -1.3 -1.3 -1.3 -1.3 -1.3 -1.3 -1.3 -1.3 -1.3 -1.3 -1.3 -1.3 -1.3 -1.3 -1.3 -1.3 -1.3 -1.3 -1.3 -1.3 -1.3 -1.3 -1.3 -1.3 -1.3 -1.3 -1.3 -1.3 -1.3 -1.3 -1.3 -1.3 -1.3 -1.3 -1.3 -1.3 -1.3 -1.3 -1.3 -1.3 -1.3 -1.3 -1.3 -1.3 -1.3 -1.3 -1.3 -1.3 -1.3 -1.3 -1.3 -1.3 -1.3 -1.3 -1.3 -1.3 -1.3 -1.3 -1.3 -1.3 -1.3 -1.3 -1.3 -1.3 -1.3 -1.3 -1.3 -1.3 -1.3 -1.3 -1.3 -1.3 -1.3 -1.3 -1.3 -1.3 -1.3 -1.3 -1.3 -1.3 -1.3 -1.3 -1.3 -1.3 -1.3 -1.3 -1.3 4.7 8.3 14.9 19.7 18.7 24.9 28.5 30.4 28.3 29.8 33.3 37.1 40 43.9 46.4 48.5 48.5 30.7 50 50.5 51.4 51.3 51.4 51.2 50.9 50.1 49.6 49 48.4 47.4 46.4 44.7 42.9 41.4 39.8 37.1 35.5 36.7 38.2 38.5 38.6 39.3 40.9 42 43.8 46.6 49.8 54 57.6 60.7 63.5 66 68.4 70.8 74.1 77.2 80.6 84.9
38.8 38.6 38.3 38 37.5 36.5 35.5 34.6 33.7 32.6 31.5 30 28.8 27 25.6 24.3 23.3 22.1 20.7 15.5 4.6 2 1.9 1.7 1.5 1.3 1.1 0.9 0.7 0.5 0.3 0.1 -0.1 -0.3 -0.4 -0.6 -0.7 -0.9 -1.1 -1.2 -1.3 -1.3 -1.3 -1.3 -1.3 -1.3 -1.3 -1.3 -1.3 -1.3 -1.3 -1.3 -1.3 -1.3 -1.3 -1.3 -1.3 -1.3 -1.3 -1.3 -1.3 -1.3 -1.3 -1.3 -1.3 -1.3 -1.3 -1.3 -1.3 -1.3 -1.3 -1.3 -1.3 -1.3 -1.3 -1.3 -1.3 -1.3 -1.3 -1.3 -1.3 -1.3 -1.3 -1.3 -1.3 -1.3 -1.3 -1.3 -1.3 -1.3 -1.3 -1.3 -1.3 -1.3 -1.3 -1.3 -1.3 -1.3 -1.3 -1.3 -1.3 -1.3 -1.3 -1.3 -1.3 -1.3 -1.3 -1.3 -1.3 -1.3 -1.3 -1.3 -1.3 -1.3 -1.3 -1.3 -1.3 -1.3 -1.3 -1.3 -1.3 -1.3 -1.3 -1.3 -1.3 -1.3 -1.3 -1.3 -1.3 -1.3 -1.3 -1.3 -1.3 -1.3 -1.3 -1.3 -1.3 -1.3 -1.3 -1.3 1.5 4.8 9.8 14.7 18.9 25.4 26.3 26.5 31.3 33.2 33.9 34.9 23.7 41.4 45.8 48.6 50.4 51.6 52.3 39.2 52.6 53.2 53.7 53.7 53.3 52.8 52.1 50.9 50.5 50 49.5 48.2 46.9 45.4 43.7 42.5 40.5 37.3 38.5 39.7 41 41.3 41.5 42.7 44.4 46.1 48.5 51.5 55.4 59.3 62.8 65.5 68 70.4 72.8 75.4 78.9 81.7 85.2 90.4
40.8 40.7 40.4 39.3 38.2 36.9 35.7 34.8 33.8 32.7 31.5 30.3 29.1 27.6 26.1 24.3 23 21.6 19.6 7.3 4.3 2.1 1.9 1.7 1.5 1.3 1.1 0.9 0.7 0.5 0.3 0.2 0 -0.2 -0.3 -0.5 -0.6 -0.8 -1 -1.2 -1.3 -1.3 -1.3 -1.3 -1.3 -1.3 -1.3 -1.3 -1.3 -1.3 -1.3 -1.3 -1.3 -1.3 -1.3 -1.3 -1.3 -1.3 -1.3 -1.3 -1.3 -1.3 -1.3 -1.3 -1.3 -1.3 -1.3 -1.3 -1.3 -1.3 -1.3 -1.3 -1.3 -1.3 -1.3 -1.3 -1.3 -1.3 -1.3 -1.3 -1.3 -1.3 -1.3 -1.3 -1.3 -1.3 -1.3 -1.3 -1.3 -1.3 -1.3 -1.3 -1.3 -1.3 -1.3 -1.3 -1.3 -1.3 -1.3 -1.3 -1.3 -1.3 -1.3 -1.3 -1.3 -1.3 -1.3 -1.3 -1.3 -1.3 -1.3 -1.3 -1.3 -1.3 -1.3 -1.3 -1.3 -1.3 -1.3 -1.3 -1.3 -1.3 -1.3 -1.3 -1.3 -1.3 -1.3 -1.3 -1.3 -1.3 -1.3 -1.3 -1.3 -1.3 -1.3 -1.3 -1.3 -1.3 -1.3 3.8 6.8 11.4 17.7 20.7 24.3 29.7 32.1 33.1 34.2 35.4 37.1 39.2 43.4 28.1 49.8 52 53.5 54.2 51.4 41.7 55 55.6 55.6 55.3 54.6 53.9 53.1 52.2 51.6 51.2 49.9 48.4 47 45.6 43.8 42.9 41.1 39.8 41 42.1 43.1 44.3 44.8 46.8 48.7 51.4 53.8 55.4 60.6 64.4 67.2 69.8 72.3 74.8 77.2 79.9 82.7 85.9 89.6 95.9
42.3 41.8 40.9 39.8 38.7 37.4 36 34.9 34 32.7 31.5 30.3 29.2 27.5 25.5 23.6 22.3 20.9 18.7 6 2.6 2.1 1.9 1.7 1.5 1.3 1.1 0.9 0.7 0.6 0.4 0.2 0.1 -0.1 -0.3 -0.5 -0.7 -0.8 -1 -1.2 -1.3 -1.3 -1.3 -1.3 -1.3 -1.3 -1.3 -1.3 -1.3 -1.3 -1.3 -1.3 -1.3 -1.3 -1.3 -1.3 -1.3 -1.3 -1.3 -1.3 -1.3 -1.3 -1.3 -1.3 -1.3 -1.3 -1.3 -1.3 -1.3 -1.3 -1.3 -1.3 -1.3 -1.3 -1.3 -1.3 -1.3 -1.3 -1.3 -1.3 -1.3 -1.3 -1.3 -1.3 -1.3 -1.3 -1.3 -1.3 -1.3 -1.3 -1.3 -1.3 -1.3 -1.3 -1.3 -1.3 -1.3 -1.3 -1.3 -1.3 -1.3 -1.3 -1.3 -1.3 -1.3 -1.3 -1.3 -1.3 -1.3 -1.3 -1.3 -1.3 -1.3 -1.3 -1.3 -1.3 -1.3 -1.3 -1.3 -1.3 -1.3 -1.3 -1.3 -1.3 -1.3 -1.3 -1.3 -1.3 -1.3 -1.3 -1.3 -1.3 -1.3 -1.3 -1.3 -1.3 -1.3 -1.3 7.7 13.7 19.3 25 28.3 28.4 27 32.1 33.9 35.1 36.3 38.1 41.3 45.1 48.1 48.7 43.2 54.7 55.9 56.7 55.7 57.2 56.8 55.9 56.9 56.6 55.5 55.4 55.3 54.4 53.1 51.6 50.2 48.7 47.2 45.8 44.3 44.3 43.7 43.3 44 45.3 46.3 47.2 48.7 50.9 53.3 56.1 58.3 59 65.1 68.8 71.5 74.1 76.6 79 81.2 83.6 86.7 89.9 94.3 99.9
43 42.3 41.1 39.9 38.7 37.7 36.5 35 34 32.8 31.5 30.4 29 27.1 24.8 23 21.6 20 17.7 6.2 2.2 2 1.8 1.6 1.5 1.3 1.1 1 0.8 0.6 0.4 0.2 0.1 -0.1 -0.3 -0.5 -0.7 -0.8 -1 -1.2 -1.3 -1.3 -1.3 -1.3 -1.3 -1.3 -1.3 -1.3 -1.3 -1.3 -1.3 -1.3 -1.3 -1.3 -1.3 -1.3 -1.3 -1.3 -1.3 -1.3 -1.3 -1.3 -1.3 -1.3 -1.3 -1.3 -1.3 -1.3 -1.3 -1.3 -1.3 -1.3 -1.3 -1.3 -1.3 -1.3 -1.3 -1.3 -1.3 -1.3 -1.3 -1.3 -1.3 -1.3 -1.3 -1.3 -1.3 -1.3 -1.3 -1.3 -1.3 -1.3 -1.3 -1.3 -1.3 -1.3 -1.3 -1.3 -1.3 -1.3 -1.3 -1.3 -1.3 -1.3 -1.3 -1.3 -1.3 -1.3 -1.3 -1.3 -1.3 -1.3 -1.3 -1.3 -1.3 -1.3 -1.3 -1.3 -1.3 -1.3 -1.3 -1.3 -1.3 -1.3 -1.3 -1.3 -1.3 -1.3 -1.3 -1.3 -1.3 -1.3 -1.3 -1.3 -1.3 -1.3 1.6 9.5 21.3 23.7 28 30.5 32.6 32.8 34.1 34.8 35.8 37 39.4 43.2 46.3 49.2 51.6 53.4 37.2 57.3 58.3 59.3 59.3 58.1 58.7 58.3 58.1 57.9 58 57.8 56.8 55.2 53.6 52.1 50.8 49.4 48 47.6 47.3 46.6 46.6 46.6 47.2 48.5 49.8 51.3 52.8 54.9 58.1 61.3 63.9 64.3 68.3 72.9 75.4 77.5 80.5 82.9 84.9 87.4 90.2 94.4 97.9 104.2
42.7 41.4 40.4 39.2 38 37.1 36.1 35 33.8 32.7 31.5 30 28.4 26.4 24.2 22.6 21.3 19.2 16.8 7.9 2.2 2 1.8 1.7 1.5 1.3 1.1 1 0.8 0.6 0.4 0.2 0.1 -0.1 -0.3 -0.5 -0.7 -0.8 -1 -1.2 -1.3 -1.3 -1.3 -1.3 -1.3 -1.3 -1.3 -1.3 -1.3 -1.3 -1.3 -1.3 -1.3 -1.3 -1.3 -1.3 -1.3 -1.3 -1.3 -1.3 -1.3 -1.3 -1.3 -1.3 -1.3 -1.3 -1.3 -1.3 -1.3 -1.3 -1.3 -1.3 -1.3 -1.3 -1.3 -1.3 -1.3 -1.3 -1.3 -1.3 -1.3 -1.3 -1.3 -1.3 -1.3 -1.3 -1.3 -1.3 -1.3 -1.3 -1.3 -1.3 -1.3 -1.3 -1.3 -1.3 -1.3 -1.3 -1.3 -1.3 -1.3 -1.3 -1.3 -1.3 -1.3 -1.3 -1.3 -1.3 -1.3 -1.3 -1.3 -1.3 -1.3 -1.3 -1.3 -1.3 -1.3 -1.3 -1.3 -1.3 -1.3 -1.3 -1.3 -1.3 -1.3 -1.3 -1.3 -1.3 -1.3 -1.3 -1.3 -1.3 -1.3 -1.3 -1.3 4.2 13.1 19.7 27.7 30.5 32.1 33.2 34.4 35.1 35.9 36.3 38 41 44.8 48.4 51.4 53.6 55.6 56.8 45 60.2 61.1 61.6 61.8 60.6 60.6 60.2 59.8 60.4 60.1 59.3 57.7 56.3 55.1 53.8 52.6 51 50.2 50.1 50.1 49.7 49.2 49.3 50.1 51.1 54.1 55.7 57.2 59.6 62.8 65.9 69 70.3 72.7 76.7 79.3 81.4 83.3 85.5 87.2 90 93.8 97.5 101.7 108.8
41.9 40.5 39.6 38.4 37.4 36.5 35.5 34.4 33.1 31.9 30.6 29 27.3 25.3 23.2 22.1 20.3 18.3 14.3 6.7 2.2 2 1.8 1.7 1.5 1.3 1.1 1 0.8 0.6 0.4 0.2 0.1 -0.1 -0.3 -0.5 -0.7 -0.8 -1 -1.2 -1.3 -1.3 -1.3 -1.3 -1.3 -1.3 -1.3 -1.3 -1.3 -1.3 -1.3 -1.3 -1.3 -1.3 -1.3 -1.3 -1.3 -1.3 -1.3 -1.3 -1.3 -1.3 -1.3 -1.3 -1.3 -1.3 -1.3 -1.3 -1.3 -1.3 -1.3 -1.3 -1.3 -1.3 -1.3 -1.3 -1.3 -1.3 -1.3 -1.3 -1.3 -1.3 -1.3 -1.3 -1.3 -1.3 -1.3 -1.3 -1.3 -1.3 -1.3 -1.3 -1.3 -1.3 -1.3 -1.3 -1.3 -1.3 -1.3 -1.3 -1.3 -1.3 -1.3 -1.3 -1.3 -1.3 -1.3 -1.3 -1.3 -1.3 -1.3 -1.3 -1.3 -1.3 -1.3 -1.3 -1.3 -1.3 -1.3 -1.3 -1.3 -1.3 -1.3 -1.3 -1.3 -1.3 -1.3 -1.3 -1.3 -1.3 -1.3 -1.3 -1.3 -1.3 4.7 20.9 17 22 28.8 33.2 34.4 35.2 35.8 36.5 37.3 39.6 42.5 46.7 50.1 53.1 55.5 56.8 58.4 59.4 47 62.7 63.1 63.6 64 63 62.1 61.7 62 61.6 61.4 60.7 59.6 58.3 57.1 55.8 53.8 53.4 53.2 52.5 52.5 52.9 52.5 52.8 53.7 53.5 56.8 59.5 62.1 64.2 67.3 70.4 73.5 75.1 77.3 80.5 82.2 83.8 85.8 87.8 90 92.6 97.5 100.7 105.6 112.9
40.7 39.6 38.7 37.8 36.8 35.8 34.7 33.6 32.4 31.1 29.7 28.1 25.9 24 22.4 20.8 19.1 17.2 9.3 5.1 2.2 2 1.8 1.7 1.5 1.3 1.1 1 0.8 0.6 0.4 0.2 0.1 -0.1 -0.3 -0.5 -0.7 -0.8 -1 -1.2 -1.3 -1.3 -1.3 -1.3 -1.3 -1.3 -1.3 -1.3 -1.3 -1.3 -1.3 -1.3 -1.3 -1.3 -1.3 -1.3 -1.3 -1.3 -1.3 -1.3 -1.3 -1.3 -1.3 -1.3 -1.3 -1.3 -1.3 -1.3 -1.3 -1.3 -1.3 -1.3 -1.3 -1.3 -1.3 -1.3 -1.3 -1.3 -1.3 -1.3 -1.3 -1.3 -1.3 -1.3 -1.3 -1.3 -1.3 -1.3 -1.3 -1.3 -1.3 -1.3 -1.3 -1.3 -1.3 -1.3 -1.3 -1.3 -1.3 -1.3 -1.3 -1.3 -1.3 -1.3 -1.3 -1.3 -1.3 -1.3 -1.3 -1.3 -1.3 -1.3 -1.3 -1.3 -1.3 -1.3 -1.3 -1.3 -1.3 -1.3 -1.3 -1.3 -1.3 -1.3 -1.3 -1.3 -1.3 -1.3 -1.3 -1.3 -1.3 -1.3 -1.3 8.5 23 28.7 25.4 29.1 29.1 34.5 35.6 36.4 37 38 40.9 44.4 48.3 51.2 54.7 57 59.1 60.3 60.9 61.4 49.9 64.7 65.2 65.1 65.2 64.2 62.8 63.5 63.3 62.7 62.4 62 60.9 59.9 58.8 56.9 56.4 56.2 55.9 55.8 55.3 55.7 55.7 56.7 57.5 57.4 60.8 63.5 66.4 68.7 71.8 74.9 78 80.3 81.6 82.9 84.2 85.6 87.5 89.2 91.9 95.6 99.8 104.2 111.3 118.9
39.5 38.3 37.5 36.6 35.6 34.4 33.2 32.3 31.2 29.9 28.4 26.6 24.5 22.6 21.4 19.9 17.7 11.8 6.4 4.3 2.1 2 1.8 1.6 1.5 1.3 1.1 0.9 0.8 0.6 0.4 0.2 0.1 -0.1 -0.3 -0.5 -0.7 -0.8 -1 -1.2 -1.3 -1.3 -1.3 -1.3 -1.3 -1.3 -1.3 -1.3 -1.3 -1.3 -1.3 -1.3 -1.3 -1.3 -1.3 -1.3 -1.3 -1.3 -1.3 -1.3 -1.3 -1.3 -1.3 -1.3 -1.3 -1.3 -1.3 -1.3 -1.3 -1.3 -1.3 -1.3 -1.3 -1.3 -1.3 -1.3 -1.3 -1.3 -1.3 -1.3 -1.3 -1.3 -1.3 -1.3 -1.3 -1.3 -1.3 -1.3 -1.3 -1.3 -1.3 -1.3 -1.3 -1.3 -1.3 -1.3 -1.3 -1.3 -1.3 -1.3 -1.3 -1.3 -1.3 -1.3 -1.3 -1.3 -1.3 -1.3 -1.3 -1.3 -1.3 -1.3 -1.3 -1.3 -1.3 -1.3 -1.3 -1.3 -1.3 -1.3 -1.3 -1.3 -1.3 -1.3 -1.3 -1.3 -1.3 -1.3 -1.3 -1.3 -1.3 1.2 5.9 21.7 31.5 32.9 29.8 25.4 34.1 34.2 35.7 37.4 38.9 41.7 46.1 50.6 53.6 55.9 58.4 60.7 62.1 63 63.4 63.8 57.9 66.2 65.9 65.8 65.4 64.1 64.5 64.4 64.2 63.8 64 63.6 62.5 61.3 59.7 59.4 59.1 58.9 59 58.9 58.6 58.6 59.3 60.4 61.5 62 65.5 68 70.4 73.2 76.1 79.3 81 81.7 83 85 86.3 87.5 89.4 91.3 94.9 99.1 103.3 111.4 117.9 124.5
37.9 37 36.2 35.3 34.1 32.9 31.7 30.8 30 28.6 27 25.3 23.4 21.6 20.4 18 16.1 8.5 5.6 2.2 2 1.9 1.7 1.6 1.4 1.3 1.1 0.9 0.8 0.6 0.4 0.2 0.1 -0.1 -0.3 -0.5 -0.7 -0.8 -1 -1.2 -1.3 -1.3 -1.3 -1.3 -1.3 -1.3 -1.3 -1.3 -1.3 -1.3 -1.3 -1.3 -1.3 -1.3 -1.3 -1.3 -1.3 -1.3 -1.3 -1.3 -1.3 -1.3 -1.3 -1.3 -1.3 -1.3 -1.3 -1.3 -1.3 -1.3 -1.3 -1.3 -1.3 -1.3 -1.3 -1.3 -1.3 -1.3 -1.3 -1.3 -1.3 -1.3 -1.3 -1.3 -1.3 -1.3 -1.3 -1.3 -1.3 -1.3 -1.3 -1.3 -1.3 -1.3 -1.3 -1.3 -1.3 -1.3 -1.3 -1.3 -1.3 -1.3 -1.3 -1.3 -1.3 -1.3 -1.3 -1.3 -1.3 -1.3 -1.3 -1.3 -1.3 -1.3 -1.3 -1.3 -1.3 -1.3 -1.3 -1.3 -1.3 -1.3 -1.3 -1.3 -1.3 -1.3 -1.3 -1.3 -1.3 -1.3 3 13.2 22.7 21.7 33.1 34.4 33.6 34.4 34.4 36.2 37.2 38.9 42.1 46.7 52 55.8 58.7 60.8 62.5 63.8 64.7 65.2 65.7 66.1 66.5 65.9 67.3 67.3 66.5 65.9 66.4 66 65.6 65.1 65.2 65 63.8 62.1 61.9 61.9 61.9 61.8 62.4 62.1 62.4 63.2 63.1 64.4 65.4 66.9 70.7 73.3 75.5 77.7 80.6 82 83 84.4 85.9 87 88.3 89.1 90.5 93.4 97.5 101.6 107.2 115.6 123.1 129.2
36.9 35.8 34.8 33.7 32.5 31.4 30.2 29.4 28.6 27.2 25.7 23.5 21.9 20.3 18.3 15.7 12.6 8.9 5.2 2.2 2 1.8 1.6 1.5 1.4 1.2 1.1 0.9 0.7 0.6 0.4 0.2 0.1 -0.1 -0.3 -0.5 -0.7 -0.8 -1 -1.2 -1.3 -1.3 -1.3 -1.3 -1.3 -1.3 -1.3 -1.3 -1.3 -1.3 -1.3 -1.3 -1.3 -1.3 -1.3 -1.3 -1.3 -1.3 -1.3 -1.3 -1.3 -1.3 -1.3 -1.3 -1.3 -1.3 -1.3 -1.3 -1.3 -1.3 -1.3 -1.3 -1.3 -1.3 -1.3 -1.3 -1.3 -1.3 -1.3 -1.3 -1.3 -1.3 -1.3 -1.3 -1.3 -1.3 -1.3 -1.3 -1.3 -1.3 -1.3 -1.3 -1.3 -1.3 -1.3 -1.3 -1.3 -1.3 -1.3 -1.3 -1.3 -1.3 -1.3 -1.3 -1.3 -1.3 -1.3 -1.3 -1.3 -1.3 -1.3 -1.3 -1.3 -1.3 -1.3 -1.3 -1.3 -1.3 -1.3 -1.3 -1.3 -1.3 -1.3 -1.3 -1.3 -1.3 -1.3 -1.3 2 13.6 22.9 29.8 32.4 24.7 28.4 34.5 35.2 35.7 35.3 38 39.5 42.2 46.5 51.2 57.4 60.5 62.9 65.1 66.4 66.5 66.8 67.3 67.8 68.1 68.3 65.3 67.2 68.2 68 67.4 67.1 67.4 67.1 66.6 65.9 66 64.7 64.4 64.5 64.9 64.6 65.1 65.7 65.9 66.5 67.1 67.8 69 69.2 71.4 75.4 77.9 79.9 81.6 82.9 84.3 85.8 87 87.8 88.6 89.8 90.7 92 95.6 99.8 105.4 112.1 120 126.9 132.5
35.7 34.3 33.2 32 30.8 29.6 28.7 27.7 26.7 25.8 23.6 21.5 19.8 18.1 16 11.3 8.3 8.3 4.4 2.1 1.9 1.8 1.6 1.4 1.3 1.1 1 0.8 0.7 0.5 0.4 0.2 0.1 -0.1 -0.3 -0.5 -0.7 -0.8 -1 -1.2 -1.3 -1.3 -1.3 -1.3 -1.3 -1.3 -1.3 -1.3 -1.3 -1.3 -1.3 -1.3 -1.3 -1.3 -1.3 -1.3 -1.3 -1.3 -1.3 -1.3 -1.3 -1.3 -1.3 -1.3 -1.3 -1.3 -1.3 -1.3 -1.3 -1.3 -1.3 -1.3 -1.3 -1.3 -1.3 -1.3 -1.3 -1.3 -1.3 -1.3 -1.3 -1.3 -1.3 -1.3 -1.3 -1.3 -1.3 -1.3 -1.3 -1.3 -1.3 -1.3 -1.3 -1.3 -1.3 -1.3 -1.3 -1.3 -1.3 -1.3 -1.3 -1.3 -1.3 -1.3 -1.3 -1.3 -1.3 -1.3 -1.3 -1.3 -1.3 -1.3 -1.3 -1.3 -1.3 -1.3 -1.3 -1.3 -1.3 -1.3 -1.3 -1.3 -1.3 -1.3 -1.3 -1.3 2 6.2 14.3 23.3 30.9 35.4 36.6 33 34.4 34.4 35.2 36.8 37.9 39.7 43.7 48.3 53.7 55.7 59.7 64.5 66.5 68 69 69.4 69.6 69.6 69.5 69.7 69.8 69.4 69.1 69.5 69.1 68.6 68.4 68.3 68.5 68.1 67.5 67.2 67.1 67 67.4 67.8 68 68.7 69.2 69.6 69.9 70.6 72.4 72.7 71 75.5 79 81.3 82.6 83.8 85.1 86.4 87.7 89 90 90.7 91.7 93.6 95.4 98.8 103.3 109.6 116.4 123.1 129 134.8
33.8 32.5 31 29.7 29 28.3 28 26.5 25.5 24 22 19.4 17.6 15.8 12.9 7.3 6 5.5 2.2 2 1.9 1.7 1.5 1.3 1.2 1 0.9 0.7 0.6 0.5 0.3 0.2 0 -0.1 -0.3 -0.5 -0.7 -0.8 -1 -1.2 -1.3 -1.3 -1.3 -1.3 -1.3 -1.3 -1.3 -1.3 -1.3 -1.3 -1.3 -1.3 -1.3 -1.3 -1.3 -1.3 -1.3 -1.3 -1.3 -1.3 -1.3 -1.3 -1.3 -1.3 -1.3 -1.3 -1.3 -1.3 -1.3 -1.3 -1.3 -1.3 -1.3 -1.3 -1.3 -1.3 -1.3 -1.3 -1.3 -1.3 -1.3 -1.3 -1.3 -1.3 -1.3 -1.3 -1.3 -1.3 -1.3 -1.3 -1.3 -1.3 -1.3 -1.3 -1.3 -1.3 -1.3 -1.3 -1.3 -1.3 -1.3 -1.3 -1.3 -1.3 -1.3 -1.3 -1.3 -1.3 -1.3 -1.3 -1.3 -1.3 -1.3 -1.3 -1.3 -1.3 -1.3 -1.3 -1.3 -1.3 -1.3 -1.3 -1.3 -1.3 2.6 4.4 14.3 24.3 22.1 27 34.1 37.3 37.4 37.2 36.9 37.9 38.4 39.3 41.4 44.6 50.4 54 59.5 62.2 65.6 67.5 68.3 69.8 70.8 71.3 71.5 71.3 71 70.9 70.3 69.5 69.4 70.5 69.9 69.7 69.6 69.6 69.6 69.6 69.6 70 70.2 70.8 71.2 71.6 71.8 73 73.1 73.1 73.3 74.3 76.2 76.9 77 79.1 81.7 83.3 84.6 86.1 87.2 88.6 89.8 91.2 92.4 93.3 93.8 94.1 97.2 101.8 106.5 112.1 118.7 125.2 131.3 136.6
31.7 30.6 29.5 28.7 28 27.3 27.2 25.5 23.8 22 19.6 17.7 15.9 13.4 10.6 6.7 4.7 2.8 2.1 1.9 1.8 1.6 1.4 1.3 1.1 0.9 0.8 0.6 0.5 0.3 0.2 0.1 -0.1 -0.2 -0.4 -0.5 -0.7 -0.8 -1 -1.2 -1.3 -1.3 -1.3 -1.3 -1.3 -1.3 -1.3 -1.3 -1.3 -1.3 -1.3 -1.3 -1.3 -1.3 -1.3 -1.3 -1.3 -1.3 -1.3 -1.3 -1.3 -1.3 -1.3 -1.3 -1.3 -1.3 -1.3 -1.3 -1.3 -1.3 -1.3 -1.3 -1.3 -1.3 -1.3 -1.3 -1.3 -1.3 -1.3 -1.3 -1.3 -1.3 -1.3 -1.3 -1.3 -1.3 -1.3 -1.3 -1.3 -1.3 -1.3 -1.3 -1.3 -1.3 -1.3 -1.3 -1.3 -1.3 -1.3 -1.3 -1.3 -1.3 -1.3 -1.3 -1.3 -1.3 -1.3 -1.3 -1.3 -1.3 -1.3 -1.3 -1.3 -1.3 -1.3 -1.3 -1.3 -1.3 -1.3 -1.3 -1.3 -1.3 3.3 5.8 13.3 15.1 23.7 32.4 31.4 32.7 37.2 38.3 38.8 39.3 39.8 41 42.5 43.6 47.1 52.4 57.5 61.5 56.7 67.5 68.9 69.7 70.4 71 71.9 72.4 72.9 72.9 72.2 71.7 71.2 72.1 72.3 72 71.5 71.7 71.7 72 72.5 73 73.5 73.8 74.5 75 75.4 75.9 75.7 76 76.3 76.4 76.5 77.5 79.1 80.4 81.3 82.8 84.3 85.8 87.3 88.9 90.5 91.5 92.7 94.2 95.6 96.4 97.2 98.5 100.4 103.5 108.2 113.6 119.6 126.1 131.8 137.2
30 29.4 28.6 27.8 27.1 26.2 24.8 23.2 21.6 19.8 17.2 15.8 13.8 10.9 7.9 5.9 3.4 2.2 2.1 1.9 1.7 1.5 1.4 1.2 1 0.9 0.7 0.5 0.4 0.2 0.1 0 -0.2 -0.3 -0.4 -0.6 -0.7 -0.9 -1 -1.2 -1.3 -1.3 -1.3 -1.3 -1.3 -1.3 -1.3 -1.3 -1.3 -1.3 -1.3 -1.3 -1.3 -1.3 -1.3 -1.3 -1.3 -1.3 -1.3 -1.3 -1.3 -1.3 -1.3 -1.3 -1.3 -1.3 -1.3 -1.3 -1.3 -1.3 -1.3 -1.3 -1.3 -1.3 -1.3 -1.3 -1.3 -1.3 -1.3 -1.3 -1.3 -1.3 -1.3 -1.3 -1.3 -1.3 -1.3 -1.3 -1.3 -1.3 -1.3 -1.3 -1.3 -1.3 -1.3 -1.3 -1.3 -1.3 -1.3 -1.3 -1.3 -1.3 -1.3 -1.3 -1.3 -1.3 -1.3 -1.3 -1.3 -1.3 -1.3 -1.3 -1.3 -1.3 -1.3 -1.3 -1.3 -1.3 -1.3 -1.3 2.1 5.8 14.6 16.6 22.3 28.1 22.2 35.6 36.6 37.1 38.8 39.8 40.4 41.5 42.9 44.5 46.9 50.2 54.7 59.1 62.5 65.4 66.8 68 70.6 71.6 72.4 72.9 72.9 73.4 74.2 74.4 73.3 73.5 73.9 74.5 74.2 74 73.9 74.8 75.3 75.8 76.2 76.6 76.8 77.5 77.9 78.1 78.5 78.4 78.2 78.5 79.1 79.2 79.7 80.7 82.1 83.3 84.4 85.5 86.9 88.3 90 91.8 93.5 94.8 95.9 97.2 97.9 98.3 98.9 100.3 101.5 104.3 108.9 114.2 120.5 126.3 131.7 137.4
29.2 28.6 27.5 26.6 25.5 23.7 22.2 20.8 19.1 17.3 15.2 13.8 11.6 8.4 5.5 3.7 2.3 2.2 2 1.8 1.7 1.5 1.3 1.1 1 0.8 0.6 0.5 0.3 0.1 0 -0.1 -0.3 -0.4 -0.5 -0.7 -0.8 -1 -1.1 -1.3 -1.3 -1.3 -1.3 -1.3 -1.3 -1.3 -1.3 -1.3 -1.3 -1.3 -1.3 -1.3 -1.3 -1.3 -1.3 -1.3 -1.3 -1.3 -1.3 -1.3 -1.3 -1.3 -1.3 -1.3 -1.3 -1.3 -1.3 -1.3 -1.3 -1.3 -1.3 -1.3 -1.3 -1.3 -1.3 -1.3 -1.3 -1.3 -1.3 -1.3 -1.3 -1.3 -1.3 -1.3 -1.3 -1.3 -1.3 -1.3 -1.3 -1.3 -1.3 -1.3 -1.3 -1.3 -1.3 -1.3 -1.3 -1.3 -1.3 -1.3 -1.3 -1.3 -1.3 -1.3 -1.3 -1.3 -1.3 -1.3 -1.3 -1.3 -1.3 -1.3 -1.3 -1.3 -1.3 -1.3 -1.3 -1.3 0.8 3.1 9 15.5 22.4 27 26.5 33 36.3 37 37 37.5 39.5 41.2 43.4 45 47.6 50.2 53.7 57.5 60.9 63.8 66.2 67.5 68.9 70.3 71.3 72.8 73.6 74.6 74.4 74.9 75.6 76 75.7 76.1 76.5 77.1 77.4 77.7 78.1 77.9 78.9 79.4 79.8 80.1 80.3 80.3 80.3 80.5 80.5 80.7 81 81.4 81.7 82.1 83.1 84 85.2 86.3 87.4 88.6 90.3 92 93.5 95.2 96.4 96.9 97.9 98.9 99.4 99.6 99.9 101 103 105.3 109.9 115 120.7 125.7 131.3 137.2
28 26.9 25.7 24.7 23.6 22 20 18.2 16.7 14.9 13.6 12.1 9.6 6.6 3.9 3.1 2.2 2.2 2 1.8 1.6 1.4 1.3 1.1 0.9 0.7 0.6 0.4 0.2 0.1 -0.1 -0.3 -0.4 -0.5 -0.7 -0.8 -0.9 -1.1 -1.2 -1.3 -1.3 -1.3 -1.3 -1.3 -1.3 -1.3 -1.3 -1.3 -1.3 -1.3 -1.3 -1.3 -1.3 -1.3 -1.3 -1.3 -1.3 -1.3 -1.3 -1.3 -1.3 -1.3 -1.3 -1.3 -1.3 -1.3 -1.3 -1.3 -1.3 -1.3 -1.3 -1.3 -1.3 -1.3 -1.3 -1.3 -1.3 -1.3 -1.3 -1.3 -1.3 -1.3 -1.3 -1.3 -1.3 -1.3 -1.3 -1.3 -1.3 -1.3 -1.3 -1.3 -1.3 -1.3 -1.3 -1.3 -1.3 -1.3 -1.3 -1.3 -1.3 -1.3 -1.3 -1.3 -1.3 -1.3 -1.3 -1.3 -1.3 -1.3 -1.3 -1.3 -1.3 -1.3 -1.3 -1.3 -1.3 1.2 5.3 12.8 22.2 24.2 25.7 32 34.4 35.4 38.3 39.1 39.5 37.9 41.9 43.5 46 49.5 53.6 56.3 59.8 62.7 65.3 66.8 68 69.1 70.2 71.5 72.3 73.9 75 76 76.4 77 77.6 77.8 78.3 78.6 79.4 80.4 80.9 81.2 81.6 82.2 81.4 82.6 83 83 83 83.1 83 83.4 83.6 83.7 83.8 84.2 84.6 85.5 86.5 87.4 88.3 89.6 90.9 92.3 94 95.6 97.1 98 98.4 98.8 99.2 99.8 100.2 100.9 101.6 103.2 105.4 108.5 112.1 115.7 119.9 124.6 128.6 131
26.5 25.2 23.8 22.9 21.7 20.4 18.5 16.5 14.6 13.2 11.9 9.4 7 4.8 3.2 2.7 2.2 2.1 1.9 1.7 1.6 1.4 1.2 1 0.9 0.7 0.5 0.3 0.2 0 -0.2 -0.3 -0.5 -0.6 -0.8 -0.9 -1 -1.2 -1.3 -1.3 -1.3 -1.3 -1.3 -1.3 -1.3 -1.3 -1.3 -1.3 -1.3 -1.3 -1.3 -1.3 -1.3 -1.3 -1.3 -1.3 -1.3 -1.3 -1.3 -1.3 -1.3 -1.3 -1.3 -1.3 -1.3 -1.3 -1.3 -1.3 -1.3 -1.3 -1.3 -1.3 -1.3 -1.3 -1.3 -1.3 -1.3 -1.3 -1.3 -1.3 -1.3 -1.3 -1.3 -1.3 -1.3 -1.3 -1.3 -1.3 -1.3 -1.3 -1.3 -1.3 -1.3 -1.3 -1.3 -1.3 -1.3 -1.3 -1.3 -1.3 -1.3 -1.3 -1.3 -1.3 -1.3 -1.3 -1.3 -1.3 -1.3 -1.3 -1.3 -1.3 -1.3 -1.3 -1.3 -1.3 1.5 8.3 20.8 19.4 25.5 31 31.3 35 37.2 37.6 40 41.1 41.6 41.6 43.7 46.5 50.8 55.4 58.8 61.3 63.7 66.2 67.6 68.6 69.9 71 72 73 73.8 74.7 76.9 78.1 78.9 79.4 79.8 80.3 80.7 81.4 82.5 83.6 84.2 84.6 85.2 85.3 85.6 85.8 85.8 85.9 86 86 86.3 86.4 86.6 86.7 86.8 87.2 88.1 88.9 90.2 91.1 92.1 93.3 94.7 96.1 97.1 98.2 99.4 99.6 99.7 99.7 99.7 99.8 101.1 101.9 103.2 104.8 107 109.8 112.7 117 119.3 122.1 122.9 122.5
24.8 23.5 22.1 20.9 19.8 18.6 16.9 15 13.1 11.8 10.3 8.2 5.5 3.9 3 2.5 2.2 2.1 1.9 1.7 1.5 1.3 1.2 1 0.8 0.6 0.5 0.3 0.1 -0.1 -0.2 -0.4 -0.6 -0.7 -0.9 -1 -1.2 -1.3 -1.3 -1.3 -1.3 -1.3 -1.3 -1.2 -1.2 -1.1 -1.1 -1 -1 -1 -1 -1.1 -1.2 -1.2 -1.3 -1.3 -1.3 -1.3 -1.3 -1.3 -1.3 -1.3 -1.3 -1.3 -1.3 -1.3 -1.3 -1.3 -1.3 -1.3 -1.3 -1.3 -1.3 -1.3 -1.3 -1.3 -1.3 -1.3 -1.3 -1.3 -1.3 -1.3 -1.3 -1.3 -1.3 -1.3 -1.3 -1.3 -1.3 -1.3 -1.3 -1.3 -1.3 -1.3 -1.3 -1.3 -1.3 -1.3 -1.3 -1.3 -1.3 -1.3 -1.3 -1.3 -1.3 -1.3 -1.3 -1.3 -1.3 -1.3 -1.3 -1.3 -1.3 -1.3 0.4 1.6 8.4 19.1 25 29.9 31.1 34.7 36.6 37.8 39.7 39.7 41.9 42.7 43.5 44.1 46 51.5 56.5 60.3 62.8 65.1 66.9 68.6 69.8 71 71.8 72.9 74 75 75.9 77.2 78.9 80.6 81.3 81.9 82.4 82.8 83.5 84.6 85.7 86.8 87.4 88 88.3 88.7 88.7 88.4 88.3 88.3 88.4 88.5 88.5 88.6 89 89.6 90.2 90.8 91.6 92.5 93.8 95.1 95.8 97.1 98.4 99.7 100 100.3 100.4 100.1 100.2 100.2 100.4 101 102 103.1 104.3 105.8 107.6 110.5 113 116.1 117.7 118.4 117.9 116.2
22.9 21.6 20.3 19.3 17.9 16.7 15.4 13.5 11.7 10.3 8.5 6.5 4.4 3.5 2.7 2.4 2.2 2.1 1.8 1.6 1.5 1.3 1.1 0.9 0.8 0.6 0.4 0.2 0.1 -0.1 -0.3 -0.5 -0.7 -0.8 -1 -1.1 -1.3 -1.3 -1.3 -1.1 -1 -1 -0.9 -0.9 -0.9 -0.8 -0.8 -0.7 -0.7 -0.7 -0.7 -0.8 -0.9 -1 -1.1 -1.3 -1.3 -1.3 -1.3 -1.3 -1.3 -1.3 -1.3 -1.3 -1.3 -1.3 -1.3 -1.3 -1.3 -1.3 -1.3 -1.3 -1.3 -1.3 -1.3 -1.3 -1.3 -1.3 -1.3 -1.3 -1.3 -1.3 -1.3 -1.3 -1.3 -1.3 -1.3 -1.3 -1.3 -1.3 -1.3 -1.3 -1.3 -1.3 -1.3 -1.3 -1.3 -1.3 -1.3 -1.3 -1.3 -1.3 -1.3 -1.3 -1.3 -1.3 -1.3 -1.3 -0.4 -0.1 0.2 0.5 0.7 1.1 2.2 12 22.8 26.4 29.5 35 36.7 38.8 40.1 40.9 42.1 42.9 43.9 44.8 46 47 50.5 56.2 59.9 63.3 66 68.1 69.6 71 72.1 73.3 74.4 75.7 76.5 77.4 78.7 80.2 81.4 82.7 83.4 84 84.9 85.7 86.9 88 89.1 89.8 90.2 90.7 90.7 91.2 91.3 91 90.8 90.8 90.8 90.8 91.2 92.1 92.6 93.2 93.8 94.4 95.1 96 97.1 98 98.9 100 101.1 101.3 101.4 101.4 101.1 100.8 100.8 101.3 101.7 102.3 103.3 104 104.9 106.4 107.9 110.1 112.8 114.6 115.4 114.5 113.4 111.3
22.1 20.7 19.1 18.2 16.8 15.4 13.6 11.8 9.4 7.6 5.6 4.1 3.3 2.8 2.5 2.2 2.2 2.1 1.9 1.7 1.4 1.2 1 0.9 0.7 0.5 0.3 0.2 0 -0.2 -0.3 -0.5 -0.7 -0.9 -1.1 -1.2 -1.3 -1.3 -0.9 -0.8 -0.7 -0.7 -0.6 -0.6 -0.6 -0.5 -0.5 -0.4 -0.4 -0.5 -0.5 -0.6 -0.6 -0.7 -0.8 -0.9 -1 -1 -0.9 -1 -0.9 -0.9 -1 -1.1 -1.2 -1.3 -1.3 -1.3 -1.3 -1.3 -1.3 -1.3 -1.3 -1.3 -1.3 -1.3 -1.3 -1.3 -1.3 -1.3 -1.3 -1.3 -1.3 -1.3 -1.3 -1.3 -1.3 -1.3 -1.3 -1.3 -1.3 -1.3 -1.3 -1.3 -1.3 -1.3 -1.3 -1.3 -1.3 -1.3 -1.3 -0.1 0.4 0.5 0.4 0.4 0.5 0.6 0.8 1.1 1.4 1.8 2.2 6 16 25.4 30.3 33.9 36.8 38 39.4 41.5 42.8 43.6 44.5 45.3 46.7 47.8 49.4 50.6 55.2 59.3 63.4 65.9 69.1 71 73.2 74.3 75.4 76.6 77.5 78.5 79.6 80.6 81.9 83.3 84.8 86.1 87.2 88 88.5 89 90.2 91.4 91.9 92.4 92.9 93.1 93 93.2 93.3 93.5 93.3 93.3 93.8 94 94.6 95.2 96 96.8 97.4 98 98.6 99.5 100.1 100.9 101.3 102.3 102.2 102.3 102.2 102.1 102.2 102.1 101.9 102.3 102.8 102.9 103.5 104.1 104.9 106.4 107.9 109.6 111.5 111.6 111.4 110 108.5 106
21.3 19.8 18.3 17 15.3 13.3 11.3 8.4 6.2 5.3 4.6 3.7 3.2 2.8 2.5 2.4 2.2 2.1 1.9 1.7 1.5 1.2 1 0.8 0.6 0.4 0.2 0.1 -0.1 -0.2 -0.4 -0.6 -0.8 -0.9 -1.1 -1.3 -1.3 -0.9 -0.6 -0.5 -0.4 -0.4 -0.3 -0.3 -0.2 -0.2 -0.2 -0.1 -0.2 -0.2 -0.2 -0.3 -0.4 -0.5 -0.5 -0.6 -0.6 -0.6 -0.6 -0.7 -0.6 -0.6 -0.7 -0.8 -1 -1.1 -1.3 -1.3 -1.3 -1.3 -1.3 -1.3 -1.3 -1.3 -1.3 -1.3 -1.3 -1.3 -1.3 -1.3 -1.3 -1.3 -1.3 -1.3 -1.3 -1.3 -1.3 -1.3 -1.3 -1.3 -1.3 -1.3 -1.3 -1.3 -1.3 -1.3 -1.3 -1.3 1.1 2 1.9 1.5 1.7 1.8 1.8 1.8 1.8 1.9 2.1 2.7 5.1 6.9 8.9 18.5 26.6 33.6 37.4 39.1 40.7 41.6 40.5 44.8 45.5 46.5 47.5 48.3 49.6 51.2 52.8 55.4 59.9 63.9 67.2 70.4 72.8 75 76.8 77.8 78.8 79.9 80.9 81.8 82.7 84 85.5 87.2 88.8 90.2 90.8 91.4 91.9 92.4 93.1 94.1 94.5 95 95.6 95.6 95.7 95.7 95.6 95.6 96.2 96.7 97.2 97.8 98.4 98.7 99.5 100.2 100.9 101.3 102 102.6 102.9 102.9 103.6 103.4 103.3 103.1 102.7 102.6 102.7 102.8 102.9 103.1 103.3 103.3 103.6 104.3 104.9 106.5 108 108.9 109.1 109 107.7 105.6 102.3 99.9
20.5 19 17.5 15.6 13.7 11.6 9.3 6.5 5.3 4.9 4.2 3.5 3.1 2.8 3 3.3 2.4 2.2 1.9 1.7 1.5 1.3 1.1 0.8 0.6 0.4 0.2 0 -0.2 -0.4 -0.5 -0.7 -0.9 -1 -1.2 -1.3 -1.1 -0.7 -0.4 -0.1 -0.1 -0.1 0 0 0.1 0.1 0.1 0.1 0 0 0 0 -0.1 -0.2 -0.3 -0.3 -0.3 -0.3 -0.3 -0.3 -0.3 -0.3 -0.4 -0.5 -0.7 -0.9 -1 -1.3 -1.3 -1.3 -1.3 -1.3 -1.3 -1.3 -1.3 -1.3 -1.3 -1.3 -1.3 -1.3 -1.3 -1.3 -1.3 -1.3 -1.3 -1.3 -1.3 -1.3 -1.3 -1.3 1.4 2.1 3.1 4.3 5.1 6.2 6.4 6.5 8.3 6.2 5 5.2 6.9 6.4 7 6.9 7.5 8.6 11.6 18 21.1 24.3 28.2 29.4 34.6 38.3 41.3 42.8 44.2 45.5 46.3 47.8 48.5 49.6 50.6 54 53.7 55.1 57.6 60.6 66.1 69.3 72 74.9 77.1 79.4 80.6 81.5 82.5 83.4 84.7 85.6 87.1 88.3 89.6 91.2 92.5 93.3 93.9 94.5 95.1 95.7 96.3 96.9 97.5 98.1 98.5 98.6 98.7 98.7 98.6 99.1 100 100.5 100.9 101.5 102.2 102.4 103 103.6 104 104 104.2 104.4 104.5 104.3 104.6 104 103.3 103.2 103.1 103.1 103.1 103.1 103.2 103.5 103.4 103.4 103.3 103.9 104.8 105.9 106 106.7 106.3 105.4 103 100.1 96.6 93.1
18.7 17.4 15.9 14 12.1 10.2 8.3 6.2 5 4.5 3.9 3.6 3.2 2.8 2.6 2.7 2.5 2.2 2 1.8 1.6 1.3 1.1 0.9 0.7 0.4 0.2 0 -0.2 -0.4 -0.6 -0.8 -1 -1.1 -1.3 -1.3 -0.9 -0.5 -0.1 0.1 0.2 0.2 0.3 0.3 0.4 0.4 0.4 0.3 0.3 0.3 0.3 0.2 0.1 0 0 0 0 0 0 0 0 0 -0.1 -0.3 -0.4 -0.6 -0.7 -0.9 -1.1 -1.3 -1.3 -1.3 -1.3 -1.3 -1.3 -1.3 -1.3 -1.3 -1.3 -1.3 -1.3 -1.3 -1.3 -1.3 -1.3 -1.3 1.9 4.7 5.3 5.9 7.3 9.1 12.8 15 17.7 20.5 22 23.5 24.2 17.8 20.5 23.7 11.3 18.4 23.3 19.9 22.1 23.8 25.3 26.6 28.2 31.9 36.3 39.2 40.1 42.3 44.7 46.2 47.4 48.4 49.5 51.2 52 53.5 55.3 55.2 56.7 59.5 62.8 66.6 72.5 74.4 77.2 80.2 81.7 83.5 84.8 85.9 87 88.1 88.9 90.1 91.4 92.5 93.9 94.9 95.7 96.4 97 97.6 98.2 98.8 99.4 100.1 100.7 101.1 101.4 101.6 101.7 101.7 102 102.6 103.5 104.5 105 105.6 105.5 105.8 106 106.2 106 105.7 105.9 106 105.9 105.8 105.4 104.7 104 103.4 103.3 103.3 103.2 103.3 103.3 103.1 102.9 102.9 102.7 102.6 103.4 104.1 104.2 103.9 102.8 100.8 97.8 93.8 90.2 86.6
17.1 15.8 14.2 12.6 10.9 9.2 7.5 5.4 4.7 4.5 4.2 4 3.2 2.9 2.6 2.7 2.8 2.2 2.1 1.9 1.6 1.4 1.2 1 0.7 0.5 0.3 0.1 -0.1 -0.4 -0.6 -0.8 -1 -1.3 -1.3 -1 -0.6 -0.3 0.1 0.4 0.5 0.5 0.6 0.6 0.7 0.7 0.6 0.5 0.5 0.5 0.5 0.5 0.4 0.3 0.3 0.3 0.4 0.4 0.3 0.3 0.3 0.3 0.2 0 -0.2 -0.2 -0.3 -0.5 -0.6 -0.8 -1 -1.3 -1.3 -1.3 -1.3 -1.3 -1.3 -1.3 -0.7 -0.7 -1.3 -1.3 -1.3 0.9 2.2 6.2 10.8 16.2 19.6 21.9 25.5 24.4 26.5 27.8 28.1 27.8 29.6 29.3 29.3 24 28.4 21.8 25.9 27 26.8 27 27.7 28.1 29.2 31.8 36.2 40 38.4 43.9 44.9 46 47.7 49.7 51.1 52 52.5 54.3 55.8 56.9 56.4 60.1 62.3 65.6 69.4 74.1 77.7 79.7 83.4 85.1 86.2 87.9 89.2 90.3 91.4 92.6 93.7 94.8 95.8 96.8 97.5 98.1 98.9 99.5 100.1 100.7 101.4 102 102.6 103.2 103.8 104.1 104.3 104.6 104.7 104.8 105.5 106.2 107.1 108 108.3 108.2 108.4 108.4 108.5 108.3 107.9 107.7 107.6 107.3 106.8 106.3 105.8 105.1 104.4 103.9 103.5 103.5 103.4 103 102.8 102.6 102.5 102.3 102.1 102 101.9 101.4 101.2 99.9 98 95.4 91.9 87.1 83.1 78.6
15 14.2 12.9 11.3 10 8.2 6.5 5.2 4.8 4.5 4.6 4.3 3.3 2.9 2.5 2.4 2.3 2.2 2.2 2 1.7 1.5 1.3 1.1 0.8 0.6 0.4 0.2 -0.1 -0.3 -0.5 -0.8 -1 -1.3 -1.3 -0.7 -0.3 0 0.3 0.7 0.8 0.8 0.9 0.9 1 0.9 0.8 0.8 0.8 0.8 0.8 0.7 0.6 0.6 0.6 0.7 0.7 0.7 0.6 0.6 0.6 0.6 0.4 0.3 0.1 0.2 0.1 0 -0.2 -0.3 -0.4 -0.5 -0.5 -0.5 -0.3 0 -0.1 0.3 0.8 0.8 1 1.3 2.2 7.2 10.9 19.3 28.9 27.5 19.7 29.3 28.1 28.9 29.4 30.6 31.2 31.2 31.7 31.8 31.4 28.4 30.2 30.1 27.6 29.7 28.8 30.4 31.7 32.8 36.5 37.9 40.6 44.7 46 46.7 48.8 50.3 52.3 53.7 55.1 55.8 56.8 57.7 59.9 61.4 63.4 65.9 69.7 73.7 77.6 80.9 82.8 85.9 87.9 89.3 90.9 92.4 93.6 94.7 95.9 97 98.1 99.1 99.8 100.5 101 101.5 102 102.6 103.2 103.8 104.3 104.9 105.5 106.1 106.5 106.9 107.2 107.7 107.7 108.4 109 109.7 110.4 110.5 110.6 110.7 110.6 110.5 110 109.8 109.3 108.8 108.2 107.6 107.1 106.6 106.1 105.6 104.9 104.4 104 103.6 102.6 102.3 102.3 102.1 101.5 101.2 100.9 100.2 99.1 97.8 96.6 95.1 92.5 89.5 85.5 80.6 75.8 70.5
13.9 12.7 11.5 10.2 9.4 7.7 5.9 5.2 4.8 4.4 4.5 4.6 3.6 2.8 2.5 2.4 2.3 2.2 2.2 2.1 1.9 1.6 1.4 1.2 1 0.7 0.4 0.2 -0.1 -0.4 -0.7 -0.9 -1.2 -1.3 -1.3 -0.6 0 0.3 0.6 0.9 1.1 1.1 1.2 1.2 1.2 1.1 1.1 1 1 1 1 1 0.9 0.8 0.9 1 1 1 0.9 0.9 0.9 0.9 0.7 0.5 0.5 0.6 0.5 0.4 0.3 0.2 0.1 0.1 0.2 0.2 0.4 1 1.3 2 3.1 4 6 8.2 13.4 25.9 29.2 30.3 31.6 31.3 26.4 30.4 30.5 31.7 31.9 32.7 33.7 34.1 34.2 34.5 32.1 33.3 32.9 32.7 25 32.4 32.7 33.9 35.5 39.6 43 44.3 46.4 48.1 50.6 51.3 53.2 54.8 56.2 57.7 59 60.2 61.1 63 64.4 66.4 69.2 73.3 77.2 82.9 86 87.9 89.6 91 92.5 93.8 95.2 96.7 98 99.1 99.9 100.7 101.9 102.6 103.4 104.1 104.7 105 105.4 105.9 106.4 106.9 107.4 107.9 108.4 109 109.4 109.7 110.3 111 111.6 112.1 112.6 112.7 112.8 112.9 112.9 112.7 112.4 111.9 111.5 111 110.1 109.4 108.8 108.2 107.5 106.9 106.4 105.8 105.3 104.7 104.1 103.7 100.5 101.6 101.4 100.7 100.2 99.2 98 97.1 95.7 93.8 91.8 89.5 86.6 82.5 77.6 72.7 67.9 62.2
13.3 11.7 10.4 9.6 8.7 7.2 5.8 4.6 4.9 4.4 4.5 4.4 4.3 3.3 2.6 2.5 2.3 2.2 2.2 2.2 1.9 1.6 1.4 1.1 0.8 0.5 0.3 0 -0.3 -0.5 -0.8 -1.1 -1.3 -1.3 -1.3 -0.5 0.1 0.6 0.9 1.1 1.4 1.5 1.5 1.5 1.4 1.4 1.3 1.3 1.3 1.3 1.3 1.2 1.2 1.2 1.2 1.3 1.4 1.4 1.2 1.2 1.2 1.1 1 0.9 1 1 0.9 0.9 0.7 0.7 0.7 0.7 0.9 1 1.1 1.7 3.9 5.8 7 9.6 12.5 24.1 23.5 30.8 33.3 33.6 34.2 33.3 32.3 33.2 34 35 34.9 35.7 36.6 36.6 36.6 36.7 36 35.9 33.7 35.4 31.8 35.7 36.8 40.5 41.8 45.3 47.1 50.1 50.8 52.7 54.3 54.6 57.2 58.6 59.8 61.2 62.8 64.7 65.8 67.1 69.6 72.5 77.3 82.6 87.1 89.5 91.3 93 93.8 95.2 96.7 98 99.1 99.7 101 102.2 103.3 104.5 105.4 106.1 106.7 107.4 107.8 108.6 108.9 109.4 109.9 110.4 110.9 111.4 111.9 112.4 113 113.4 114 114.4 114.8 115.3 115.3 115.2 115.2 115.2 114.8 114.3 113.8 113.2 112.7 111.8 111 110.1 109.2 108.5 107.9 107.2 106.6 106 105.4 104.5 103.9 103 98.8 100.4 100.3 99.1 97.7 96.4 95 93.7 91.5 89.1 86 83 79.3 74.6 69.6 64.5 59.6 54.4
12.8 11.3 9.7 9 8.3 6.5 4 4 4.8 4.5 4.2 4 4.2 3.8 2.6 2.5 2.4 2.2 2.2 2.2 2 1.7 1.3 0.9 0.7 0.4 0.1 -0.2 -0.4 -0.7 -1 -1.2 -1.3 -1.3 -0.7 -0.1 0.3 0.8 1.3 1.5 1.7 1.8 1.8 1.7 1.7 1.6 1.6 1.5 1.5 1.5 1.6 1.5 1.5 1.5 1.6 1.6 1.7 1.7 1.6 1.5 1.5 1.4 1.3 1.3 1.4 1.4 1.3 1.4 1.3 1.3 1.2 1.4 1.6 1.7 1.9 3.6 5.5 8.9 10 23.6 21.8 32.1 32.3 30.5 34.7 36.3 36.3 35.7 37.4 37.6 37.4 37.6 38 38.7 38.9 39 39 38.7 38.5 38.3 36.7 38 34.5 40.8 43.4 46.9 49.4 50.2 52.6 54.6 54.9 57.4 58.9 60.6 59.8 62.4 64.2 65.9 66.9 68.7 70.7 71.9 77.9 82.4 86 90.4 92.5 94.4 95.8 96.9 97.8 99.3 100.4 101.5 102.3 102.9 104 105.1 106.2 107.3 108.4 109.3 110 110.5 110.8 111.4 112.2 112.9 113.4 113.9 114.4 114.9 115.4 115.9 116.5 117 117.3 117.5 117.9 117.9 117.7 117.5 116.9 116.7 116.2 115.6 115.1 114.2 113.4 112.3 111.1 109.9 109.1 108.5 107.8 107.2 106.6 106 105.3 103.9 102.7 101.6 96.2 97.3 98.5 97 95.5 93.5 91.8 89.1 86.7 83.7 80.2 76.2 71.8 66.9 61.4 56.5 49.6 39.7
12.3 10.8 9.1 8.2 6.7 4.8 5.4 5.2 4.1 3.7 3.6 4.1 4.5 4.3 3.4 2.7 2.6 2.4 2.2 2.2 2.2 1.9 1.5 1.2 0.8 0.4 0 -0.3 -0.6 -0.8 -1.1 -1.3 -1.3 -0.5 0.1 0.5 0.9 1.2 1.5 1.9 2.1 2.1 2.1 2 1.9 1.8 1.8 1.8 1.8 1.8 1.8 1.8 1.7 1.8 1.9 2 2 2 1.9 1.8 1.8 1.7 1.6 1.7 1.8 1.8 1.8 1.8 1.8 1.8 1.9 2 2.7 7.5 17.6 17.1 19.9 26.7 21.3 31 32.7 21.9 37.4 37.5 37.9 39.4 40.3 39 40.7 40.9 40.5 40.3 40.7 40.9 40.9 41.1 41.1 40.4 41.1 40.9 40.7 41.3 44.1 43.9 50.4 51 54.1 54.5 57 59 59.8 61.9 63.5 65 66.3 66.3 68.4 70.5 71.4 73.9 77.8 82.1 86.3 91.7 93.3 95.7 97.1 98.6 99.7 100.7 101.8 102.5 103.4 104.5 105.3 106.1 107 108 109.2 110.5 111.8 112.5 113.1 113.5 113.8 114.2 114.9 115.9 116.6 117.2 117.7 118.3 119 119.5 120 119.7 119.7 120 119.7 119.5 119.3 118.6 118 117.8 116.8 115.8 114.9 114 113.2 112.1 111 109.8 108.9 108.4 107.8 107.2 106.6 105.8 104.5 103.1 101.8 100.5 98.6 90.4 95.3 94.6 92.6 90.4 87.5 84 81.7 77.7 73.6 69.3 63.9 59.2 54 46.3 15.4 1.8
11.5 9.8 7.6 6.5 5 4.5 5.4 4.9 4.2 3.7 3.4 3.6 3.7 3.9 4.1 3 2.7 2.4 2.4 2.2 2.3 1.9 1.5 1.2 0.8 0.5 0.1 -0.2 -0.6 -1 -1.3 -1.3 -0.2 0.3 0.8 1.2 1.7 2 2.2 3.8 4.8 3.9 2.9 2.2 2.1 2.1 2.1 2.1 2.1 2.1 2.1 2.1 2.1 2.1 2.2 2.4 3.6 2.9 2.2 2.1 2.1 2 2 2.1 2.2 3.5 3 3.1 3.5 4.7 7.2 11.4 17.2 23 30.3 31.5 32.8 34.4 26.9 36 38.2 33.4 39.9 41.4 41.6 42.7 43.3 43.2 43.7 43.7 43.5 43.1 43 42.9 43 43.2 43.2 42.5 44 44.1 44.9 47.7 50.4 52.7 54 56.4 58.6 60.3 61.3 62.5 64 65.3 67.6 69.1 70.4 71.3 72.2 75.6 78.7 81.4 87.1 90.8 91.6 96.5 98.4 99.7 100.9 102 103.3 104.1 104.9 105.6 106.3 107.3 108.1 109 110.1 111.5 112.5 113.5 114.5 115.3 115.9 116.3 116.7 117.2 117.7 118.9 119.6 120.3 120.9 121.4 121.9 122.2 122.3 122.2 122 121.6 121.2 121.1 120.4 119.7 119 118.4 117.5 116.3 115.2 114 112.8 111.7 110.6 109.5 108.6 107.5 106.9 106.3 105.7 104.5 102.9 101.7 100.4 99 96.8 86 92.2 91.3 89 86.3 83.7 76.4 74.8 71.5 66.7 61.5 56.3 49.1 30.8 8.6 1.8 -1.3
11.1 9.6 7.5 6.9 5.4 5.6 5.3 4.8 4.3 3.8 3.4 3.3 3.3 3.3 3.5 3 2.7 2.4 2.6 2.3 -1.3 2.3 1.5 0.3 0.1 -0.3 -0.6 -1 -1.3 -1.3 -1.3 -0.1 0.6 1.2 1.6 2.1 3 4.1 5.3 6.3 5.9 5.8 6.1 7.1 6 5.7 2.2 2.2 3.2 4.4 5 5.4 4 5.1 5.2 5.4 5.9 7.2 7.3 6.9 6.1 5.3 4.6 5.6 6.2 6.7 7.9 9.8 11.9 17.3 25.2 28.9 26 31.8 31.4 36 37.5 38.8 33.4 39.4 41.6 42.3 38.7 44.6 44.9 45.3 45.7 45.5 45.2 45.1 45 45 45.2 45 45 45.2 45.6 45.4 46.4 48.6 51.7 53.3 56.6 59.5 59.1 61.4 62.7 65 65.9 66.8 68.3 69.5 71.4 73 74.4 75.8 76.8 82.3 86.1 90.1 94.8 96.7 96.2 101 102.2 103.3 104.4 105.4 106.4 107.3 108.1 108.9 109.6 110.2 111.4 112.5 113.6 114.9 115.8 116.7 117.3 117.9 118.5 118.9 119.4 120.1 120.9 121.8 122.6 123.1 123.5 124 124.3 124.3 124.4 124.1 123.8 123.3 122.8 122.3 121.4 120.5 119.7 119 118.1 117.1 115.9 114.3 112.9 111.8 110.7 109.3 108.3 107.2 105.3 105.1 104.2 102.8 101.4 100.1 98.4 93.7 79 80.3 71 87.8 85 80.1 77.3 67.6 65 60.5 57.3 52.8 44.5 15.5 -1.3 -1.3 -1.3 -1.3
10.1 8.3 7.1 5.5 7.4 6.6 5.7 5.3 4.9 4.6 4.1 3.5 3.4 3.4 3.3 2.8 2.6 2.5 2.8 2.4 -1.3 -1.3 2.2 0.4 -1.3 -1.3 -1.3 -1.3 -1.3 -1.3 0 0.9 1.6 2.1 3.1 5.3 6.7 7.4 7.8 8.6 9 8.4 5.2 9.9 9.2 9 10.8 10.5 9 7.8 8.3 9 14 12.7 12.8 14.8 17.5 16.1 17.6 20.7 20.7 18.5 18.5 16.5 19.2 20.9 16.3 26.3 27.2 29.2 30.2 34 34.6 36.3 31 39.6 41.2 42.4 39.7 41.6 44.6 45.1 40.9 46.9 47.4 47.9 47.5 47 47 47.2 47.1 47.1 47.4 47.6 48 48 48.4 49.4 52.1 54.2 58.4 60.7 62.1 64.2 63.6 65.5 66.9 69.3 70.3 71.5 73.2 74.5 76.1 78 79.2 81.3 85 90 94.4 97.6 99.9 101.6 102 104.4 105.3 106.6 107.7 108.6 109.5 110.4 111.3 112.2 112.9 113.7 114.5 115.8 117.1 118.2 118.9 119.5 120.1 120.7 121.2 122 122.7 123.4 124.3 124.6 124.9 125.4 126 126.3 126.3 126.3 126.2 125.8 125.2 124.7 124.2 123 122.1 121.2 120.4 119.6 118.4 117.4 116.3 114.5 112.9 111.8 110.7 108.9 108.2 106.5 104.2 102.8 102.3 100.8 99.3 97.7 95.8 94.1 75.2 55.6 51.1 66.9 75.1 67.1 63.3 58.7 53.2 44.9 39.1 38.3 -1.3 -1.3 -1.3 -1.3 -1.3 -1.3
8.8 8.2 7.5 7.4 7.4 7.4 6.9 6.4 6 5.6 5 4.4 4 3.7 3.5 3.2 2 2.1 2.8 -1.3 -1.3 -1.3 -1.3 -1.3 -1.3 -1.3 -1.3 -1.3 1.3 1.5 1.6 2.1 2.9 5 6.9 8.8 9.6 9.4 9.3 10.1 10.9 12.9 9.8 9.5 15.8 17.1 17.9 18.4 19.2 19.3 19.2 19.5 20.1 20.9 21.5 22 21.7 21.3 17.6 23.3 23.8 24.3 25.1 25.5 25.9 25.9 19.1 30.2 32.2 34.3 36.5 38 39.5 40.7 39.8 41.3 44.3 45.4 45.8 41.8 47.2 47.6 44.6 48.9 49.1 48.8 48.5 48.4 49 49.4 49.3 49.5 49.8 49.3 51.1 51.9 53.6 55.2 59.8 60.9 63.7 65.7 66.6 68.6 68.9 71.1 72.2 73.6 74.7 76 78.1 79.7 81.2 83.8 86.1 91.8 94.9 98 100.4 102.4 103.9 105.3 105.1 107.4 108.4 109.7 110.7 111.6 112.5 113.4 114.3 115.1 116.1 117 118 118.8 120 121.1 121.8 122.4 123.1 123.9 124.5 125.5 126 126.5 126.7 127 127.3 127.5 128.1 128.3 128.2 128 127.9 127.1 126.4 125.7 124.8 123.9 122.8 121.8 121 119.8 118.4 117.1 115.8 114.6 113 111.8 110.3 108.1 106.9 105.4 103.2 101.1 99.5 98.5 96.6 94.7 92.3 89.8 74.6 56.4 31 48.9 48.2 56.3 53.9 49 39.5 4.4 -1.3 -1.3 -1.3 -1.3 -1.3 -1.3 -1.3 -1.3
8.6 8.9 8.3 7.6 8.4 7.9 7.6 7.5 7.1 6.7 6.1 5.4 4.8 4.5 3.9 3.4 2.8 1.9 1.9 -1.3 -1.3 -1.3 3.5 3.4 3.1 3.3 4.2 4.4 6 5.7 5.2 5.6 6 7.4 9.7 10.9 11.1 11.3 11.4 12 12.7 14.5 15.3 12 10.2 16.7 20.5 18.8 22.1 22.5 22.4 22.7 23.1 23.6 24.1 23.9 24.6 24.6 16.3 25.4 25.7 26.8 27.2 27.8 29.3 30.6 27 35.6 37.6 39.3 40.6 41.9 43.3 43.9 44.4 42.8 46.5 48.1 48.6 42.2 48.9 49 49.4 50.3 50.1 50.1 50.5 50.7 51 51.4 51.5 52.6 53.3 54.3 55.4 58.4 61.2 61.3 65.3 66.9 65.3 70.4 71.8 73.3 74.2 74.9 74.2 77.5 79.8 80.8 82.6 84.4 87 90.9 95.6 98.8 101.3 103 104.7 105.6 107.3 108.4 109 110 111.5 112.6 113.5 114.5 115.4 116.3 117.1 118 118.9 119.9 120.9 121.9 123.1 124 125 125.8 126.6 127.2 127.7 128.5 128.8 129.2 129.3 129.5 129.7 129.9 130 129.8 129.6 129.4 128.6 127.8 127 126.2 125.3 124.4 123.4 122.2 121.1 120 118.7 116.7 115.3 114 112.7 111.1 109.2 107 105.3 103.8 101.5 99.5 97.8 95.4 93.2 90.9 88 85.4 82.6 66.6 39.5 21.7 21.4 48.8 19.1 28.6 -1.3 -1.3 -1.3 -1.3 -1.3 -1.3 -1.3 -1.3 -1.3 -1.3
8.8 9 8.7 8.4 9.2 8.4 7.9 7.8 7.9 7.6 7.4 6.8 5.9 5.4 5.2 4.9 4.1 3.7 4.4 4.6 5.2 6 6.5 5.8 4.9 5.2 6.5 7 9.1 10 10.6 11.1 11.3 11.5 12.4 12.3 12.7 13.5 14.2 14 15.3 17 18.3 19.5 18.5 13 23.5 24.1 24.1 24.9 25.4 25.8 26.3 26.1 25.9 25.7 26.1 27.1 22.3 27.3 28.4 29.1 29.5 30.6 33.6 35.1 28.9 39.6 41.3 42.6 44.1 45.3 46.2 47.1 47.7 48.1 47.5 49.6 50 42 50.4 51.2 51.1 51.8 52 52.6 52.8 53 53.3 54 54.6 55.5 56.3 58.1 61.3 65.4 67.1 68.6 69.6 72.2 71.9 75 76.3 77.4 78.8 75.6 81.5 82.7 84.3 85.9 88.5 90.8 95 98.4 101.9 104.1 105.8 107.3 107.9 108.8 110.3 111.1 112.2 113.3 114.5 115.3 116.1 117 118.1 119.1 120 120.8 121.8 122.8 124 125.4 126.6 127.3 128.3 129.3 129.9 130.4 130.9 131.2 131.4 131.4 131.5 131.5 131.3 131.2 130.8 130.6 130.4 129.8 129 128.2 127.5 126.5 125.8 124.6 123.3 122 120.8 119.7 118.4 116.6 114.8 113.3 111.8 110 107.6 105.1 102.7 101.1 99.2 97.1 95.2 92.6 89.7 86.8 83.6 81.1 68.4 43.4 15 5.6 4 23.2 1.4 -1.1 -1.3 -1.3 -1.3 -1.3 -1.3 -1.3 -1.3 -1.3 -1.3 -1.3
11.1 10.8 10.5 10 9.7 9.2 8.6 8.2 8.5 8.5 8.3 8.1 7.8 7.2 6.4 5.7 5.4 6.5 7.1 7.4 9 9.6 10.4 11 10.2 10.6 11.3 11.8 12.1 12.2 12.8 13.3 13.5 13.6 14.5 16.1 17.4 18.2 19 19.5 21.3 22.4 23.6 24.3 23.4 15 24.4 26.6 26.5 27.4 27.8 28.5 28.6 28 27.7 27.5 26.7 19.7 28.5 30.5 31.3 31.9 33.4 35.5 37.6 38.7 30.3 41.3 44.4 46 47.1 48.1 49 49.7 50.2 50.7 49.6 50.9 51.5 50.8 52.7 53.9 54.4 49.8 54.6 55.1 55.3 55.5 56 58.5 59 59.7 62.2 65.9 66.4 71.3 73.2 74.9 74.7 76.8 77.8 79 80.6 81.8 82.8 83.6 86 87.2 89.2 92.5 95.8 98.8 101.6 104.1 106 107.7 109.2 110.4 111 111.9 113.2 114.3 115.3 116.3 117 117.8 118.6 119.6 120.7 121.7 122.8 123.7 124.8 126.2 127.7 129.1 130.2 130.7 131.5 132.3 132.6 132.8 133.1 133.2 133.2 132.9 132.8 132.7 132.4 132 131.6 131.3 130.8 130.2 129.4 128.6 127.9 127 125.6 124.4 123.2 121.8 120.6 119.3 117.4 115.5 113.7 111.7 110.4 108.2 105.6 103.1 100.6 98.4 96.4 94.5 91.9 88.8 85.5 82.1 76.9 67.2 47.1 18.7 4 1 0.3 0.4 -1.3 -1.3 -1.3 -1.3 -1.3 -1.3 -1.3 -1.3 -1.3 -1.3 -1.3 -1.3
12.2 11.8 11.5 11 10.8 10.4 9.3 8.6 8.6 8.7 8.9 9.3 8.9 10.1 9.4 7.6 8.1 8.9 9.5 10 11 11.9 12.3 12.5 12.8 13 12.8 13 13.4 13.9 14.7 15.6 16.9 18.4 19.3 20.6 21.9 23.3 24.4 25.5 26.3 27 27.6 28 26.9 17.2 25.2 28.2 27.9 29 29.1 29.5 29.4 28.1 27.4 25.5 27.2 29.4 31 33.2 34.8 36.8 38.8 40.6 42.6 43.4 40.8 36 46.1 48.8 49.7 50.5 51.2 51.9 52.5 52.7 52.9 52.7 53.8 54.1 55.7 56.6 57 53 57.3 57.6 57.9 58.8 59.9 62.2 62.8 66.4 69.6 72.5 69.8 76.5 78.4 79.4 80.2 81 82.6 83.3 85 86.2 88.4 86.3 91.6 92.1 95.9 99.2 102.2 104.7 106 108.1 109.9 111.1 112.1 113.1 114.2 115.2 116.1 117 118 119 119.7 120.3 121.2 122.3 123.3 124.4 125.7 126.8 128.2 129.7 131 132.5 133.5 134 133.8 134.1 134.3 134.3 134.2 134.1 134 133.6 133.6 133.4 132.8 132.4 132.1 131.7 131.1 130.4 129.6 128.9 128 126.9 125.6 124.1 122.9 121.6 119.8 117.9 116 113.3 112.2 110 108.1 105.7 103.1 100.6 98.2 95.8 93.4 91 87.9 84.2 80.6 77.3 54.8 48.9 26 8.3 1.2 -1.3 -1.3 -1.3 -1.3 -1.3 -1.3 -1.3 -1.3 -1.3 -1.3 -1.3 -1.3 -1.3 -1.3 -1.3
13.3 12.9 12.5 11.9 12 12 10.8 10.2 9.8 10.4 10.8 11.3 10.6 12.6 12.7 12.2 11.8 11.5 11.6 12.3 12.8 13.3 13.5 13.6 14.1 14.5 14.4 14.8 16.2 17.6 18.7 19.9 21.4 23 24.3 25.5 26.8 27.8 28.7 29.5 29.9 30.3 30.6 30.8 29.5 18.7 26.2 29.7 29.2 29.6 29.9 30.3 29.6 30.1 30.1 28.2 31.4 33.4 34.7 37.1 39.4 40.9 42.6 44.7 45.8 47.3 47.5 39.7 47.7 51 51.8 52.7 53.5 54.2 54.6 54.7 55.1 55.4 56.3 52.9 58.1 59.2 59.6 57.2 59.7 60.3 61 62.1 64.4 66.2 67.3 73.4 75.9 77.7 78.4 80.5 82.7 83.7 84.8 85.8 86.7 87.1 89.7 92 93.4 92.4 96.4 99.6 101.6 104.8 107.6 109.2 109.9 111.9 113.2 114.1 114.8 115.7 117.2 118.2 119 119.8 120.7 121.7 122.6 122.8 123.9 124.9 126 127.2 128.6 130.1 131.4 132.8 134.2 134.9 135.6 135.8 135.4 135.5 135.4 135.2 135.1 135 134.7 134.4 134 133.4 132.9 132.3 131.9 131.6 130.9 130.1 129.1 128.1 127 125.8 124.5 123.2 121.6 120.1 118.5 116.4 114.3 112.1 110.4 108.2 105.9 103.2 100.5 97.9 95.3 92.8 89.9 87 83.8 80 76.2 73.5 55.1 33.3 13.1 2.6 0.2 -1.3 -1.3 -1.3 -1.3 -1.3 -1.3 -1.3 -1.3 -1.3 -1.3 -1.3 -1.3 -1.3 -1.3 -1.3
14.6 14 13.7 13.9 13.9 14 13.2 12.4 12.6 12.8 13.3 13.9 12.9 15.4 16.1 15.3 14.5 14 13.8 13.8 14.2 14.6 14.8 15.2 15.6 17.1 18.5 19.6 20.7 21.9 23.1 24.6 26 27.2 28.8 30 30.9 31.8 31.9 32.2 32.5 32.6 32.6 31.8 23.4 19.5 28.9 30.7 31.6 31.5 31.1 31 31.5 31.9 33 33.4 35.4 37 39.2 41.5 43.7 45 46.4 47.5 48.4 50.1 50.9 47.6 44.7 52.8 54.1 54.9 55.7 56.5 56.9 57.3 57.5 57.7 58.8 59.7 60.2 61.9 62.3 62.2 63 64.1 64.9 66.6 68.8 72.2 74.2 79 81.1 82.4 83.5 84.7 86.9 88 89 90.1 91.3 92.1 94.8 96.7 99.2 101.5 97.7 105.8 107 109.9 111.5 113 113.8 115.1 116.2 117 117.8 118.6 119.4 120.6 121.8 122.7 123.4 124.2 125.1 125.8 126.5 127.6 128.8 130 131.3 133.4 134.2 135 135.7 136.4 136.7 136.8 136.6 136.6 136.5 136.2 135.9 135.5 135 134.3 134 133.5 132.9 132.3 131.7 130.9 130.1 129 128 127 125.7 124.4 123.1 121.6 120 117.8 116.3 114.1 112.5 110.3 107.9 105.8 102.8 100.1 97.3 94.3 91.7 88.9 86 82.5 79.1 75.7 71.9 61.4 44.5 21.4 3.4 0.8 -1.3 -1.3 -1.3 -1.3 -1.3 -1.3 -1.3 -1.3 -1.3 -1.3 -1.3 -1.3 -1.3 -1.3 -1.3 -1.3
16.6 15 16 16.3 16.4 16.5 15.9 15 15.1 15.3 16 16.7 15.5 17.3 19.2 18.3 17.5 16.7 16.1 16.3 16.4 16.6 17.3 18.9 20.6 22.1 23.4 24.5 25.6 26.4 27.8 29.4 30.9 31.9 32.9 33.9 34.8 34.6 34.2 34.1 34.2 34.1 32.9 28 24.5 29.2 32.2 32.8 33.1 33.3 33 33 33.6 34.8 36.1 37.9 38 41.5 44.2 45.6 47.8 49.4 49.9 50.7 51.5 51.9 53.6 53 49.3 50.5 56.6 57.6 58.5 59 59.4 60.1 59.9 60.2 61.2 62.4 62.6 64.8 65.3 65.5 67.1 68.7 69.7 72.4 73.7 78.1 81.6 83.4 85.4 86.6 87.8 88.3 90.8 92.1 93.2 94.3 96.1 97.9 99.1 102.2 104.5 106.9 109.1 109.9 111.6 113.5 114.5 115.5 116.6 117.9 119.2 120.2 121.1 121.9 122.7 123.4 124 124.6 125.3 126 127 127.9 129.2 130.5 131.7 132.8 134 134.9 135.5 136.3 137.2 137.6 137.4 137.1 137 137.1 136.6 136.1 135.9 135.4 134.8 134.1 133.6 132.9 132.1 131.1 130.1 129 128.4 127.1 126 124.9 123.7 122.4 120.4 119.2 118.1 116.2 114.3 112.3 109.9 107.7 105.3 102.7 99.8 96.8 93.6 90.6 87.8 84.9 81.4 77.9 74.6 70.6 67.2 51.6 28.6 3.4 0.5 -1.3 -1.3 -1.3 -1.3 -1.3 -1.3 -1.3 -1.3 -1.3 -1.3 -1.3 -1.3 -1.3 -1.3 -1.3 -1.3 -1.3
16.9 18.6 19.4 19 19.2 19.3 18 17.5 17.6 17.8 18.3 18.6 18.4 16.9 22.1 21.3 20.5 19.5 18.8 18.9 19.6 20.8 22.1 24.1 25.8 27 28.2 29.4 30.4 31 32.6 33.7 34.8 35.6 36.4 37 36.9 36.8 36.4 36.1 35.8 34.3 32 25.9 33 33.9 33.9 34.1 34.4 34.9 34.8 35.3 36.6 38.1 40.5 42.8 44.7 46.4 48.2 49.9 51 52.6 53.5 54.2 54.9 55.6 56.4 54.6 56.1 51.1 58.7 60.5 61.5 61.5 61.9 62.4 63 63.2 64.3 65.4 66.1 67.3 68.3 70.1 72 75 76.7 80 80.7 83.6 87.1 88 89.7 91 91.7 92.2 94.5 95.9 97.3 98.8 101.1 103.2 103 107.2 109.2 111.1 112.6 113.2 114.9 116 117.3 117.9 119.3 120.6 122.2 123.2 123.3 123.9 124.7 125.3 125.9 126.6 127.2 127.8 129 130.2 131.5 133.4 135 135.7 136.3 136.3 136.8 137.6 138.3 138.1 137.8 137.4 137.4 137.1 136.4 136 135.6 135 134.3 133.4 132.6 131.7 130.6 129.5 128.4 127.3 126.2 125 123.9 122.7 121.3 119.7 118.2 117.4 115.8 113.9 112 109.6 107 104.2 101.5 98.8 96.1 93.2 90.1 86.9 83.5 80 76.6 73.4 69.8 65.8 62.4 44.6 13.1 1.1 -1.3 -1.3 -1.3 -1.3 -1.3 -1.3 -1.3 -1.3 -1.3 -1.3 -1.3 -1.3 -1.3 -1.3 -1.3 -1.3 -1.3 -1.3
18.4 21.6 22.5 22.2 21.7 20.6 20.2 19.9 19.8 19.9 20.1 20.5 21.1 19.5 23.3 24.2 23.7 23.3 23.2 23.5 24.8 26.1 27.7 29.4 30.6 31.8 33 33.7 34.4 35.3 36.4 37.4 38.6 39.2 38.8 38.1 38.3 37.7 37.1 36.8 36.3 34.6 26.9 32.5 34.9 35 35.1 35.3 35.7 36.2 36.9 38.1 40.4 41.8 44.1 47.1 49 50 51.3 53.1 54.5 55.6 56.7 57.6 58.5 59.3 58.5 58.5 60.3 55 60.7 63.1 63.8 64.1 65 65.1 65.8 66.7 67.9 69.1 69.7 71.9 73.3 76.1 76.1 82.7 84.8 85.9 87.8 88.8 91.8 92.9 94.1 95.3 95.9 96.5 98.5 100.3 101.7 103.4 105.2 107.4 109.5 111.4 113.3 114.9 115.9 117.3 118.3 118.3 120.2 120.8 121.7 123.2 124.5 125.2 125.1 125.8 126.6 127.2 127.9 128.5 129.2 130.3 131.5 132.8 134.1 135.5 137.2 138 138.4 138.4 138.3 138.8 138.7 138.2 138 137.7 137.4 136.8 136.2 135.7 135.1 134.3 133.3 132.3 131.2 130.1 129 127.9 126.8 125.6 123.7 122 121.1 119.5 118 116.6 115.5 114.1 112.7 110.6 108.4 106.1 103.5 100.6 97.8 95 92.3 89.3 86.3 83.1 79.4 75.7 72.2 69 65.2 61.2 56.6 30.4 2.2 -1.3 -1.3 -1.3 -1.3 -1.3 -1.3 -1.3 -1.3 -1.3 -1.3 -1.3 -1.3 -1.3 -1.3 -1.3 -1.3 -1.3 -1.3 -1.3
20.9 24.2 24 23.5 22.4 21.8 21.6 21.5 21.6 21.8 22 22.4 23 22.5 22.7 26.7 27.7 28 28 28.9 30.3 31.6 32.7 33.8 34.9 36 37.2 37.9 38.6 39.5 40.4 41 41.3 40.8 40.2 39.6 38.9 38.4 37.5 36.4 35.4 32.3 28.2 35 36.1 36.4 36.6 36.6 37.3 38.2 39.6 41.9 44.7 46.3 48 50.8 52.8 50.7 55.3 56.9 58.1 59.2 60.1 60.9 61.8 62.3 62 62.4 60.8 57.4 62.2 65.2 65.8 66.8 67.7 68.6 70 70.3 72.2 73.5 74.1 77.2 78.3 83.6 84.3 88.9 90.6 91.5 93.4 93.2 96.2 97.2 98.4 99.3 99.9 100.6 102.5 104.3 106.1 108 109.4 111 112.5 114.1 116.9 118.1 119.3 120.1 120.9 120.5 122.1 123.2 124.1 125 125.6 126.2 126.9 127.7 128.4 129.2 129.8 130.8 131.9 133 134.2 135.4 136.7 137.9 139.1 139.5 139.9 139.8 139.8 139.5 139 138.5 138.3 137.5 136.7 136.1 135.5 134.8 134.2 133 131.8 130.7 129.6 128.5 127.4 126.3 124.6 122.8 121 119.1 117.7 116 114.8 113.8 112 110.4 108.4 106.8 104.7 102.5 99.9 97.2 94.5 91.7 89.1 85.7 82.6 79.1 75.5 71.8 68.1 64.7 61 57.6 49 13.9 0.8 -1.3 -1.3 -1.3 -1.3 -1.3 -1.3 -1.3 -1.3 -1.3 -1.3 -1.3 -1.3 -1.3 -1.3 -1.3 -1.3 -1.3 -1.3 -1.3
23.5 26.4 25.3 24.6 23.4 23.2 23.1 23.8 23.9 24.1 24.6 24.9 25.4 26.3 23.3 29.5 30.9 32.2 32.9 33.7 34.8 35.9 37 38.1 39.2 40.2 41.3 42.1 42.8 43 43.1 43.2 42.5 42 41.3 40.1 38.7 37.5 36.7 35 33.9 29.9 33.2 35.9 37.5 37.9 38.1 38.3 38.9 41.1 43.5 46.1 48.8 50.5 52.6 54.7 56.7 57.3 59.1 60.5 61.8 62.8 63.7 64.4 65 65.2 65.1 65.9 62.4 62.7 63.3 67.9 69.2 70.2 71.1 72.3 73.9 74.6 76.8 78.7 78 83.5 83.6 89.3 92.1 91.9 95.8 97.1 98.1 97.9 100.2 101.4 102.4 103.2 103.9 104.7 106.4 108.2 109.5 111.1 112.9 114.9 117.1 117.4 119.3 121.2 122.3 122.9 123.5 122.5 124.3 125.4 125.9 126.5 127.3 128 128.8 129.5 130.3 131.1 132.3 133.4 134.6 135.7 136.9 138.2 139.2 139.8 140.1 140.5 140.7 140.6 140.5 139.8 139.4 139 138 137.1 136.1 135.3 134.7 133.7 132.6 131.4 130.2 129.1 127.9 126.8 125.5 123.7 121.9 120.1 118.4 116.7 115.1 113.7 112.3 110.7 108.7 107.4 105.5 103.5 101.2 98.7 96.4 93.8 91.1 88.4 85.8 82.4 78.9 75.2 71.5 67.9 64.2 60.5 57 51.4 30.1 1.9 -1.3 -1.3 -1.3 -1.3 -1.3 -1.3 -1.3 -1.3 -1.3 -1.3 -1.3 -1.3 -1.3 -1.3 -1.3 -1.3 -1.3 -1.3 -1.3 -1.3
26.8 28.2 25.9 25.6 24.8 24.8 25.8 26.4 26.5 27 27.5 28.2 29.3 30.3 26 32.5 35.3 36.5 37.4 38.2 39.1 40.2 41.3 42.4 43.4 44.3 45.1 45.4 45.3 45.1 45.2 44.6 43.8 42.6 41 39.4 38.3 37.1 35.8 33.9 32.9 34.8 36.7 37.5 38.8 39.9 39.8 40.2 41.8 44.9 47.6 50.2 52.9 54.6 56.3 58.4 60.3 61.4 62.6 64.2 65.4 66.4 67.2 67.8 68 67.8 68.4 68.3 63.8 66.9 68.8 71.3 72.8 74 75.1 76.7 78.7 79 82.3 84.7 85.9 88.9 90.8 94.1 98.3 94.5 100.3 101.5 102.4 103.1 103.9 105.1 106.3 107.2 107.6 108.8 110.3 111.7 113.1 114.5 116.6 118.6 120.1 121.4 122.3 124 124.9 125 124.3 124.8 126.6 127.4 128 128.4 129.1 129.9 130.6 131.4 132.2 133.1 134.7 136.1 137.2 138.2 139.2 140 140.6 140.9 141.2 141.6 141.5 141.4 140.7 140.2 139.2 138 137.3 136.6 135.7 134.7 133.7 132.3 131 129.8 128.6 127.4 126.3 124.6 122.9 121.2 119.5 117.8 116.1 114.4 112.6 111 109.5 107.7 106.1 104.7 102.9 100.7 98.3 95.6 93 90.3 87.7 85 81.8 78.6 75.3 72 68.4 64.7 61 57.8 54.5 33 11.3 0.7 -1.3 -1.3 -1.3 -1.3 -1.3 -1.3 -1.3 -1.3 -1.3 -1.3 -1.3 -1.3 -1.3 -1.3 -1.3 -1.3 -1.3 -1.3 -1.3 -1.3
28.8 29.6 28.3 27.6 27.2 27.3 28.3 28.9 29.3 29.9 31.2 32.5 33.1 34 28.7 36 39.4 41 42 42.9 43.3 44.4 45.6 46.3 47 47.8 47.8 47.4 47.4 46.9 46.2 44.9 43.5 42.1 40.3 38.9 37.9 36.7 35.3 35.6 36.2 36.7 38 38.9 40.4 41.7 42.7 43 46 49.2 51.8 54.5 57.1 58.9 59.9 62.3 64.5 65.5 60.9 67.8 69.2 69.7 70.4 70.5 70.1 70.1 71.7 71.9 67.2 68.9 74.1 75 77 78.5 80.2 81.7 84 84.7 87.3 91 93.4 95.3 98.7 99.2 102.6 101.6 104.4 105.5 106.2 107.2 107.9 109.1 110.2 110.9 111.4 112.7 113.4 114.8 116.3 118.1 120.1 121.8 123.1 124.3 122.1 126.2 126.5 126.6 126.6 127.3 128.7 129.3 129.9 130.1 130.9 131.7 132.5 133.3 134.1 135.2 136.8 137.7 138.4 139.2 140.2 141.3 141.5 141.7 142 142.2 141.9 141.3 140.4 139.4 138.4 137.1 136.2 135.4 134.3 133.1 131.9 130.6 129.3 128.1 126.8 125.6 124.1 122.5 120.9 119.2 117.5 115.8 113.9 112.1 110.3 108.6 106.7 104.9 103.6 102.2 100.1 98 95.5 92.8 90.4 87.4 84.5 81.9 78.6 75.2 72 68.7 65.4 61.9 57.2 50.7 38.3 18.9 1.7 -1.3 -1.3 -1.3 -1.3 -1.3 -1.3 -1.3 -1.3 -1.3 -1.3 -1.3 -1.3 -1.3 -1.3 -1.3 -1.3 -1.3 -1.3 -1.3 -1.3 -1.3
29.8 30.9 30.5 29.7 29.6 30 31.3 32.2 32.9 34.1 35.5 36.7 37.6 37.7 31.4 40 43.8 45.3 46.4 47.5 48.1 48.7 49.2 49.8 50.4 50.3 50.1 49.7 48.5 47.3 45.8 44.7 43.1 41.3 39.3 38.2 37.5 36.6 37 37.4 37.9 38.4 39.2 40.3 42 43.2 45.2 48.2 50.5 53.5 55.7 58.3 61.1 63.6 64.6 65.8 68.2 69.6 68.8 71.2 72.3 72.6 73 73 74 74.5 75 73.9 68.2 74.6 78.8 79 81.8 83.5 85.1 87.4 89.8 91.8 92.2 97.4 99 100.3 104 103.9 106.5 107.2 108.3 109.2 109.8 110.8 112 112.6 113.3 114.2 115 115.7 116.6 118.2 119.7 121.2 123.1 124.4 126.2 127.9 128.2 126.2 127.8 128.7 128.7 129.9 130.5 131.1 131.7 131.6 132.1 133.4 134.5 135.3 136.2 137.3 138.7 139.3 139.9 140.5 141.2 142.2 142.4 142.5 142.2 141.7 141.1 140.3 139.1 138.2 137.1 136 134.9 133.7 132.5 131.3 130.1 128.8 127.6 126.2 124.7 123.5 121.9 120.4 118.8 117.2 115.4 113.5 111.8 110 108.2 106.5 104.7 103 101.2 99.4 97.2 95.2 92.6 90.2 87.8 84.8 81.8 78.7 75.4 72.1 68.7 65.4 62.4 50 41.9 31.6 21.3 1.7 -1.3 -1.3 -1.3 -1.3 -1.3 -1.3 -1.3 -1.3 -1.3 -1.3 -1.3 -1.3 -1.3 -1.3 -1.3 -1.3 -1.3 -1.3 -1.3 -1.3 -1.3 -1.3
31.8 32.1 31.7 32 33.1 34.1 35 36.1 37 38.3 39.6 41 41.9 39.9 32.6 45.2 48.4 49.7 50.7 51.7 52.3 52.5 52.6 52.6 52.5 52.2 51.5 50.3 48.7 47.1 45.5 44.2 42.4 40.3 38.8 38.3 38 38.3 38.8 39.2 39.7 40.3 41.2 42.2 43.8 46.1 48.8 52.2 54.8 55.6 61 63.2 65.6 67.8 69.2 70.2 72.3 72.7 71.7 74.1 75.1 75.4 75.9 76.9 78 78.7 78.7 75.7 71.7 80.5 83.6 83.1 86.7 89.2 90.5 93 96.5 98.6 98.3 101.8 104.2 104.7 108.3 109.3 110.4 111.2 110.4 112.8 113.9 114.1 114.8 115.5 116.3 117.2 118 118.7 120 121.5 123.1 124.6 126.2 127.5 128.5 129.9 130.4 129.5 129.7 131.2 131.4 132.1 132.3 132.9 133.2 133.6 134.1 134.7 136 137.2 138.3 139.4 140.3 140.9 141.5 142.1 142.7 142.7 142.1 141.6 141.2 140.8 140.2 139 137.8 136.9 135.8 134.5 133.1 131.8 130.7 129.6 128.3 127.1 125.8 124.5 123 121.5 120.4 118.8 117.1 115.5 113.9 112.3 110.5 108.8 106.9 104.9 103.1 101.4 99.3 96.5 94.4 92 89.4 87.4 85.2 82.3 79.4 76.3 72.6 69.8 66.3 62.8 49.6 28.2 12.6 4.4 0.6 -1.3 -1.3 -1.3 -1.3 -1.3 -1.3 -1.3 -1.3 -1.3 -1.3 -1.3 -1.3 -1.3 -1.3 -1.3 -1.3 -1.3 -1.3 -1.3 -1.3 -1.3 -1.3 -1.3
33.8 34.8 35.3 36.2 37.4 38.3 39.1 40 41.2 42.4 43.8 45.2 46.3 43 33.5 48.5 53 53.7 54.6 55.2 54.8 54.4 54.3 54.4 53.6 52.8 51.6 50.1 48.6 47 45.3 43.7 41.9 39.9 39.1 39.2 39.8 40.1 40.6 41 41.7 42.6 44 45.5 47.7 50.3 53.5 55 59.9 63.5 66.2 68 70 72.1 73.5 74.3 75.6 75.7 76.6 77.3 78.5 78.9 79.1 80.8 81.9 82.8 82.7 81.3 74.8 86.4 89.2 88.6 91.9 95.2 97.4 98.1 102.2 104.9 104.8 105.9 108.2 109.3 112.4 113.4 113.9 114.3 113.4 115.9 116.3 116.8 117.5 118.4 119.2 120.1 121.4 122.2 123.4 124.6 126.1 127.6 128.7 129.8 130.5 131.8 132.2 132.9 132.7 133.3 133.7 134.1 134.3 134.6 135.1 135.7 136.3 136.9 138.2 139.4 140.4 141.3 141.9 142.4 143 143.2 143 142.6 141.8 141.3 140.8 140.1 138.7 137.7 136.6 135.5 134.1 132.8 131.4 130.1 128.9 127.8 126.5 125.3 124 122.8 121.5 120.3 119.3 117.8 116 113.8 112.2 111 108.6 106.6 105.3 103.4 101.2 99.1 97 94.9 92.9 90.9 87.6 79.1 80.8 79.6 77.2 74 70.3 66.5 63.1 55 33.4 5 -1.3 -1.3 -1.3 -1.3 -1.3 -1.3 -1.3 -1.3 -1.3 -1.3 -1.3 -1.3 -1.3 -1.3 -1.3 -1.3 -1.3 -1.3 -1.3 -1.3 -1.3 -1.3 -1.3 -1.3 -1.3 -1.3
37.4 38.5 39.5 40.6 41.5 42.4 43.1 43.9 45.2 46.9 48.2 49.7 50.8 47.9 37.1 51.7 56.7 57.3 57.6 57.8 57 56.6 56.2 55.1 53.9 52.9 51.3 49.8 48.3 46.9 45.3 43.5 41.8 40.3 41.3 41.1 41.4 42.1 42.3 43 44 45.8 47.6 49.8 52.4 55.8 58.8 59.6 63.7 68.9 71.1 72.9 74.7 76.3 77.7 78.5 78.8 79.3 80.2 80 81.8 82.5 83.2 84.9 86.2 87.5 87.9 87.9 78.3 90 95 94.9 95.7 100.1 102.9 104.4 106.5 109.7 111 111.1 113.9 114 115.9 116.5 116.8 117 116.7 118.3 118.8 119.3 120.3 121.3 122.1 123.4 124.7 125.7 126.6 127.8 129.1 130.3 131 132 132.7 133.4 134.2 134.6 134.7 135.1 135.4 136 136.2 136.6 137.3 138 138.6 139.2 140 141.3 142 142.4 143.1 143.3 143.5 143.3 143 142.5 141.4 140.9 140 138.7 137.3 135.9 134.9 133.9 132.4 131 129.7 128.5 127.2 126.1 124.9 123.8 122.7 121.6 120.3 119.5 118.2 116.7 114.8 112.7 102.7 95.7 96.9 95.9 98.9 95.7 91.5 87.1 85.7 82 84.7 82.1 76.1 68.4 67.5 70.9 74.3 72.4 69.5 62.9 51.4 25.4 4 -1.3 -1.3 -1.3 -1.3 -1.3 -1.3 -1.3 -1.3 -1.3 -1.3 -1.3 -1.3 -1.3 -1.3 -1.3 -1.3 -1.3 -1.3 -1.3 -1.3 -1.3 -1.3 -1.3 -1.3 -1.3 -1.3 -1.3
41.5 42.1 42.6 43.7 45 46.1 46.9 48.3 49.9 51.5 53 54.4 55.3 49.2 39.6 54.1 59.7 60.3 60.3 59.8 58.7 57.4 56.3 55.2 53.8 52.5 50.9 49.4 47.9 46.5 45 42.9 41.7 42.1 42.9 43.1 43.6 44.5 45 45.6 47.5 49.5 51.6 54.4 57.5 60.7 63.6 66.8 65.2 73.3 75.8 77.6 79.2 80.3 81.6 81.8 82.1 83.2 84.4 85.6 85.9 87.1 88 89.2 90.7 91.3 92.4 91.6 83.7 92.9 99.8 101.3 100.2 104.3 107.5 110.3 110.8 114.2 115.5 116.2 117.4 114.5 118.4 118.7 119 119.3 119.5 120.6 121.2 122.1 123.1 124.3 125.4 126.7 127.7 128.8 129.7 130.9 131.8 132.6 133.3 134.2 134.7 135.2 135.6 135.9 136.4 136.6 137 137.9 138.1 138.6 139.2 140 140.6 141.2 141.7 142.6 143.1 143.5 143.5 143.6 143.6 143.2 142.7 141.8 141.1 140 138.6 137.2 135.9 134.5 133.3 132.6 131.1 129.7 128.7 127.6 126.6 125.5 124.4 123.1 121.8 120.5 119.6 118.2 116.7 115.1 113 108.1 98.5 82.4 62.8 70.9 81.4 87.7 69.2 57.3 75.2 72 71.1 69.4 60 52.9 57.9 57.2 64.6 64.9 57.1 31 11.8 2.2 -1.3 -1.3 -1.3 -1.3 -1.3 -1.3 -1.3 -1.3 -1.3 -1.3 -1.3 -1.3 -1.3 -1.3 -1.3 -1.3 -1.3 -1.3 -1.3 -1.3 -1.3 -1.3 -1.3 -1.3 -1.3 -1.3 -1.3 -1.3
44.6 45.1 45.9 47.3 48.8 49.9 51.4 53.1 54.7 56.2 57.6 58.6 59.1 54.1 41.6 56.1 62 62.1 61.4 60.4 59.1 57.3 55.9 54.4 53 51.9 50.5 49 47.5 45.8 44.3 43.1 43 43.9 44.5 45.3 45.9 47.1 48 49.2 52.1 54.4 56.8 59.5 62.5 66.6 70.8 73.8 72.7 74.7 81 82.4 83.4 84.3 85.3 85.2 86.1 87.6 88.2 85.6 90.7 91.7 92.7 93.9 95.2 94.8 94.8 88.6 94.8 101.9 105.6 107.3 107.1 109.7 112.8 115.2 115.5 117.5 118.9 119.6 119.3 118.8 120.5 120.9 121.2 121.5 121.8 122.7 123.9 125.2 126.6 127.8 128.8 129.5 130.5 131.5 132.4 133.2 134 134.8 135.1 135.8 136.6 136.9 137 137.5 138.2 138.5 138.5 139.7 140.2 140.5 141 141.6 142.1 142.7 143.3 143.8 144.1 144.3 143.9 143.9 143.3 142.7 141.7 140.8 139.7 138.4 137.2 135.9 135 134 132.6 131.2 129.8 128.5 127.7 126.9 125.8 124.4 123.5 122.1 120.8 119.5 117.8 116.5 114.9 113.8 106.1 93.7 83.6 67.9 80 65 49.8 52.3 41 49.2 47 38.3 52.2 50.1 27.4 22.8 32.6 43 50.5 52.1 19.1 6.7 1.5 0.2 -1.3 -1.3 -1.3 -1.3 -1.3 -1.3 -1.3 -1.3 -1.3 -1.3 -1.3 -1.3 -1.3 -1.3 -1.3 -1.3 -1.3 -1.3 -1.3 -1.3 -1.3 -1.3 -1.3 -1.3 -1.3 -1.3 -1.3 -1.3
47.7 48.9 50.1 51.5 53.1 54.6 56.1 57.7 59 60.5 61.6 62.2 62.6 56.7 43.7 58.4 63.3 62.7 61.7 60.5 58.8 57 55.4 53.8 52.2 51.1 49.6 48.2 46.5 45.3 44.4 44.5 45.1 45.8 46.8 47.7 48.5 49.9 51.3 54.2 57 59.6 63 66.5 68.4 73.2 76.3 79.2 80.5 78.6 85.5 87.7 88 88.7 89.6 90 90.6 92 93 91.3 94.9 96.1 97.2 98 100 99.5 97 97 102 109 111.1 113 113.7 115.8 117.8 119 120.2 121.3 122.3 122.4 121.7 121.2 122 122.6 123.2 124 124.6 125.6 127.5 128.9 130.1 130.5 131 132.2 133.1 134 134.7 135.4 136.2 136.6 136.6 137.3 138.1 138.7 138.9 139.6 139.7 140.1 140.3 141.1 141.6 141.8 142.4 143.1 143.7 144.2 144.6 144.7 145 144.6 144 143.3 142.6 141.6 140.6 139.7 138.4 137.5 136.3 135.6 134.6 133.4 132 130.8 129.4 128 127 125.7 124.4 123.5 122.5 121.2 119 117.7 116.3 111 106.3 105 98.7 77.6 71 84.1 93.7 85 74.5 66 71 50.2 62.5 60 41.7 33 35.2 38 16 11.6 15.3 8.5 3 -1.3 -1.3 -1.3 -1.3 -1.3 -1.3 -1.3 -1.3 -1.3 -1.3 -1.3 -1.3 -1.3 -1.3 -1.3 -1.3 -1.3 -1.3 -1.3 -1.3 -1.3 -1.3 -1.3 -1.3 -1.3 -1.3 -1.3 -1.3 -1.3 -1.3 -1.3
51.6 52.6 54.2 56.2 57.6 58.9 60.5 62.1 62.4 63.9 64.5 65 64.5 55.4 45.7 61.9 63.8 63 61.6 60.1 58.2 56.5 54.7 53.1 51.6 50.4 48.7 48.6 47.8 47.3 46.4 46.9 47.4 48.7 49.6 50.8 52.2 53.6 55.6 58.1 62.4 66.1 68.5 72.8 75.5 77.4 82.8 85.4 86.5 83.5 90 91.7 92.9 93.3 93.9 94.7 94.2 97 98 95.3 99.5 100.6 101.9 102.9 104.2 105.7 104.8 104.3 109.7 114.3 116.4 118.2 119.1 120.2 121.9 123.3 124.2 124.8 125.2 124.6 124.2 124 124.5 125.6 126.5 127.5 128.3 129.1 130.7 132.1 132.7 133.3 133.5 134.9 135.6 136.3 137 137.7 138.4 138.2 138.5 139 139.6 140.2 140.3 140.4 141.3 141.5 141.9 142.5 143.2 143.5 144 144.7 145.2 145.2 145.4 145.3 144.7 144.1 143.3 142.5 141.8 140.7 139.6 138.2 137 136.6 135.7 135.2 134.2 132.9 131.7 130.5 129.2 127.7 126.1 123.8 120.1 118.4 119.8 115.5 109.3 106 107.3 102.2 91.3 91.1 84.3 75.2 88.1 96.7 100.9 95.1 93 89.5 80.3 73.8 82.4 76.5 68.5 60.5 61 56.9 54.1 23.6 3.2 -1.3 -1.3 -1.3 -1.3 -1.3 -1.3 -1.3 -1.3 -1.3 -1.3 -1.3 -1.3 -1.3 -1.3 -1.3 -1.3 -1.3 -1.3 -1.3 -1.3 -1.3 -1.3 -1.3 -1.3 -1.3 -1.3 -1.3 -1.3 -1.3 -1.3 -1.3 -1.3 -1.3
55.8 57.3 59 60.8 62.1 63.2 64.6 65.3 65.9 66.9 67.2 66.9 64.7 54.6 52.1 64.1 64.1 62.7 60.8 59.3 57.4 55.9 54.1 52.4 51.1 50.1 49.8 49.9 49.1 48.4 48.8 49.5 50.4 51.7 52.7 54.1 56.2 59 61.2 62.6 67.1 72.2 75.5 79.4 82.7 83.4 87.8 90.5 91.3 88.1 93.6 95.8 97 98.1 98.9 99.8 99.5 101.5 102.9 101.2 104.8 106.3 106.9 107.9 108.9 111 110.8 110.8 115.3 119.1 121.6 122.6 123.5 124.7 125.8 126.3 126.7 126.8 127.1 127 126.8 127.1 127.9 129 129.9 130.9 131.6 132.2 133.5 134.8 135.5 136.4 136.6 137.6 137.9 138.6 139.3 139.8 140.2 140.2 140.7 141.2 141.4 141 141.1 141.9 142.8 143.1 143.5 144.1 144.7 145.2 145.6 145.7 145.7 145.9 145.4 144.7 144.1 143.5 142.7 141.9 141.4 140.8 139.6 138.6 137.6 136.3 135.1 134.2 133.6 132.7 131.5 130.2 128.9 127.3 124.7 115.4 104.2 103.7 102.6 99.8 99.3 100 97.2 98.9 106.8 107.2 103 97.8 104.3 106 104.5 102.2 99.4 91.1 78.8 89 90 88.4 83.6 78.5 66 48.4 28.6 7.5 0.8 -1.3 -1.3 -1.3 -1.3 -1.3 -1.3 -1.3 -1.3 -1.3 -1.3 -1.3 -1.3 -1.3 -1.3 -1.3 -1.3 -1.3 -1.3 -1.3 -1.3 -1.3 -1.3 -1.3 -1.3 -1.3 -1.3 -1.3 -1.3 -1.3 -1.3 -1.3 -1.3 -1.3
60.5 62.1 63.6 64.8 66 66.9 67.6 68.4 68.9 68.7 68.6 68.2 66 55.5 53.3 64.6 63.8 62.1 60.2 58.5 56.8 55.3 53.8 53.1 52.6 52.1 51.5 50.9 50.4 50.8 51.7 52.8 53.7 55.3 57.2 59.1 61.6 64.3 67.5 67.9 73.7 79.1 81.1 85.1 89.5 90.9 93.1 95.4 96.9 96.8 95.9 99.6 101 102.4 103.7 104.3 104.9 106.1 107.3 108 108.6 110.8 111.6 112.5 113.6 116 115.9 117.8 120.2 124 125.9 126.8 127.8 127.9 128 128.3 128.9 128.9 129.1 129.4 129.6 130.1 130.8 132.1 133 133.8 134.6 135.3 136.5 137.6 138.3 138.9 139.4 140.1 139.7 140.8 141.3 141.7 142.1 142.4 142.6 142.7 142.7 142.7 142.9 143.5 144.2 144.7 145.1 145.6 146 146.1 146.1 146.2 146.1 145.5 144.8 144.2 143.5 142.8 142.1 141.5 141 140.5 139.9 138.8 137.6 136.6 136 134.7 132.6 131.1 130.6 127.9 125.5 122.8 118.4 109.5 113.2 117.2 114.8 114.6 116.6 114.3 114.1 113.6 114.4 112.1 111.5 109.8 108.7 107.2 105.1 101.7 93.3 86.1 93.2 93.5 82.1 61.5 45.9 47.1 35 17.4 2.2 -1.3 -1.3 -1.3 -1.3 -1.3 -1.3 -1.3 -1.3 -1.3 -1.3 -1.3 -1.3 -1.3 -1.3 -1.3 -1.3 -1.3 -1.3 -1.3 -1.3 -1.3 -1.3 -1.3 -1.3 -1.3 -1.3 -1.3 -1.3 -1.3 -1.3 -1.3 -1.3 -1.3 -1.3 -1.3
64.5 65.9 67.1 68.4 69.1 69.8 70.5 70.7 70.3 69.8 69.5 68.8 67.5 58.7 52.1 62.9 62.7 61.5 59.6 57.9 56.7 55.7 55.2 54.8 54.3 53.9 53.3 52.7 53.2 54.3 55.5 56.8 57.9 60.1 61.9 65 67.5 70.9 74.4 78.2 78.6 86.2 89.1 89.6 94.9 97.1 97.9 100.3 101.8 102.6 96.7 103.9 105.1 106.8 108 108.3 109.6 109.9 111.8 112.9 114.4 115.1 116.4 117.3 118.5 120.2 121.2 123.4 125 127.5 129 129.7 130 130 130.2 130.4 130.7 131.3 131.5 132.1 132.9 133.5 133.8 134.8 136 136.8 137.6 138.4 138.2 139.9 140.3 140.8 141.6 141.9 141.9 142.7 143.1 143.5 143.9 144.2 144.1 144.4 144.5 144.6 145.1 145.5 145.9 146.1 146.4 146.6 146.6 146.4 146.2 146 145.6 144.9 144.2 143.6 143 142.3 141.7 141.2 140.6 140.1 139.5 138.9 138 137 136.1 135.3 133.9 132.6 131.5 129.9 127.3 124.4 110.7 107.5 123.2 123 122.1 121.2 120 118.9 117.6 116.4 114.9 113.4 112 110.6 108.6 106.2 101.9 95.5 92.3 100.3 98.6 91.3 79.4 54.1 29.6 16.9 12.2 2.4 -1.3 -1.3 -1.3 -1.3 -1.3 -1.3 -1.3 -1.3 -1.3 -1.3 -1.3 -1.3 -1.3 -1.3 -1.3 -1.3 -1.3 -1.3 -1.3 -1.3 -1.3 -1.3 -1.3 -1.3 -1.3 -1.3 -1.3 -1.3 -1.3 -1.3 -1.3 -1.3 -1.3 -1.3 -1.3 -1.3
68.2 69.5 70.7 71.3 71.9 72.3 72.4 72 71.4 70.7 69.5 68.7 67.4 64.8 54.9 59.7 62.2 61.3 59.8 58.9 57.9 57.4 57.1 56.6 56.1 55.8 55.9 56.4 57.1 58.1 59.4 60.8 63 65.4 67.7 71.5 75.6 79 81.9 86.1 87.9 90.2 95.9 96.2 99.4 102 103.2 105.3 106 106.5 104.6 106.3 109.4 111.1 112 112.6 113.5 115.3 117 119.2 118.9 120 121.9 122.2 123.4 124.7 126.2 127.9 129.5 130.3 131.3 131.7 131.8 132 132.2 132.6 133.2 133.8 134.2 135.1 135.9 136.5 137.2 137.1 138.9 139.7 140.5 141.3 141.3 141.7 141.5 142.6 143.3 143.8 144.1 144.3 144.6 145.3 145.7 145.9 146.2 146.3 146.5 146.7 146.9 147.1 146.9 146.4 146.7 146.8 146 145.8 145.6 145.4 145.1 144.4 143.7 143 142.4 141.9 141.3 140.8 140.2 139.6 138.9 138.6 137.7 136.9 136 135.2 134.2 132.6 131.1 129.1 123.1 112.1 112.2 123.4 125.1 124.4 123.4 121.8 120.4 119.5 117.9 116.1 114.5 113.6 112.8 112.1 110.3 108.7 105.4 98.1 103.4 102.8 98.8 83.9 59.9 34 16.2 9.4 4.7 1.1 -1.3 -1.3 -1.3 -1.3 -1.3 -1.3 -1.3 -1.3 -1.3 -1.3 -1.3 -1.3 -1.3 -1.3 -1.3 -1.3 -1.3 -1.3 -1.3 -1.3 -1.3 -1.3 -1.3 -1.3 -1.3 -1.3 -1.3 -1.3 -1.3 -1.3 -1.3 -1.3 -1.3 -1.3 -1.3 -1.3
70.9 72.4 73.5 74 73.8 73.6 73.4 72.7 71.9 70.8 69.4 68.1 63.7 60.1 60.1 57.4 61.9 61.4 60.7 60 59.5 59.2 58.9 58.8 58.9 59.4 60 60.7 62 62.8 64 66.2 69.5 73.3 75.4 77 83 87.2 89 93.4 95.6 95.2 101.6 103.3 104.6 106.3 107.9 109.7 110.2 110.3 111.3 111.7 114.3 115.4 116.5 117.1 118.5 120.4 121.7 123.7 123.5 124.6 125.8 126.6 127.9 129.3 130.7 131.5 132.8 134 134.2 134.2 134.2 134.3 134.7 135.2 135.7 136.2 137.1 138 138.9 139.6 140.3 140.9 141.7 142.1 142.5 143 143.5 144.3 144.7 145.1 145.5 145.9 146.4 146.6 146.9 147.2 147.5 147.8 148.2 148 148.1 148.3 148.3 148 147.6 147 147 146.6 145.7 145.2 145 144.8 144.3 143.6 142.8 142.1 141.6 141.2 140.8 140.2 139.5 138.7 138.7 138.2 137.4 136.5 135.8 134.9 133.8 132.1 129.8 124.7 112.7 118.2 126.2 126.7 126 124.6 123.5 122.3 121.3 120.3 119 118.5 117.9 116.9 115.7 114.7 111.4 108.5 106.4 107.4 108.7 99.7 85.3 69.1 46.5 23.1 10.7 6.1 1.8 -1.3 -1.3 -1.3 -1.3 -1.3 -1.3 -1.3 -1.3 -1.3 -1.3 -1.3 -1.3 -1.3 -1.3 -1.3 -1.3 -1.3 -1.3 -1.3 -1.3 -1.3 -1.3 -1.3 -1.3 -1.3 -1.3 -1.3 -1.3 -1.3 -1.3 -1.3 -1.3 -1.3 -1.3 -1.3 -1.3 -1.3
73.2 75.2 75.7 75.2 74.8 74.5 74.2 73.4 71.9 70 68.2 64 66.1 65.3 63.7 59.9 62.9 62.8 62.3 61.6 61.1 61.6 61.9 62.1 62.5 63.2 64.5 65.8 68.2 68.9 70 73.5 77.6 81.3 83.8 86 91.1 94.4 96.8 100.4 102.9 101.8 106.9 107.9 109.5 111.1 112.7 113.6 115.2 115.6 116.6 116.2 119.1 120 121.4 122 123.7 125.9 126.5 127 127.3 128.4 129.9 130.9 132.7 133.3 134.7 134.7 135.9 136.6 136.9 136.9 136.8 137.2 137.6 138 138.4 139.2 140.1 141 141.9 142.4 142.9 143.7 143.7 144.2 144.7 145.3 145.8 146.3 147 147.4 147.7 148.1 148.5 148.9 149.2 149.5 149.5 149.8 150.1 149.9 149.7 149.4 148.9 148.3 148.2 147.7 147.3 146.4 145.5 144.7 144.4 144.2 143.4 142.7 141.9 141.2 140.8 140.4 140 139.4 139.1 138.4 138 137.6 137.2 135.5 133.7 129.4 125.2 118 116.2 115.1 119.7 128.8 127.6 127 126.5 126.1 125.3 124.9 124.3 123.5 122.2 121.5 120.7 119.6 118.6 116.9 111.8 115.8 116.1 115.1 112.5 90 68.8 51.7 30.7 11.6 4.4 1.9 -1.3 -1.3 -1.3 -1.3 -1.3 -1.3 -1.3 -1.3 -1.3 -1.3 -1.3 -1.3 -1.3 -1.3 -1.3 -1.3 -1.3 -1.3 -1.3 -1.3 -1.3 -1.3 -1.3 -1.3 -1.3 -1.3 -1.3 -1.3 -1.3 -1.3 -1.3 -1.3 -1.3 -1.3 -1.3 -1.3 -1.3 -1.3
74.4 77.1 77.2 76.8 76 75.2 74.2 72.6 70.8 69.2 68.5 67.3 65 62.1 61.7 63.6 64.7 64.6 64.3 63.5 63.6 64.3 65.3 66.3 67.1 68 69.4 71.1 74 75.6 76.9 81 85.6 88.4 91.2 94.3 97.4 101.2 103.7 105.6 107.9 108.2 110.8 112.8 114.4 116.1 117.3 117.8 119.4 120.2 121.4 121.2 123.4 124.9 125.8 126.7 128.5 129.6 130.3 131.7 132.2 132.4 133.2 135 136.4 135.9 137.1 137.7 138.6 139.1 139.6 139.6 139.6 139.8 140.2 140.9 141.7 142.4 143.3 144.2 144.9 145.5 146 146.3 146.3 146.7 147.2 147.7 148.2 148.7 149.2 149.6 150 150.4 150.7 151.1 151.4 151.5 151.6 151.8 151.3 151.1 150.6 150.1 149.3 148.5 148.2 147.8 147 146.1 145.3 144.5 143.8 143.3 142.6 141.8 141 140.5 140 139.4 138.6 137.9 137.3 136.9 136.5 136.2 135.4 133.9 128.9 121.7 119.8 124.3 128.4 130.7 131.8 131.5 130.2 129.8 129.4 129.1 128.6 128.5 128 126.9 125.6 124.9 122.2 121.3 120.1 119.2 119.8 123.4 123 120.2 106.1 78 52 32 12.3 2.9 1 -1.3 -1.3 -1.3 -1.3 -1.3 -1.3 -1.3 -1.3 -1.3 -1.3 -1.3 -1.3 -1.3 -1.3 -1.3 -1.3 -1.3 -1.3 -1.3 -1.3 -1.3 -1.3 -1.3 -1.3 -1.3 -1.3 -1.3 -1.3 -1.3 -1.3 -1.3 -1.3 -1.3 -1.3 -1.3 -1.3 -1.3 -1.3 -1.3
77.5 78.4 77.8 77.2 76 74.8 73.7 73 72.3 70.7 69 67.5 67.3 65.6 67.8 67.4 67.3 66.8 66.7 66.9 67.5 68.2 69.5 71 72.6 73.7 74.9 76.9 80.6 83 84.3 88.7 93.5 96.2 98.8 101.2 102.3 106.5 108.7 111 112.6 114.2 115.8 117.9 119.4 120.5 121.5 122.1 123.2 124.2 125.3 125.5 127 128.7 129.8 130.3 131.9 132.7 133.1 135 135.6 135.6 136.3 138.4 139.2 139 139.7 140.6 141.1 141.6 142.1 142.3 142.3 142.7 143.5 144.2 144.9 145.7 146.4 147 147.3 147.6 147.9 148.4 148.9 149.1 149.6 150.1 150.6 150.8 151.4 152.1 152.2 152.6 153 153.3 153.6 153.5 153.5 153 152.5 152 151.1 150.3 149.5 148.8 148.1 147.2 146.4 145.4 144.6 143.9 143.1 142.3 141.6 140.8 140.1 139.3 138.4 137.6 136.8 136.2 135.8 135.4 135.1 134.8 133.1 125.9 120.4 125.7 130.1 134.9 134.7 134.8 134.5 134 133.4 132.9 132.5 132.1 132 132 131.4 130.2 128.8 125.5 122.8 124 125.1 126.1 129.9 130.4 128 112.2 92.8 63.7 33.5 14.8 3.2 1.1 -0.2 -1.3 -1.3 -1.3 -1.3 -1.3 -1.3 -1.3 -1.3 -1.3 -1.3 -1.3 -1.3 -1.3 -1.3 -1.3 -1.3 -1.3 -1.3 -1.3 -1.3 -1.3 -1.3 -1.3 -1.3 -1.3 -1.3 -1.3 -1.3 -1.3 -1.3 -1.3 -1.3 -1.3 -1.3 -1.3 -1.3 -1.3 -1.3 -1.3
79 79.2 78.4 77.5 76.4 75.4 74.7 73.7 73.3 71.7 70.4 71.3 71.5 70.7 70.5 70.7 70.6 70.4 70.6 70.8 71.5 73.1 74.7 76.9 78.6 79.7 81.8 84.3 87.3 90.1 92 96 99.5 102.3 105.2 107.4 109.4 111.6 113.7 115.6 117.2 118.6 120 122.5 123.5 124.6 125.7 126.6 127.8 128.3 128.7 129.4 131 132.5 133.8 134 135.2 136.2 137 137.8 138.9 139.9 140.4 141.6 142.2 142.8 143.2 143.5 143.9 144.3 144.7 145.1 145.5 146 146.7 147.4 148.1 148.9 149.1 149.1 149.3 149.6 150 150.5 151 151.6 152 152.3 152.5 152.9 153.7 154.5 154.8 154.9 155.2 155.6 155.5 155 154.1 153.6 153.1 152.3 151.3 150.4 149.6 148.8 147.7 146.8 145.8 144.8 143.8 143.1 141.9 140.9 140.2 139.4 138.6 137.7 136.7 135.8 135.1 135.1 135 134.9 134.7 133.4 128.9 122.8 131.7 135.4 135.5 136.1 136.6 136.8 136.7 136.3 136.3 136.1 135.6 135.7 135.8 135.4 133 131 130.9 131.7 133.8 134 134 136.1 134.6 120.6 107.5 94.1 77.1 45.1 15.5 6 1.8 0.4 -1.3 -1.3 -1.3 -1.3 -1.3 -1.3 -1.3 -1.3 -1.3 -1.3 -1.3 -1.3 -1.3 -1.3 -1.3 -1.3 -1.3 -1.3 -1.3 -1.3 -1.3 -1.3 -1.3 -1.3 -1.3 -1.3 -1.3 -1.3 -1.3 -1.3 -1.3 -1.3 -1.3 -1.3 -1.3 -1.3 -1.3 -1.3 -1.3 -1.3
80.3 80.4 79.3 78.5 77.5 76.1 75.9 75.3 74.1 73.8 72.9 74.1 74.1 73.9 73.9 73.8 73.7 74.2 74.4 74.8 76.4 78 79.9 82.2 84.2 86.8 89 91.7 94.7 97.6 100.2 103.1 106.4 108.9 110.3 112.5 114.3 116.1 118.2 120.4 122.3 123.6 125 126.9 127.9 128.8 129.4 130.3 130.6 131 131.8 133.2 134.6 135.6 136.2 137.2 138.2 139.7 140.5 141.2 142.2 143.3 144 144.5 145 145.6 146.1 146.4 146.8 147.2 147.6 148 148.5 148.9 149.5 150.1 150.9 151.1 151.2 151.4 151.5 151.9 152.1 152.6 153.1 153.7 154.1 154.1 154.5 155.2 156 156.8 157.3 157.5 157.5 157.1 156.5 155.6 154.7 154 153.5 152.7 151.7 150.7 149.5 148.3 147.2 146.2 145.1 144.1 143.1 141.9 140.6 139.5 138.8 138 137.1 136.2 135.2 135 134.8 134.8 135.1 134.9 134.6 134.8 128.6 125.6 136.1 136.8 136.8 137.5 138 138.4 138.9 138.8 139.1 139.9 139.5 139.4 139.4 139 140 144.2 146.6 145.7 145.8 143.8 142.1 139.5 133.1 110.4 84.8 72.1 57.3 27.9 6.1 1.7 0.8 -1.3 -1.3 -1.3 -1.3 -1.3 -1.3 -1.3 -1.3 -1.3 -1.3 -1.3 -1.3 -1.3 -1.3 -1.3 -1.3 -1.3 -1.3 -1.3 -1.3 -1.3 -1.3 -1.3 -1.3 -1.3 -1.3 -1.3 -1.3 -1.3 -1.3 -1.3 -1.3 -1.3 -1.3 -1.3 -1.3 -1.3 -1.3 -1.3 -1.3 -1.3
82.4 82 80.9 80.8 80.2 78.5 77.8 77.5 76.9 77.3 76.3 77.1 76.9 77.2 77.2 77.4 77.5 78.2 78.9 79.7 81.5 83.3 85.9 87.7 89.6 93.4 96 99.8 102.2 105.3 107.9 109.3 112 113.9 115.1 117.4 119.7 120.8 122.7 124.8 127 128.6 129.9 130.7 131.3 131.9 132.5 133 133.3 133.6 134.7 136 137.2 138.4 139.4 140.8 142 143.2 144.4 144.9 145.5 146.5 147.1 147.4 147.8 148.3 148.9 149.3 149.7 150.1 150.5 150.9 151.4 151.7 152.5 152.6 152.9 153.1 153.5 154.3 154.4 154.4 154.7 154.7 155.2 155.6 156 156.1 156.8 157.5 158.2 159 159.3 159.1 158.5 157.8 157.2 156.3 155.4 154.6 153.9 153 151.9 150.6 149.3 147.9 146.7 145.6 144.1 142.9 141.7 140.4 139.3 138.2 137.4 136.5 135.7 135.2 135.1 135 134.9 134.8 134.6 134.9 134.5 129.2 127.4 135.9 137.3 137.9 138.4 138.8 139.6 140.3 141 141.3 141.9 143.2 143.6 147.3 156 160.9 161.7 162.5 160.7 155.8 151.4 145.1 142.1 135.8 125 109.5 86.6 58 34.8 18.2 1.9 0.8 -0.3 -1.3 -1.3 -1.3 -1.3 -1.3 -1.3 -1.3 -1.3 -1.3 -1.3 -1.3 -1.3 -1.3 -1.3 -1.3 -1.3 -1.3 -1.3 -1.3 -1.3 -1.3 -1.3 -1.3 -1.3 -1.3 -1.3 -1.3 -1.3 -1.3 -1.3 -1.3 -1.3 -1.3 -1.3 -1.3 -1.3 -1.3 -1.3 -1.3 -1.3 -1.3
84.7 83.9 83 83 82.4 81.8 80.6 79.2 79.9 80.2 79.4 79.9 79.8 80.4 80.5 81 81.5 82.6 83.8 85.2 87.8 89.8 92.7 94.3 96.9 100.6 104.6 107.3 108.7 111 112.7 114.1 116.5 118.4 120.1 122 124 126 127.3 129.3 130.9 132.2 132.9 133.6 134.3 134.9 135.1 135.9 136.4 136.9 137.4 138.7 139.9 141.7 143.1 144.5 145.8 147 148 148.4 148.9 149.8 150.1 150.4 150.7 151.1 151.6 151.5 152 152.6 153.2 153.4 153.7 153.9 154.6 154.7 155.5 155.7 155.8 156.2 156.5 156.5 156.6 157.1 158 158.2 158.4 159 159.6 160.2 160.7 161 160.5 160 159.4 158.5 157.8 156.9 156 155.2 154.2 153 151.7 150.4 149 147.5 146 144.3 142.8 141.6 140.3 139.2 138.2 137.1 136.4 136 135.5 135.1 134.9 134.9 134.6 134.9 134.7 134.8 131 127.3 135.6 137.6 138.5 139.2 139.8 140.6 141.8 142.9 143.7 144.5 145.4 147.6 155.3 164.2 172.3 173.6 172.3 171.7 167.9 162.9 156.7 150.6 141.7 128.2 115.6 104.2 82.3 52.5 25.1 9.9 1.5 0.2 -1.3 -1.3 -1.3 -1.3 -1.3 -1.3 -1.3 -1.3 -1.3 -1.3 -1.3 -1.3 -1.3 -1.3 -1.3 -1.3 -1.3 -1.3 -1.3 -1.3 -1.3 -1.3 -1.3 -1.3 -1.3 -1.3 -1.3 -1.3 -1.3 -1.3 -1.3 -1.3 -1.3 -1.3 -1.3 -1.3 -1.3 -1.3 -1.3 -1.3 -1.3 -1.3
86.3 85.7 85.8 85.2 84.5 83.8 83.1 83 82.2 83.1 82.5 82.7 82.7 83.4 83.9 84.7 86 88 89.8 91.7 94.9 96.5 100.3 102.5 104.4 108.1 110.9 113 114.5 116.2 117.9 119.3 121 123.2 124.9 126.9 128.5 130.1 132.2 133.5 134.3 135.1 135.5 136.3 136.8 137 137.5 138.5 139.4 140.1 140.7 141.8 144.1 145.6 146.8 148 149 149.9 150.9 151.8 152.4 152.8 153.1 153.4 153.7 154 154.3 154.4 154.4 155 155.5 155.7 155.9 156.2 156.6 157.3 157.6 157.9 158.2 158.3 158.6 158.7 159.2 159.8 160.3 160.8 161.1 161.7 162.3 162.7 162.6 162.2 161.5 160.9 160.1 159.2 158.5 157.6 156.4 155.1 154 152.5 150.9 149.4 147.9 146.3 144.9 143 141.6 140.3 139 137.9 137.1 136.3 136.3 135.8 135.4 134.9 134.6 134.9 134.3 135.2 131.7 128 128.7 134.7 137.6 138.5 139.4 140.3 141.2 142.4 143.8 145.1 146.8 148.4 149.5 157.5 169.9 177.7 179.8 178.7 177.2 174.9 170.2 164.7 158.8 152.1 144 127.5 109.5 96.2 72.3 46.1 19.9 7.8 1.4 0 -1.3 -1.3 -1.3 -1.3 -1.3 -1.3 -1.3 -1.3 -1.3 -1.3 -1.3 -1.3 -1.3 -1.3 -1.3 -1.3 -1.3 -1.3 -1.3 -1.3 -1.3 -1.3 -1.3 -1.3 -1.3 -1.3 -1.3 -1.3 -1.3 -1.3 -1.3 -1.3 -1.3 -1.3 -1.3 -1.3 -1.3 -1.3 -1.3 -1.3 -1.3 -1.3
88.6 88.4 88.3 88 87.5 86.9 86.1 85.7 84.5 86.1 85.9 85.9 86.2 86.9 88.4 90 91.5 94.4 96.7 98.5 101.7 104 106.7 108.4 110.3 113.3 115.5 117.7 119.3 121 122.8 124.3 125.7 128 129.8 131.4 133 135.1 135.5 136.5 137.3 137.9 138.2 138.3 138.8 139.6 140.5 141.4 142 142.9 144.2 146.3 147.8 148.9 150 151.1 152.2 152.7 153.6 154.6 155.5 155.9 155.8 156 156.3 156.7 157.1 157.2 157.2 157.4 157.8 158 158.2 158.5 158.9 159.2 159.6 159.9 160.1 160.4 160.9 161.5 161.9 162.5 163 163.3 163.7 164.1 164.4 164 163.8 163.2 162.5 161.8 160.9 160 158.9 157.6 156.3 155 153.4 151.3 149.8 148.2 146.7 145.2 143.8 142.2 140.8 139.3 137.9 136.9 136.4 136.1 136 135.7 135.2 134.8 134.3 134.7 132.9 129.7 130.6 134.5 135.5 136.7 138.4 139.3 140.2 141.3 142.8 144.3 145.8 147.9 149.9 153 158.6 170.3 179.7 182.9 182.8 181.2 178.6 174.1 169.2 164 157.4 148.4 138.9 119.7 91.9 74.4 55.2 32.6 16.1 7 1.2 -0.3 -1.3 -1.3 -1.3 -1.3 -1.3 -1.3 -1.3 -1.3 -1.3 -1.3 -1.3 -1.3 -1.3 -1.3 -1.3 -1.3 -1.3 -1.3 -1.3 -1.3 -1.3 -1.3 -1.3 -1.3 -1.3 -1.3 -1.3 -1.3 -1.3 -1.3 -1.3 -1.3 -1.3 -1.3 -1.3 -1.3 -1.3 -1.3 -1.3 -1.3 -1.3 -1.3
91 91 90.8 90.5 90.2 89.9 89.2 88.3 87.3 89.3 89.2 89.7 90.2 91.8 93.7 95.6 97.7 99.8 103 105.4 108.1 110.5 112 113.2 115.3 117.5 119.5 121.7 123.7 125.5 127.2 128.9 130.3 132.3 134.3 135.8 137.6 138.4 138.1 139.1 139.8 140.4 140.2 140.2 141.4 142.3 143.2 143.9 144.3 146.7 148 149.9 151.2 152 153.2 154.3 155.3 155.7 156.6 157.4 157.9 158.4 158.5 158.6 158.7 158.9 159.1 159.3 159.6 159.9 160.1 160.2 160.4 160.5 160.8 161.2 161.6 161.9 162.1 162.6 163.4 164.2 164.7 165.2 165.6 165.8 166.1 166 165.6 165.1 164.7 164.1 163.1 162.3 161.3 159.9 158.5 157.2 155.7 153.9 152.2 150.3 148.6 147.1 145.7 144.3 142.9 141.5 140 138.6 137.6 136.9 136 135.7 135.4 134.6 134.1 133.7 134 130.6 132.7 134.4 134.6 135.7 137 137.9 139 140.1 141.7 143.2 144.7 146.5 149 150.8 154.4 159.3 168.3 178.6 183.2 184.6 184 181.1 176.7 171.9 167.2 161.3 153.9 144.8 132.7 108.4 77.6 60.9 45.3 27.8 13 7.5 0.7 -1.3 -1.3 -1.3 -1.3 -1.3 -1.3 -1.3 -1.3 -1.3 -1.3 -1.3 -1.3 -1.3 -1.3 -1.3 -1.3 -1.3 -1.3 -1.3 -1.3 -1.3 -1.3 -1.3 -1.3 -1.3 -1.3 -1.3 -1.3 -1.3 -1.3 -1.3 -1.3 -1.3 -1.3 -1.3 -1.3 -1.3 -1.3 -1.3 -1.3 -1.3 -1.3 -1.3
93.6 93.5 93.3 93 92.7 92.6 92.3 91.5 89.6 92 93.2 94.5 95.7 98 99.8 102.5 104.7 107 109.4 111.5 113.5 115.2 116.6 118 119.5 121.4 123.4 125.8 128 129.7 131.3 132.9 135 136.8 138.6 139.7 140.5 140.7 140.8 140.9 141.1 141.5 141.5 142.7 143.9 144.9 146.1 147.3 148.1 150.8 151.9 152.9 154.1 155.3 156.4 157.3 158.1 159.8 159.6 159.8 160.2 160.8 160.9 160.6 160.4 160.8 161 161.2 161.5 161.8 162.1 162.2 162.4 162.4 162.7 163.1 163.5 163.9 164.4 165.2 166 166.8 167.4 167.9 167.9 167.9 167.5 167.1 166.7 166.1 165.5 164.6 163.6 162.3 161 159.6 158.1 156.3 154.5 152.8 151 149.3 147.5 146.2 144.8 143.5 142.1 140.7 139.3 138.3 137.6 136.7 135.6 134.8 134.5 133.9 132.9 131.9 132.6 134.1 134.6 135 135.9 136.6 138.1 139.2 140.5 142 143.6 145.1 146.7 148.7 151.8 157 160.7 165.8 174.7 182.2 183.8 183.7 181 178.2 173.8 169.3 163.8 157.3 149 139.7 121 96.1 75.4 59.8 34.2 16.3 8.9 1.4 -1.3 -1.3 -1.3 -1.3 -1.3 -1.3 -1.3 -1.3 -1.3 -1.3 -1.3 -1.3 -1.3 -1.3 -1.3 -1.3 -1.3 -1.3 -1.3 -1.3 -1.3 -1.3 -1.3 -1.3 -1.3 -1.3 -1.3 -1.3 -1.3 -1.3 -1.3 -1.3 -1.3 -1.3 -1.3 -1.3 -1.3 -1.3 -1.3 -1.3 -1.3 -1.3 -1.3 -1.3
96.8 96 95.8 95.4 95.1 95.4 95 94.1 93.4 96.3 98.1 100.3 99.9 104.4 106.3 108.7 110.6 112.4 114.6 116.7 118.5 120 121.1 122.5 124 125.4 127.5 129.9 132.2 133.8 135.4 136.6 138.9 141 141.6 141.9 142.7 143 143.3 142.9 143.1 143.5 144.3 145.3 146.5 147.9 149.3 150.6 152 153.6 155 156 156.7 158 158.9 159.8 160.8 161.1 162 162.3 162.5 162.9 162.8 162.5 162.3 162.4 162.8 163.1 163.3 163.7 164 164.3 164.4 164.4 164.6 165 165.5 166.1 166.7 167.4 168.2 169 169.5 169.6 169.6 169.1 168.6 167.9 167.2 166.7 165.9 164.7 163.2 161.9 160.6 159 157.1 155.3 153.6 151.9 150.1 148.3 146.6 145.1 143.7 142.5 141.4 140 139.1 138.3 137.3 136.2 135.2 134.2 133.6 133.5 134.2 133 134.1 135.1 135.6 136.3 137.3 138.3 139.8 141 142.6 143.9 145.5 147.2 149.5 152.7 157.6 163 168.4 173.9 178.8 182.1 182.4 180.8 177.8 174.8 170.2 165.6 159.8 151.4 142.8 131.5 105.6 86.7 76.6 60.3 27.5 9.4 2 -1.3 -1.3 -1.3 -1.3 -1.3 -1.3 -1.3 -1.3 -1.3 -1.3 -1.3 -1.3 -1.3 -1.3 -1.3 -1.3 -1.3 -1.3 -1.3 -1.3 -1.3 -1.3 -1.3 -1.3 -1.3 -1.3 -1.3 -1.3 -1.3 -1.3 -1.3 -1.3 -1.3 -1.3 -1.3 -1.3 -1.3 -1.3 -1.3 -1.3 -1.3 -1.3 -1.3 -1.3 -1.3
99.2 98.7 98.4 97.7 98 98.1 98.6 100 99.7 102.4 103.9 106.4 108.2 110.4 112 113.8 115.8 117.7 119.9 121.9 123.4 124.7 125.8 127 128.5 129.9 131.9 133.9 135.9 137.8 139.5 140.7 142.2 143.6 143.9 144.2 144.8 145.1 145.4 145.8 145.6 146.1 147 148.2 149.8 151.2 152.5 153.7 155.1 156.6 158 158.7 159.4 160.6 161.3 162.1 162.9 163.4 163.8 164.2 164.6 164.5 164.5 164.4 164.2 164.1 164.5 164.9 165.2 165.6 165.9 166.2 166.4 166.3 166.6 166.9 167.6 168.5 169.1 169.7 170.3 170.9 171.2 171 170.4 169.9 169.4 168.6 167.8 167.2 166 164.6 163.1 161.6 160.2 158.3 156.1 154.3 152.7 150.9 149.1 147.3 145.6 144.1 142.8 141.6 140.7 139.5 138.6 137.6 136.5 135.5 134.4 133.8 133.8 133.9 134.1 134.2 135 136.1 136.5 137.5 138.8 140 141.5 142.8 144.5 146.1 147.9 150.7 154 158.6 163.9 169.6 174.9 178.8 180.7 181 180.1 177.8 174.8 171.5 166.6 161.6 154.6 146.1 137.9 117 89.9 72.6 66.5 49.4 17.5 4.4 0.5 -1.3 -1.3 -1.3 -1.3 -1.3 -1.3 -1.3 -1.3 -1.3 -1.3 -1.3 -1.3 -1.3 -1.3 -1.3 -1.3 -1.3 -1.3 -1.3 -1.3 -1.3 -1.3 -1.3 -1.3 -1.3 -1.3 -1.3 -1.3 -1.3 -1.3 -1.3 -1.3 -1.3 -1.3 -1.3 -1.3 -1.3 -1.3 -1.3 -1.3 -1.3 -1.3 -1.3 -1.3 -1.3
101.5 101.6 101.6 101 101.2 101.9 103.1 104.8 105.7 107.4 109.4 112.1 114.2 115.5 117.2 119 121 123 124.5 125.7 127.3 129 130.4 131.6 133 134.5 136.3 137.8 139.8 141.7 142.7 143.9 144.3 145.6 146.1 146.5 146.9 147.1 147.2 147.7 148.3 148.6 149.6 150.9 152.7 154.5 155.8 156.8 158.3 159.8 160.9 161.5 162 163.1 163.7 164.3 164.9 165.3 165.6 166 166.2 166.2 166.2 166.1 166 165.9 166.1 166.4 166.7 167.1 167.4 167.8 168.1 167.9 168.2 169.1 170.3 171 171.6 172 172.4 172.7 172.3 172 171.4 170.8 170.1 169.3 168.4 167.4 166 164.5 163.1 161.2 159.3 157.5 155.4 153.2 151.6 149.9 148.1 146.4 145.1 143.3 142 140.8 139.8 138.6 137.4 136.5 135.6 134.5 133.9 133.7 132.9 134.4 134.8 135.3 136.1 136.8 137.5 138.7 140.2 141.7 143.2 144.8 146.7 149.1 151.9 156.2 160.4 164.8 169.9 175.2 179.7 180.6 180.9 180.5 178.4 175.1 171.8 168 163 157.1 150 141.5 122.6 99.6 75.5 54.5 49.7 39.9 14.7 1.6 -0.1 -1.3 -1.3 -1.3 -1.3 -1.3 -1.3 -1.3 -1.3 -1.3 -1.3 -1.3 -1.3 -1.3 -1.3 -1.3 -1.3 -1.3 -1.3 -1.3 -1.3 -1.3 -1.3 -1.3 -1.3 -1.3 -1.3 -1.3 -1.3 -1.3 -1.3 -1.3 -1.3 -1.3 -1.3 -1.3 -1.3 -1.3 -1.3 -1.3 -1.3 -1.3 -1.3 -1.3 -1.3 -1.3
104.5 104.7 104.6 104.5 105.7 106.9 108.2 109.5 110.7 112.7 114.9 117.2 119.2 121.3 119.8 124.1 126.1 127.7 128.2 129.5 131.1 132.8 134.4 136.1 137.6 139.1 140.5 142.3 144 145 145.8 146.3 146.7 147.5 148 148.5 148.9 148.8 149 149.7 150.4 151.3 152.7 154.1 156.2 157.8 159 159.7 161.1 162.5 163.3 164.1 164.8 165.4 166 166.4 166.7 167 167.2 167.4 167.3 167.3 167.3 167.3 167.5 167.6 167.8 168 168.3 168.5 168.9 169.2 169.5 169.6 170.5 171.7 172.7 173 173.3 173.7 174 174 173.6 173.1 172.4 171.6 170.7 169.6 168.5 167.1 165.4 163.6 161.7 159.8 157.8 155.8 154.1 152.4 150.5 148.6 146.9 145.9 144.2 142.5 141.3 140.1 138.9 137.6 136.3 135.4 134.7 133.9 134 132.1 134.4 134.9 135.6 136.5 137.3 138 138.7 140.2 142.4 144.1 145.8 147.6 149.8 153.1 157.2 161.9 166.8 170.9 175.4 179.9 181.3 181.6 180.8 179.1 176.3 173.1 169.5 164.5 159 152.4 144 132.8 107.6 83.5 63.1 41.2 33.8 29.9 8.7 1.2 -1.3 -1.3 -1.3 -1.3 -1.3 -1.3 -1.3 -1.3 -1.3 -1.3 -1.3 -1.3 -1.3 -1.3 -1.3 -1.3 -1.3 -1.3 -1.3 -1.3 -1.3 -1.3 -1.3 -1.3 -1.3 -1.3 -1.3 -1.3 -1.3 -1.3 -1.3 -1.3 -1.3 -1.3 -1.3 -1.3 -1.3 -1.3 -1.3 -1.3 -1.3 -1.3 -1.3 -1.3 -1.3 -1.3
108.4 108.6 108.8 109.5 110.8 112.1 113.3 114.9 113.7 118.1 119.9 122 124.2 125.9 125.3 128.8 130.2 131.2 132.1 133.2 134.9 136.6 138.2 139.9 141.5 143.1 144.8 146 146.8 147.6 148.2 148.8 149.2 149.4 149.8 150.1 150.8 151 151.2 152.2 153.1 154.3 155.7 157.1 159.4 160.8 161.6 162.2 163.5 164.9 165.6 166.2 166.7 167.3 167.8 167.9 168.2 168.4 168.4 168.4 168.3 168.5 168.6 168.8 168.9 169.1 169.2 169.4 169.6 169.7 170 170.4 170.8 171.9 172.9 173.7 174.4 174.8 175 175.3 175.4 175.4 175.1 173.9 173 171.8 170.6 169.4 167.7 165.9 164.2 162.2 160.2 158.3 156.3 154.2 152.4 150.7 148.8 147.2 145.8 144.2 142.8 141.6 140.3 139.1 137.8 136.5 135.1 134.5 133.8 133.8 134 134.6 135.5 136.1 137.1 138.1 139.2 140.1 141.1 143.2 145.3 147.2 149.7 152.2 155.3 159.3 163.5 168.2 172.2 175.8 179.9 181.6 182 181.5 179.8 178.7 176 173 168.3 162.5 155.1 146 134.3 116.9 89.2 67.7 49.7 30.3 14.2 6.7 1.8 0.5 -1.1 -1.3 -1.3 -1.3 -1.3 -1.3 -1.3 -1.3 -1.3 -1.3 -1.3 -1.3 -1.3 -1.3 -1.3 -1.3 -1.3 -1.3 -1.3 -1.3 -1.3 -1.3 -1.3 -1.3 -1.3 -1.3 -1.3 -1.3 -1.3 -1.3 -1.3 -1.3 -1.3 -1.3 -1.3 -1.3 -1.3 -1.3 -1.3 -1.3 -1.3 -1.3 -1.3 -1.3 -1.3 -1.3
112.7 113.1 113.6 114.5 115.7 116.6 118.1 120.4 119.8 123 124.6 126.4 128.2 129.5 128 132.4 132.3 133.6 135.4 136.8 138.6 140.3 142 143.7 145.3 146.6 147.8 148.7 149.4 150 150.6 150.9 151 151.2 151.4 151.8 152.6 152.9 153.2 154.3 155.9 157.4 158.7 160 161.7 163.4 164.2 164.7 165.9 166.9 167.5 168 168.4 168.8 169.3 169.5 169.6 169.5 169.4 169.4 169.4 169.6 169.8 169.9 169.9 169.8 170.3 170.4 170.6 170.7 171.5 172 172.6 173.9 174.8 175.4 176.2 176.6 176.8 176.6 176.5 176.4 175.2 173.7 172.7 171.4 169.9 168.3 166.5 164.7 162.7 160.7 158.5 156.7 154.7 152.7 150.8 149 147.2 145.7 144.2 142.9 141.6 140.4 139.1 137.9 136.6 135.3 134 133.4 133.9 134.2 134.8 135.7 136.8 137.6 138.9 140.2 141.6 143.3 145.1 146.6 148.6 151.6 155.1 159.7 163.3 167.7 171.9 175.1 178.5 180.6 182.8 182.8 182.9 182.5 181.5 179.5 176.4 172 165.4 157.7 149.5 136.5 120.4 82.8 57.8 42.4 27 11 2.3 1.3 0.2 -1.3 -1.3 -1.3 -1.3 -1.3 -1.3 -1.3 -1.3 -1.3 -1.3 -1.3 -1.3 -1.3 -1.3 -1.3 -1.3 -1.3 -1.3 -1.3 -1.3 -1.3 -1.3 -1.3 -1.3 -1.3 -1.3 -1.3 -1.3 -1.3 -1.3 -1.3 -1.3 -1.3 -1.3 -1.3 -1.3 -1.3 -1.3 -1.3 -1.3 -1.3 -1.3 -1.3 -1.3 -1.3 -1.3 -1.3
116.4 117.4 118.4 119.3 120.2 121.2 122.9 124.2 125.5 126.7 128.4 130.2 131.7 132.8 133.8 135.1 136.6 137.6 139 140.3 142.1 144 145.7 147.1 148.2 149.4 150.6 151.2 151.8 152.4 152.7 152.9 152.8 153 153.1 153.4 154.4 154.7 155.7 157.4 159.1 160.5 161.5 162.6 164.1 165.7 166.5 167.1 168.1 168.7 169.2 169.7 170.1 170.5 170.6 170.5 170.5 170.5 170.4 170.4 170.6 170.7 170.6 170.6 170.6 170.7 171.2 171.4 171.6 172.4 173.2 173.8 174.6 175.8 176.8 177.4 178 178.1 177.5 176.9 176.3 175.4 174.3 173.1 171.9 170 168.6 166.5 164.5 162.8 160.9 158.7 156.5 154.8 152.9 151 149.2 147.7 145.8 144.3 143 141.7 140.5 139.2 138 136.7 135.4 134.2 132.4 133.9 134.5 135.1 135.9 137 138.2 139.7 141.2 142.7 144.4 146.3 148.8 150.4 154.1 158.9 163.3 167.7 171.8 175.8 179.5 181.4 183.2 184.2 184.8 184.8 185.2 184.6 183 179.3 174.3 167.9 160.4 150.4 140.2 124.7 89.5 57.7 31.4 10 3.8 1.6 0.2 -1.3 -1.3 -1.3 -1.3 -1.3 -1.3 -1.3 -1.3 -1.3 -1.3 -1.3 -1.3 -1.3 -1.3 -1.3 -1.3 -1.3 -1.3 -1.3 -1.3 -1.3 -1.3 -1.3 -1.3 -1.3 -1.3 -1.3 -1.3 -1.3 -1.3 -1.3 -1.3 -1.3 -1.3 -1.3 -1.3 -1.3 -1.3 -1.3 -1.3 -1.3 -1.3 -1.3 -1.3 -1.3 -1.3 -1.3 -1.3 -1.3
