ncols 200
nrows 92
xllcorner 380000
yllcorner 774200
cellsize 50
96.3 95.1 94.1 94.5 94.8 95.2 95.5 95.3 95 94.8 94.8 94.9 95.2 95.3 94.1 92.3 87.9 86.4 87.1 89.2 89.9 88.9 89.2 90.1 90.6 91 93.1 96.5 100.5 104.4 106.8 108.1 110.1 113.9 114.4 116.9 121.1 132 139.8 146.7 155.2 159.1 156 152.4 147.2 144.5 143 141.7 137.3 134.8 133.1 131.9 131.1 130.5 133 137.1 139.7 143 138 134.1 129.3 124.7 119.2 113.4 106 101.4 99 99.2 98.1 96.6 94.8 94.5 94.6 93.8 93.4 93.5 93.7 93.7 94 93.1 91.9 90.3 87.6 84.7 82.1 80.2 76.3 74 73.4 73.2 72.2 71.2 69.4 68.5 68.8 68.9 69.5 70.1 72 77.8 83 88.7 91.4 90.2 87.2 86.6 85.3 86 85.9 85.2 84.8 84.3 83.9 82.8 81.2 74.6 70.6 65.9 63.5 63.3 63.8 61.9 56.9 52 48.6 45.4 43.7 43.4 44.4 43.9 43 39.6 34.6 25.7 28.4 36.3 41 39.6 39.8 40.2 41.3 44 46.5 48.5 48.3 46.2 43.4 40.4 3.5 -1.9 -1.9 -1.9 -1.9 -1.9 -1.9 -1.9 -1.9 -1.9 -1.9 -1.9 -1.9 -1.9 -1.9 -1.9 -1.9 -1.9 -1.9 -1.9 -1.9 -1.9 -1.9 -1.9 -1.9 -1.9 -1.9 -1.9 -1.9 -1.9 -1.9 -1.9 -1.9 -1.9 -1.9 -1.9 -1.9 -1.9 -1.9 -1.9 -1.9 -1.9 -1.9 -1.9 -1.9 -1.9 -1.9 -1.9 -1.9 -1.9 -1.9 -1.9
97.4 95.8 95.7 96.1 96.5 96.9 97.2 97.2 97 96.7 96.5 96.3 96.2 95.7 94.6 91.5 89.7 87.1 85.7 86.5 87.6 87.5 88.4 89.8 89.9 90.4 91.3 94.1 97.8 101.2 104 105.2 107 109.3 112.6 114.7 119.7 129 136.4 146.3 154.2 157.9 155.4 149.2 145.2 144.2 143 139.6 133.4 133 132.6 131.6 129.7 128 128.3 132.1 134.5 135.1 133 130.2 125.8 120.3 115 108.5 103.6 100.2 99.8 100.1 98.6 95.4 94.7 94.5 94 93.3 92.6 92.3 91.3 90.2 92 91.3 89 86.2 83.6 80.7 77.9 76.3 73.3 71.7 71.1 70.8 69.7 69.3 68.9 69 67.7 69.7 70.7 72.3 74.9 78.2 86.5 92.5 93.9 92.3 89.5 87.9 87 87.8 87.8 87.1 86.4 85.8 84.4 84.6 81.3 75.7 69.9 66.1 64.1 63.8 64.7 62.4 57.4 51.6 47.6 44.1 42.9 42.6 42.6 43.1 42.9 40.9 31.1 26.5 26.6 35.1 38.6 37.2 38.2 38.5 38.8 41 43 44.9 45.1 43.3 40.6 39.4 2.2 -1.9 -1.9 -1.9 -1.9 -1.9 -1.9 -1.9 -1.9 -1.9 -1.9 -1.9 -1.9 -1.9 -1.9 -1.9 -1.9 -1.9 -1.9 -1.9 -1.9 -1.9 -1.9 -1.9 -1.9 -1.9 -1.9 -1.9 -1.9 -1.9 -1.9 -1.9 -1.9 -1.9 -1.9 -1.9 -1.9 -1.9 -1.9 -1.9 -1.9 -1.9 -1.9 -1.9 -1.9 -1.9 -1.9 -1.9 -1.9 -1.9 -1.9 -1.9
97.9 96.7 97.3 97.6 98 98.5 98.9 99.1 98.9 98.7 98.5 98.1 97.4 96.3 94.7 92.5 90.2 88 86.1 86.8 87.9 88 86.8 88.8 89.3 89.9 90.7 93 95.4 98.1 101.1 102.7 105.5 109 110.7 113.4 117.2 123.1 133 142.3 147.6 152.2 151.9 147.9 144.8 142.1 140.6 132.2 127.9 131.1 131.8 130.7 128.3 126.6 126.6 129.4 130.1 129.1 128.2 125.8 122.2 116.4 110.5 106.7 102.7 102.2 101.3 99.2 97.5 95.6 94.3 94 92.7 92 91.8 92.1 92.9 93 90.5 87 85.2 83.3 80.5 77.6 76 73.9 71.9 70.7 69.8 69.9 70.5 69.3 69.1 69.8 70.2 72.3 74.4 76 78 83.3 87.3 93.8 93.9 93.3 91.6 88.8 88.3 88.2 89.2 88.9 87.4 85.9 85.3 84.4 80.2 74.9 67.9 66.3 65.3 66.1 64.7 61.6 57.5 51.1 46.9 42.9 41.6 41.5 41.5 41.8 41.2 40.2 27 24.5 24.5 30.1 35.9 35 36.1 37.2 37.4 38.4 39.6 41.4 41.4 40.1 37.4 34 12.8 -1.9 -1.9 -1.9 -1.9 -1.9 -1.9 -1.9 -1.9 -1.9 -1.9 -1.9 -1.9 -1.9 -1.9 -1.9 -1.9 -1.9 -1.9 -1.9 -1.9 -1.9 -1.9 -1.9 -1.9 -1.9 -1.9 -1.9 -1.9 -1.9 -1.9 -1.9 -1.9 -1.9 -1.9 -1.9 -1.9 -1.9 -1.9 -1.9 -1.9 -1.9 -1.9 -1.9 -1.9 -1.9 -1.9 -1.9 -1.9 -1.9 -1.9 -1.9
98.3 98.8 99.6 99.8 100.1 100.3 100.5 100.9 100.8 100.3 99.8 99.2 98.1 96.8 95.1 93 90.7 88.5 87.4 89.1 89.4 89.1 89.1 87.1 87.5 89.3 90.1 92.9 95.3 97.8 100.5 103.1 106.1 108.1 110.1 112.2 115.9 122.2 131.8 141.4 148.2 152 153.1 147.6 144.2 142.4 135.4 128 127.3 129.4 131.1 130 127 125.6 125.3 126.5 125.5 123.9 123 119.7 116.5 112.4 109.2 106.2 105.4 106.6 103.1 99.3 97.2 95.8 94 93.5 92.6 91.9 92.7 92.9 92.9 91.8 90.3 87.5 82.3 80 78.4 76.4 75.4 73.3 71.7 71 71.3 70.7 71.4 71.1 71 71.1 72.2 74.7 78.1 81.4 84.6 88.9 90.8 92.9 93.9 94.1 93.4 90.4 89.5 89.3 89.2 89.8 88.2 85.9 85.7 83 79.1 73.5 68.4 67.5 67.5 67.7 65 61.7 56.3 50.2 45.2 42 40.8 40.5 40.4 40.2 39.4 38.9 26.7 21.6 22.5 22.5 27.1 32.1 33.2 34.6 36.4 38 38.1 37.6 36 34.4 32.3 31.1 29.8 2.5 -1.9 -1.9 -1.9 -1.9 -1.9 -1.9 -1.9 -1.9 -1.9 -1.9 -1.9 -1.9 -1.9 -1.9 -1.9 -1.9 -1.9 -1.9 -1.9 -1.9 -1.9 -1.9 -1.9 -1.9 -1.9 -1.9 -1.9 -1.9 -1.9 -1.9 -1.9 -1.9 -1.9 -1.9 -1.9 -1.9 -1.9 -1.9 -1.9 -1.9 -1.9 -1.9 -1.9 -1.9 -1.9 -1.9 -1.9 -1.9 -1.9 -1.9
100 100.9 101.8 102.1 102.3 102.6 103 102.7 102.1 101.5 100.9 99.7 98 96.4 95.2 92.9 90.7 88.8 89.1 89.9 89.5 89.1 89.7 89.7 89.5 87.2 90 94.6 97 99.5 100.9 102.9 105.1 106.6 108.9 111.2 114 121.7 130.9 140.1 147.5 152.6 151.6 147.3 142.9 136.9 131.4 127.2 127.6 127.9 130.3 130.1 128.3 126.2 123.9 124 122.2 120.9 119.9 117.7 113.6 109.6 107.1 107.8 108.4 105.5 102.9 101 100 96 93.9 93.2 92.9 92.6 93.1 92.2 91.7 90.6 88.9 86.6 83.7 81.9 80.2 77.6 74.9 73.8 72.3 72 71.6 72.4 73.9 74.9 75.7 76.1 78.6 81.4 84.5 87.3 90.7 93.1 93.8 94.8 95.2 95 94.8 92.8 90.9 91.5 89.9 89.1 87.6 87 85.3 81.9 78.5 72.1 69.8 69.6 70.7 69.4 65 60.6 54.8 49.4 44.2 42.8 41.1 40.8 40.5 38.7 38.4 37.4 36.2 26.6 24.3 19 25.1 30.9 33 35 37 37.8 38 38.2 35.1 32.3 30.6 28.9 27.5 2.9 -1.9 -1.9 -1.9 -1.9 -1.9 -1.9 -1.9 -1.9 -1.9 -1.9 -1.9 -1.9 -1.9 -1.9 -1.9 -1.9 -1.9 -1.9 -1.9 -1.9 -1.9 -1.9 -1.9 -1.9 -1.9 -1.9 -1.9 -1.9 -1.9 -1.9 -1.9 -1.9 -1.9 -1.9 -1.9 -1.9 -1.9 -1.9 -1.9 -1.9 -1.9 -1.9 -1.9 -1.9 -1.9 -1.9 -1.9 -1.9 -1.9 -1.9
102.1 103 103.7 104.8 105.2 105.1 104.5 104 103.4 103 102 100 97.6 96.5 95.2 92.9 90.6 88.5 89.9 90.3 89.8 89.5 90 90.3 90 89.1 88.3 95.5 98.4 100.2 101.3 102.7 104.1 104.7 106.9 109.1 112.3 118.9 129.1 137.9 145.4 150.5 150.1 147 139.8 133.5 128.9 126.9 127.3 130.9 134.7 136.5 135.6 133 129.2 124.9 122 119.4 118.3 116.6 112.7 111.7 113 111.8 108.7 106.2 103.7 102.1 101.8 99.9 94.8 94.3 94.7 94 92.6 91.5 90.5 89.3 87.6 85.5 84.4 83.5 81.1 77.5 74.3 72.9 73.3 74.1 74.4 76 76.9 78.3 79.9 82.6 85.6 88.4 91.1 93.7 95 96.2 97.2 98.2 97.1 96 95.3 94.3 91.5 93 91 89.6 89.8 89.2 88.2 84.1 78.4 72.6 71.7 71.7 71.6 68.9 64.1 59.5 54 48.6 44.8 44.1 41.7 41.2 40 38.5 38.8 36.7 34.8 33.5 34.1 27.9 20 30.2 33.1 34.8 36.2 36.1 36.6 35.5 33.6 31.3 29.6 26.1 13 2.3 -1.9 -1.9 -1.9 -1.9 -1.9 -1.9 -1.9 -1.9 -1.9 -1.9 -1.9 -1.9 -1.9 -1.9 -1.9 -1.9 -1.9 -1.9 -1.9 -1.9 -1.9 -1.9 -1.9 -1.9 -1.9 -1.9 -1.9 -1.9 -1.9 -1.9 -1.9 -1.9 -1.9 -1.9 -1.9 -1.9 -1.9 -1.9 -1.9 -1.9 -1.9 -1.9 -1.9 -1.9 -1.9 -1.9 -1.9 -1.9 -1.9 -1.9
104.2 104.7 105.3 106.9 107.3 107 106.6 106.2 105.4 104.8 103 101.2 99 97.4 95.2 92.1 90 91 90.8 90.7 90.3 90.1 90.1 90.9 92.4 92.8 89.6 93 99.2 100.4 101.3 102.3 103.1 103.7 105 106.9 109.9 114.6 123.7 133.7 142.2 147.3 148.7 144.9 136.6 130.9 128 126.8 129 133.9 138.4 141.2 140.3 137.3 132.8 127.9 126.3 121.4 116.6 116.3 115.3 115.7 113.3 111.7 109.3 106.9 104.5 104.1 106.7 102.8 98.7 95.9 95.2 94.9 93.7 92.3 90.5 86.7 85.4 83.5 81.9 80.1 77.6 75.4 77.4 79.1 80.1 80.3 80.4 80.9 81.7 83.4 85.6 89.5 92.7 95.5 97.5 98.6 99.2 99.2 100.2 100.6 99.9 98.6 95.8 94.2 92.9 93.4 92 91.4 91.1 89.4 88.1 82.8 76.9 73.2 72.7 71.8 71.7 68.7 63.8 58.1 53 47.7 43.3 42.1 41 40.6 40.1 38.7 39 37.8 34.5 31 32.3 31.2 26.9 28.1 32.7 34 35.3 35.2 34.1 32.2 30.5 29.4 4.6 7 -1.9 -1.9 -1.9 -1.9 -1.9 -1.9 -1.9 -1.9 -1.9 -1.9 -1.9 -1.9 -1.9 -1.9 -1.9 -1.9 -1.9 -1.9 -1.9 -1.9 -1.9 -1.9 -1.9 -1.9 -1.9 -1.9 -1.9 -1.9 -1.9 -1.9 -1.9 -1.9 -1.9 -1.9 -1.9 -1.9 -1.9 -1.9 -1.9 -1.9 -1.9 -1.9 -1.9 -1.9 -1.9 -1.9 -1.9 -1.9 -1.9 -1.9 -1.9 -1.9
105.9 106.3 106.8 108.5 108.9 108.7 108.5 108 107.5 105.9 104 102.2 99.8 97.8 95.6 91.1 92.8 92.7 92.2 91.9 91.3 91.2 91.9 92.6 94.2 95.7 90.5 89 97.7 100.3 101 101.3 101.8 101.8 102.4 104.3 107.5 111.4 119.2 130 138.1 142.6 145.8 140.9 134.6 130.3 127.8 127 129.8 136.5 139.7 143.9 144.1 142 138.2 134.8 130.2 126.3 124.8 122.5 119 117.2 114.9 112.5 109.1 106.8 106 108 107.4 102.5 99.7 97.6 96.1 95 94.3 92.1 89 85.9 81.1 81 80 80 80.2 80.7 83.1 85.7 86.4 86.3 86.3 86.9 88.2 89.8 92.6 96.9 99.8 101.3 102.5 103.5 103.1 102.8 103 104.6 103.1 100.9 96.7 94.8 94.7 93.4 92.4 91.8 92.1 91.5 88.1 82 76.9 74.3 73.6 72.1 70.7 67.4 61.6 56.1 51.1 46.1 43.1 41.5 40.9 40.4 38.2 38.8 37.7 36.9 35.6 32.3 31.1 30.8 26.8 28 31.6 33.4 35.1 34.4 32.4 29.8 28.8 27.9 -1.9 -1.9 -1.9 -1.9 -1.9 -1.9 -1.9 -1.9 -1.9 -1.9 -1.9 -1.9 -1.9 -1.9 -1.9 -1.9 -1.9 -1.9 -1.9 -1.9 -1.9 -1.9 -1.9 -1.9 -1.9 -1.9 -1.9 -1.9 -1.9 -1.9 -1.9 -1.9 -1.9 -1.9 -1.9 -1.9 -1.9 -1.9 -1.9 -1.9 -1.9 -1.9 -1.9 -1.9 -1.9 -1.9 -1.9 -1.9 -1.9 -1.9 -1.9 -1.9 -1.9 -1.9
107.2 107.7 108.5 110.1 110.5 110.3 109.9 109 108.4 106.9 105 102.3 100.6 98.5 96 91.6 96.4 94.5 93.6 93.3 93.3 94.7 95.2 94.5 95.9 97.7 94.9 89.3 93.1 99.7 99.8 100 99.5 99.4 99.8 101.4 104.5 111 118.5 125.4 133.6 139.6 141.2 137.1 133.3 130.4 128 128.4 132.1 138.4 143.2 147.7 147.3 145.6 142.6 138.9 134 130.8 127.3 123.8 119.7 117.4 115.7 112.4 109.6 107.6 108.5 109.4 103.5 100.4 100.7 99.3 97.7 96.3 94.6 93.2 91.5 83.8 86.9 87.6 85.3 85.6 86.6 89.3 91.1 92.6 92.8 92.4 92.2 93.5 94.9 97.2 99.6 103 105.4 106.2 107.1 106.9 107.1 107.3 105.2 102.8 101.9 100.1 97.7 96.2 94.2 93.1 92.1 91.2 91 90.9 86.3 83.3 77.2 75.6 74.3 72.2 68.8 65.2 59.4 54.2 49.8 46.5 43.6 42.3 41.5 40.2 38.8 37.7 34.4 34.1 33.6 31.1 28.3 30.2 26 27.1 31.3 33.9 34.5 33.2 30.9 15.8 2.8 2.1 -1.9 -1.9 -1.9 -1.9 -1.9 -1.9 -1.9 -1.9 -1.9 -1.9 -1.9 -1.9 -1.9 -1.9 -1.9 -1.9 -1.9 -1.9 -1.9 -1.9 -1.9 -1.9 -1.9 -1.9 -1.9 -1.9 -1.9 -1.9 -1.9 -1.9 -1.9 -1.9 -1.9 -1.9 -1.9 -1.9 -1.9 -1.9 -1.9 -1.9 -1.9 -1.9 -1.9 -1.9 -1.9 -1.9 -1.9 -1.9 -1.9 -1.9 -1.9 -1.9 -1.9 -1.9
108.2 109.6 110.9 111.9 112 111.7 111.2 110.5 109.2 107.6 105.8 103.9 102 100 94.1 95.4 97.8 97.1 96.3 95.5 96 97.2 97.6 97.9 97.7 99.3 99.2 90.9 89.1 97.3 98.2 97.7 97.3 97.1 98.3 100 105.7 113.2 119.3 126.1 133.4 137.6 136.8 134.6 131.6 129.1 126.4 133 138.1 142.6 146.3 149.6 149.2 147.5 144.4 141.1 137.2 131.5 126.5 121.9 118.9 118 113.5 111.2 108.2 109.5 110.6 105.9 101.4 100.3 99.2 97.5 96.6 95.3 94 93.1 91.1 83.2 90 91.8 90.8 91.8 95.4 98 99.9 99.7 98.9 98.6 99.2 100.2 102.9 105.5 106.2 107.8 110.1 110.8 110.6 109.9 109.4 108.8 104 102.8 101.6 99.5 97 95 93.7 93.3 92.8 92.3 91.3 91 86.2 81.1 77.9 76.2 74.5 71.4 66.2 62.2 57.3 53.5 50 47.2 44.8 43.4 42.3 40.9 39.4 37.2 34.8 31.1 29.6 29.8 21 28.2 18.6 28.8 31.8 32.9 32.8 25.9 2.4 1.6 -1.9 -1.9 -1.9 -1.9 -1.9 -1.9 -1.9 -1.9 -1.9 -1.9 -1.9 -1.9 -1.9 -1.9 -1.9 -1.9 -1.9 -1.9 -1.9 -1.9 -1.9 -1.9 -1.9 -1.9 -1.9 -1.9 -1.9 -1.9 -1.9 -1.9 -1.9 -1.9 -1.9 -1.9 -1.9 -1.9 -1.9 -1.9 -1.9 -1.9 -1.9 -1.9 -1.9 -1.9 -1.9 -1.9 -1.9 -1.9 -1.9 -1.9 -1.9 -1.9 -1.9 -1.9 -1.9 -1.9
110.6 112 113.3 114.3 113.8 113.3 112 110.9 110.1 108.3 106.5 104.7 102.8 99.4 93.9 99.8 99.7 99.6 98.8 98.3 98.4 99.2 99.7 99.8 99.2 99.7 99.4 97.2 88.8 92.1 96 95.9 95.8 95.7 97.4 100 105.5 112.9 120.6 128.3 133 135.9 136.7 132.9 129.5 126.3 126.1 133.9 140.6 144.2 146.2 148.8 149 144.9 144.7 141.9 135.5 129.8 124.2 120.3 118.6 115.8 111.6 109.1 108.6 108.8 106.7 102.9 101.8 101 99 97.1 96.3 94.9 93.5 90 87.6 88.1 93.1 94.8 96.3 100 103.5 105.6 106.9 106.4 106.2 105.6 107.1 108.9 111 112.1 112.2 112.3 113.8 114 113.6 112.8 111.7 110 107.4 104 101.1 99 97.1 95.5 93.4 94.2 94.5 93.5 92.2 91.3 87.4 80.6 78.1 76 74 71.8 67.2 62.1 57.9 53.7 50.7 48.2 46.2 44.5 43.2 41.4 38.9 36.3 32.9 29.7 26.8 21.1 20.5 14.5 16.1 30.7 30.1 18 10.5 3.7 2.1 -1.9 -1.9 -1.9 -1.9 -1.9 -1.9 -1.9 -1.9 -1.9 -1.9 -1.9 -1.9 -1.9 -1.9 -1.9 -1.9 -1.9 -1.9 -1.9 -1.9 -1.9 -1.9 -1.9 -1.9 -1.9 -1.9 -1.9 -1.9 -1.9 -1.9 -1.9 -1.9 -1.9 -1.9 -1.9 -1.9 -1.9 -1.9 -1.9 -1.9 -1.9 -1.9 -1.9 -1.9 -1.9 -1.9 -1.9 -1.9 -1.9 -1.9 -1.9 -1.9 -1.9 -1.9 -1.9 -1.9 -1.9
113 114.4 115.8 116.4 115.8 114.7 113 110.9 109.7 108.8 107.3 105.4 103.6 97.5 98.9 101.5 101.7 102.1 101.3 101.3 101.2 102 102.1 101.4 100.7 98.9 97.4 96.3 91.1 90.1 93.1 93.9 94.5 94.6 96.4 99.9 104.4 111.9 121.6 127.4 131.3 134.4 135.1 130.9 126.1 125.2 126.5 135.8 141.8 142.6 144 143.8 144.9 144.4 144 138.5 129.9 126.2 122.3 120.2 116.9 112.8 110 108.4 106 104.7 104.1 101.8 101.4 100.2 98.3 96.7 93.6 92.7 90 87.2 90.3 92.8 96.4 100.1 104.3 108.4 111.6 113.6 112.9 114.2 112.8 113 115.5 116.7 117.6 117.5 116.6 116.3 116.3 115.8 114.4 114.1 112.8 110.6 108 104.3 100.5 97.7 96.4 93.8 92.5 92.4 93.7 93.4 91.7 91.1 87.1 80.9 77.9 75.8 73.6 70.7 66.6 62.6 58.6 54.2 51.5 49.3 47.6 45.9 44.2 41.9 38.6 37.8 36.2 36.3 34.7 28.8 18 14.9 20.6 31.6 12.3 -1.9 -1.9 0.6 -1.9 -1.9 -1.9 -1.9 -1.9 -1.9 -1.9 -1.9 -1.9 -1.9 -1.9 -1.9 -1.9 -1.9 -1.9 -1.9 -1.9 -1.9 -1.9 -1.9 -1.9 -1.9 -1.9 -1.9 -1.9 -1.9 -1.9 -1.9 -1.9 -1.9 -1.9 -1.9 -1.9 -1.9 -1.9 -1.9 -1.9 -1.9 -1.9 -1.9 -1.9 -1.9 -1.9 -1.9 -1.9 -1.9 -1.9 -1.9 -1.9 -1.9 -1.9 -1.9 -1.9 -1.9 -1.9 -1.9 -1.9 -1.9
115.5 116.9 118.2 118.4 117.4 116.1 114.2 112 110 108.3 107.4 106.2 103.7 95.9 103.3 104.1 104.3 104.6 104.2 104.2 104.2 104.3 103.3 102.3 100.3 97.6 95.2 93.8 92.2 89.4 90.5 91.6 92.7 93.9 95.7 99 104.8 113.4 122.9 127.4 132.7 137.1 132.5 125.1 121.6 121.8 128.8 136.5 139.8 140.3 140.6 141.2 142.9 143.4 140.1 132.3 126 125.2 122.9 117.5 113.6 111.2 108.9 106.8 107.1 106.7 104.9 103.9 102.1 98.8 95.3 93.6 93.2 91.5 92 94.2 94.8 97.7 100.2 106 111.7 116.2 119.3 120 120.4 119.5 118.6 120.1 122.6 122.3 120.6 120.3 118.5 118.5 118.4 117.6 116.6 114.8 112.6 110.5 108.2 104.5 100.7 97.9 95.8 94 93.2 92.1 92 92.8 92.5 90.1 86.1 80.9 77.9 75.5 72.5 69.2 64.6 60.8 58.2 54.6 52.8 50.3 48.5 46.7 44.8 40.6 39.2 39 39.2 39.1 36.7 30.6 19.9 13.3 24.6 24.4 -1.9 -1.9 -1.9 -1.9 -1.9 -1.9 -1.9 -1.9 -1.9 -1.9 -1.9 -1.9 -1.9 -1.9 -1.9 -1.9 -1.9 -1.9 -1.9 -1.9 -1.9 -1.9 -1.9 -1.9 -1.9 -1.9 -1.9 -1.9 -1.9 -1.9 -1.9 -1.9 -1.9 -1.9 -1.9 -1.9 -1.9 -1.9 -1.9 -1.9 -1.9 -1.9 -1.9 -1.9 -1.9 -1.9 -1.9 -1.9 -1.9 -1.9 -1.9 -1.9 -1.9 -1.9 -1.9 -1.9 -1.9 -1.9 -1.9 -1.9 -1.9 -1.9
118.1 119.4 120.5 120 118.7 117.4 115.4 113.2 111 109.1 107.3 106.9 102.8 99.6 105.7 106.2 106.7 106.6 105.9 105.7 105.5 104.5 103.5 102.8 99.8 96.9 93.9 92.2 91.2 89.5 89.9 91 92.1 93.4 95.5 98.2 102.2 109.4 117.9 126 132.1 132.9 124.2 117.4 116.7 119 130.3 135.5 138 138 138.7 139.2 140 140.3 134.7 126.9 123.6 125.3 119.3 114.3 111.5 110.3 107.9 107.4 108.7 107.5 105.7 103.8 100.6 96.8 94.9 94.9 95.1 95.1 96 96.5 99.1 102.6 106.8 112.2 118 123.9 125.4 126.2 126.4 126.5 124.5 126.4 126.7 126.5 124.1 121.7 120.2 120.2 120.1 119.2 117.6 115.6 113.1 110.6 108.2 104.3 101 98.2 96 94.8 95.7 95.9 92.3 90.7 92.9 89.7 85 79.4 76.6 73.9 70.7 67.9 64 60.6 57.7 55.5 54 51.7 49.2 47.2 45.4 41.9 39.6 39.1 39.2 38.7 35.8 31.7 24.2 17.2 28.7 18.5 -1.9 -1.9 -1.9 -1.9 -1.9 -1.9 -1.9 -1.9 -1.9 -1.9 -1.9 -1.9 -1.9 -1.9 -1.9 -1.9 -1.9 -1.9 -1.9 -1.9 -1.9 -1.9 -1.9 -1.9 -1.9 -1.9 -1.9 -1.9 -1.9 -1.9 -1.9 -1.9 -1.9 -1.9 -1.9 -1.9 -1.9 -1.9 -1.9 -1.9 -1.9 -1.9 -1.9 -1.9 -1.9 -1.9 -1.9 -1.9 -1.9 -1.9 -1.9 -1.9 -1.9 -1.9 -1.9 -1.9 -1.9 -1.9 -1.9 -1.9 -1.9 -1.9
120.8 121.3 121 120.6 119.4 117.7 116.2 114.3 112.1 109.9 108.1 107.5 104.1 101.4 108 109 108.5 108 107.3 106.6 106 104.5 102.7 100.8 98.4 94.7 92.8 91.4 90.1 89.6 89.6 90.4 91.6 92.8 95.2 98 100.7 104.4 112.3 122.2 125.7 120 113.2 114.6 117.6 121.8 128.2 132.3 135.8 135.8 137.6 138.1 136.7 136.1 128.9 123.8 123.7 121.6 115.9 113.8 111.7 109.4 108.9 109.6 109.4 107.9 106.1 102 98.6 96.3 96.3 96.3 96.6 97.1 97.8 100 104.1 108.2 113.2 118.2 123.2 128.7 130.4 131.4 132.2 132.5 131.1 130.7 130.8 128.5 126.1 124.2 122.3 121.8 121.7 120.3 118.4 116.4 113.8 111.2 108.6 105.7 102.7 99.1 96.4 96.2 96.7 95.9 95 91.9 89.7 89.4 84.6 79.8 76.3 73.1 69.6 66.7 63.9 60.8 58.2 55.7 54.9 52.7 50.4 48.2 46 43.2 40.6 39.3 38.2 37.4 34.9 30.8 25.2 17.8 33.5 28 -1.9 -1.9 -1.9 -1.9 -1.9 -1.9 -1.9 -1.9 -1.9 -1.9 -1.9 -1.9 -1.9 -1.9 -1.9 -1.9 -1.9 -1.9 -1.9 -1.9 -1.9 -1.9 -1.9 -1.9 -1.9 -1.9 -1.9 -1.9 -1.9 -1.9 -1.9 -1.9 -1.9 -1.9 -1.9 -1.9 -1.9 -1.9 -1.9 -1.9 -1.9 -1.9 -1.9 -1.9 -1.9 -1.9 -1.9 -1.9 -1.9 -1.9 -1.9 -1.9 -1.9 -1.9 -1.9 -1.9 -1.9 -1.9 -1.9 -1.9 -1.9 -1.9
122.1 122.4 121.4 121.1 119.6 117.9 116.5 114.5 112.6 110.6 109.4 108.9 106 105.6 109.4 110.3 109.9 108.8 107.3 106.6 104.8 102.4 100.3 98.2 95.5 93.6 92.1 90.7 90.2 89.6 89.4 90.2 91 92.3 95 97.6 98.9 101 107.6 111.5 111.2 110.4 114.2 116.7 121.1 124.2 128 130.5 134 135.2 136.4 136.5 134.1 132 126.3 124.5 123.9 119.2 114.4 113.1 111.1 110.7 110.4 110.5 109.6 108.2 104.3 99.6 99.1 98.9 98.2 97.5 98.5 99.2 100 103.7 108 112.2 117.9 122.7 127.9 132.6 134.9 136.2 137.4 137.3 135.8 135.5 133.6 130.4 127.5 125.7 124.7 123.3 122.7 121.2 118.8 116.5 114.2 111.6 109 106.2 103.3 99.8 96.5 95.9 96.1 96.2 95 93.5 90.7 86.8 81.7 79.1 75.3 72.5 68.7 66.4 65.5 61.5 58.3 57 55.8 53.6 51.3 49 46.5 43.1 41.1 40.4 40 36.6 35.2 34.2 23 10.6 33.6 37.7 3.2 -1.9 -1.9 -1.9 -1.9 -1.9 -1.9 -1.9 -1.9 -1.9 -1.9 -1.9 -1.9 -1.9 -1.9 -1.9 -1.9 -1.9 -1.9 -1.9 -1.9 -1.9 -1.9 -1.9 -1.9 -1.9 -1.9 -1.9 -1.9 -1.9 -1.9 -1.9 -1.9 -1.9 -1.9 -1.9 -1.9 -1.9 -1.9 -1.9 -1.9 -1.9 -1.9 -1.9 -1.9 -1.9 -1.9 -1.9 -1.9 -1.9 -1.9 -1.9 -1.9 -1.9 -1.9 -1.9 -1.9 -1.9 -1.9 -1.9 -1.9 -1.9
123.1 123 121.9 121 118.3 117.1 115.8 113.9 112 110.5 110.2 109.8 106.2 108 109.5 110.2 110 108.8 107.3 106.2 103.4 100.8 98.6 96.9 94.6 92.9 91.5 90.4 90.2 89.8 89.2 89.9 90.7 91.8 93.3 94.8 96.4 97.9 102.1 107.2 110.6 113.9 116.6 120.6 120.8 123.5 126.1 130.8 136.1 137 137.8 136.7 133 129.4 124.5 122.7 119.6 117 114.3 112.5 112.3 112.1 111.2 110.5 109.7 105.6 100.1 100.4 100 99.8 99.2 99.8 101 101.6 103.7 107.3 111.9 116.7 122.5 127.1 131.8 135 137.5 139.8 140.6 141.2 140.7 137.8 134.8 132.3 129.1 128.1 127 124.9 123.4 121.2 118.7 116.4 114.1 111.8 109.4 106.6 103.6 99.6 96.7 96.2 97.5 96.5 95.4 91.6 91.5 85.4 83.2 78.7 74.2 73.2 69.3 68.8 65.4 61.8 59.3 58.3 56.4 53.8 51.3 48.9 46.6 43.8 42.9 42.1 40.3 37.7 36 35.5 24.9 12.7 25.7 37.3 28.5 2 0.9 1.7 -1.9 -1.9 -1.9 -1.9 -1.9 -1.9 -1.9 -1.9 -1.9 -1.9 -1.9 -1.9 -1.9 -1.9 -1.9 -1.9 -1.9 -1.9 -1.9 -1.9 -1.9 -1.9 -1.9 -1.9 -1.9 -1.9 -1.9 -1.9 -1.9 -1.9 -1.9 -1.9 -1.9 -1.9 -1.9 -1.9 -1.9 -1.9 -1.9 -1.9 -1.9 -1.9 -1.9 -1.9 -1.9 -1.9 -1.9 -1.9 -1.9 -1.9 -1.9 -1.9 -1.9 -1.9 -1.9 -1.9 -1.9 -1.9
124.1 123.3 121.8 119.3 116.6 115.7 114.8 112.9 111.1 111.2 110.5 110 107.3 106.9 108.7 109.3 109.2 107.3 106.3 104.9 102 99.2 97.2 95.2 94 92.3 90.8 90.4 90.1 89.9 89.3 89.5 90.1 91 91.9 93.3 94.7 97.3 104 110.8 116 119.7 121.5 124.1 123.4 122.8 126.9 134.2 138.4 139.5 140 136.9 132.1 127.7 123.6 122.1 118.5 116.1 114 113.7 113.6 112.4 111.2 110.8 106.3 104.2 103.6 103.2 101.7 101 100.9 102 103.5 104.4 107.4 110.6 115.3 120.3 125.5 130.1 133.8 137.1 140.9 142.2 143.6 144.4 142.2 140.4 138.2 134 131.7 130.2 126.8 124.9 123.3 121.4 118.9 116.3 114.1 111.8 109.5 106.6 103.1 99 96.8 96.8 97.3 96.8 92.9 92 89.8 88.8 85.1 79.1 75 72.7 70.5 68.7 66.7 63.2 60.6 58.8 56.5 53.6 51.1 48.8 46.9 44.3 41.5 39.7 38.6 37.6 37.2 38.8 31.7 17.9 17.2 34.8 33.8 24.7 12.8 3.7 1.5 -0.9 3.8 -1.9 -1.9 -1.9 -1.9 -1.9 -1.9 -1.9 -1.9 -1.9 -1.9 -1.9 -1.9 -1.9 -1.9 -1.9 -1.9 -1.9 -1.9 -1.9 -1.9 -1.9 -1.9 -1.9 -1.9 -1.9 -1.9 -1.9 -1.9 -1.9 -1.9 -1.9 -1.9 -1.9 -1.9 -1.9 -1.9 -1.9 -1.9 -1.9 -1.9 -1.9 -1.9 -1.9 -1.9 -1.9 -1.9 -1.9 -1.9 -1.9 -1.9 -1.9 -1.9 -1.9 -1.9 -1.9
123.6 122.5 120.2 117.5 115.4 114.6 113.7 111.8 111.6 110.5 109.4 108.7 106.2 103 108.4 108.5 108.2 107.5 105.1 103.3 100.5 97.7 95.4 93.3 92.2 91.3 90.6 90.3 90.1 89.9 89.7 89.5 89.5 90.4 91.4 92.4 95.3 102 109.1 117.6 123.2 125 124.3 122.8 122.4 122.4 131.1 137.3 141.2 142.3 140.6 137.9 133.3 127.4 123.6 122.2 118.3 116.2 114.5 113.4 112.1 111.3 111 105.5 107.6 107.1 104.9 103.8 103.2 103.1 103.4 104.3 105.8 107.8 110.2 113.5 117.8 122.9 127.3 131.5 135.7 139.4 141.1 142.5 145.5 145.7 144.2 142.2 138.2 134.9 132.7 129.9 126.8 124.6 122.1 120.4 117.8 115.5 113.8 111.5 108.5 105.6 101.9 97.8 97.2 97.3 97.4 93.3 92.4 91.4 88.5 87.7 84.2 77.6 74.2 72.2 71 68.2 67.1 66 62.4 58.7 56 52.8 50 48.4 46.1 43.6 42.2 40.3 40.7 39.9 40.3 41.1 35.5 25.1 9.1 33.5 32.4 29.4 14.4 3.4 -1.9 -1.9 3.4 -1.9 -1.9 -1.9 -1.9 -1.9 -1.9 -1.9 -1.9 -1.9 -1.9 -1.9 -1.9 -1.9 -1.9 -1.9 -1.9 -1.9 -1.9 -1.9 -1.9 -1.9 -1.9 -1.9 -1.9 -1.9 -1.9 -1.9 -1.9 -1.9 -1.9 -1.9 -1.9 -1.9 -1.9 -1.9 -1.9 -1.9 -1.9 -1.9 -1.9 -1.9 -1.9 -1.9 -1.9 -1.9 -1.9 -1.9 -1.9 -1.9 -1.9 -1.9 -1.9 -1.9 -1.9 -1.9
122.3 120.2 118.1 115.9 114.3 113.6 112.6 111.6 110.6 109.5 108.4 107.3 107.4 104.3 107.1 108.2 107.4 106.3 103.9 101.8 98.8 96.3 95.1 93.9 93.5 92.9 91.8 90.2 89.5 88.8 89.7 89.7 89.6 89.8 90.8 92.3 98.9 106.2 113.4 121.7 125.8 125 123.2 121.4 121.2 124.3 133.6 138.6 143.4 141.5 139 138.7 133.7 127.9 123.3 121.7 118.7 115.4 113.4 112 110.5 108.4 107.1 107.2 109.6 108.2 106.3 105.4 104.8 104.9 105.4 106.9 107.7 110.2 113 115.3 118.8 123.6 127.7 131.6 135 138.6 141 143.3 145.8 146.5 144.2 141.9 134.5 136.5 132.6 129.5 126.9 124.4 121.4 119 116.9 114.7 113 110.3 107.1 103.2 100 97.3 97 97.6 93.8 93.2 92.4 90.4 87.2 85.9 82.3 76.9 73.5 71.8 70.4 68.1 66.9 66.2 64.9 59 55.5 52.2 49 47.3 45.6 44.2 43.9 42.9 43.1 43.4 43.4 40.3 35.5 29.7 18.1 32.3 30.2 28 2.8 2 -1.9 -1.9 -1.9 -1.9 -1.9 -1.9 -1.9 -1.9 -1.9 -1.9 -1.9 -1.9 -1.9 -1.9 -1.9 -1.9 -1.9 -1.9 -1.9 -1.9 -1.9 -1.9 -1.9 -1.9 -1.9 -1.9 -1.9 -1.9 -1.9 -1.9 -1.9 -1.9 -1.9 -1.9 -1.9 -1.9 -1.9 -1.9 -1.9 -1.9 -1.9 -1.9 -1.9 -1.9 -1.9 -1.9 -1.9 -1.9 -1.9 -1.9 -1.9 -1.9 -1.9 -1.9 -1.9 -1.9 -1.9 -1.9
119.5 117.4 115.5 113.9 112.9 112.1 111.3 110.3 109.1 108 106.8 105.7 104.2 103.8 107.5 107 106.2 104.8 103 100.4 97.2 95.5 94.6 93.7 93.1 92.5 91 90 89.2 88.6 89.6 90.3 89.4 89.9 90.4 93 101 108.2 115.4 122.4 124.3 122.7 119.2 117.6 118.1 123.5 133.1 138.3 141.6 140.8 140.3 138.3 134.2 128.2 127 120.8 117.6 114 111.1 110.1 110 107.4 107 109 111.3 110.3 108.9 108 106 106.8 108.1 109.9 110.8 112.4 113.6 115.7 119.5 123.7 127.3 130.8 134.4 138.8 141 142.8 145.1 145.2 143.5 141.5 139.7 135.9 131.7 128.6 126.3 123.8 120.5 118 116.2 114 111.5 108.5 104.9 100.9 98.4 96.3 95.9 94 93.5 91.7 91.4 88.4 85.1 83.6 79.3 75.7 72.8 70.3 68.1 65.9 64.6 64 64.1 59.5 54.6 51.2 48.1 46.7 45.9 43.9 44.8 46 44.7 44.4 41.7 37.8 33.7 27.7 30 32.3 29.2 26.7 3.3 -1.9 -1.9 -1.9 -1.9 -1.9 -1.9 -1.9 -1.9 -1.9 -1.9 -1.9 -1.9 -1.9 -1.9 -1.9 -1.9 -1.9 -1.9 -1.9 -1.9 -1.9 -1.9 -1.9 -1.9 -1.9 -1.9 -1.9 -1.9 -1.9 -1.9 -1.9 -1.9 -1.9 -1.9 -1.9 -1.9 -1.9 -1.9 -1.9 -1.9 -1.9 -1.9 -1.9 -1.9 -1.9 -1.9 -1.9 -1.9 -1.9 -1.9 -1.9 -1.9 -1.9 -1.9 -1.9 -1.9 -1.9 -1.9 -1.9
117 115.5 114 112.5 111.3 110.5 109.7 108.7 107.7 106.7 105.5 104.5 104.9 106.5 107.7 107 105.3 103.3 98.8 96.9 96.5 96.1 94.5 93.6 92.7 92.1 91.1 89.6 89 89.3 90.1 90.9 90.6 89.9 91.3 95.1 102 107.8 114.9 119.1 120.3 117.4 115 112.9 115.3 121.7 133.4 137.7 138.5 140.9 137.3 135.7 133.6 131.8 126.6 121.6 117.5 114.5 111.2 109 108.7 107.4 108 110 111.5 111.9 111.1 109.3 107.9 109.2 111.3 112.5 112.7 113.4 114.7 116.8 120.3 123.4 126.7 131 135.3 138.8 141.2 142.9 144.6 144.2 143.1 140.1 138.4 134.4 130.3 127.6 125.3 122.4 119.3 116.9 114.2 112.1 108.8 105.3 100.8 98.8 97 94.1 94.5 89.9 87.8 86 87.8 85.5 81.9 80.3 77.5 74.5 72.8 70.1 67.5 64.5 62.1 60.8 60.8 57.4 53.8 50.2 47.3 46.7 45.9 43.6 42.6 44.6 45.2 43.6 40.9 38 34.5 29.5 10.7 28.2 18.4 25.4 -1.9 -1.9 -1.9 -1.9 -1.9 -1.9 -1.9 -1.9 -1.9 -1.9 -1.9 -1.9 -1.9 -1.9 -1.9 -1.9 -1.9 -1.9 -1.9 -1.9 -1.9 -1.9 -1.9 -1.9 -1.9 -1.9 -1.9 -1.9 -1.9 -1.9 -1.9 -1.9 -1.9 -1.9 -1.9 -1.9 -1.9 -1.9 -1.9 -1.9 -1.9 -1.9 -1.9 -1.9 -1.9 -1.9 -1.9 -1.9 -1.9 -1.9 -1.9 -1.9 -1.9 -1.9 -1.9 -1.9 -1.9 -1.9 -1.9 -1.9
115.5 114 112.4 111 109.8 108.9 108.1 107.1 106.1 105.1 104.2 103.9 104.1 105.2 106.7 103.6 103.2 103.6 101.4 100.1 98.1 96.2 94.7 93.3 92.5 91.6 90.7 91.4 90.4 90.1 90.3 91.5 92.3 91.3 92.2 95.8 100.5 104.8 111.2 113.8 114.2 112.4 110 110 112.7 119.6 130.4 132.5 137.4 135.9 133.9 134.2 133.4 131 126.3 121.8 117.3 116.3 112.8 110.5 109.1 107.6 109.1 111.6 111.6 111.9 111.4 110.2 111.3 113.5 113.9 114.2 114.5 114.7 115.3 118.5 121.6 122.7 127.5 131.8 136.3 138.8 141.3 143.1 144.4 144 142.9 139.9 135.7 131.8 128.2 125.8 123.5 120.7 117.9 115.1 112.4 108.9 104.5 100.8 98.8 96.1 96 94.6 87.6 80.6 80.9 79 78.9 79.5 78.7 77.1 75.4 74 72.2 68.9 66.9 64.1 61.2 57.8 56.4 54.3 51 48.5 47.4 46.9 45.1 42.8 41.6 42.8 43.3 42.3 41 39.1 33.6 30.3 4.5 13.3 25 3.9 2.3 -1.9 -1.9 -1.9 -1.9 -1.9 -1.9 -1.9 -1.9 -1.9 -1.9 -1.9 -1.9 -1.9 -1.9 -1.9 -1.9 -1.9 -1.9 -1.9 -1.9 -1.9 -1.9 -1.9 -1.9 -1.9 -1.9 -1.9 -1.9 -1.9 -1.9 -1.9 -1.9 -1.9 -1.9 -1.9 -1.9 -1.9 -1.9 -1.9 -1.9 -1.9 -1.9 -1.9 -1.9 -1.9 -1.9 -1.9 -1.9 -1.9 -1.9 -1.9 -1.9 -1.9 -1.9 -1.9 -1.9 -1.9 -1.9 -1.9
112.5 112.4 110.9 109.6 108.4 107.4 106.5 105.5 104.7 104.1 103.5 103 103.3 104.7 102.9 106.3 105.8 104.7 104.4 102.7 101.1 97.1 94.2 93.1 91.5 90.8 91.7 93.3 92.8 91.7 91.6 92.3 93.1 93.7 94.6 95.1 97 100.8 105.3 107.9 108.5 108.6 108.7 109.6 111 114.7 123.1 131.2 132 131.5 131.1 132 134 130.5 126 122.7 117.7 116.2 113.8 112.2 110.8 111 109.7 113.7 113 113.7 114.2 114 114.4 116.5 116.7 116.9 116.8 116.7 117.8 120.3 121.2 122.8 128.3 132.8 136.4 138.8 141.3 143.3 144.2 143.9 140.8 136.3 132.4 129.1 125.9 123.4 121 118.4 115.6 112.6 109.1 104.7 100.4 97.3 94.9 92.7 95.4 90.1 91.6 87.9 84.3 81.4 72.8 73 71.9 74.3 73.7 72.7 70.8 68.6 66.7 64.9 61.8 58.3 54.1 52 50.2 48.4 47.6 46.9 44.3 41.7 39.1 39.7 39.6 40.1 39.4 37.3 32.7 31.2 27.5 4.7 -1.9 -1.9 -1.9 -1.9 -1.9 -1.9 -1.9 -1.9 -1.9 -1.9 -1.9 -1.9 -1.9 -1.9 -1.9 -1.9 -1.9 -1.9 -1.9 -1.9 -1.9 -1.9 -1.9 -1.9 -1.9 -1.9 -1.9 -1.9 -1.9 -1.9 -1.9 -1.9 -1.9 -1.9 -1.9 -1.9 -1.9 -1.9 -1.9 -1.9 -1.9 -1.9 -1.9 -1.9 -1.9 -1.9 -1.9 -1.9 -1.9 -1.9 -1.9 -1.9 -1.9 -1.9 -1.9 -1.9 -1.9 -1.9 -1.9 -1.9 -1.9 -1.9
111.3 110.3 109.3 108.1 106.9 105.9 105.3 104.7 104.1 103.5 102.9 102.5 102.5 103.7 105.9 106.2 106.2 105 105.1 105.2 103.5 98.4 95.7 93.7 93.3 92.7 91.9 92.7 93.4 95 96 96.7 97.5 97.9 97.7 98.5 99.2 100.5 102.5 104.6 105.3 106.7 109.2 110.2 112.3 114.8 121.4 128.2 128 129 130.6 132.4 133.5 130.7 126.8 121.6 117 115.7 114.1 113.9 114.4 113.6 112.4 114.9 115.3 115.3 117.2 118.8 119.1 119.3 119.6 120.4 120.2 119.8 120 120 121.1 123.4 129.6 133.9 136.4 138.9 141.3 143.3 143.1 140.5 136.4 132.8 130.1 126.8 123.7 121 118.6 115.9 113.1 109.7 104.6 100.4 98.6 95.5 91.1 93.7 91.1 88.9 92.6 94.5 93.8 91.5 86.1 78.3 70.2 67.6 71.6 72 70.1 68.2 66 65.1 61.2 58.6 54.1 50.8 49.4 49.4 48.7 46.2 43.4 40.6 37 34.5 34.3 35 35.3 35.7 34.4 32.2 28.7 24.6 -1.9 -1.9 -1.9 -1.9 -1.9 -1.9 -1.9 -1.9 -1.9 -1.9 -1.9 -1.9 -1.9 -1.9 -1.9 -1.9 -1.9 -1.9 -1.9 -1.9 -1.9 -1.9 -1.9 -1.9 -1.9 -1.9 -1.9 -1.9 -1.9 -1.9 -1.9 -1.9 -1.9 -1.9 -1.9 -1.9 -1.9 -1.9 -1.9 -1.9 -1.9 -1.9 -1.9 -1.9 -1.9 -1.9 -1.9 -1.9 -1.9 -1.9 -1.9 -1.9 -1.9 -1.9 -1.9 -1.9 -1.9 -1.9 -1.9 -1.9 -1.9 -1.9
110.2 109.1 107.7 106.5 105.7 105.1 104.5 103.9 103.3 102.9 102.3 102 103 105.1 106.5 106.4 106.5 105.5 104.6 104.2 101 98.7 95.5 93.8 93.9 93.6 92.7 94.7 95.7 97.6 99.6 102.3 103.1 102.7 101.6 103.1 104.5 105.9 107.2 108.5 108.8 109 110.7 113.3 114.8 115.8 121.7 123.9 125.4 128.3 131.7 132.8 133.6 130.5 123.8 118.7 118.2 117.8 117.9 118.8 117.7 116.3 115.4 116 116.7 117.9 119.9 120.9 121.2 121.8 123.4 124.1 123.1 122.9 123.2 122.6 122.7 125.2 131.4 134.4 136.7 139.1 140.9 141.4 139.1 135.8 132.5 129.1 126.9 124.6 121.5 118.6 116.1 113.2 109.8 104.7 99.9 96.6 94.7 91.7 91 95.7 94.1 94 92.6 94.5 95.1 94.8 87.4 83.4 76.2 70.9 65.6 66.5 66.6 63.7 63 62.9 62.1 60.2 54.8 50.3 48.5 48.9 47.7 43.9 37.8 32.4 29.2 27.4 25.5 25.8 26.8 27.8 28.7 29.9 30.8 28.4 4 -1.9 -1.9 -1.9 -1.9 -1.9 -1.9 -1.9 -1.9 -1.9 -1.9 -1.9 -1.9 -1.9 -1.9 -1.9 -1.9 -1.9 -1.9 -1.9 -1.9 -1.9 -1.9 -1.9 -1.9 -1.9 -1.9 -1.9 -1.9 -1.9 -1.9 -1.9 -1.9 -1.9 -1.9 -1.9 -1.9 -1.9 -1.9 -1.9 -1.9 -1.9 -1.9 -1.9 -1.9 -1.9 -1.9 -1.9 -1.9 -1.9 -1.9 -1.9 -1.9 -1.9 -1.9 -1.9 -1.9 -1.9 -1.9 -1.9 -1.9 -1.9
109.1 107.6 106.4 105.7 105.1 104.5 103.9 103.4 103.4 102.4 102.3 102.5 103.4 104.6 106.1 107.6 108.2 106.5 104.4 103.4 100 98.2 96.8 95.2 94.6 93 94.7 97.1 98.5 101.4 105.9 107.9 109.9 108.8 106.5 108.7 110.1 111.3 112.5 112.9 112.9 112.9 113.4 115.7 116.4 116.7 119.3 122.1 126.4 129.7 132.5 133.6 132.2 126.3 120.8 119.3 118.9 121.6 122 120.8 118.2 117.4 115.8 117 118.3 119.2 121.9 122.8 123 125.8 127.3 128.2 127 126.4 125.5 124.6 125.7 127.6 132.8 135.1 136.9 137.4 138.5 136.4 134.2 131.1 128.6 125.3 122.8 120.9 118.6 116.2 113.1 109.4 105.2 100.4 96.8 94.1 91.4 89.6 96.1 96.3 95.1 94.2 94.5 95.8 95.7 92.6 88 85.5 81.2 75.8 70.5 70 67.1 61.6 53.7 52.6 57.2 57.6 55.2 51 46.5 45.1 44.5 35 44.2 42.8 42 37.9 33.6 30.2 27.7 22.7 16 20.3 25 16.2 6.5 -1.9 -1.9 -1.9 -1.9 -1.9 -1.9 -1.9 -1.9 -1.9 -1.9 -1.9 -1.9 -1.9 -1.9 -1.9 -1.9 -1.9 -1.9 -1.9 -1.9 -1.9 -1.9 -1.9 -1.9 -1.9 -1.9 -1.9 -1.9 -1.9 -1.9 -1.9 -1.9 -1.9 -1.9 -1.9 -1.9 -1.9 -1.9 -1.9 -1.9 -1.9 -1.9 -1.9 -1.9 -1.9 -1.9 -1.9 -1.9 -1.9 -1.9 -1.9 -1.9 -1.9 -1.9 -1.9 -1.9 -1.9 -1.9 -1.9 -1.9 -1.9
108 107 106 105.3 104.6 104.1 104.1 104.1 103.4 103.2 103 103.3 104.2 105.1 106.4 108.4 109.4 107.6 104.8 102.3 99.6 96.1 94.7 96.5 94 94.2 96.8 99.4 101.4 105.3 110.2 113.9 116.1 115.3 112.6 113.7 115.4 116.6 117.6 117.7 117.4 117.1 117 117.1 116.2 116.6 120 124.2 127.3 130 131.8 130.8 127.8 123.1 120.1 119.1 120.4 126 125.2 121.5 117.9 116.5 116.1 116.3 118 120.3 122.5 124 126.4 129.7 131.9 132.4 130.9 129.8 129 128.5 128.2 130.6 133.5 135.1 136.4 136.1 133.4 130.6 128.6 126.4 123.9 121.8 120 118.2 116 113.1 109 104.8 100.6 97.3 95.5 93.2 91.6 94.8 95.6 95.3 96 96.4 96.7 97.1 96.6 93.2 88.6 86.1 83.8 79 73.3 72 70.2 67.1 61.5 55.7 48.1 48.8 49.2 48.4 43.2 40.1 44.8 47.5 47.3 46.8 45.2 40.6 39.7 38.7 36.3 31.9 27.2 13.6 2.1 2.1 4.9 -1.9 -1.9 -1.9 -1.9 -1.9 -1.9 -1.9 -1.9 -1.9 -1.9 -1.9 -1.9 -1.9 -1.9 -1.9 -1.9 -1.9 -1.9 -1.9 -1.9 -1.9 -1.9 -1.9 -1.9 -1.9 -1.9 -1.9 -1.9 -1.9 -1.9 -1.9 -1.9 -1.9 -1.9 -1.9 -1.9 -1.9 -1.9 -1.9 -1.9 -1.9 -1.9 -1.9 -1.9 -1.9 -1.9 -1.9 -1.9 -1.9 -1.9 -1.9 -1.9 -1.9 -1.9 -1.9 -1.9 -1.9 -1.9 -1.9 -1.9 -1.9
107.7 106.6 105.5 105.1 104.9 104.6 104.2 104 103.9 103.8 103.7 104 105.4 105.9 108.2 107.8 109.1 109.3 102.5 98.7 97.5 95.5 94.3 94.7 96.3 94.1 96.9 101.4 106.3 110 114.6 119.2 121.3 121.8 120 117.7 118.4 119.6 120.9 120.7 119.8 119.2 118.8 118.5 117 117.5 121.3 123.7 125.5 127.7 128.5 126.9 124.4 121.9 119.7 122.2 125.6 124.7 123.8 118.8 116.7 116.6 113.8 116.2 117.2 119.5 123.8 127.1 130.1 133.5 135.8 136 133.1 133 132.6 131.9 131.2 132.2 135.1 135.3 134.8 131.6 127.5 125.2 124.2 122.7 120.1 118.2 117 115.6 113.2 109.1 105 100.8 97.5 95.4 94.2 92.5 92.6 96 96.7 96.7 96.7 96.3 95.9 96.6 97 93.7 87.6 85.1 82.8 79.4 73.1 70.8 69.7 69.2 66.2 62.7 58.5 53.1 50 49.7 49.7 48.4 49 50.2 48.5 45.8 45.1 42.4 41.3 40.3 36.7 31 14.2 2.1 -1.9 -1.9 -1.9 -1.9 -1.9 -1.9 -1.9 -1.9 -1.9 -1.9 -1.9 -1.9 -1.9 -1.9 -1.9 -1.9 -1.9 -1.9 -1.9 -1.9 -1.9 -1.9 -1.9 -1.9 -1.9 -1.9 -1.9 -1.9 -1.9 -1.9 -1.9 -1.9 -1.9 -1.9 -1.9 -1.9 -1.9 -1.9 -1.9 -1.9 -1.9 -1.9 -1.9 -1.9 -1.9 -1.9 -1.9 -1.9 -1.9 -1.9 -1.9 -1.9 -1.9 -1.9 -1.9 -1.9 -1.9 -1.9 -1.9 -1.9 -1.9 -1.9 -1.9 -1.9
108.2 106.3 105.8 105.6 105.3 105 105 104.9 104.5 104.4 105.3 105.8 106.3 106.7 109.4 112.6 112.3 106 101.5 98.6 98.3 96.9 96.9 96.3 97 95.2 97.4 102.7 108.4 112.7 117.7 124 126.6 127.5 126.6 124 121.4 122.4 123.1 121.6 120.7 120.1 119.2 118.7 117.8 118.7 120.9 123.2 125.9 126.3 127.4 126.8 124.4 121.4 118 122.3 125.4 123.6 120 117.9 117.2 116.9 114.7 116 117.2 119.8 126 132.1 135.2 138.6 139.6 137.5 136.7 136 135.7 134.8 134.2 134.6 136.1 135 131.6 128.1 124.7 122.4 120.8 119.3 117.1 115.8 114.5 112.3 108.6 104.7 101.3 98 96.2 94.7 93.6 92.8 94.2 96.6 97.8 97.2 97.3 97.2 96.6 96.4 97.4 95.8 86.7 86.2 82.7 78.5 73.3 72.4 70.1 69.7 67.8 64.7 62 58.9 55.9 53.9 52.6 52.2 50.3 50.2 49.1 46.1 44.6 42.9 39.7 38.6 35.4 27.7 5.8 -1.9 -1.9 -1.9 -1.9 -1.9 -1.9 -1.9 -1.9 -1.9 -1.9 -1.9 -1.9 -1.9 -1.9 -1.9 -1.9 -1.9 -1.9 -1.9 -1.9 -1.9 -1.9 -1.9 -1.9 -1.9 -1.9 -1.9 -1.9 -1.9 -1.9 -1.9 -1.9 -1.9 -1.9 -1.9 -1.9 -1.9 -1.9 -1.9 -1.9 -1.9 -1.9 -1.9 -1.9 -1.9 -1.9 -1.9 -1.9 -1.9 -1.9 -1.9 -1.9 -1.9 -1.9 -1.9 -1.9 -1.9 -1.9 -1.9 -1.9 -1.9 -1.9 -1.9 -1.9 -1.9
110.1 108.8 107.9 107.4 106.9 106.1 106.1 105.8 105.7 105.4 106 106.5 107 107.7 108.6 108.1 106 103.9 102.3 99.6 99.3 98.5 98.4 98 99.5 98.6 99.4 102.8 107.1 111.7 120 127.9 132.1 133.2 131.7 128.9 125.3 124.5 124.5 121.6 120.5 120.4 119.6 120.6 119.7 120.3 121.2 124 127.5 129.3 128.3 127.3 124.4 120.8 116.8 118.5 121.7 121 117.9 117.7 117.7 117.6 115.3 115.8 117.8 121.7 129.3 135.9 140.5 140.7 139.8 138.6 139.2 137.5 138.3 137.8 136.2 135.1 134.9 132.1 128.6 125.2 122.3 120 117.9 116 115 113.9 112 108.6 105.6 102.4 99.2 97.1 95.7 94.8 95.3 93.5 96.5 98.4 98.3 97.3 97.8 98 96.9 96.6 98.1 95.3 87.9 85.6 83.6 78 74.5 73 71.7 70.2 67.9 65.3 62.6 59.2 54.8 52.1 51.1 51.2 52.3 50.5 49.6 46.3 44.2 42 39 37.1 33.3 20.4 4.6 -1.9 -1.9 -1.9 -1.9 -1.9 -1.9 -1.9 -1.9 -1.9 -1.9 -1.9 -1.9 -1.9 -1.9 -1.9 -1.9 -1.9 -1.9 -1.9 -1.9 -1.9 -1.9 -1.9 -1.9 -1.9 -1.9 -1.9 -1.9 -1.9 -1.9 -1.9 -1.9 -1.9 -1.9 -1.9 -1.9 -1.9 -1.9 -1.9 -1.9 -1.9 -1.9 -1.9 -1.9 -1.9 -1.9 -1.9 -1.9 -1.9 -1.9 -1.9 -1.9 -1.9 -1.9 -1.9 -1.9 -1.9 -1.9 -1.9 -1.9 -1.9 -1.9 -1.9 -1.9 -1.9
113 111.8 110.6 109.9 109.4 108.4 107.4 107.7 107.9 106.9 106.6 107.2 107.7 107.7 107.5 107.9 106 105 103.4 100.7 99.5 99.4 99.1 98.8 100.3 99.5 100.1 102.5 106.1 113.5 122.9 130.1 134.8 137.4 135.5 133.2 129.8 124.6 121.3 120.5 119.3 118.9 120.5 123.7 123.1 123.8 126.2 130.2 132.1 131.5 130.2 126.7 123.2 119.5 115.1 117.5 118.9 118 115.1 115 118.5 115.3 116.3 115.9 118.4 125.4 134.2 139.4 141.9 142.6 140.6 140 139 139.6 140 138.9 136.4 134.7 132.4 129.5 126.7 123.5 120.5 117.9 116.5 115.3 113.5 112.4 109.4 105.5 103 101.4 101.7 97.7 96.2 95.8 95.6 95.8 97.4 98.8 98.3 97.2 97.7 98.6 97.8 98.1 97.2 94.5 87.1 84.6 83 79.3 73.7 71.5 71.3 69.8 67.1 63.9 60.6 55.5 51.9 49.5 48.6 50.5 52.2 50.6 48.1 45.1 42.9 42.2 39.7 35.6 33.3 19.1 5.5 -1.9 -1.9 -1.9 -1.9 -1.9 -1.9 -1.9 -1.9 -1.9 -1.9 -1.9 -1.9 -1.9 -1.9 -1.9 -1.9 -1.9 -1.9 -1.9 -1.9 -1.9 -1.9 -1.9 -1.9 -1.9 -1.9 -1.9 -1.9 -1.9 -1.9 -1.9 -1.9 -1.9 -1.9 -1.9 -1.9 -1.9 -1.9 -1.9 -1.9 -1.9 -1.9 -1.9 -1.9 -1.9 -1.9 -1.9 -1.9 -1.9 -1.9 -1.9 -1.9 -1.9 -1.9 -1.9 -1.9 -1.9 -1.9 -1.9 -1.9 -1.9 -1.9 -1.9 -1.9 -1.9
117 115.9 114.3 112.5 111.7 110.8 109.9 109.9 109.8 108.6 107.9 107.8 108.4 107.7 107.6 108.3 106.3 105.8 104.4 100.8 99.9 99.4 98.9 98.7 98.8 99 99.7 101.6 105.4 114.3 123.1 128.8 132.5 134.5 132.7 130 125.6 121.8 117.8 118.5 117.8 119.3 122.5 124.1 124.7 126.4 130 133.4 133.7 132.6 128.5 123.6 119.4 115.8 113.8 115.7 114.9 113 112.2 114.2 113.4 112.1 114.2 117.5 123.5 130.5 136.6 143.1 144.8 141.8 140.5 140.1 140.3 142.1 140.9 138.7 137.5 136.2 133.6 129.6 126.4 123.2 119.9 117.1 115.9 114.7 112.5 109.8 106.4 104.5 102.8 104 100.8 98 97.6 97.1 96 95.2 98.1 98.6 97.4 97.2 97.6 98 98.5 98.1 97.1 94.4 90.9 84.9 82.1 79.6 73.7 69 68.8 68.4 65.9 61 56.9 51.7 49.5 49 47.5 47.3 48.7 48.4 46.8 44 42.2 41.6 39.9 34.5 26.1 13.3 7.8 2.7 0.1 -1.9 -1.9 -1.9 -1.9 -1.9 -1.9 -1.9 -1.9 -1.9 -1.9 -1.9 -1.9 -1.9 -1.9 -1.9 -1.9 -1.9 -1.9 -1.9 -1.9 -1.9 -1.9 -1.9 -1.9 -1.9 -1.9 -1.9 -1.9 -1.9 -1.9 -1.9 -1.9 -1.9 -1.9 -1.9 -1.9 -1.9 -1.9 -1.9 -1.9 -1.9 -1.9 -1.9 -1.9 -1.9 -1.9 -1.9 -1.9 -1.9 -1.9 -1.9 -1.9 -1.9 -1.9 -1.9 -1.9 -1.9 -1.9 -1.9 -1.9 -1.9 -1.9 -1.9
121 119.9 118.3 115.9 114.6 113.5 112.5 112.1 111.7 110.4 109.5 108.9 108.8 108.5 108.4 107.7 106.6 105.1 102.6 99.5 98.4 98.5 98.6 98.7 98.8 98.4 98.1 100 103.8 112.5 118.3 122.5 126.1 126.4 126.3 124.5 122 119.8 116.5 115.8 117 119.1 121.8 123.2 124.3 129.1 132.8 133.8 133.9 130.3 125.7 120.3 115.3 112.8 112.1 112.1 111.7 110.8 111.7 111.9 110.8 112.7 115 119.6 125.6 131.5 139.9 143.8 143 141.1 142.3 142.1 142.4 142.2 140.7 140.4 139.9 137.6 134.1 129.8 124.1 123.1 119.5 116.5 115.1 114.6 111.3 108.3 106.2 104.9 102.7 104.5 99.8 98.8 98.6 98.2 96.1 97.1 99.3 99.7 98.7 98 98.8 99 98.7 98.3 96.3 94.9 93.2 84.5 81 77.8 70.5 65.9 65 66.1 63.4 58.9 53.7 52.6 52.6 51 48.9 46.1 45.9 47.2 45.7 42.3 40.5 38.1 34.1 27.7 14.4 16.3 26.3 25.8 2.7 0.6 -1.9 -1.9 -1.9 -1.9 -1.9 -1.9 -1.9 -1.9 -1.9 -1.9 -1.9 -1.9 -1.9 -1.9 -1.9 -1.9 -1.9 -1.9 -1.9 -1.9 -1.9 -1.9 -1.9 -1.9 -1.9 -1.9 -1.9 -1.9 -1.9 -1.9 -1.9 -1.9 -1.9 -1.9 -1.9 -1.9 -1.9 -1.9 -1.9 -1.9 -1.9 -1.9 -1.9 -1.9 -1.9 -1.9 -1.9 -1.9 -1.9 -1.9 -1.9 -1.9 -1.9 -1.9 -1.9 -1.9 -1.9 -1.9 -1.9 -1.9 -1.9 -1.9
125.3 122.6 120.7 118.9 117.4 116.3 115.2 114.3 113.5 112.2 111.2 110.8 110.6 110.4 108.4 107.1 106.1 102.8 99.7 98.2 97.9 98 98.2 98.4 98.4 98 95.9 97.8 101.4 106.3 110.9 115.6 119.1 119.5 120.3 121.5 121.1 119.2 116.1 114.1 117.2 118.4 120.8 122.7 125.2 130.3 131.7 132 130.5 127 122.1 116.9 113.1 111.9 111.1 110.8 110.3 110.5 110.5 111 110.7 113.3 116.1 121.9 128.1 134 141.6 142.7 141.1 141.6 142.7 144 144 142.4 142.2 141.7 141.2 137.9 134.4 130.5 126.1 121.9 118.9 116 115.3 113.7 112.1 109.2 106.1 105.2 102.5 101.4 100.6 100.1 98.9 97.2 96.2 98.5 99.6 99.9 99.7 98.4 99 99 98.6 98.1 98.1 95.5 92.4 86.4 80.4 75 67.8 62.6 60.4 59.6 58.5 57 54.7 55.2 54.6 51.6 49.5 47.3 44.8 44.7 45.7 43.8 43.2 42 38.3 24.7 27.1 31.6 33.7 32.9 31.1 15.8 3.4 -1.9 -1.9 -1.9 -1.9 -1.9 -1.9 -1.9 -1.9 -1.9 -1.9 -1.9 -1.9 -1.9 -1.9 -1.9 -1.9 -1.9 -1.9 -1.9 -1.9 -1.9 -1.9 -1.9 -1.9 -1.9 -1.9 -1.9 -1.9 -1.9 -1.9 -1.9 -1.9 -1.9 -1.9 -1.9 -1.9 -1.9 -1.9 -1.9 -1.9 -1.9 -1.9 -1.9 -1.9 -1.9 -1.9 -1.9 -1.9 -1.9 -1.9 -1.9 -1.9 -1.9 -1.9 -1.9 -1.9 -1.9 -1.9 -1.9 -1.9 -1.9
129.5 126 123.9 121.9 120 118.9 117.7 116.6 115.1 114.1 114 113.4 112.6 110.5 108.5 106.7 104.8 102.3 99 97.7 97.4 97.3 97.4 97 96 95.7 94.4 95 97.3 101.3 106.9 112 115.8 117.5 118.9 118.1 116.7 115.6 114.5 112.7 114.3 116.7 118.2 121.2 125.3 127.9 128.7 128 126.1 123.1 118.3 114.8 112 111.3 110.6 110.6 110.1 109.9 110.1 110.8 111.3 113.9 117.7 123.3 129.6 135.7 140.3 141 141.6 142.9 143.8 144.2 144.8 143 142.7 142.6 141.1 138 134.2 130.1 126 121 118 115.4 114.2 111.3 109.9 109 105.9 103.7 101.7 101.1 101 100.8 98.7 96.4 96.9 98.7 99.5 99.7 99.5 98.5 98.1 99 99 99.2 99 97.3 92.8 88.1 83.7 78.3 70.7 66.2 65.8 61.2 59.6 57.7 56.6 55.7 53.3 50.4 47.9 46.7 46.5 42.1 44.2 44.2 45.1 44.8 37.9 32.4 36.8 38.4 38.8 37.6 37 34 26.7 9.4 19.7 -1.9 -1.9 -1.9 -1.9 -1.9 -1.9 -1.9 -1.9 -1.9 -1.9 -1.9 -1.9 -1.9 -1.9 -1.9 -1.9 -1.9 -1.9 -1.9 -1.9 -1.9 -1.9 -1.9 -1.9 -1.9 -1.9 -1.9 -1.9 -1.9 -1.9 -1.9 -1.9 -1.9 -1.9 -1.9 -1.9 -1.9 -1.9 -1.9 -1.9 -1.9 -1.9 -1.9 -1.9 -1.9 -1.9 -1.9 -1.9 -1.9 -1.9 -1.9 -1.9 -1.9 -1.9 -1.9 -1.9 -1.9 -1.9 -1.9
133.6 130 127.3 125.4 123.1 121.2 119.7 118.4 117.8 117.9 116.9 114.4 112.3 111.2 108.4 106.1 104.1 100.9 97.5 96.6 96.7 96.5 95.5 94.4 93.7 92.8 91.7 92.2 94.5 98.1 103.8 108.8 112.8 114.8 115.2 113.9 112.4 111 109.8 109.8 111.2 114 116.4 120 123.6 124.3 125 123.3 121.6 118.6 115.8 113.4 111.3 110.7 110.3 110.3 109.8 109.4 109.9 111.2 112.2 115.5 119.1 124.2 130.3 135.5 139.9 140.5 141.8 143 143.8 144.8 144.9 143.3 143.1 142.9 140.8 137.9 134.1 129.2 125 120.4 118.1 115.9 114.6 113.9 112.2 108.1 105.3 103.4 101.5 101.5 101.6 100.4 98.2 95.8 97 98.2 99.2 98.6 100.4 100.9 100.6 100.8 100.7 100.7 100.6 99 94.3 89.5 84.3 78.8 72.8 68.3 66.4 63.5 61.9 59.9 57.7 56.5 53.7 50.4 47 46.2 44.4 40.4 39.7 42.3 42.3 39 29.1 39 41.9 44.3 43.5 42.4 39.4 36.5 34.2 30.9 21 -1.9 -1.9 -1.9 -1.9 -1.9 -1.9 -1.9 -1.9 -1.9 -1.9 -1.9 -1.9 -1.9 -1.9 -1.9 -1.9 -1.9 -1.9 -1.9 -1.9 -1.9 -1.9 -1.9 -1.9 -1.9 -1.9 -1.9 -1.9 -1.9 -1.9 -1.9 -1.9 -1.9 -1.9 -1.9 -1.9 -1.9 -1.9 -1.9 -1.9 -1.9 -1.9 -1.9 -1.9 -1.9 -1.9 -1.9 -1.9 -1.9 -1.9 -1.9 -1.9 -1.9 -1.9 -1.9 -1.9 -1.9 -1.9 -1.9
136.8 133.8 130.7 129 127 124.4 122.9 121.8 121.3 120 118.7 115.3 111.9 110 107.6 104.9 103.3 99.4 96.4 95.1 94.6 94 92.6 91.2 90.7 91.1 89.9 91.3 94 95.2 100 103.3 107.6 110.2 110.5 110.4 109.2 108.1 107 108.3 108.2 110.9 114 119.3 121.6 123 123.5 122.4 119.8 117.9 115.7 114.5 111.8 111.8 111.9 110.7 110.1 109.6 109.8 111 112.9 116.9 120.5 124.6 129.1 135.2 139.4 140.5 141.8 142.5 143.1 144.4 144.1 142.9 143.6 143.1 140.4 137.7 133.8 128.4 123 120.4 118.1 118.4 119 115.9 111.4 109.1 107.2 104.7 103.6 103.4 101.7 98.9 97.5 96.3 96.2 97.4 96.9 98 100.8 101.2 101 101.7 101.2 100.6 100.6 101 96.9 92.3 86 78.8 72.9 69.7 68.2 66.7 64.1 62 59.8 57.4 53.5 50.3 47 44.9 42.9 39.4 38.2 37.5 40.5 41.7 42.5 44.1 46.4 47.8 47.2 44.2 40.2 36.1 33 31.1 -1.9 -1.9 -1.9 -1.9 -1.9 -1.9 -1.9 -1.9 -1.9 -1.9 -1.9 -1.9 -1.9 -1.9 -1.9 -1.9 -1.9 -1.9 -1.9 -1.9 -1.9 -1.9 -1.9 -1.9 -1.9 -1.9 -1.9 -1.9 -1.9 -1.9 -1.9 -1.9 -1.9 -1.9 -1.9 -1.9 -1.9 -1.9 -1.9 -1.9 -1.9 -1.9 -1.9 -1.9 -1.9 -1.9 -1.9 -1.9 -1.9 -1.9 -1.9 -1.9 -1.9 -1.9 -1.9 -1.9 -1.9 -1.9 -1.9 -1.9
138.9 136.5 134.2 131.2 129.5 128.4 127.4 125.9 124.6 121.9 118.6 115 112 109.4 106.9 104.7 101.2 97.2 94.3 92 90.2 90.3 89.1 87.8 86.5 86.6 86.5 88.8 92 92 93.8 98 102.1 104.3 104.7 104.9 105.2 104.4 103.9 106.9 107 108.5 114.3 119.6 123.7 125.5 125.9 123.6 121.1 118.8 117.2 116.3 114 112.1 111.2 110 109.4 108.3 110 111.6 113.5 116.8 120.8 124.5 129.1 134.7 136.7 139 141.5 142.1 142.1 142.7 143 142.9 143.5 143.1 141.2 138.6 133.8 128.2 120.3 119.5 121.9 123.7 120.7 116 113.4 111.5 106.9 106.3 104.7 103.9 100.3 98.9 97.7 96.7 96 95.7 96 98.7 100.1 101.2 101.6 100.9 100.8 100.5 100.8 100.6 100 95.2 87.6 78 73.5 72.1 70 68.5 66.4 64.2 61.5 57.4 53.8 50.6 47.3 44.8 42.2 42.4 42.7 43.4 44.2 45.2 46.6 48 50.5 51 49.2 45 40.9 37.3 33.3 18.6 -1.9 -1.9 -1.9 -1.9 -1.9 -1.9 -1.9 -1.9 -1.9 -1.9 -1.9 -1.9 -1.9 -1.9 -1.9 -1.9 -1.9 -1.9 -1.9 -1.9 -1.9 -1.9 -1.9 -1.9 -1.9 -1.9 -1.9 -1.9 -1.9 -1.9 -1.9 -1.9 -1.9 -1.9 -1.9 -1.9 -1.9 -1.9 -1.9 -1.9 -1.9 -1.9 -1.9 -1.9 -1.9 -1.9 -1.9 -1.9 -1.9 -1.9 -1.9 -1.9 -1.9 -1.9 -1.9 -1.9 -1.9 -1.9 -1.9 -1.9
142.3 140.3 136.8 135 132.9 132.3 130.5 128.9 125 121.4 118 114.7 112 109.5 106.9 104.3 98.7 94.8 92.4 90.1 88.7 88 86.8 85.4 83.4 81.1 81.3 84.1 86.5 88.1 89.2 93.2 96.9 99.6 100.1 99.9 99.7 100.5 102.6 105.4 106.9 109 113.8 120.8 126 129.1 127.9 125.3 123.6 122.2 120.6 118.1 115.3 112.1 110.9 109.4 109.6 108.6 110.6 112.4 114.3 117 121.7 125.5 129.1 133.3 135 137.2 139.6 140 139.5 140.9 142.3 144 144.1 144.2 142.8 139.3 133.2 125.5 117.9 123.4 128.5 125.7 122.5 119 115.5 112.1 109.1 107.8 105.7 101.9 99.5 98.6 97.4 96.4 96.2 94.9 95.5 96.9 100 101.2 101.3 101 100.5 100.7 100.9 100.3 100.1 96.2 85.3 76.8 75.9 74.7 72.7 70.6 68.3 65.5 62 58.1 54.2 51 47.8 45.1 43.1 45.1 45.7 46.6 47.8 49.4 50.7 51.9 51.8 52.9 50.5 45.5 41.4 37.4 33.6 12.6 -1.9 -1.9 -1.9 -1.9 -1.9 -1.9 -1.9 -1.9 -1.9 -1.9 -1.9 -1.9 -1.9 -1.9 -1.9 -1.9 -1.9 -1.9 -1.9 -1.9 -1.9 -1.9 -1.9 -1.9 -1.9 -1.9 -1.9 -1.9 -1.9 -1.9 -1.9 -1.9 -1.9 -1.9 -1.9 -1.9 -1.9 -1.9 -1.9 -1.9 -1.9 -1.9 -1.9 -1.9 -1.9 -1.9 -1.9 -1.9 -1.9 -1.9 -1.9 -1.9 -1.9 -1.9 -1.9 -1.9 -1.9 -1.9 -1.9 -1.9
146.5 141.3 141.5 140.8 138.5 135.9 132.4 128.5 124.7 121.1 117.9 115 112.1 109.5 106 101.8 97.3 93.4 90.2 87.7 86.9 86.9 84.9 83.5 80.9 78.3 78.4 80.6 82.6 83.8 86.7 91.2 94.4 97 98.2 98.7 99.5 101.3 103.9 104.8 106.8 109.3 113.1 121.8 130.1 131.7 129.5 129.3 128.4 126 123 119.2 116.1 112.7 110.8 109 108.6 108.9 110.5 112.6 114.7 118.3 122.4 125.9 129 132.1 134.2 135.9 136.6 136.7 137.8 139.2 142 144.1 144.6 144.5 141.7 138 131.9 119.6 117.9 128.3 130 125.7 123.2 120 116.2 112.6 110.3 108.5 104.7 101.1 99.5 98.1 97.1 96.5 96 95.5 95.8 96.3 99 101.1 100.8 100.8 100.5 100.4 100.8 100.1 99.7 93.5 82.9 78 78 77.1 74.9 72.4 68.9 66.3 62.8 58.8 54.9 51 48.2 45.4 45.8 47.3 48.7 49.6 52.1 53.8 55.2 54.3 53.9 54.7 52 45.9 41.9 37.9 33.7 11.8 -1.9 -1.9 -1.9 -1.9 -1.9 -1.9 -1.9 -1.9 -1.9 -1.9 -1.9 -1.9 -1.9 -1.9 -1.9 -1.9 -1.9 -1.9 -1.9 -1.9 -1.9 -1.9 -1.9 -1.9 -1.9 -1.9 -1.9 -1.9 -1.9 -1.9 -1.9 -1.9 -1.9 -1.9 -1.9 -1.9 -1.9 -1.9 -1.9 -1.9 -1.9 -1.9 -1.9 -1.9 -1.9 -1.9 -1.9 -1.9 -1.9 -1.9 -1.9 -1.9 -1.9 -1.9 -1.9 -1.9 -1.9 -1.9 -1.9 -1.9
146.6 148.4 145.7 143.2 140.6 137.3 132.8 128.2 125.1 122.3 118.4 115.3 112.4 109.5 105.4 100.1 96.1 92.4 89.2 86.5 84.9 85.6 83.9 82.3 80.7 78 78.9 79.6 79.3 80.4 82.9 86.7 90.4 94.2 95.9 98.8 100.8 103 104.5 106 107.6 110.8 115.5 120.7 129.7 133 132.1 134.1 131.9 129 124.5 119 115.4 111.7 110.3 108.9 107.6 109.6 110.7 113 116.1 120.3 123.6 126.2 128.6 130.9 132.5 134 134.7 135.5 138 139.6 142 143.7 144.6 143.6 139.6 135.4 128.6 118.4 120.9 130.4 129.6 127.4 124.1 120.9 117.9 114.7 113.2 107.9 105.9 101.7 99.9 98.3 97.1 96.6 96.2 95.7 96.8 97.3 99.7 100.7 101.2 101.6 100.1 100 100 99.9 98.7 91.4 82.6 81 80.6 78.7 76.4 73.1 69.6 66.6 63.1 59.3 55.6 51.7 48.1 47.1 48.6 50.1 51.6 53.9 56.4 58.4 58.2 56.7 55.5 55.5 52.7 46.5 43.1 39.1 1.9 -1.9 -1.9 -1.9 -1.9 -1.9 -1.9 -1.9 -1.9 -1.9 -1.9 -1.9 -1.9 -1.9 -1.9 -1.9 -1.9 -1.9 -1.9 -1.9 -1.9 -1.9 -1.9 -1.9 -1.9 -1.9 -1.9 -1.9 -1.9 -1.9 -1.9 -1.9 -1.9 -1.9 -1.9 -1.9 -1.9 -1.9 -1.9 -1.9 -1.9 -1.9 -1.9 -1.9 -1.9 -1.9 -1.9 -1.9 -1.9 -1.9 -1.9 -1.9 -1.9 -1.9 -1.9 -1.9 -1.9 -1.9 -1.9 -1.9 -1.9 -1.9
155.9 150.3 148.1 145.9 141.3 136.9 132.6 129.4 126.5 123.1 119.2 115.6 112.7 107.6 103.4 99.5 94.8 91.6 89.1 86.6 83.9 84.5 82.6 80.1 78.9 78.9 79 78.5 78.9 79.6 80.9 84.1 87 90.5 93.4 97.5 101.7 104.4 106.3 108 109 111.3 115.6 121.2 128.5 132.8 133.9 132.4 136.1 130.3 125.1 118.6 113.2 110.7 109.6 108.2 107.5 110.2 110.9 114.4 117.9 120.7 124.3 126 127.9 129.1 130.7 131.7 133.1 135 137.3 139.7 141.7 142.8 143.3 140.4 136.5 132.2 124.2 116.4 125 132 131.4 128.8 125.3 123.2 121.2 117.9 112.7 109.2 106.3 103.3 101 99.4 97.3 96.6 96.3 96.1 96.4 97.3 98.5 100.7 101.1 101.3 100.1 100 99.9 100.1 99.2 90.6 83.8 82.5 81.8 80 77.3 73.8 70.4 66.9 63.3 59.6 55.8 52 48.3 49.7 51.2 52.7 54.9 57.8 60.2 62 60.8 57.6 56.5 55.4 51.5 46.2 43.5 39.6 -1.9 -1.9 -1.9 -1.9 -1.9 -1.9 -1.9 -1.9 -1.9 -1.9 -1.9 -1.9 -1.9 -1.9 -1.9 -1.9 -1.9 -1.9 -1.9 -1.9 -1.9 -1.9 -1.9 -1.9 -1.9 -1.9 -1.9 -1.9 -1.9 -1.9 -1.9 -1.9 -1.9 -1.9 -1.9 -1.9 -1.9 -1.9 -1.9 -1.9 -1.9 -1.9 -1.9 -1.9 -1.9 -1.9 -1.9 -1.9 -1.9 -1.9 -1.9 -1.9 -1.9 -1.9 -1.9 -1.9 -1.9 -1.9 -1.9 -1.9 -1.9 -1.9
153.7 153.2 149.9 144.3 140.7 136.3 133 131 127.4 123.6 118.9 115.7 110.9 106 102.7 98.9 93.7 90.6 88.1 86 83.4 82.1 81 80 79 78.5 78.9 78.9 79.1 79.8 80.7 82.8 85.7 88.7 92.5 96.2 100.5 103.7 107.5 108.1 109.9 111.8 116.4 122.4 129 131.8 133.7 138.9 136.3 131.5 123.8 116.7 112.1 110.4 109.9 108.6 108.8 110.4 112 115.4 117 119.7 122.3 125.5 125.8 127.4 128.9 130.8 132.2 134.3 135 136.8 138.9 141.6 139.8 136.9 131.9 126.6 118.4 117.1 128.3 132.7 130.7 129.4 127.1 126.3 123.5 118.2 114.2 110.3 107.3 106.4 104.5 100.4 98.3 96.6 96.4 96.2 95.7 96.4 97.9 100.5 100.9 100.7 100 99.9 99.6 100.1 100.2 91 85.4 83.9 83 81.3 77.9 74.4 70.9 67.3 63.4 59.7 55.9 52.2 50.3 52.2 53.9 56.1 58.4 61.4 64 64.6 62.2 58.2 55.8 55 50.7 46.2 42.3 -1.9 -1.9 -1.9 -1.9 -1.9 -1.9 -1.9 -1.9 -1.9 -1.9 -1.9 -1.9 -1.9 -1.9 -1.9 -1.9 -1.9 -1.9 -1.9 -1.9 -1.9 -1.9 -1.9 -1.9 -1.9 -1.9 -1.9 -1.9 -1.9 -1.9 -1.9 -1.9 -1.9 -1.9 -1.9 -1.9 -1.9 -1.9 -1.9 -1.9 -1.9 -1.9 -1.9 -1.9 -1.9 -1.9 -1.9 -1.9 -1.9 -1.9 -1.9 -1.9 -1.9 -1.9 -1.9 -1.9 -1.9 -1.9 -1.9 -1.9 -1.9 -1.9 -1.9
155.9 150.9 147 142.6 139.2 137.3 134.4 130.8 127.5 123.8 118.3 114 109.5 104.8 101.8 98.3 93.3 88.9 87 85.1 84.2 82.8 81.3 80.2 79.8 79.2 78.8 79 79.2 79.6 80.9 82.9 85.8 89.1 92.4 96.2 100 105.1 109.2 111.7 111.6 114.1 117.3 122.8 128.1 130.6 131.5 137.1 136.1 127.3 118.9 111.6 111.1 110.9 111.3 108.7 109.5 111.2 112.9 114.5 116.3 118.5 120.6 122.7 124 125.5 127 128.7 130.6 131.1 131.7 133.3 135.4 135 133.1 131.5 126.5 118.9 117.2 122 129.4 131.4 132.4 130.5 128.2 128.7 122.9 118.7 115 110.8 110.4 108.7 105.3 101.4 97.6 97.5 96.7 96.5 96.6 96.9 98.6 99.5 100.1 100 99.8 99.6 99.3 100.2 99.1 91.8 87.5 85.6 84.4 81.9 78.4 74.8 71.3 67.1 63.2 59.5 55.9 52.2 52.8 54.6 56.6 59.1 62 65.5 67.2 66.4 62.3 57.5 54.5 53.3 48.5 44.5 39 -1.9 -1.9 -1.9 -1.9 -1.9 -1.9 -1.9 -1.9 -1.9 -1.9 -1.9 -1.9 -1.9 -1.9 -1.9 -1.9 -1.9 -1.9 -1.9 -1.9 -1.9 -1.9 -1.9 -1.9 -1.9 -1.9 -1.9 -1.9 -1.9 -1.9 -1.9 -1.9 -1.9 -1.9 -1.9 -1.9 -1.9 -1.9 -1.9 -1.9 -1.9 -1.9 -1.9 -1.9 -1.9 -1.9 -1.9 -1.9 -1.9 -1.9 -1.9 -1.9 -1.9 -1.9 -1.9 -1.9 -1.9 -1.9 -1.9 -1.9 -1.9 -1.9 -1.9
152.3 148.3 144.3 143.2 140.9 137.8 134.3 130.6 127.4 122.1 118.1 114 109.7 105 100.9 97.1 92.3 87.1 85.5 85.1 85.1 84.4 82.6 80.5 80.4 81 79.9 79.2 79.4 79.6 81.3 83.9 86.7 89.9 93.2 96.3 100 105 110.6 112.8 109.6 115.7 117.9 121.4 124.1 128 128.7 132.8 129.1 120.7 113 108.3 109.8 112.9 111.9 109.2 106 110.5 111.1 112.2 114.6 116.8 118.5 120.3 122.1 123.7 125.2 126.6 128.1 128.6 128.3 129.1 129.5 129.3 128.9 125.7 119.8 116.1 118.6 124.1 130.2 131.3 133.7 132.1 128.9 128.2 125.5 121 115.6 111.7 111.6 108.9 103.6 100.5 99.7 98.5 97.6 97 96.8 96.5 97.1 98 99.2 99.6 99.6 98.3 99.3 99.7 97.7 92.5 90 88 85.9 82.3 78.7 75.2 71.5 67 63.1 59.4 55.7 53.6 55.2 57.1 59.3 63 66.1 69.3 69 66.4 61 56.7 54.4 52 47.3 42.8 31.9 -1.9 -1.9 -1.9 -1.9 -1.9 -1.9 -1.9 -1.9 -1.9 -1.9 -1.9 -1.9 -1.9 -1.9 -1.9 -1.9 -1.9 -1.9 -1.9 -1.9 -1.9 -1.9 -1.9 -1.9 -1.9 -1.9 -1.9 -1.9 -1.9 -1.9 -1.9 -1.9 -1.9 -1.9 -1.9 -1.9 -1.9 -1.9 -1.9 -1.9 -1.9 -1.9 -1.9 -1.9 -1.9 -1.9 -1.9 -1.9 -1.9 -1.9 -1.9 -1.9 -1.9 -1.9 -1.9 -1.9 -1.9 -1.9 -1.9 -1.9 -1.9 -1.9 -1.9
151.7 148.2 145.6 143.5 141 137.9 134.4 129.4 125.1 121.1 117.2 113.1 109.1 105 100.8 95.8 92.3 87.4 83.4 82.1 83 82.3 81.3 78.8 81.3 82.3 80 80 81 82.2 83.5 85.7 87.3 90.6 93.8 96.7 99.5 105.3 111 114.6 111.7 114.5 117.2 118.2 122.2 126.3 126.3 127.5 122.3 115.7 108.4 105.8 108.2 112.1 112.5 110.8 107.7 106.4 108.7 110.2 112.1 113.1 114.1 116 118.5 120.6 122.2 123.9 124.9 124.5 124.2 125.5 124.3 123.1 122 119.4 114 116.7 116.9 127.2 130 133 134.1 130.6 129.2 131.3 127.7 122.3 116 112.7 112.8 107.9 102.2 103.6 100.6 99.7 99.5 99.3 98.5 97.8 97.6 97.5 97.8 98.1 98.9 99.5 99.5 99.8 96.4 94 91.8 89.6 85.8 82.4 79.1 75.5 71.4 66.9 63 59.3 55.5 56.1 57.7 59.5 62.8 66.5 70.1 72.2 69.8 65.4 59.7 56.3 53.9 50.4 46.1 40.3 -1.9 -1.9 -1.9 -1.9 -1.9 -1.9 -1.9 -1.9 -1.9 -1.9 -1.9 -1.9 -1.9 -1.9 -1.9 -1.9 -1.9 -1.9 -1.9 -1.9 -1.9 -1.9 -1.9 -1.9 -1.9 -1.9 -1.9 -1.9 -1.9 -1.9 -1.9 -1.9 -1.9 -1.9 -1.9 -1.9 -1.9 -1.9 -1.9 -1.9 -1.9 -1.9 -1.9 -1.9 -1.9 -1.9 -1.9 -1.9 -1.9 -1.9 -1.9 -1.9 -1.9 -1.9 -1.9 -1.9 -1.9 -1.9 -1.9 -1.9 -1.9 -1.9 -1.9 -1.9
154.8 149.4 146.2 143.9 141.2 136.5 131.5 127.7 124.5 120.8 116.5 112.4 107.8 103.2 100.1 96.4 93.4 89.4 84.2 79.4 78.7 78.4 78 79.1 82 82.7 83.2 83.1 84.1 85.1 84.8 85.3 87.6 91.1 94.4 96.7 99.1 105.6 110.1 114.2 110.2 112 116.5 117.1 120.6 124.6 123.8 122.1 116.6 110.7 106.2 108 109.3 110.8 111.1 110.7 108.8 103.4 105 107.3 109.5 109.3 109.7 112 114.4 116.9 119 120.1 120.5 120.3 120.6 121 119.6 120.5 118.6 117.3 112.2 115.6 118.5 126.1 130.6 134 133.2 129.7 131.5 131.7 127.6 121.6 115.8 113.8 110.2 106.7 106.5 104.5 102.4 102.1 101.7 101.5 100.9 100.5 98.8 98.7 98.3 100.8 102.9 100.7 100 99.9 97.1 95.4 93.4 90.5 85.7 81.7 79.1 75.7 71.3 66.8 62.9 59.9 56.6 58.4 60.2 62.7 66.1 69.2 72.6 73 68.8 63.8 59 55.8 52.6 49.3 43.3 37.8 -1.9 -1.9 -1.9 -1.9 -1.9 -1.9 -1.9 -1.9 -1.9 -1.9 -1.9 -1.9 -1.9 -1.9 -1.9 -1.9 -1.9 -1.9 -1.9 -1.9 -1.9 -1.9 -1.9 -1.9 -1.9 -1.9 -1.9 -1.9 -1.9 -1.9 -1.9 -1.9 -1.9 -1.9 -1.9 -1.9 -1.9 -1.9 -1.9 -1.9 -1.9 -1.9 -1.9 -1.9 -1.9 -1.9 -1.9 -1.9 -1.9 -1.9 -1.9 -1.9 -1.9 -1.9 -1.9 -1.9 -1.9 -1.9 -1.9 -1.9 -1.9 -1.9 -1.9 -1.9
153.9 150.9 146.4 143.3 137.8 133.2 129.6 127.1 124.2 119.9 115.2 111.1 106.5 104.3 101.3 98.4 93.8 89.3 84.5 79.4 75.9 75.9 76 78.1 80.4 80.3 83.3 86.5 85.8 86.2 85.6 84.8 86.6 90.6 93.9 95.8 99.8 105.8 108.7 109.5 110.3 110.7 112.9 115.5 118.9 120.6 117.9 115.2 110.1 105.4 104.6 105.3 107.6 109.9 110 104.4 103.2 102.4 103.1 104.3 105 105 106 107.5 110.6 113 115.2 115.9 115.9 115.4 116.1 116.7 118 121.1 116.9 115.1 109.9 113.6 121.3 128.2 131.6 132.6 131.9 131.8 133.4 133.5 125.5 119.4 115.7 113.3 108.5 110.3 107.8 106.7 107.1 104.8 104.3 103.8 103.9 102.9 100.9 99.6 100.2 105.3 105.6 102.7 102.5 101.8 99.7 98.1 94.8 90.4 85.7 83.1 80.9 75.8 71.3 66.8 63 59.7 59.5 61.1 62.5 64.8 67.9 71.1 74.3 73.9 67.7 63.4 59.2 54.7 50.6 47 40.5 33.6 -1.9 -1.9 -1.9 -1.9 -1.9 -1.9 -1.9 -1.9 -1.9 -1.9 -1.9 -1.9 -1.9 -1.9 -1.9 -1.9 -1.9 -1.9 -1.9 -1.9 -1.9 -1.9 -1.9 -1.9 -1.9 -1.9 -1.9 -1.9 -1.9 -1.9 -1.9 -1.9 -1.9 -1.9 -1.9 -1.9 -1.9 -1.9 -1.9 -1.9 -1.9 -1.9 -1.9 -1.9 -1.9 -1.9 -1.9 -1.9 -1.9 -1.9 -1.9 -1.9 -1.9 -1.9 -1.9 -1.9 -1.9 -1.9 -1.9 -1.9 -1.9 -1.9 -1.9 -1.9
152.4 148.8 145.4 139.8 134.4 131.5 128.3 125.8 123.4 118.4 114 110.6 107.3 105.8 102.3 98.4 94.2 89.6 85.6 82.4 78.1 74.3 73.9 75.6 77.7 77.9 80.7 85.2 85.7 86.1 86.3 86 87.4 90.5 91.7 95 99.9 104.7 107.8 108.7 109.4 109.6 109.3 112.7 116.5 113.4 110.6 109.1 105.1 102.7 101.3 103.6 106.8 108.8 108.7 103.3 102.9 100.9 100.2 100.5 102.3 103.6 103.6 104.3 106.8 108.8 111.1 111.6 111.6 110.8 111.4 113.6 116 118.1 118.2 110.2 109.6 115.8 121.9 129.1 132.1 133.5 134.5 135.2 134.1 130.1 123.2 118.8 116 113.5 112.3 111.3 110.7 110.2 107.5 108.9 107.5 107.1 107.2 105.5 102 100.3 101.8 107.4 107.4 105.5 103.5 102.1 100.5 98.6 94.2 90.5 87.4 85.4 82.7 77.6 71.9 67.2 63.6 61.9 62.5 63.4 64.1 67.6 69.7 72.5 73.3 71.2 66.4 63 59.1 52.3 47.5 43.3 29.4 -1.9 -1.9 -1.9 -1.9 -1.9 -1.9 -1.9 -1.9 -1.9 -1.9 -1.9 -1.9 -1.9 -1.9 -1.9 -1.9 -1.9 -1.9 -1.9 -1.9 -1.9 -1.9 -1.9 -1.9 -1.9 -1.9 -1.9 -1.9 -1.9 -1.9 -1.9 -1.9 -1.9 -1.9 -1.9 -1.9 -1.9 -1.9 -1.9 -1.9 -1.9 -1.9 -1.9 -1.9 -1.9 -1.9 -1.9 -1.9 -1.9 -1.9 -1.9 -1.9 -1.9 -1.9 -1.9 -1.9 -1.9 -1.9 -1.9 -1.9 -1.9 -1.9 -1.9 -1.9 -1.9
153.4 146 141 136.1 132.7 129.9 127 124.3 121.9 118.1 114.9 112.5 107.9 106.4 103.5 99.9 95.3 92 88.6 85.4 82.1 76.6 73.5 72.5 76.2 74.1 76.6 81 84.8 86.7 86.2 87.6 88.1 89 91.1 92.8 98.2 102.9 106 109.4 109 107.7 105.5 109 110.3 106.7 104.1 103.2 100.6 99.2 98.6 101.8 106.2 103.1 102.9 102.8 102.6 100.1 97.3 96.8 99.1 102.1 101.2 102.8 103.7 105.3 106.9 107 107.1 107.3 107.7 109.9 111 111.7 114.7 109.9 110.2 118.1 123.8 130.5 134.2 137.2 137.6 133.7 133.3 125.6 122.4 119.3 117.5 116.7 114.9 113.6 112.5 109.1 111.2 111.7 112 111.4 109.7 105.6 102.3 102 103.2 108.1 107.9 108.1 104.4 102.7 101.1 97.5 93.2 92.1 89.8 86.5 83.1 77.4 70.9 66.9 63.4 62.5 63.1 64 67 69.9 72.1 73.1 72.9 69.9 65.9 62.2 58 49.8 43.9 18.6 12.6 -1.9 -1.9 -1.9 -1.9 -1.9 -1.9 -1.9 -1.9 -1.9 -1.9 -1.9 -1.9 -1.9 -1.9 -1.9 -1.9 -1.9 -1.9 -1.9 -1.9 -1.9 -1.9 -1.9 -1.9 -1.9 -1.9 -1.9 -1.9 -1.9 -1.9 -1.9 -1.9 -1.9 -1.9 -1.9 -1.9 -1.9 -1.9 -1.9 -1.9 -1.9 -1.9 -1.9 -1.9 -1.9 -1.9 -1.9 -1.9 -1.9 -1.9 -1.9 -1.9 -1.9 -1.9 -1.9 -1.9 -1.9 -1.9 -1.9 -1.9 -1.9 -1.9 -1.9 -1.9 -1.9
145.6 141.8 136.6 132.6 129.7 127.6 125.4 122.6 119.7 116.9 115.8 113.7 108.6 106.2 103.8 101.6 98 94.4 91.1 87.7 84.1 80.5 77.2 71.7 71.6 70.6 72.7 76.8 81.5 85.3 87.3 87.4 85.7 86.4 87 91.8 94.3 99.8 103.3 106.6 107.2 104.8 100.8 100.7 102.3 99.5 98.7 100.3 97.4 95.6 96.7 100.5 103.8 104.9 103.4 101.2 99.7 97.2 94.3 94.5 96.9 100.3 99.9 98.8 100.3 102.4 104.5 105.3 104.4 105.1 106.2 107.6 109.3 108.7 109.4 109.1 110.8 118.6 125.3 132 137.3 139.6 133.8 131.5 126.8 123.2 119.9 118 120 118.5 116.7 117.3 113.6 113.1 113.6 113.5 115.3 114.9 111.9 104.5 104.2 104.1 106.3 109.7 111.1 109.5 105.8 103.5 101.6 96.6 94.4 93.4 92.3 88 82.5 78.9 71.6 66.7 64.5 63.1 63.7 66.4 69.5 70.4 71.9 72 71.4 69.4 65.2 61.6 54.9 46.6 22.7 4.3 -1.9 -1.9 -1.9 -1.9 -1.9 -1.9 -1.9 -1.9 -1.9 -1.9 -1.9 -1.9 -1.9 -1.9 -1.9 -1.9 -1.9 -1.9 -1.9 -1.9 -1.9 -1.9 -1.9 -1.9 -1.9 -1.9 -1.9 -1.9 -1.9 -1.9 -1.9 -1.9 -1.9 -1.9 -1.9 -1.9 -1.9 -1.9 -1.9 -1.9 -1.9 -1.9 -1.9 -1.9 -1.9 -1.9 -1.9 -1.9 -1.9 -1.9 -1.9 -1.9 -1.9 -1.9 -1.9 -1.9 -1.9 -1.9 -1.9 -1.9 -1.9 -1.9 -1.9 -1.9 -1.9 -1.9
140.2 137 133.3 129.6 126.4 124.2 122.6 121.4 118.5 117.3 116.2 112.8 110.7 109.1 107.1 103.7 100.2 96.5 92.5 88 85.3 82.5 78.8 72.5 69.2 69.7 72.8 75.4 78 81.3 83.1 83.2 82.6 84.6 86 90 93 97.3 100.5 103.7 104.5 99.1 96.3 95.4 96.8 95.1 96.8 97.2 94.2 93.3 96.4 100 101.8 103 101.2 98.6 96.8 93.9 93.1 92.8 95.1 98.3 98.2 96.3 98.8 100.2 102.1 102 102.6 103.7 105.2 107.4 107.5 107 107 108.1 113.1 121.5 125.8 133.1 139.7 134.6 129.1 125 121.9 118.6 118.4 122.9 123.4 120.7 119.1 117 116.2 116.3 115.1 114.7 116.1 115.1 109.7 107.4 106.6 106.4 108.8 112.2 112.6 109.3 107.2 104.7 101.2 98 97.2 96.6 94.1 88.2 85 79.2 71.7 66.4 65.2 62.8 65.3 67.8 69.7 68.9 69.1 69.8 69.6 67.4 62.6 58 50.5 44.1 1.9 5 -1.9 -1.9 -1.9 -1.9 -1.9 -1.9 -1.9 -1.9 -1.9 -1.9 -1.9 -1.9 -1.9 -1.9 -1.9 -1.9 -1.9 -1.9 -1.9 -1.9 -1.9 -1.9 -1.9 -1.9 -1.9 -1.9 -1.9 -1.9 -1.9 -1.9 -1.9 -1.9 -1.9 -1.9 -1.9 -1.9 -1.9 -1.9 -1.9 -1.9 -1.9 -1.9 -1.9 -1.9 -1.9 -1.9 -1.9 -1.9 -1.9 -1.9 -1.9 -1.9 -1.9 -1.9 -1.9 -1.9 -1.9 -1.9 -1.9 -1.9 -1.9 -1.9 -1.9 -1.9 -1.9 -1.9
137.4 133.7 130.1 126.4 123.8 121.8 120.2 118.8 118.2 116.9 115.3 114.2 113.6 112.2 108.9 105.7 102.4 98.4 93.7 88.6 85.1 83.3 77.8 71.1 68.4 69.3 70.5 72.6 75.2 78.1 77.6 77.5 77.6 79.6 82.1 86.7 89.4 92.8 96.7 96.9 95.6 93.8 92.2 92.9 92.5 92.9 94.6 94.4 94 93.4 96.7 98.5 100.2 102 99.7 97.1 94.2 91.6 91.2 91.4 92.3 95.3 94.7 94.7 97.3 98.8 100 100.1 101.4 103.6 105.8 107.4 107 106.1 106.6 108.7 115.4 122.9 126.6 134.4 135.1 126.2 124.6 118.9 116.4 117.9 122 125.1 123.7 122.4 120.6 121.9 120.9 119.4 117.1 115.4 113.6 113.1 111.6 110.3 109.3 108.6 109.9 113.4 112.3 108.9 108.6 105.4 102 100.2 99.9 98 94.2 90 87.5 79.6 72.4 69.5 65 62.2 65.1 68.2 67.3 66.6 66.5 67.2 67.9 64.9 58.4 53.1 46.4 -1.9 -1.9 -1.9 -1.9 -1.9 -1.9 -1.9 -1.9 -1.9 -1.9 -1.9 -1.9 -1.9 -1.9 -1.9 -1.9 -1.9 -1.9 -1.9 -1.9 -1.9 -1.9 -1.9 -1.9 -1.9 -1.9 -1.9 -1.9 -1.9 -1.9 -1.9 -1.9 -1.9 -1.9 -1.9 -1.9 -1.9 -1.9 -1.9 -1.9 -1.9 -1.9 -1.9 -1.9 -1.9 -1.9 -1.9 -1.9 -1.9 -1.9 -1.9 -1.9 -1.9 -1.9 -1.9 -1.9 -1.9 -1.9 -1.9 -1.9 -1.9 -1.9 -1.9 -1.9 -1.9 -1.9 -1.9 -1.9 -1.9
134.8 130.5 126.8 124 122.1 120.2 118.3 117.6 116.7 117.3 117.7 118.4 116.6 113.3 110.1 106.7 102.5 98.3 94.9 90 87.7 82.4 75.1 70.4 67.6 68.6 68.7 69.9 72.5 73.1 73 73 73.4 74.5 76.9 81.8 85.5 87 88.7 90.6 90 91.5 90.9 92.2 91.7 91.8 91.9 92 92.5 94.5 97.2 98.6 100.4 100.7 98.4 95.4 92.6 89.9 89.5 89.4 90.5 92.4 92.8 93.5 95.7 97.3 98.1 99.2 101 103.2 105.8 106 106 106.6 108.5 111.5 117.5 123.6 126.4 131.3 123.3 121.4 117.5 114.9 117 121 123.8 123.8 121.7 123.1 125.4 124.9 123.1 119.6 118.4 114.1 113.1 113.3 113.6 112.7 112 109.3 108.8 112.3 110.5 110.7 111.2 108.4 104.2 104 103 97.8 93.4 91.7 87.1 77.2 73 69.8 64.1 61.3 65.4 65.5 64.1 64.2 64 64.9 65.8 61.9 54.9 50.2 44.6 -1.9 -1.9 -1.9 -1.9 -1.9 -1.9 -1.9 -1.9 -1.9 -1.9 -1.9 -1.9 -1.9 -1.9 -1.9 -1.9 -1.9 -1.9 -1.9 -1.9 -1.9 -1.9 -1.9 -1.9 -1.9 -1.9 -1.9 -1.9 -1.9 -1.9 -1.9 -1.9 -1.9 -1.9 -1.9 -1.9 -1.9 -1.9 -1.9 -1.9 -1.9 -1.9 -1.9 -1.9 -1.9 -1.9 -1.9 -1.9 -1.9 -1.9 -1.9 -1.9 -1.9 -1.9 -1.9 -1.9 -1.9 -1.9 -1.9 -1.9 -1.9 -1.9 -1.9 -1.9 -1.9 -1.9 -1.9 -1.9 -1.9
131.2 127.2 124.3 122.4 120.5 118.6 116.8 117 118.4 120.8 120.5 120.2 116.6 113.6 110.4 106.8 102 97.4 94.3 91.5 88.5 83.1 75.1 69.9 67.2 67.4 67.8 68.1 68.7 68.6 68.5 69 69.9 71.1 73.3 78.1 81.6 81.3 81.4 86.6 90.8 93.5 93.4 92.3 91.5 91.1 92 92.6 94 96 98 99.4 100.5 99.4 96.8 93.7 90.7 88.2 87.9 87.9 88.4 92.2 92.6 94.4 94.4 95.4 96.2 98.1 100.1 103.6 103.4 105.8 107.1 109 111.2 114.3 119.2 123.3 125.1 121.3 118.5 116.4 114.9 115.1 117 122.9 126.6 125.1 125.2 128.4 129.6 127.2 123.8 120 118.4 116.3 115.3 115.7 115.2 114.6 113.6 108.9 109.3 111.9 113.9 115.4 112.4 109.6 106.8 107.3 102.7 97.5 94.3 92.6 83.9 76.9 73.4 69.1 63.8 60.8 63.7 62.3 62.3 63 62 63.3 62 57.8 52.3 46.6 -1.9 -1.9 -1.9 -1.9 -1.9 -1.9 -1.9 -1.9 -1.9 -1.9 -1.9 -1.9 -1.9 -1.9 -1.9 -1.9 -1.9 -1.9 -1.9 -1.9 -1.9 -1.9 -1.9 -1.9 -1.9 -1.9 -1.9 -1.9 -1.9 -1.9 -1.9 -1.9 -1.9 -1.9 -1.9 -1.9 -1.9 -1.9 -1.9 -1.9 -1.9 -1.9 -1.9 -1.9 -1.9 -1.9 -1.9 -1.9 -1.9 -1.9 -1.9 -1.9 -1.9 -1.9 -1.9 -1.9 -1.9 -1.9 -1.9 -1.9 -1.9 -1.9 -1.9 -1.9 -1.9 -1.9 -1.9 -1.9 -1.9 -1.9
127.1 124.6 122.7 121.8 120.5 118.9 117.2 116.5 119.5 123.4 121.8 121.1 117.9 113.2 109.6 105.5 101.1 96.7 94 91.6 89.4 83.7 76.8 70.5 67.3 66 66.4 65.9 66.3 66.1 66.7 67.4 67.6 69.3 71.3 72.3 75.4 79.9 86.2 92.1 94.5 94.9 93.3 92.7 92.4 91.7 92.1 94 94.2 96 98.2 100.7 100.8 98.4 95.6 92.4 89.3 87.5 86.9 86.7 87.1 91.3 92.3 95.3 94.5 93.7 96 97.5 98.8 99 102.8 105.8 108.7 110.4 111.5 115 118.7 122.5 119.7 115.6 115.2 115.1 114.3 114.6 119.8 125.9 128.7 129.6 132.2 132.5 131.9 128 124.1 119.4 115.1 118.5 118.2 117.6 117.6 116.1 111.9 109.5 111.7 114.8 117.4 115.7 113.4 110.8 107.2 105.6 102.4 97.3 94.8 90.8 82.9 76.9 72.4 67.1 62.5 61.1 60.6 60.5 61.2 60.9 60 60.8 57.8 51.7 42.8 10.3 -1.9 -1.9 -1.9 -1.9 -1.9 -1.9 -1.9 -1.9 -1.9 -1.9 -1.9 -1.9 -1.9 -1.9 -1.9 -1.9 -1.9 -1.9 -1.9 -1.9 -1.9 -1.9 -1.9 -1.9 -1.9 -1.9 -1.9 -1.9 -1.9 -1.9 -1.9 -1.9 -1.9 -1.9 -1.9 -1.9 -1.9 -1.9 -1.9 -1.9 -1.9 -1.9 -1.9 -1.9 -1.9 -1.9 -1.9 -1.9 -1.9 -1.9 -1.9 -1.9 -1.9 -1.9 -1.9 -1.9 -1.9 -1.9 -1.9 -1.9 -1.9 -1.9 -1.9 -1.9 -1.9 -1.9 -1.9 -1.9 -1.9 -1.9
122.8 123.5 123.7 122.6 121.1 119.5 118.2 116.9 120.7 120.9 121.2 121 118.2 113.7 108.5 104.3 100.1 95.8 93.3 90.7 87.9 84.1 78.9 72.7 67.5 65.7 63.8 64.8 64.4 64.6 65.2 65.5 66.9 68.4 70.5 74.2 79.4 86.4 91.8 97 97.4 97 95.7 93.4 92.1 91.4 91.5 93.3 94.2 96.7 99.6 102 101.5 99 95.7 92.4 89.4 88 87.7 88.6 86.5 91 93.6 95.8 93.9 93.2 96 95.7 93.4 97.5 102.2 105.5 108.3 109.9 112.6 115.6 118.4 117.4 113.8 111.9 112.9 113.4 114.4 119 121.3 128 132.8 136.3 136.5 135.3 132.9 128.2 123 118.6 114.8 120.8 119.3 119.5 120.3 116.4 113 112.7 113.7 116.9 119.5 117.1 114 111.2 107.7 105 100.3 97.5 94 90 82.2 77.2 70 64.7 62.5 62.1 60.9 59.5 59.4 59.3 58.7 57.3 52.3 48.1 2.9 -1.9 -1.9 -1.9 -1.9 -1.9 -1.9 -1.9 -1.9 -1.9 -1.9 -1.9 -1.9 -1.9 -1.9 -1.9 -1.9 -1.9 -1.9 -1.9 -1.9 -1.9 -1.9 -1.9 -1.9 -1.9 -1.9 -1.9 -1.9 -1.9 -1.9 -1.9 -1.9 -1.9 -1.9 -1.9 -1.9 -1.9 -1.9 -1.9 -1.9 -1.9 -1.9 -1.9 -1.9 -1.9 -1.9 -1.9 -1.9 -1.9 -1.9 -1.9 -1.9 -1.9 -1.9 -1.9 -1.9 -1.9 -1.9 -1.9 -1.9 -1.9 -1.9 -1.9 -1.9 -1.9 -1.9 -1.9 -1.9 -1.9 -1.9 -1.9
118.6 121.6 122.8 123.2 121.8 120.6 119.3 117.5 117.2 118.3 119.3 120.2 117 112.7 107.9 103.3 99 94.9 91.5 89 86.1 82.7 79 74 68.5 65.7 63.4 62.7 63.2 63.8 64.4 65.5 67 68.4 72 75.7 83.2 89.9 97.1 101.3 101.1 99.1 96.9 93.8 92.1 92 92 93.5 95.5 98.8 102.3 103.4 102.7 100.7 97 93.3 90.4 89.8 89 88.4 87.9 90.2 92.9 94.6 91.6 92.5 92.7 90.4 91.4 95.7 101 105 106.3 106.5 108.4 111 114.1 110.2 109.2 111 112.2 113.2 116.5 118.9 124.4 136 139.9 140 138.6 136.9 132.7 127 122.3 118 115.7 117.3 120 123.1 120.7 116.4 116.4 116.2 116.5 118.4 119.2 118.3 115.2 111.8 107.8 104.2 100.9 98.6 93.2 89.3 85 76.5 67.3 63.2 64 61.9 59.2 59 58.2 56.4 55.1 51.1 46.9 4.3 -1.9 -1.9 -1.9 -1.9 -1.9 -1.9 -1.9 -1.9 -1.9 -1.9 -1.9 -1.9 -1.9 -1.9 -1.9 -1.9 -1.9 -1.9 -1.9 -1.9 -1.9 -1.9 -1.9 -1.9 -1.9 -1.9 -1.9 -1.9 -1.9 -1.9 -1.9 -1.9 -1.9 -1.9 -1.9 -1.9 -1.9 -1.9 -1.9 -1.9 -1.9 -1.9 -1.9 -1.9 -1.9 -1.9 -1.9 -1.9 -1.9 -1.9 -1.9 -1.9 -1.9 -1.9 -1.9 -1.9 -1.9 -1.9 -1.9 -1.9 -1.9 -1.9 -1.9 -1.9 -1.9 -1.9 -1.9 -1.9 -1.9 -1.9 -1.9 -1.9
116.4 120.6 123.4 124.6 123.1 120.5 118.8 117.3 114.8 114.6 116.5 118.2 114.9 110.4 107 102.6 98.5 94.9 90.4 86.9 83.5 80.4 77.3 73.9 68.9 64.8 62.1 61.9 61.6 63.9 64.4 65.9 67 68.3 72.8 77.4 86.3 90.6 96.7 102.5 102.8 98.5 95 93 92.8 92.8 93.1 94.9 97.5 101.2 103.9 106.4 104.8 103.1 99.4 96 94.4 93.6 91.7 91.2 89.5 84.3 90.2 91.5 90.3 88.3 87.4 86.9 89.6 93.2 98.7 102.7 103.4 103.9 105.2 106.7 106.3 105.4 107.2 109.6 110.4 115.6 118.4 122.2 130.3 138.7 142.4 139.4 139.1 137.2 131.7 126.8 122.2 118.8 116.8 116.8 120.8 122.9 119.9 119 119.5 119.8 118.7 120.4 120.2 119.5 116.2 112.8 109.2 105.7 102.8 98.9 92.7 89.4 86.6 73.9 65.3 64.9 65.8 61.6 57.6 56.5 55.5 53 49.8 46.3 43.7 2.1 -1.9 -1.9 -1.9 -1.9 -1.9 -1.9 -1.9 -1.9 -1.9 -1.9 -1.9 -1.9 -1.9 -1.9 -1.9 -1.9 -1.9 -1.9 -1.9 -1.9 -1.9 -1.9 -1.9 -1.9 -1.9 -1.9 -1.9 -1.9 -1.9 -1.9 -1.9 -1.9 -1.9 -1.9 -1.9 -1.9 -1.9 -1.9 -1.9 -1.9 -1.9 -1.9 -1.9 -1.9 -1.9 -1.9 -1.9 -1.9 -1.9 -1.9 -1.9 -1.9 -1.9 -1.9 -1.9 -1.9 -1.9 -1.9 -1.9 -1.9 -1.9 -1.9 -1.9 -1.9 -1.9 -1.9 -1.9 -1.9 -1.9 -1.9 -1.9 -1.9
115.1 120.6 125.3 124.3 122 119.7 118.1 115.8 112.5 112 113.9 113.1 112.1 108.3 105.2 101 96.6 93.4 89.1 84.5 80.9 77.8 74.9 72 68.7 64.8 62.2 60.2 61.9 63.6 64.2 65.2 66.9 69 73.6 78 82.7 89.2 97.4 101.6 102 97.1 93.6 92.1 92.9 93.8 94.8 97.1 99.4 103.1 106.8 109.2 107 105.2 102.6 100.7 99.3 97.5 94.9 92.8 89.6 84.3 85.8 87.6 88.7 85.6 83.2 83.6 86.5 90.4 95.7 98.3 100 101 102 102.5 103 103.9 106.3 108.3 114.1 115.3 120.6 128 133.7 138.6 139 137.8 138.6 136 131.1 126.6 122.5 120.2 117.9 117.3 121.6 122.7 120.9 121.3 121.6 121.8 123 123.2 123.5 119.6 116.3 113.5 110.7 107.3 104.2 98.6 92.5 90.9 85.4 72.3 64.6 65.1 65.2 60.1 55.3 54.7 53.2 48.1 45.2 42.6 39.8 4 -1.9 -1.9 -1.9 -1.9 -1.9 -1.9 -1.9 -1.9 -1.9 -1.9 -1.9 -1.9 -1.9 -1.9 -1.9 -1.9 -1.9 -1.9 -1.9 -1.9 -1.9 -1.9 -1.9 -1.9 -1.9 -1.9 -1.9 -1.9 -1.9 -1.9 -1.9 -1.9 -1.9 -1.9 -1.9 -1.9 -1.9 -1.9 -1.9 -1.9 -1.9 -1.9 -1.9 -1.9 -1.9 -1.9 -1.9 -1.9 -1.9 -1.9 -1.9 -1.9 -1.9 -1.9 -1.9 -1.9 -1.9 -1.9 -1.9 -1.9 -1.9 -1.9 -1.9 -1.9 -1.9 -1.9 -1.9 -1.9 -1.9 -1.9 -1.9 -1.9
112.5 121 123.6 121.9 120.4 119.2 116.4 113 108.2 108.2 110.2 109.6 109.2 108.2 105.1 99.5 93.5 91.3 86.7 82.1 78.7 76.8 73.9 71 68 65 61.8 59.6 61.3 63.2 64 64.4 66 69.3 73.6 78.6 83.2 89 95.8 100.3 99.1 94.6 92.8 93.7 94.2 95.6 98.1 99.9 102.1 104.7 108.5 110.8 111.8 110 109.6 106.9 103.8 100.9 96.6 92.8 89.7 85.9 82.2 83.5 85.7 83.7 80.4 81.6 84.6 88.9 91.4 94 96 97.1 99.3 100.2 100.8 102.1 106.4 107.7 113.9 116.1 122.1 129 134.5 137.6 137.5 140.4 138.6 135.5 131.1 126.7 123.4 120.8 119.3 118.7 121 122.2 122.2 122.9 123.2 123.1 123.1 124.2 124.1 121.2 118.7 115.7 111.8 108 103.8 99.4 92.9 90.7 81.4 69.4 62.7 62.4 63.4 56.9 54.2 54.2 50.7 44.1 42.9 40.3 36 32.1 0.8 -1.9 -1.9 -1.9 -1.9 -1.9 -1.9 -1.9 -1.9 -1.9 -1.9 -1.9 -1.9 -1.9 -1.9 -1.9 -1.9 -1.9 -1.9 -1.9 -1.9 -1.9 -1.9 -1.9 -1.9 -1.9 -1.9 -1.9 -1.9 -1.9 -1.9 -1.9 -1.9 -1.9 -1.9 -1.9 -1.9 -1.9 -1.9 -1.9 -1.9 -1.9 -1.9 -1.9 -1.9 -1.9 -1.9 -1.9 -1.9 -1.9 -1.9 -1.9 -1.9 -1.9 -1.9 -1.9 -1.9 -1.9 -1.9 -1.9 -1.9 -1.9 -1.9 -1.9 -1.9 -1.9 -1.9 -1.9 -1.9 -1.9 -1.9 -1.9
109.1 115.4 119.5 120.7 119.7 116.4 112.9 110 106.7 105.5 107.7 107.6 107.2 106.2 104.1 98.9 91.6 86.5 83.6 80.2 76.6 74.4 72.2 68.3 65.4 63.4 61.6 60.2 62 62.9 63.7 64.2 66.1 70 74.3 79.3 84.3 88.8 94 98.7 97.1 94.3 95.9 96 98.1 99.2 100.7 102.5 104.2 106.4 111.1 115.5 116.2 116.7 113.7 112 108.2 104.3 99.1 92.9 89.2 86.1 83 76.1 82 81.9 78.7 80.3 83.4 84.9 87.3 89.7 92 94.9 96.9 97.8 100.1 102.1 106.1 108.4 109.7 116.7 120.8 129.5 135.7 137.7 139.8 141.1 139.5 136.8 132 128.1 125.6 122.5 123.1 120.7 121.1 122.1 123.3 124.5 124.3 124 123 123.2 124.1 123.1 120.6 117.3 111.4 107.7 105.3 99.8 93.7 90.6 77.4 65.8 60.4 59.6 59.7 55 53.8 52.5 45.8 43.7 41.2 28.5 3.2 -1.9 -1.9 -1.9 -1.9 -1.9 -1.9 -1.9 -1.9 -1.9 -1.9 -1.9 -1.9 -1.9 -1.9 -1.9 -1.9 -1.9 -1.9 -1.9 -1.9 -1.9 -1.9 -1.9 -1.9 -1.9 -1.9 -1.9 -1.9 -1.9 -1.9 -1.9 -1.9 -1.9 -1.9 -1.9 -1.9 -1.9 -1.9 -1.9 -1.9 -1.9 -1.9 -1.9 -1.9 -1.9 -1.9 -1.9 -1.9 -1.9 -1.9 -1.9 -1.9 -1.9 -1.9 -1.9 -1.9 -1.9 -1.9 -1.9 -1.9 -1.9 -1.9 -1.9 -1.9 -1.9 -1.9 -1.9 -1.9 -1.9 -1.9 -1.9 -1.9 -1.9
106 111.5 116 118.4 116.5 113 109.5 106.8 104.1 103.4 104.5 105.4 105.1 104.3 102.4 96.5 90.7 86 82.1 78.5 75 71.6 68.7 65.7 63.4 62.2 60.2 55.9 61.6 62.6 63.4 64.9 67.9 71.9 76.3 82 86.4 90.7 94.9 97.7 98.4 97.3 97.4 97.5 98.4 100.1 102 104.1 105.5 109.6 115.2 119.6 122.5 123.4 121.1 116.8 112.9 107.5 101.1 92.8 87.4 83.3 79.6 76.6 77.9 77.5 76.9 79.1 81.9 82.8 84.7 88.6 92.7 95.6 97.8 99.5 100.9 103.5 105.4 106.8 111.1 117 124.1 130.6 136.1 136.7 138 141 141.3 137.3 133.4 130.6 127 125.2 126.2 122 121.5 120.9 123.9 124.4 123.1 121.8 120.9 122.4 123.6 123.3 121.4 115.9 110.7 107.1 103.9 98.5 91.3 86.3 72.4 61.6 57.7 58.3 57.7 55.9 54.8 47.8 43.8 41.1 38.4 33.7 31.4 -1.9 -1.9 -1.9 -1.9 -1.9 -1.9 -1.9 -1.9 -1.9 -1.9 -1.9 -1.9 -1.9 -1.9 -1.9 -1.9 -1.9 -1.9 -1.9 -1.9 -1.9 -1.9 -1.9 -1.9 -1.9 -1.9 -1.9 -1.9 -1.9 -1.9 -1.9 -1.9 -1.9 -1.9 -1.9 -1.9 -1.9 -1.9 -1.9 -1.9 -1.9 -1.9 -1.9 -1.9 -1.9 -1.9 -1.9 -1.9 -1.9 -1.9 -1.9 -1.9 -1.9 -1.9 -1.9 -1.9 -1.9 -1.9 -1.9 -1.9 -1.9 -1.9 -1.9 -1.9 -1.9 -1.9 -1.9 -1.9 -1.9 -1.9 -1.9 -1.9 -1.9
101.5 108.3 111.9 111.8 111.3 108.8 106.1 103.9 102.4 101.9 102.4 102.7 102.8 102.3 100.3 95 89.6 84.8 80.5 76.9 73.4 70 67 64.7 62 59.9 58.8 60.4 62.1 62.8 64.1 66.1 70.1 74.3 80.8 86.8 90.5 94 97.2 99.2 100.4 99 98.4 99.1 99.6 102.5 104.8 107.1 110.1 114.1 119.7 125.2 129.1 129.4 125.9 120.7 115.3 108.3 101.2 94.6 87.4 81.3 78.1 75.7 72.1 76.6 75.4 76.4 80.3 82.8 86.2 90.2 93.7 96.2 97.8 99.8 102.3 105.5 106.7 109 114.9 119.4 125.1 131 135.6 136 138.4 142.5 141.8 138.1 135.2 131.6 127.9 126.3 125.2 122.5 121.4 121.1 124.1 120.9 118.5 119 118.1 120.5 122.4 122 123.7 114.8 111.3 106.1 103.1 97 88.2 82.5 67.3 57.1 55.2 57.9 57.6 57.8 54.6 46.5 43.7 41.2 36.5 31.7 28.8 -1.9 -1.9 -1.9 -1.9 -1.9 -1.9 -1.9 -1.9 -1.9 -1.9 -1.9 -1.9 -1.9 -1.9 -1.9 -1.9 -1.9 -1.9 -1.9 -1.9 -1.9 -1.9 -1.9 -1.9 -1.9 -1.9 -1.9 -1.9 -1.9 -1.9 -1.9 -1.9 -1.9 -1.9 -1.9 -1.9 -1.9 -1.9 -1.9 -1.9 -1.9 -1.9 -1.9 -1.9 -1.9 -1.9 -1.9 -1.9 -1.9 -1.9 -1.9 -1.9 -1.9 -1.9 -1.9 -1.9 -1.9 -1.9 -1.9 -1.9 -1.9 -1.9 -1.9 -1.9 -1.9 -1.9 -1.9 -1.9 -1.9 -1.9 -1.9 -1.9 -1.9
97.2 101.3 104.6 104.6 104.8 103.3 102.5 102.1 101.7 101.1 100.7 100.4 100.9 100.3 98.6 94.6 89 83.7 78.9 75.3 71.8 68.5 66.2 63.7 62.3 59.3 53.3 61.9 62.5 63.1 65.2 68.4 72.6 79.4 85.9 90.6 94.1 95 97.1 99.1 99.3 98.9 99.2 99.4 101.2 104.6 107.1 109.5 113.5 118.2 123.7 129.6 133.5 133.4 130.4 124.5 116.7 108.3 100.4 93.7 86.1 80.5 77.2 76.5 71.5 76.1 73.4 77 80.1 83.6 87.2 91 94 96.6 98.8 100.7 104 108.1 108.6 113 119 123.1 126.8 132.8 135.7 137.5 142.5 141.9 141.2 138.9 136.8 132.4 129.2 125.9 124.3 123 121.5 121.5 121.5 117.9 116.6 115.3 114 117 118.6 117.6 116.2 114.3 110.3 105.6 101.3 92.5 86.5 76 58 54.1 54.3 56.6 61.1 61.4 51.7 46.8 45.3 39.9 34.3 30.1 -1.9 -1.9 -1.9 -1.9 -1.9 -1.9 -1.9 -1.9 -1.9 -1.9 -1.9 -1.9 -1.9 -1.9 -1.9 -1.9 -1.9 -1.9 -1.9 -1.9 -1.9 -1.9 -1.9 -1.9 -1.9 -1.9 -1.9 -1.9 -1.9 -1.9 -1.9 -1.9 -1.9 -1.9 -1.9 -1.9 -1.9 -1.9 -1.9 -1.9 -1.9 -1.9 -1.9 -1.9 -1.9 -1.9 -1.9 -1.9 -1.9 -1.9 -1.9 -1.9 -1.9 -1.9 -1.9 -1.9 -1.9 -1.9 -1.9 -1.9 -1.9 -1.9 -1.9 -1.9 -1.9 -1.9 -1.9 -1.9 -1.9 -1.9 -1.9 -1.9 -1.9 -1.9
93.9 96.3 98.3 99.2 100.1 100.5 100.4 100.1 99.7 99.4 99 98.4 98.9 98.5 97.2 93.2 88.2 82.6 77.7 73.6 71.2 67.8 65.7 64 63.4 61.3 52.8 63.1 63.8 64.4 68.4 71.7 76.8 82.9 88.9 93.9 95.7 95.2 96.8 98.2 97.7 96.6 97.8 100.7 102.7 106.2 109.4 112.3 116.5 121.4 126.7 132 136.7 136.8 133.1 125 116.5 108.1 99.3 90.6 84.1 79.6 77.6 77.4 74.5 71.3 69.7 78.8 82 85.2 88.6 91.1 93.7 96.3 98.9 101.5 104.9 109.7 112.4 117.3 121.7 125.8 129.8 134 137.1 139.7 141.9 140.6 139.7 138.3 136.5 133.4 130 126.4 125.8 124.4 122.1 119.2 117.1 115.7 114.3 112.4 111.2 112 113.8 114.2 115.6 109.7 106.6 104.7 96.9 90.2 84.2 62.2 54.4 53 53.9 60.5 65.4 58.5 49.5 47.3 43.2 37.5 32.1 -1.9 -1.9 -1.9 -1.9 -1.9 -1.9 -1.9 -1.9 -1.9 -1.9 -1.9 -1.9 -1.9 -1.9 -1.9 -1.9 -1.9 -1.9 -1.9 -1.9 -1.9 -1.9 -1.9 -1.9 -1.9 -1.9 -1.9 -1.9 -1.9 -1.9 -1.9 -1.9 -1.9 -1.9 -1.9 -1.9 -1.9 -1.9 -1.9 -1.9 -1.9 -1.9 -1.9 -1.9 -1.9 -1.9 -1.9 -1.9 -1.9 -1.9 -1.9 -1.9 -1.9 -1.9 -1.9 -1.9 -1.9 -1.9 -1.9 -1.9 -1.9 -1.9 -1.9 -1.9 -1.9 -1.9 -1.9 -1.9 -1.9 -1.9 -1.9 -1.9 -1.9 -1.9 -1.9
91.4 93.9 95.6 96.6 97.4 97.8 97.4 97.7 97.5 97.2 96.8 96.1 96.4 96.3 95.5 90.7 85.2 80.1 76.4 72.9 69.6 67.5 66.7 65.2 64.6 63.2 51.2 63.2 64.1 65.7 69.3 74.7 80.9 86.4 91.3 92.1 93 93.7 94.8 95.5 94.1 94.5 96.9 100.1 103.4 107.6 112 115.2 120 125.6 129.8 135.3 138.8 138.8 133.7 125.2 115.8 106.4 96.9 87.6 82.9 79.7 79 77 74 67.6 73.1 78.9 83.1 85.5 88 90.5 93 95.7 98.7 102.1 105.4 110.4 117.1 119.8 124.4 128 132.2 136.6 138.8 141.8 142.2 140.3 138.9 137.7 136.1 133 128.2 127.4 127 123.6 120.7 117.8 115 113.2 111.5 107.6 106.9 107.5 108.8 109.7 110.2 104.9 105.4 102 93.2 86.5 75.2 56.2 52.9 53.4 54.6 65.1 61.5 54.1 50.2 46.3 40.4 35.7 12.1 -1.9 -1.9 -1.9 -1.9 -1.9 -1.9 -1.9 -1.9 -1.9 -1.9 -1.9 -1.9 -1.9 -1.9 -1.9 -1.9 -1.9 -1.9 -1.9 -1.9 -1.9 -1.9 -1.9 -1.9 -1.9 -1.9 -1.9 -1.9 -1.9 -1.9 -1.9 -1.9 -1.9 -1.9 -1.9 -1.9 -1.9 -1.9 -1.9 -1.9 -1.9 -1.9 -1.9 -1.9 -1.9 -1.9 -1.9 -1.9 -1.9 -1.9 -1.9 -1.9 -1.9 -1.9 -1.9 -1.9 -1.9 -1.9 -1.9 -1.9 -1.9 -1.9 -1.9 -1.9 -1.9 -1.9 -1.9 -1.9 -1.9 -1.9 -1.9 -1.9 -1.9 -1.9 -1.9
89.6 91.8 93 93.9 94.6 95 94.2 95 94.9 94.8 94.5 93.8 93.1 93.8 92.7 86.8 81.2 76.9 74 72.4 69.6 67.4 66.9 66.3 64.5 62.9 49 63.5 65.1 66.7 69.2 75.5 84.3 89.8 88.3 88.6 89 89.5 90.4 90.3 91.4 93.7 96.7 100 103.8 108.4 113.2 118.5 124.1 129.1 131.4 136.2 139.9 138.3 133.9 123.9 112.9 103.1 93.8 86.2 82.6 80.5 77.9 75.2 72.5 65.9 75.4 79 82 84.7 87.3 89.9 92.4 95.2 98.3 101.9 106.3 112.3 118.6 121.1 127.8 132.8 136.3 137.8 140.7 142.9 141.9 140.2 138.7 137.2 135.7 131 127 127 125.4 121.9 119.2 116.5 113.5 110.5 107.4 103.4 104.5 105.4 105 105.7 104.4 102.6 104.3 93.9 88.4 83.4 60.7 54.6 53.6 54.8 54.9 59.2 54.6 53.4 51.2 43.5 38.6 18.4 7.8 -1.9 -1.9 -1.9 -1.9 -1.9 -1.9 -1.9 -1.9 -1.9 -1.9 -1.9 -1.9 -1.9 -1.9 -1.9 -1.9 -1.9 -1.9 -1.9 -1.9 -1.9 -1.9 -1.9 -1.9 -1.9 -1.9 -1.9 -1.9 -1.9 -1.9 -1.9 -1.9 -1.9 -1.9 -1.9 -1.9 -1.9 -1.9 -1.9 -1.9 -1.9 -1.9 -1.9 -1.9 -1.9 -1.9 -1.9 -1.9 -1.9 -1.9 -1.9 -1.9 -1.9 -1.9 -1.9 -1.9 -1.9 -1.9 -1.9 -1.9 -1.9 -1.9 -1.9 -1.9 -1.9 -1.9 -1.9 -1.9 -1.9 -1.9 -1.9 -1.9 -1.9 -1.9 -1.9
87.2 88.9 90.2 91.2 91.8 92.2 91.2 91.9 92.2 91.7 90.8 90.4 90.1 90.4 88.6 82.5 79.1 76.4 73.7 71.5 69.4 67.8 67.2 66.5 64.2 53.8 48.7 64.4 66 67.6 70.8 75.1 80 83.3 84.8 86.3 85.6 85.4 86 87.4 89 92 95.3 100 104.1 110.2 114.8 122.2 127.3 129.5 132.3 136.6 140.7 139.8 131.7 120.9 108.4 99.4 91.6 86.5 83.7 80.9 77.7 74.6 72.6 63.2 74.5 78 80.1 82.1 84.7 88.4 91.7 94.1 97.4 102.1 108.2 113.9 116.7 119.6 128 133.4 137.3 137 139.8 142 142.4 140.4 140 138.3 135.2 130.2 126.3 124.7 124.7 120.4 117.5 113.9 109.6 105.6 101.6 101.4 103 102.9 102.6 101 99.5 97.9 93.8 87.2 83.1 70.2 57.3 55.4 56.2 55.6 53.6 57.1 49.7 50.8 48.6 28.3 29.5 6.5 -1.9 -1.9 -1.9 -1.9 -1.9 -1.9 -1.9 -1.9 -1.9 -1.9 -1.9 -1.9 -1.9 -1.9 -1.9 -1.9 -1.9 -1.9 -1.9 -1.9 -1.9 -1.9 -1.9 -1.9 -1.9 -1.9 -1.9 -1.9 -1.9 -1.9 -1.9 -1.9 -1.9 -1.9 -1.9 -1.9 -1.9 -1.9 -1.9 -1.9 -1.9 -1.9 -1.9 -1.9 -1.9 -1.9 -1.9 -1.9 -1.9 -1.9 -1.9 -1.9 -1.9 -1.9 -1.9 -1.9 -1.9 -1.9 -1.9 -1.9 -1.9 -1.9 -1.9 -1.9 -1.9 -1.9 -1.9 -1.9 -1.9 -1.9 -1.9 -1.9 -1.9 -1.9 -1.9 -1.9
82.8 84.8 86.8 87.9 88.8 89.2 88.2 88.7 89.1 87.9 86.9 87.1 87 86.5 84.7 81 79.2 76.6 74.3 72.1 70.1 68.5 67.6 66.5 65.2 52.2 51 65.5 67 67.8 68.9 72.9 76.7 80.3 81.4 81.7 81.4 81.5 82.9 84.5 87.4 90.6 95.2 99.9 104.5 110.4 116.8 124 128.7 130.3 133.1 137.1 140 137.9 129.1 116.6 106.1 96.5 90.8 86.9 82.8 80.2 77.6 74.4 71.8 62.2 70.6 75.5 77.7 79.5 82.9 86.8 89.7 93.5 97 101.8 108.9 113.6 115.1 120.2 125.1 133 134.7 134.8 138.8 143.3 142.5 141.4 141.8 139.1 134.1 131.4 127.6 125.8 123.4 120 117.2 111.1 105.5 101.2 97.9 99.5 99.1 99.5 98.8 96.7 93.9 90.8 87.9 83.8 73.8 64.4 54.9 55.5 55.8 54.1 48.7 45.8 46.2 48.5 45.6 4 31.7 1.3 -1.9 -1.9 -1.9 -1.9 -1.9 -1.9 -1.9 -1.9 -1.9 -1.9 -1.9 -1.9 -1.9 -1.9 -1.9 -1.9 -1.9 -1.9 -1.9 -1.9 -1.9 -1.9 -1.9 -1.9 -1.9 -1.9 -1.9 -1.9 -1.9 -1.9 -1.9 -1.9 -1.9 -1.9 -1.9 -1.9 -1.9 -1.9 -1.9 -1.9 -1.9 -1.9 -1.9 -1.9 -1.9 -1.9 -1.9 -1.9 -1.9 -1.9 -1.9 -1.9 -1.9 -1.9 -1.9 -1.9 -1.9 -1.9 -1.9 -1.9 -1.9 -1.9 -1.9 -1.9 -1.9 -1.9 -1.9 -1.9 -1.9 -1.9 -1.9 -1.9 -1.9 -1.9 -1.9 -1.9
78.7 80.7 82.8 84.5 85.4 86.2 85.7 85.1 85.4 84.2 83 83.2 83.9 84.5 82.5 80 79.1 76.3 73.9 71.7 69.7 68.6 67.7 67.2 66.1 55.1 47.4 58.6 66.5 67.3 67.9 69.8 74.4 76.2 76.3 76.5 77.6 79.4 79.9 82.1 85.1 90.2 95.1 99.8 104.5 110.9 117.9 123.5 127.2 130.2 134.1 135.9 137.2 135.7 124.7 112.5 102 95.2 91 86.2 82 79.5 77.5 74.4 71.4 64.3 67.9 73.3 75.4 77 81.3 85.3 87 93.9 97.9 101.5 107.4 112.3 113.8 119.7 123.6 130.1 131.1 133.4 139.4 143.7 142.3 142.3 143.6 137.6 134.2 131.7 128.7 126.9 122.9 119.6 114 107.7 101.5 97.6 95 97.8 98.4 98.1 97.1 92.5 89.1 85.9 84.5 75.4 64.7 58.2 53.1 53.9 53.7 49.9 41.5 45.1 48 47.1 43.2 -1.9 -1.9 -1.9 -1.9 -1.9 -1.9 -1.9 -1.9 -1.9 -1.9 -1.9 -1.9 -1.9 -1.9 -1.9 -1.9 -1.9 -1.9 -1.9 -1.9 -1.9 -1.9 -1.9 -1.9 -1.9 -1.9 -1.9 -1.9 -1.9 -1.9 -1.9 -1.9 -1.9 -1.9 -1.9 -1.9 -1.9 -1.9 -1.9 -1.9 -1.9 -1.9 -1.9 -1.9 -1.9 -1.9 -1.9 -1.9 -1.9 -1.9 -1.9 -1.9 -1.9 -1.9 -1.9 -1.9 -1.9 -1.9 -1.9 -1.9 -1.9 -1.9 -1.9 -1.9 -1.9 -1.9 -1.9 -1.9 -1.9 -1.9 -1.9 -1.9 -1.9 -1.9 -1.9 -1.9 -1.9 -1.9 -1.9
76 78.2 79.8 81.5 80.7 80.4 80.4 80.6 80.8 79.7 79.7 79.8 81.9 83.5 81.8 80.7 78.8 75.6 72.7 70.5 69.2 68.3 67.4 66.8 66.4 55 45.5 61.5 66 66.3 66.4 68.3 69.7 72.1 72.6 73.1 74.4 75.5 76.8 79.7 83.3 88.7 94.1 99.3 104.8 112 118.3 123.5 127.3 129.6 132.8 133.9 134.6 130.8 120.8 108.6 100.8 95.3 90 85.2 81.6 79 77.1 74.6 70.7 63.7 67.8 70.5 72.4 74.6 79.2 82.7 86 92.8 96.8 100.6 105.5 109.7 113.8 117.3 122.4 126 128.7 134 139.3 143 142.5 142.1 140.6 136.4 133.8 132.3 130.9 126.6 122.3 116.8 110.3 104.1 99 95 94.3 96.3 97.6 95.9 91.2 88.5 84.7 79.9 76.8 68.4 61.6 55.2 50.9 49.1 49 40.5 42.1 46.5 47.9 43.7 40.1 -1.9 -1.9 -1.9 -1.9 -1.9 -1.9 -1.9 -1.9 -1.9 -1.9 -1.9 -1.9 -1.9 -1.9 -1.9 -1.9 -1.9 -1.9 -1.9 -1.9 -1.9 -1.9 -1.9 -1.9 -1.9 -1.9 -1.9 -1.9 -1.9 -1.9 -1.9 -1.9 -1.9 -1.9 -1.9 -1.9 -1.9 -1.9 -1.9 -1.9 -1.9 -1.9 -1.9 -1.9 -1.9 -1.9 -1.9 -1.9 -1.9 -1.9 -1.9 -1.9 -1.9 -1.9 -1.9 -1.9 -1.9 -1.9 -1.9 -1.9 -1.9 -1.9 -1.9 -1.9 -1.9 -1.9 -1.9 -1.9 -1.9 -1.9 -1.9 -1.9 -1.9 -1.9 -1.9 -1.9 -1.9 -1.9 -1.9
72.8 75.6 78.3 78.5 77.3 76.3 75.8 75.3 76.1 76 76.9 77.2 80.2 82.8 82.4 81.3 78.5 75.3 72.1 69.7 68.8 67.9 67 66.6 66.5 56.6 46.8 56.7 63.3 63.9 64.7 65.9 67.2 68.8 69.4 69.9 71.1 72.5 74.4 78.2 82.4 87.3 92.7 98.2 104.8 110.5 116.4 123.1 126.7 129.6 131.5 133.9 133.7 126.8 115.8 106.8 100.1 93.9 88.2 84.4 81.8 79.1 76 72.4 68.7 65 61.8 65.8 68.4 72.6 77.1 79.3 85.7 90.6 94.5 99.8 104 107.1 112.6 117.2 121.5 124.6 129.7 135.4 139.8 141.2 142.6 141.8 139.2 135.3 132.5 130.9 130 125.7 120.4 113.1 106.5 100.8 95.7 93.7 94.6 97 95.8 91.6 87.2 84 80.7 76 70.3 63.5 58.2 53 47 42.6 39.6 39.7 45 48.1 44 40.2 37.9 -1.9 -1.9 -1.9 -1.9 -1.9 -1.9 -1.9 -1.9 -1.9 -1.9 -1.9 -1.9 -1.9 -1.9 -1.9 -1.9 -1.9 -1.9 -1.9 -1.9 -1.9 -1.9 -1.9 -1.9 -1.9 -1.9 -1.9 -1.9 -1.9 -1.9 -1.9 -1.9 -1.9 -1.9 -1.9 -1.9 -1.9 -1.9 -1.9 -1.9 -1.9 -1.9 -1.9 -1.9 -1.9 -1.9 -1.9 -1.9 -1.9 -1.9 -1.9 -1.9 -1.9 -1.9 -1.9 -1.9 -1.9 -1.9 -1.9 -1.9 -1.9 -1.9 -1.9 -1.9 -1.9 -1.9 -1.9 -1.9 -1.9 -1.9 -1.9 -1.9 -1.9 -1.9 -1.9 -1.9 -1.9 -1.9 -1.9
70.9 74.1 76.1 76.3 74.1 73.4 73 72.2 72.3 73.3 74.1 74.7 76.8 80.5 80.9 79.4 76.6 73.5 70.9 68.2 68 67.9 67.4 66.8 65.9 60.4 41.7 60.5 62.1 61.4 62 63.3 64.7 65.9 65.8 66.6 68.4 69.9 72.2 76.3 81.4 86.2 91.3 96.9 102.2 107.8 114.8 121.5 123.8 127.4 130.2 132.2 131.1 123.2 114.1 105.7 97.1 91 86.6 83 80.1 77 73.4 69.8 66 63 57.5 61.7 66.4 71.1 74.2 77 82.3 87.8 94 100.1 102.4 105.9 111.7 115.8 120.1 123.3 129.4 135.9 138 139.6 142.4 139 135.9 134.2 132 131.4 130.5 125.3 117.6 109.2 102.7 96.9 94.3 94.8 94.8 91.9 92.2 87.8 85.1 81.5 77.4 73.5 67.2 60.1 55.7 49.1 42.1 39.6 38.8 42.2 46 44.8 40.7 38.6 -1.9 -1.9 -1.9 -1.9 -1.9 -1.9 -1.9 -1.9 -1.9 -1.9 -1.9 -1.9 -1.9 -1.9 -1.9 -1.9 -1.9 -1.9 -1.9 -1.9 -1.9 -1.9 -1.9 -1.9 -1.9 -1.9 -1.9 -1.9 -1.9 -1.9 -1.9 -1.9 -1.9 -1.9 -1.9 -1.9 -1.9 -1.9 -1.9 -1.9 -1.9 -1.9 -1.9 -1.9 -1.9 -1.9 -1.9 -1.9 -1.9 -1.9 -1.9 -1.9 -1.9 -1.9 -1.9 -1.9 -1.9 -1.9 -1.9 -1.9 -1.9 -1.9 -1.9 -1.9 -1.9 -1.9 -1.9 -1.9 -1.9 -1.9 -1.9 -1.9 -1.9 -1.9 -1.9 -1.9 -1.9 -1.9 -1.9 -1.9
67.5 71.8 73.8 74.1 72.6 71.4 70.6 71.7 71.4 70.9 71.2 71.7 73 74.2 74.6 75.2 74.4 72.2 69.5 66.5 66.2 66 65.6 65.5 65.2 63.6 40.7 49.2 59.2 59.4 59.6 61 62.4 63 63.9 65.9 66.4 67.6 70.2 73.7 79.2 84.2 88.5 93.7 99.9 106.2 112.6 118.1 120.9 125 128.4 128.2 124.5 116.8 111.1 100.8 93.9 89.1 85.6 82 77.1 73.8 70 66.3 63.8 60.8 58.1 59.4 64 67.9 71 74.4 80.2 87.2 94.1 98.8 100.2 105.2 110.5 114.7 118.8 122.4 127.6 134.1 137 138.4 141.6 138 135.6 133.2 131.9 130.8 127.7 121.6 113.1 105.3 98.9 95.4 95.6 95.8 95.6 93.1 88.7 82.9 81.7 77.9 75.6 71.1 63.4 56.9 51.1 42 37.6 35.6 38.9 42.8 44.8 41.5 38.6 37.1 -1.9 -1.9 -1.9 -1.9 -1.9 -1.9 -1.9 -1.9 -1.9 -1.9 -1.9 -1.9 -1.9 -1.9 -1.9 -1.9 -1.9 -1.9 -1.9 -1.9 -1.9 -1.9 -1.9 -1.9 -1.9 -1.9 -1.9 -1.9 -1.9 -1.9 -1.9 -1.9 -1.9 -1.9 -1.9 -1.9 -1.9 -1.9 -1.9 -1.9 -1.9 -1.9 -1.9 -1.9 -1.9 -1.9 -1.9 -1.9 -1.9 -1.9 -1.9 -1.9 -1.9 -1.9 -1.9 -1.9 -1.9 -1.9 -1.9 -1.9 -1.9 -1.9 -1.9 -1.9 -1.9 -1.9 -1.9 -1.9 -1.9 -1.9 -1.9 -1.9 -1.9 -1.9 -1.9 -1.9 -1.9 -1.9 -1.9 -1.9
65.5 69.5 71.5 71.7 71.8 70.9 72 72.5 71.2 70.9 70.6 70.4 68.6 69.4 70.2 69.6 70.7 69.3 67.6 65.1 64.1 63.6 63.1 62.9 62.5 61.5 51.1 40.1 58 57.8 57.4 58.8 60.1 61.9 61.5 63.1 64.2 66.2 69.2 71.3 75.5 80.8 85 89.1 95.9 102.6 109.3 113.5 118.6 122.9 124.5 124.5 118.8 113.4 104.7 96.4 91.5 88 84.5 79.7 74.7 70.3 66.5 62.6 60.7 58.4 55.7 56.9 60.6 64.4 67.8 72.9 80.6 87.6 93.1 96.6 98.6 104.8 109.3 113.7 118 121 127.6 135.7 136.8 137.7 138.9 136.2 133.3 132.3 129.1 129.4 124.1 117.3 108.7 101.8 96.9 96.8 96.7 96.8 94.5 92.3 88.8 83.7 78.5 73.5 72.9 66 61.1 53 46.1 39.2 34.8 35 39.7 43.3 42.5 39.6 37.2 35.9 -1.9 -1.9 -1.9 -1.9 -1.9 -1.9 -1.9 -1.9 -1.9 -1.9 -1.9 -1.9 -1.9 -1.9 -1.9 -1.9 -1.9 -1.9 -1.9 -1.9 -1.9 -1.9 -1.9 -1.9 -1.9 -1.9 -1.9 -1.9 -1.9 -1.9 -1.9 -1.9 -1.9 -1.9 -1.9 -1.9 -1.9 -1.9 -1.9 -1.9 -1.9 -1.9 -1.9 -1.9 -1.9 -1.9 -1.9 -1.9 -1.9 -1.9 -1.9 -1.9 -1.9 -1.9 -1.9 -1.9 -1.9 -1.9 -1.9 -1.9 -1.9 -1.9 -1.9 -1.9 -1.9 -1.9 -1.9 -1.9 -1.9 -1.9 -1.9 -1.9 -1.9 -1.9 -1.9 -1.9 -1.9 -1.9 -1.9 -1.9
58.3 64 67.2 70.5 71.9 71.1 70.6 70.8 70.9 70.9 70.7 70.8 69.7 66.6 67.6 67.8 67.8 67.2 65.8 66 64.5 63.4 62 60.2 59.7 59.5 56.7 39.1 41.4 56 55.5 56.4 57.3 61 61 61.6 63.1 66.1 67.5 69 72.9 76.9 80.5 84.3 91.5 98.1 103.5 109.5 115.4 118.8 119.9 119.2 114.4 108.4 100.7 95 90 86.8 82.2 77.1 72 67 62.6 59.2 58.3 57.3 55.6 55.2 58.5 61.6 65.9 73.5 81.3 85.8 92.2 94.4 99.2 103.7 107.7 111.8 115.6 120 126.9 133.1 135.9 135.4 136.9 135.4 131.8 130 129.2 126.3 121 112.7 104.1 99.2 97.9 97.8 97.6 96.2 93.5 91.8 88 82.9 77.7 74.2 69.2 64.2 54.6 47.8 43.2 37.9 34.8 36.5 40.5 44 41 37.2 35.3 -1.9 -1.9 -1.9 -1.9 -1.9 -1.9 -1.9 -1.9 -1.9 -1.9 -1.9 -1.9 -1.9 -1.9 -1.9 -1.9 -1.9 -1.9 -1.9 -1.9 -1.9 -1.9 -1.9 -1.9 -1.9 -1.9 -1.9 -1.9 -1.9 -1.9 -1.9 -1.9 -1.9 -1.9 -1.9 -1.9 -1.9 -1.9 -1.9 -1.9 -1.9 -1.9 -1.9 -1.9 -1.9 -1.9 -1.9 -1.9 -1.9 -1.9 -1.9 -1.9 -1.9 -1.9 -1.9 -1.9 -1.9 -1.9 -1.9 -1.9 -1.9 -1.9 -1.9 -1.9 -1.9 -1.9 -1.9 -1.9 -1.9 -1.9 -1.9 -1.9 -1.9 -1.9 -1.9 -1.9 -1.9 -1.9 -1.9 -1.9 -1.9
50.7 60.7 66.8 70.7 71.7 70.6 69.9 70.9 71.6 70.3 69.4 70.3 69.3 67.5 65.1 65 66.4 67 66.4 65.7 63.6 62.2 60.8 59.4 57 54.6 52.5 44.3 39.7 50.8 54.4 54.9 55.7 56.6 58.8 59.9 61.7 63.7 65.5 67.1 70.7 73.9 76.4 79.4 88 92.6 97.6 103.6 110 112.5 114.8 115.1 109.9 104.8 96.8 91.5 88 84.6 79.5 74.4 69.1 64 60.8 57.7 55.9 55 53.9 53.1 56.5 60.1 65 73.3 79.1 84.5 90.4 93.7 98.4 102.1 106 110 113.9 119.4 130.1 131.8 134.2 134.4 134.9 133.4 131.6 130.3 126.2 123.4 115.8 107.2 101.6 99.8 99 98.7 96.7 94 92.8 92.4 87.1 82.7 76.8 72.2 67.5 62.8 56.8 45.7 39.2 35.2 34.7 38.5 42.3 42.9 34.5 2.1 -1.9 -1.9 -1.9 -1.9 -1.9 -1.9 -1.9 -1.9 -1.9 -1.9 -1.9 -1.9 -1.9 -1.9 -1.9 -1.9 -1.9 -1.9 -1.9 -1.9 -1.9 -1.9 -1.9 -1.9 -1.9 -1.9 -1.9 -1.9 -1.9 -1.9 -1.9 -1.9 -1.9 -1.9 -1.9 -1.9 -1.9 -1.9 -1.9 -1.9 -1.9 -1.9 -1.9 -1.9 -1.9 -1.9 -1.9 -1.9 -1.9 -1.9 -1.9 -1.9 -1.9 -1.9 -1.9 -1.9 -1.9 -1.9 -1.9 -1.9 -1.9 -1.9 -1.9 -1.9 -1.9 -1.9 -1.9 -1.9 -1.9 -1.9 -1.9 -1.9 -1.9 -1.9 -1.9 -1.9 -1.9 -1.9 -1.9 -1.9 -1.9 -1.9
46.4 57.8 67.3 69.9 70.7 70.2 69.3 70.6 72.2 70.9 70 69.5 68.4 66.4 63.6 62 63.8 65.7 65.4 64.4 62 60.1 58.2 56.8 55.2 52.5 52.2 45.6 35.4 53.1 53.7 53.9 55.4 55.2 57.1 58.3 60 61.6 63.4 65.5 69 71.8 74.3 76.5 82.7 87.8 93.3 99.1 103.7 106.5 109 110.2 107 100.7 92.3 88.6 86 82.4 77.2 71.3 66 61.8 58.8 55.9 54.6 53.7 52.4 51.4 55.1 59.1 64.7 71.6 76.6 82.8 89.6 93 97.1 101.4 105.6 109 112.3 118.3 126.4 129.9 131.7 132.8 132.6 132.6 131.1 126.6 122.7 118.5 110.4 103.6 100.8 100 99.7 98.7 96.7 94.6 92.1 89.4 87.4 83 76.3 69.6 64.2 58.8 53.8 43.7 38.6 36 35.3 39.3 43 40.1 3.3 -1.9 -1.9 -1.9 -1.9 -1.9 -1.9 -1.9 -1.9 -1.9 -1.9 -1.9 -1.9 -1.9 -1.9 -1.9 -1.9 -1.9 -1.9 -1.9 -1.9 -1.9 -1.9 -1.9 -1.9 -1.9 -1.9 -1.9 -1.9 -1.9 -1.9 -1.9 -1.9 -1.9 -1.9 -1.9 -1.9 -1.9 -1.9 -1.9 -1.9 -1.9 -1.9 -1.9 -1.9 -1.9 -1.9 -1.9 -1.9 -1.9 -1.9 -1.9 -1.9 -1.9 -1.9 -1.9 -1.9 -1.9 -1.9 -1.9 -1.9 -1.9 -1.9 -1.9 -1.9 -1.9 -1.9 -1.9 -1.9 -1.9 -1.9 -1.9 -1.9 -1.9 -1.9 -1.9 -1.9 -1.9 -1.9 -1.9 -1.9 -1.9 -1.9 -1.9
47 52.9 59.8 66.1 69.6 70.3 69 69.5 70.5 68.5 67.9 67.8 67.2 66.7 65.4 62.4 61.8 63.1 63.6 62.4 60.1 58.6 56.6 54.6 52.8 50.2 50.1 41.7 34.9 51.7 52.1 51.7 52.6 53.8 55.1 57.3 59 60.5 62.7 64 67 69.8 72.8 75.3 78.3 83.5 88.9 93.1 97 101 102 104.5 102.2 94.5 88.2 86.6 84.1 80.2 74.6 69 64 60.3 57.2 54.9 53.6 52.3 50.9 51 53.6 59.3 64.2 69.4 73.9 83.9 87.4 91 95.7 99.8 102.9 107.3 110.7 115.9 123.3 126.7 129.5 130.8 130.7 129.8 127.1 122.6 118.4 110.8 104.1 101.7 100.2 100.1 99.3 97.8 95.8 93.8 91.8 89.1 87.8 84.2 75.5 67.2 60.9 55.5 49 40.9 38.5 38 37.5 39.5 39.3 36.4 4.8 14.2 -1.9 -1.9 -1.9 -1.9 -1.9 -1.9 -1.9 -1.9 -1.9 -1.9 -1.9 -1.9 -1.9 -1.9 -1.9 -1.9 -1.9 -1.9 -1.9 -1.9 -1.9 -1.9 -1.9 -1.9 -1.9 -1.9 -1.9 -1.9 -1.9 -1.9 -1.9 -1.9 -1.9 -1.9 -1.9 -1.9 -1.9 -1.9 -1.9 -1.9 -1.9 -1.9 -1.9 -1.9 -1.9 -1.9 -1.9 -1.9 -1.9 -1.9 -1.9 -1.9 -1.9 -1.9 -1.9 -1.9 -1.9 -1.9 -1.9 -1.9 -1.9 -1.9 -1.9 -1.9 -1.9 -1.9 -1.9 -1.9 -1.9 -1.9 -1.9 -1.9 -1.9 -1.9 -1.9 -1.9 -1.9 -1.9 -1.9 -1.9 -1.9 -1.9
40.2 46.7 49.6 55.6 63.7 69.3 69 68.3 68.1 66.5 66.1 65.9 65.3 65 64.5 62.4 58.1 59.5 59 58 57.2 57.1 55 52.9 50.3 49.1 44.2 36.6 34.4 50.6 49.9 49.9 50.8 52.1 53.5 56 57.9 59.6 60.8 62.5 64.9 67.8 70.9 73.5 75.3 80.2 83.7 87.4 91.2 95 97.5 99.4 96.6 89.6 85.8 84.1 82 78.1 73.3 67.7 62.9 59.3 56 54.2 52.6 51.6 50.6 49.3 53.8 58.7 62.8 67.8 73.8 83.5 85.9 89.8 93.6 96.7 100.5 105.2 107.4 110.7 118.8 122.8 126.4 128.1 129.1 126.5 121 116.3 111.9 105.4 101.6 100.5 100 98.2 97.8 96.7 94.8 92.8 90.8 88.3 84.3 81.3 73.2 65 58.4 52.8 47 41.3 39.8 39.6 37.9 28.8 37.6 30.6 27 27.7 -1.9 -1.9 -1.9 -1.9 -1.9 -1.9 -1.9 -1.9 -1.9 -1.9 -1.9 -1.9 -1.9 -1.9 -1.9 -1.9 -1.9 -1.9 -1.9 -1.9 -1.9 -1.9 -1.9 -1.9 -1.9 -1.9 -1.9 -1.9 -1.9 -1.9 -1.9 -1.9 -1.9 -1.9 -1.9 -1.9 -1.9 -1.9 -1.9 -1.9 -1.9 -1.9 -1.9 -1.9 -1.9 -1.9 -1.9 -1.9 -1.9 -1.9 -1.9 -1.9 -1.9 -1.9 -1.9 -1.9 -1.9 -1.9 -1.9 -1.9 -1.9 -1.9 -1.9 -1.9 -1.9 -1.9 -1.9 -1.9 -1.9 -1.9 -1.9 -1.9 -1.9 -1.9 -1.9 -1.9 -1.9 -1.9 -1.9 -1.9 -1.9 -1.9
33.8 40.7 46.3 48.1 56.9 66.8 68 67.6 66.9 65.4 65.4 65.1 63.1 62.9 62.7 61.9 58.8 57.4 57 53.3 51.7 54.5 53.5 51.6 49.7 48.1 37.8 33.2 43.4 46.7 48.9 48.3 50.1 51.5 52.4 54.3 56.6 57.9 59.1 61.9 64 66.5 68.8 70.5 72.4 75.1 78.7 82.4 87 90.6 92.6 93.3 90.2 85.9 84.1 82.7 80.7 76.3 71.8 67.3 63.2 59.9 56.6 54.7 52.8 51.1 50 48.3 52.8 57.4 61.5 67.1 73.1 81.2 84 87.5 89.3 93.1 97.6 102.1 104.1 106.9 112.9 119.3 123.5 125.2 123.9 119.3 116 110.3 105.9 103.4 101.8 101.2 100.6 98.5 95.7 94.4 93.2 91.8 89.9 87.7 82.6 77.1 67.3 62.4 57.1 51 44.5 41.4 41.7 40.9 35.3 14.7 30.6 24.6 24.1 28.6 -1.9 -1.9 -1.9 -1.9 -1.9 -1.9 -1.9 -1.9 -1.9 -1.9 -1.9 -1.9 -1.9 -1.9 -1.9 -1.9 -1.9 -1.9 -1.9 -1.9 -1.9 -1.9 -1.9 -1.9 -1.9 -1.9 -1.9 -1.9 -1.9 -1.9 -1.9 -1.9 -1.9 -1.9 -1.9 -1.9 -1.9 -1.9 -1.9 -1.9 -1.9 -1.9 -1.9 -1.9 -1.9 -1.9 -1.9 -1.9 -1.9 -1.9 -1.9 -1.9 -1.9 -1.9 -1.9 -1.9 -1.9 -1.9 -1.9 -1.9 -1.9 -1.9 -1.9 -1.9 -1.9 -1.9 -1.9 -1.9 -1.9 -1.9 -1.9 -1.9 -1.9 -1.9 -1.9 -1.9 -1.9 -1.9 -1.9 -1.9 -1.9 -1.9
31 33 40.9 45.4 58.8 65.9 66.2 65.5 64.6 64.3 65.4 64.2 61.7 60.7 60.4 59.4 59.2 59.2 58.2 55.5 37.8 52.5 51.8 50.1 48.4 39.9 30.6 36.6 48.2 48.7 47.9 47.4 50.2 51 52.1 53.6 55.7 58.4 60.5 61.8 63.4 65.8 67 68.1 69 71.7 75.2 80.3 84.2 86.3 88.3 87.7 86 83.9 82.8 82.8 80.1 76.1 72 68 64.4 60.8 57.1 55.1 53.2 51.2 49.5 46.4 51.2 57 60.9 65.7 72.9 79.7 80.9 83 85.9 89.8 94.6 99.3 101.4 103.9 110.7 116.9 120 120.3 116.7 114.2 109.2 107.2 105.6 103.4 102.5 102.1 100 98.2 95.4 93.4 91.5 89.9 88.2 85.3 80.8 75.4 65.7 58.8 55 48 42.2 40.3 44.1 41.7 38 4.1 3.8 2.5 17 -1.9 -1.9 -1.9 -1.9 -1.9 -1.9 -1.9 -1.9 -1.9 -1.9 -1.9 -1.9 -1.9 -1.9 -1.9 -1.9 -1.9 -1.9 -1.9 -1.9 -1.9 -1.9 -1.9 -1.9 -1.9 -1.9 -1.9 -1.9 -1.9 -1.9 -1.9 -1.9 -1.9 -1.9 -1.9 -1.9 -1.9 -1.9 -1.9 -1.9 -1.9 -1.9 -1.9 -1.9 -1.9 -1.9 -1.9 -1.9 -1.9 -1.9 -1.9 -1.9 -1.9 -1.9 -1.9 -1.9 -1.9 -1.9 -1.9 -1.9 -1.9 -1.9 -1.9 -1.9 -1.9 -1.9 -1.9 -1.9 -1.9 -1.9 -1.9 -1.9 -1.9 -1.9 -1.9 -1.9 -1.9 -1.9 -1.9 -1.9 -1.9 -1.9 -1.9
30.3 30.1 31.7 43.2 52.3 61.9 64.1 64.1 64.6 63.4 64.6 62.2 59.2 58.2 58.1 57.3 56.8 55.5 55.5 53.6 38.5 39.9 44.8 46.1 46.1 33.7 29.1 44.3 47.3 47.9 46 48.4 50.3 50.6 53.4 55 56.6 59.1 61 62.1 63.7 63.2 64.1 65.2 66.3 68.5 73 78.1 81.3 83.3 84.6 84.4 84 83.7 83.3 83.2 81.3 77.3 73.2 69.4 65.8 62.5 58.9 55.7 53.2 51 48.3 46 50.6 57.5 60.7 64.5 73.2 75.8 77.1 81.4 83.8 87.4 91.8 96.5 98.5 101.5 106.5 111.9 113.2 112.6 112 108.3 106.9 106.5 105.6 104 103.6 100.8 98.1 96.9 95.4 92.7 89.8 87 85.3 82.5 76.4 70.8 63.5 57.9 53.2 45.1 39.3 37.2 39.1 37.8 32.1 0.9 -1.9 -1.9 -1.9 -1.9 -1.9 -1.9 -1.9 -1.9 -1.9 -1.9 -1.9 -1.9 -1.9 -1.9 -1.9 -1.9 -1.9 -1.9 -1.9 -1.9 -1.9 -1.9 -1.9 -1.9 -1.9 -1.9 -1.9 -1.9 -1.9 -1.9 -1.9 -1.9 -1.9 -1.9 -1.9 -1.9 -1.9 -1.9 -1.9 -1.9 -1.9 -1.9 -1.9 -1.9 -1.9 -1.9 -1.9 -1.9 -1.9 -1.9 -1.9 -1.9 -1.9 -1.9 -1.9 -1.9 -1.9 -1.9 -1.9 -1.9 -1.9 -1.9 -1.9 -1.9 -1.9 -1.9 -1.9 -1.9 -1.9 -1.9 -1.9 -1.9 -1.9 -1.9 -1.9 -1.9 -1.9 -1.9 -1.9 -1.9 -1.9 -1.9 -1.9 -1.9 -1.9 -1.9
38.2 30.7 29.8 36 43.6 50.2 59.2 61.9 63.4 61.9 62.2 60.3 56.3 49.6 46.3 44.4 45.5 42.1 43.2 36.6 29 24.2 33.4 34.8 34.9 32.5 28.7 39.7 42.7 40.1 45.4 49.2 46.2 51.9 54.7 57.4 59 59.8 61.5 62.8 62.6 62.1 61.4 62.3 63.6 65.4 70.6 75.2 78.4 80 81.3 82 82.6 83.1 84.3 85.4 82.7 78.6 75 71.4 67.8 64.2 59.6 54.9 52.3 49.5 46.8 45 52 57.4 59.3 62.4 68.7 71 72.7 77.1 82.3 85.5 90.9 93.5 95.3 98 102.3 104.9 107.7 110.6 108.1 105.6 104.1 104.2 105.2 105.1 102.8 99 96.1 95.1 94.2 92.4 88.9 84.9 82.5 80.1 71.7 66.5 62.8 58.1 50.3 41.6 35.4 32.1 31.9 28.7 1.4 -1.9 -1.9 -1.9 -1.9 -1.9 -1.9 -1.9 -1.9 -1.9 -1.9 -1.9 -1.9 -1.9 -1.9 -1.9 -1.9 -1.9 -1.9 -1.9 -1.9 -1.9 -1.9 -1.9 -1.9 -1.9 -1.9 -1.9 -1.9 -1.9 -1.9 -1.9 -1.9 -1.9 -1.9 -1.9 -1.9 -1.9 -1.9 -1.9 -1.9 -1.9 -1.9 -1.9 -1.9 -1.9 -1.9 -1.9 -1.9 -1.9 -1.9 -1.9 -1.9 -1.9 -1.9 -1.9 -1.9 -1.9 -1.9 -1.9 -1.9 -1.9 -1.9 -1.9 -1.9 -1.9 -1.9 -1.9 -1.9 -1.9 -1.9 -1.9 -1.9 -1.9 -1.9 -1.9 -1.9 -1.9 -1.9 -1.9 -1.9 -1.9 -1.9 -1.9 -1.9 -1.9 -1.9 -1.9
46.2 31.9 30.1 30.6 33.3 41.7 46.3 52.4 58.3 56.1 57.6 55 46.7 40.5 36.9 29 32.2 27.7 25.9 26.5 27.9 25.7 24.2 24 26.4 29.4 28.2 36.5 37.1 36.7 42 43.7 49.5 53.1 55.6 58.4 60.8 60.1 59.8 60.1 61.3 60.7 60 59.5 60.9 62.7 66.9 71.3 75.4 76.3 78.5 79.8 81.8 83.8 86.3 86.3 84 80.4 76.8 73.2 69 64.6 59.9 56.1 52.1 48.3 45.5 43.5 52 55.4 56.5 60.1 65 66.7 71.9 76.5 81.1 85.8 89.4 90.3 92.9 94.6 97.5 101 107.9 107.4 104.8 103.1 102.1 103.6 104.9 105.9 100.2 97.4 94.5 93.1 92.1 90.3 86.7 83.1 79.6 75.2 67.5 63.6 61.7 56.3 46.2 38.9 31.2 27.6 27.6 26.2 -1.9 -1.9 -1.9 -1.9 -1.9 -1.9 -1.9 -1.9 -1.9 -1.9 -1.9 -1.9 -1.9 -1.9 -1.9 -1.9 -1.9 -1.9 -1.9 -1.9 -1.9 -1.9 -1.9 -1.9 -1.9 -1.9 -1.9 -1.9 -1.9 -1.9 -1.9 -1.9 -1.9 -1.9 -1.9 -1.9 -1.9 -1.9 -1.9 -1.9 -1.9 -1.9 -1.9 -1.9 -1.9 -1.9 -1.9 -1.9 -1.9 -1.9 -1.9 -1.9 -1.9 -1.9 -1.9 -1.9 -1.9 -1.9 -1.9 -1.9 -1.9 -1.9 -1.9 -1.9 -1.9 -1.9 -1.9 -1.9 -1.9 -1.9 -1.9 -1.9 -1.9 -1.9 -1.9 -1.9 -1.9 -1.9 -1.9 -1.9 -1.9 -1.9 -1.9 -1.9 -1.9 -1.9 -1.9 -1.9
49.2 38.6 31.1 29.7 30.1 29.8 33.1 41.9 46.5 43.8 43.8 43 42 37 27.2 25.7 25 28.9 33.3 35.1 32.3 29.1 23.9 24.1 24.6 24.7 25.2 31 28.2 36.7 36.3 38.5 43.1 46.1 47 49.6 54 57.5 57.3 56.5 57.4 57.2 56.8 57.2 58.2 60 65.1 69.1 72.4 73.9 76.4 80 81.5 85 88.6 87.3 83.1 81.1 77.5 73.9 70.1 64.6 59.3 55.2 51.2 47.6 44.6 43.3 50.4 52.5 54.1 58.4 60.8 66.2 72.3 75.8 80.2 84.8 87.8 86.8 89.5 92.6 97 101.4 105.7 105.3 103.6 101.5 100.9 103 106.5 101.4 98.5 95.7 92.9 91.1 90.6 88.3 84.3 80 74.6 66.2 61.8 59.1 59.5 52.7 25.8 12.6 17.7 22.7 22.9 22.5 1.9 -1.9 -1.9 -1.9 -1.9 -1.9 -1.9 -1.9 -1.9 -1.9 -1.9 -1.9 -1.9 -1.9 -1.9 -1.9 -1.9 -1.9 -1.9 -1.9 -1.9 -1.9 -1.9 -1.9 -1.9 -1.9 -1.9 -1.9 -1.9 -1.9 -1.9 -1.9 -1.9 -1.9 -1.9 -1.9 -1.9 -1.9 -1.9 -1.9 -1.9 -1.9 -1.9 -1.9 -1.9 -1.9 -1.9 -1.9 -1.9 -1.9 -1.9 -1.9 -1.9 -1.9 -1.9 -1.9 -1.9 -1.9 -1.9 -1.9 -1.9 -1.9 -1.9 -1.9 -1.9 -1.9 -1.9 -1.9 -1.9 -1.9 -1.9 -1.9 -1.9 -1.9 -1.9 -1.9 -1.9 -1.9 -1.9 -1.9 -1.9 -1.9 -1.9 -1.9 -1.9 -1.9 -1.9 -1.9
58.3 44.6 39.5 31.2 29.4 28.8 28.6 29.1 32.6 34.9 38.5 37.5 36.5 33.8 26.7 26.1 26.4 26.5 32.8 41.4 37.9 35.5 26.1 23.7 24.5 24.9 24.8 24.8 25 32.9 34.5 35.4 36 34.8 40 41.2 45.9 50.5 52.9 52.2 52.6 52.3 53.5 54.9 55.8 57.6 62 66.7 68.3 70.9 74.4 78.5 81.2 86.9 89.4 86.8 82.3 79.8 78.2 75.2 71.5 65.6 58.5 53.3 50 47.1 43.4 43.8 48 51 52.2 55.4 61.3 66.3 72.2 75.8 78.6 82.8 83.3 85.4 90.2 94.8 99 103.4 105.4 106.1 103.9 101.6 100 101.1 100.5 99.1 96.8 94 91 88.7 89.6 84.6 79.6 74.6 68.9 62.6 58.1 56.1 56.3 46.9 3.9 2 3.7 18.9 18.8 3.3 -1.9 -1.9 -1.9 -1.9 -1.9 -1.9 -1.9 -1.9 -1.9 -1.9 -1.9 -1.9 -1.9 -1.9 -1.9 -1.9 -1.9 -1.9 -1.9 -1.9 -1.9 -1.9 -1.9 -1.9 -1.9 -1.9 -1.9 -1.9 -1.9 -1.9 -1.9 -1.9 -1.9 -1.9 -1.9 -1.9 -1.9 -1.9 -1.9 -1.9 -1.9 -1.9 -1.9 -1.9 -1.9 -1.9 -1.9 -1.9 -1.9 -1.9 -1.9 -1.9 -1.9 -1.9 -1.9 -1.9 -1.9 -1.9 -1.9 -1.9 -1.9 -1.9 -1.9 -1.9 -1.9 -1.9 -1.9 -1.9 -1.9 -1.9 -1.9 -1.9 -1.9 -1.9 -1.9 -1.9 -1.9 -1.9 -1.9 -1.9 -1.9 -1.9 -1.9 -1.9 -1.9 -1.9 -1.9 -1.9
73.6 54.5 49 43.1 37.6 33.1 28.4 28.7 28.9 28.1 27.8 28.3 29.4 27.4 26.7 26.4 25.8 26.2 41.5 50.4 47.4 43.6 39.7 24.1 24.8 24 24.5 24.2 23.8 24.5 26.7 27.9 23 22.7 22.6 38.2 38.9 43.4 46.3 47.8 47.8 47.7 49.5 52 53.3 54.8 57.8 62.2 65.1 68.6 72.1 76.8 80.6 88 88.1 84 80.2 78.5 77.2 76.3 71.3 64 56.8 51.9 49.3 46.8 40.3 43.4 47.3 50.1 51.9 56.3 61.6 66 71.8 74.6 78.4 79.3 82.3 87.6 92.3 96.3 101.9 106.1 107.1 106.6 104.8 102.7 100.4 98.6 98.5 96.4 95 91.9 88.9 85.8 83.7 78.9 74.2 69.2 63.3 57.7 54.3 52.7 52 34.4 -1.9 -1.9 -1.9 5.9 -1.9 -1.9 -1.9 -1.9 -1.9 -1.9 -1.9 -1.9 -1.9 -1.9 -1.9 -1.9 -1.9 -1.9 -1.9 -1.9 -1.9 -1.9 -1.9 -1.9 -1.9 -1.9 -1.9 -1.9 -1.9 -1.9 -1.9 -1.9 -1.9 -1.9 -1.9 -1.9 -1.9 -1.9 -1.9 -1.9 -1.9 -1.9 -1.9 -1.9 -1.9 -1.9 -1.9 -1.9 -1.9 -1.9 -1.9 -1.9 -1.9 -1.9 -1.9 -1.9 -1.9 -1.9 -1.9 -1.9 -1.9 -1.9 -1.9 -1.9 -1.9 -1.9 -1.9 -1.9 -1.9 -1.9 -1.9 -1.9 -1.9 -1.9 -1.9 -1.9 -1.9 -1.9 -1.9 -1.9 -1.9 -1.9 -1.9 -1.9 -1.9 -1.9 -1.9 -1.9 -1.9 -1.9 -1.9 -1.9 -1.9 -1.9
75.5 72.7 64.8 56.8 51.4 43.5 35.5 31.1 28.6 29.1 29.2 26.4 27.4 26.7 25.8 25.6 25.7 37.9 55.3 54.1 53.3 52.8 49.2 42.7 25.2 23.3 24.1 23.5 23.1 22.4 22.4 22.9 21.6 21.2 21.6 22.3 34.9 37.4 40.3 43.2 43 43.7 45.6 48.9 50.4 53.1 55.2 58.3 61.3 65 69.3 73.4 80.2 84.1 82.3 80.1 77.4 76.8 76.2 74.4 69.6 61.1 54.4 51.6 49.3 46.6 39.6 44.2 47.2 48.8 51.2 56.2 60.5 65.4 70.8 73.5 78 79.6 85.3 90 93.7 99.4 104.8 107.6 108.8 107.1 105.3 103.7 100.6 95.3 96.5 94 93.2 90.2 86.9 83.1 78.8 74.2 69.1 64.2 58.7 53.1 50.1 52 49.9 10 -1.9 -1.9 -1.9 -1.9 -1.9 -1.9 -1.9 -1.9 -1.9 -1.9 -1.9 -1.9 -1.9 -1.9 -1.9 -1.9 -1.9 -1.9 -1.9 -1.9 -1.9 -1.9 -1.9 -1.9 -1.9 -1.9 -1.9 -1.9 -1.9 -1.9 -1.9 -1.9 -1.9 -1.9 -1.9 -1.9 -1.9 -1.9 -1.9 -1.9 -1.9 -1.9 -1.9 -1.9 -1.9 -1.9 -1.9 -1.9 -1.9 -1.9 -1.9 -1.9 -1.9 -1.9 -1.9 -1.9 -1.9 -1.9 -1.9 -1.9 -1.9 -1.9 -1.9 -1.9 -1.9 -1.9 -1.9 -1.9 -1.9 -1.9 -1.9 -1.9 -1.9 -1.9 -1.9 -1.9 -1.9 -1.9 -1.9 -1.9 -1.9 -1.9 -1.9 -1.9 -1.9 -1.9 -1.9 -1.9 -1.9 -1.9 -1.9 -1.9 -1.9 -1.9
74.8 72.5 70.1 66.2 64.3 57.1 51.7 51.8 42.2 34.3 34.2 29.4 28.1 31.5 31.1 34.2 41 54 56.7 55.9 55.8 55.8 55.5 54.2 46.1 30.8 23.8 22.9 22.6 21.9 22.1 22.4 21.8 21.6 21 21.3 25.7 36 36.8 38.7 40.8 42.5 43 46 49.5 51.7 54.1 56.2 59.4 63.3 67 70 76.9 76.7 75.2 75.6 75.2 74.9 74.7 71.3 65.5 58.4 53.5 51.3 49 45.2 38.4 43.2 46.1 48.1 50.9 55.1 59.1 64.2 68.5 72.3 78.9 84.6 89 92.4 96 102.6 106.7 110 110.6 109.3 107.9 104.2 100.9 98 91.5 91.7 91.7 88 84 79.5 74.7 69.8 65.2 60.6 54.9 49 45.2 51.7 44.1 11.8 -1.9 -1.9 -1.9 -1.9 -1.9 -1.9 -1.9 -1.9 -1.9 -1.9 -1.9 -1.9 -1.9 -1.9 -1.9 -1.9 -1.9 -1.9 -1.9 -1.9 -1.9 -1.9 -1.9 -1.9 -1.9 -1.9 -1.9 -1.9 -1.9 -1.9 -1.9 -1.9 -1.9 -1.9 -1.9 -1.9 -1.9 -1.9 -1.9 -1.9 -1.9 -1.9 -1.9 -1.9 -1.9 -1.9 -1.9 -1.9 -1.9 -1.9 -1.9 -1.9 -1.9 -1.9 -1.9 -1.9 -1.9 -1.9 -1.9 -1.9 -1.9 -1.9 -1.9 -1.9 -1.9 -1.9 -1.9 -1.9 -1.9 -1.9 -1.9 -1.9 -1.9 -1.9 -1.9 -1.9 -1.9 -1.9 -1.9 -1.9 -1.9 -1.9 -1.9 -1.9 -1.9 -1.9 -1.9 -1.9 -1.9 -1.9 -1.9 -1.9 -1.9 -1.9
