ncols 200
nrows 95
xllcorner 290000
yllcorner 510900
cellsize 50
-2.5 -2.5 -2.5 -2.5 -2.5 -2.5 -2.5 -2.5 -2.5 -2.5 -2.5 -2.5 -2.5 -2.5 -2.5 -2.5 -2.5 -2.5 -2.5 -2.5 -2.5 -2.5 -2.5 -2.5 -2.5 -2.5 -2.5 -2.5 -2.5 -2.5 -2.5 -2.5 -2.5 -2.5 -2.5 -2.5 -2.5 -2.5 -2.5 -2.5 -2.5 -2.5 -2.5 -2.5 -2.5 -2.5 -2.5 -2.5 -2.5 -2.5 -2.5 -2.5 -2.5 -2.5 -2.5 -2.5 -2.5 -2.5 -2.5 -2.5 -2.5 -2.5 -2.5 -2.5 -2.5 -2.5 -2.5 -2.5 -2.5 -2.5 -2.5 -2.5 -2.5 -2.5 -2.5 -2.5 -2.5 -2.5 -2.5 -2.5 -2.5 -2.5 -2.5 -2.5 -2.5 -2.5 -2.5 -2.5 -2.5 -2.5 -2.5 -2.5 -2.5 -2.5 -2.5 -2.5 -2.5 -2.5 -2.5 -2.5 -2.5 -2.5 -2.5 -2.5 -2.5 -2.5 -2.5 -2.5 -2.5 -2.5 -2.5 -2.5 -2.5 3.2 21.1 26 46.1 63.8 92.1 117.5 128.4 128.4 129.1 126.5 122.5 119.9 117 113.7 103.6 86.8 83.7 83.4 83.3 83.5 83.7 85.2 90.4 94.3 93.4 91.6 93.2 95.3 92.5 91.4 89.4 86.8 84.1 82.4 77 68.3 64.9 65.4 65.2 60.6 51.8 34.7 26 21.9 17.7 15.1 13.9 14.4 16.3 16.9 20.1 24.1 27.7 29.2 28.9 30.2 33.4 39.7 46.5 50.8 55.4 62.4 65.9 69.6 72.5 74.7 74.6 73.2 71.7 69.1 66.9 64.6 62.1 61.9 61.3 64.2 70.2 76.3 79.6 81.1 82.9 84.3 85.5 86 86.6 88.6
-2.5 -2.5 -2.5 -2.5 -2.5 -2.5 -2.5 -2.5 -2.5 -2.5 -2.5 -2.5 -2.5 -2.5 -2.5 -2.5 -2.5 -2.5 -2.5 -2.5 -2.5 -2.5 -2.5 -2.5 -2.5 -2.5 -2.5 -2.5 -2.5 -2.5 -2.5 -2.5 -2.5 -2.5 -2.5 -2.5 -2.5 -2.5 -2.5 -2.5 -2.5 -2.5 -2.5 -2.5 -2.5 -2.5 -2.5 -2.5 -2.5 -2.5 -2.5 -2.5 -2.5 -2.5 -2.5 -2.5 -2.5 -2.5 -2.5 -2.5 -2.5 -2.5 -2.5 -2.5 -2.5 -2.5 -2.5 -2.5 -2.5 -2.5 -2.5 -2.5 -2.5 -2.5 -2.5 -2.5 -2.5 -2.5 -2.5 -2.5 -2.5 -2.5 -2.5 -2.5 -2.5 -2.5 -2.5 -2.5 -2.5 -2.5 -2.5 -2.5 -2.5 -2.5 -2.5 -2.5 -2.5 -2.5 -2.5 -2.5 -2.5 -2.5 -2.5 -2.5 -2.5 -2.5 -2.5 -2.5 -2.5 -2.5 -2.5 2.5 5.8 23.6 35.4 47.9 62.6 81 118 117.7 127.7 127.6 128.7 125.8 121.5 118.8 116 111.9 106.3 90.1 84.8 83.9 83.6 83.7 84.6 86.6 90.1 92.2 94 94.2 93.5 93.6 90.8 88.8 87.5 86.2 82.8 78.1 73.8 66.8 64.3 64.9 64.8 60.2 52.1 36 28.1 22.8 17.8 15.6 15.2 15.2 16.3 17.8 20.5 22.6 26.2 27.9 26.9 28.8 30.1 33.9 40.5 47.2 53.4 59.6 63 65.6 67.7 69.7 69.3 67.7 66.1 65.3 63.3 62 59.7 60.1 61.1 64.6 70 76.3 79 80.8 82.6 84.3 85.8 86.5 88.5 90.5
-2.5 -2.5 -2.5 -2.5 -2.5 -2.5 -2.5 -2.5 -2.5 -2.5 -2.5 -2.5 -2.5 -2.5 -2.5 -2.5 -2.5 -2.5 -2.5 -2.5 -2.5 -2.5 -2.5 -2.5 -2.5 -2.5 -2.5 -2.5 -2.5 -2.5 -2.5 -2.5 -2.5 -2.5 -2.5 -2.5 -2.5 -2.5 -2.5 -2.5 -2.5 -2.5 -2.5 -2.5 -2.5 -2.5 -2.5 -2.5 -2.5 -2.5 -2.5 -2.5 -2.5 -2.5 -2.5 -2.5 -2.5 -2.5 -2.5 -2.5 -2.5 -2.5 -2.5 -2.5 -2.5 -2.5 -2.5 -2.5 -2.5 -2.5 -2.5 -2.5 -2.5 -2.5 -2.5 -2.5 -2.5 -2.5 -2.5 -2.5 -2.5 -2.5 -2.5 -2.5 -2.5 -2.5 -2.5 -2.5 -2.5 -2.5 -2.5 -2.5 -2.5 -2.5 -2.5 -2.5 -2.5 -2.5 -2.5 -2.5 -2.5 -2.5 -2.5 -2.5 -2.5 -2.5 -2.5 -2.5 -2.5 3.7 9.4 26.1 32 43.7 55.6 66.7 82.5 105.2 129.2 129.3 128 126.9 126.6 124.1 120.2 117.1 114.5 109.4 105.4 92.7 84.3 84.2 83.8 83.7 83.4 84.6 86.3 89.8 92.6 93.7 94.5 92.6 89.9 87.8 87.5 84.1 81.4 77.5 70.1 65 63.3 63.5 61.4 59.2 52.1 36.9 28.5 24.2 20 16.9 16.3 16.2 17.7 17.5 19.3 21.5 24.6 26 25.9 28.4 29.3 30.1 36.5 42.7 47.7 55.1 58.9 61.1 64.3 65.7 64.6 62.3 60.9 60.6 60.1 58.5 57.8 59 61.3 65.1 72.3 77.6 80.2 81.7 83.3 84.9 86.5 88.6 90.8 92.3
-2.5 -2.5 -2.5 -2.5 -2.5 -2.5 -2.5 -2.5 -2.5 -2.5 -2.5 -2.5 -2.5 -2.5 -2.5 -2.5 -2.5 -2.5 -2.5 -2.5 -2.5 -2.5 -2.5 -2.5 -2.5 -2.5 -2.5 -2.5 -2.5 -2.5 -2.5 -2.5 -2.5 -2.5 -2.5 -2.5 -2.5 -2.5 -2.5 -2.5 -2.5 -2.5 -2.5 -2.5 -2.5 -2.5 -2.5 -2.5 -2.5 -2.5 -2.5 -2.5 -2.5 -2.5 -2.5 -2.5 -2.5 -2.5 -2.5 -2.5 -2.5 -2.5 -2.5 -2.5 -2.5 -2.5 -2.5 -2.5 -2.5 -2.5 -2.5 -2.5 -2.5 -2.5 -2.5 -2.5 -2.5 -2.5 -2.5 -2.5 -2.5 -2.5 -2.5 -2.5 -2.5 -2.5 -2.5 -2.5 -2.5 -2.5 -2.5 -2.5 -2.5 -2.5 -2.5 -2.5 -2.5 -2.5 -2.5 -2.5 -2.5 -2.5 -2.5 -2.5 -2.5 -2.5 -2.5 10.4 18 26.5 42.8 54.1 62.7 69.3 79 93.4 110.9 125.9 129.9 130.1 128.1 125.2 122.7 121.5 118.8 115.3 112.5 107 102.1 94.5 85 81.4 83.3 83.5 83.7 83.1 88.5 90.8 90.8 91.7 94 91.8 89.1 86.8 84.5 81.9 80.7 77.7 70.5 65.7 62 61.9 59.1 56 51.4 37.5 30.9 25.1 20.3 16.9 17 17.5 19.5 17.9 19.8 22.2 24.3 24.7 25.1 28.2 29.2 29.9 35.3 39.6 43.9 53.2 56 57 61 61 60.5 58.3 56.8 57.9 58.2 56.5 59.1 60.8 62.2 66.6 72.4 77.7 81.3 83.8 85.4 87 88.5 90.9 92.6 93.7
-2.5 -2.5 -2.5 -2.5 -2.5 -2.5 -2.5 -2.5 -2.5 -2.5 -2.5 -2.5 -2.5 -2.5 -2.5 -2.5 -2.5 -2.5 -2.5 -2.5 -2.5 -2.5 -2.5 -2.5 -2.5 -2.5 -2.5 -2.5 -2.5 -2.5 -2.5 -2.5 -2.5 -2.5 -2.5 -2.5 -2.5 -2.5 -2.5 -2.5 -2.5 -2.5 -2.5 -2.5 -2.5 -2.5 -2.5 -2.5 -2.5 -2.5 -2.5 -2.5 -2.5 -2.5 -2.5 -2.5 -2.5 -2.5 -2.5 -2.5 -2.5 -2.5 -2.5 -2.5 -2.5 -2.5 -2.5 -2.5 -2.5 -2.5 -2.5 -2.5 -2.5 -2.5 -2.5 -2.5 -2.5 -2.5 -2.5 -2.5 -2.5 -2.5 -2.5 -2.5 -2.5 -2.5 -2.5 -2.5 -2.5 -2.5 -2.5 -2.5 -2.5 -2.5 -2.5 -2.5 -2.5 -2.5 -2.5 -2.5 -2.5 -2.5 -2.5 1.8 6.6 29.8 46 86.4 95.6 97 102.8 98 102.6 110.9 109.3 118.3 123.7 126.9 129.4 129.7 126.7 123.4 121.4 120.9 120.2 114.4 110.2 106.1 99.6 94.2 86.2 82.9 82.4 82.5 82.9 85 90.2 93.9 92.7 90.5 90.4 89.6 88.5 86.9 82.7 81.6 77.2 74.5 70.8 66 62.1 59.6 58.4 55.1 48.9 37.9 30.7 25.6 20.2 18.9 18.1 19.4 20.7 20.8 21.4 21.7 24.9 25.5 25.4 28 29.3 29.8 34.1 38.4 43.8 50.7 53.3 53.9 55.6 58.4 58.4 56.9 53 50.8 52.7 57.5 61.4 62.8 63.2 67.9 74.5 79 82 84.8 87.4 89 90.4 92.5 93.9 94.8
-2.5 -2.5 -2.5 -2.5 -2.5 -2.5 -2.5 -2.5 -2.5 -2.5 -2.5 -2.5 -2.5 -2.5 -2.5 -2.5 -2.5 -2.5 -2.5 -2.5 -2.5 -2.5 -2.5 -2.5 -2.5 -2.5 -2.5 -2.5 -2.5 -2.5 -2.5 -2.5 -2.5 -2.5 -2.5 -2.5 -2.5 -2.5 -2.5 -2.5 -2.5 -2.5 -2.5 -2.5 -2.5 -2.5 -2.5 -2.5 -2.5 -2.5 -2.5 -2.5 -2.5 -2.5 -2.5 -2.5 -2.5 -2.5 -2.5 -2.5 -2.5 -2.5 -2.5 -2.5 -2.5 -2.5 -2.5 -2.5 -2.5 -2.5 -2.5 -2.5 -2.5 -2.5 -2.5 -2.5 -2.5 -2.5 -2.5 -2.5 -2.5 -2.5 -2.5 -2.5 -2.5 -2.5 -2.5 -2.5 -2.5 -2.5 -2.5 -2.5 -2.5 -2.5 -2.5 -2.5 -2.5 -2.5 -2.5 -2.5 -2.5 7.2 18.4 30.1 80.3 89.2 106.1 109.3 98.5 111.1 106.6 102.7 113.8 112.3 112.9 117.2 122.2 126.5 128.3 127.7 126.8 120.6 118.9 119.4 119.6 113.7 109.6 104.4 97.7 89.6 84.1 82 79.8 82.4 87.1 90.6 95.5 98.1 97.4 90 88.9 87.8 87.6 85 82.6 79.6 76 72.6 69 64.5 60.8 57.6 53.5 52.8 46.6 37 31.4 27.3 21.7 19.2 19.1 20.5 22 21.8 22.7 23.6 28.1 27.7 27 30 29.4 29.9 34.1 38.7 41.1 46.7 50.1 51.1 53.5 53.7 55.8 53.1 46.5 53.2 56.3 56.3 62.2 64.8 66.8 70.5 76.1 80.1 83 85.7 88.4 90.8 91.4 92.7 93.7 94.9
-2.5 -2.5 -2.5 -2.5 -2.5 -2.5 -2.5 -2.5 -2.5 -2.5 -2.5 -2.5 -2.5 -2.5 -2.5 -2.5 -2.5 -2.5 -2.5 -2.5 -2.5 -2.5 -2.5 -2.5 -2.5 -2.5 -2.5 -2.5 -2.5 -2.5 -2.5 -2.5 -2.5 -2.5 -2.5 -2.5 -2.5 -2.5 -2.5 -2.5 -2.5 -2.5 -2.5 -2.5 -2.5 -2.5 -2.5 -2.5 -2.5 -2.5 -2.5 -2.5 -2.5 -2.5 -2.5 -2.5 -2.5 -2.5 -2.5 -2.5 -2.5 -2.5 -2.5 -2.5 -2.5 -2.5 -2.5 -2.5 -2.5 -2.5 -2.5 -2.5 -2.5 -2.5 -2.5 -2.5 -2.5 -2.5 -2.5 -2.5 -2.5 -2.5 -2.5 -2.5 -2.5 -2.5 -2.5 -2.5 -2.5 -2.5 -2.5 -2.5 -2.5 -2.5 -2.5 -2.5 -2.5 -2.5 -2.5 -2.5 8.8 60.7 92.8 97.7 99.4 102.5 106 107.5 109.1 111.1 112.7 114 113.9 113.1 112.2 115.6 119.8 123.5 125.4 125.2 125.2 120.6 116.2 116.7 117.5 112.9 107.5 102.1 94.6 90.3 84 83.7 81.5 82.6 91.3 95.9 99.3 99.9 98 88.4 88.8 87.7 85.1 83.7 81 78.7 74.6 72.5 68.1 63 59.1 55.6 50.7 50.1 45.4 36.6 30.8 26.4 22.5 19.7 20.1 21.3 23 24 20.6 24.4 28.6 28.8 28.7 30.1 29.3 29.7 36.3 38.6 38.5 42.2 45.2 48.1 49.8 49.8 49.9 49.5 47 50.4 52.3 57 62.9 65.7 68.5 71.9 77.2 80.8 84 86.9 89.7 91.2 91.8 92.1 92.7 93.9
-2.5 -2.5 -2.5 -2.5 -2.5 -2.5 -2.5 -2.5 -2.5 -2.5 -2.5 -2.5 -2.5 -2.5 -2.5 -2.5 -2.5 -2.5 -2.5 -2.5 -2.5 -2.5 -2.5 -2.5 -2.5 -2.5 -2.5 -2.5 -2.5 -2.5 -2.5 -2.5 -2.5 -2.5 -2.5 -2.5 -2.5 -2.5 -2.5 -2.5 -2.5 -2.5 -2.5 -2.5 -2.5 -2.5 -2.5 -2.5 -2.5 -2.5 -2.5 -2.5 -2.5 -2.5 -2.5 -2.5 -2.5 -2.5 -2.5 -2.5 -2.5 -2.5 -2.5 -2.5 -2.5 -2.5 -2.5 -2.5 -2.5 -2.5 -2.5 -2.5 -2.5 -2.5 -2.5 -2.5 -2.5 -2.5 -2.5 -2.5 -2.5 -2.5 -2.5 -2.5 -2.5 -2.5 -2.5 -2.5 -2.5 -2.5 -2.5 -2.5 -2.5 -2.5 -2.5 -2.5 -2.5 -2.5 -2.5 9.7 82.4 93.8 94.9 97.1 99.7 102.6 103.9 105.1 106.5 108.7 112.1 114.8 114.3 113.5 112.5 115.2 118.9 119.1 121.6 122.7 123.3 119.5 116.1 113.9 115 111 105.4 99.7 94.6 90.5 85.3 81.3 79.5 81.8 90.8 97.7 99.8 99.5 95.8 87.2 88.5 86.5 83.7 81.6 79.4 77.1 73.9 68.7 67.9 64.3 60.5 56.1 48.8 48.2 43.8 35.9 29.4 25.7 22.6 21.2 20.8 22.5 24.4 25 17.5 26.1 26.1 29.4 29.4 29.3 29.1 32.4 37.1 39.1 35.4 38.6 39.4 42.7 44.1 44.3 45.1 45.6 46.8 50.9 55.5 60.9 64.1 67.2 70.3 73.4 77.9 80.9 84.3 87.6 89.7 91.6 91.9 92.2 92.4 92.5
-2.5 -2.5 -2.5 -2.5 -2.5 -2.5 -2.5 -2.5 -2.5 -2.5 -2.5 -2.5 -2.5 -2.5 -2.5 -2.5 -2.5 -2.5 -2.5 -2.5 -2.5 -2.5 -2.5 -2.5 -2.5 -2.5 -2.5 -2.5 -2.5 -2.5 -2.5 -2.5 -2.5 -2.5 -2.5 -2.5 -2.5 -2.5 -2.5 -2.5 -2.5 -2.5 -2.5 -2.5 -2.5 -2.5 -2.5 -2.5 -2.5 -2.5 -2.5 -2.5 -2.5 -2.5 -2.5 -2.5 -2.5 -2.5 -2.5 -2.5 -2.5 -2.5 -2.5 -2.5 -2.5 -2.5 -2.5 -2.5 -2.5 -2.5 -2.5 -2.5 -2.5 -2.5 -2.5 -2.5 -2.5 -2.5 -2.5 -2.5 -2.5 -2.5 -2.5 -2.5 -2.5 -2.5 -2.5 -2.5 -2.5 -2.5 -2.5 -2.5 -2.5 -2.5 -2.5 -2.5 -2.5 -2.5 3.5 72.2 92 93.6 95.1 96.9 99.5 101.8 103 103.3 105.7 109.2 112.6 115.2 113.5 113 112.9 114.6 118 118.7 119.2 120.2 121 117.1 113.7 110.7 111.8 108.5 102.7 97.3 92.7 89.9 85.5 82.4 80.2 80.5 89.2 96.8 97.7 97.2 94.5 86.6 85.4 83.8 82.2 80.5 78.5 75.3 73.3 73.4 70.7 66.9 61.8 56.7 51.8 45.2 40.2 33.4 27.8 24.8 22.5 20.4 20.5 23.5 25.3 25.5 25.3 26.7 28.3 29 28.9 28.5 28.9 33.8 37.5 37.6 34.2 35.5 34.8 37.4 38 39.4 34.7 40 48 52.7 57 61.2 64.9 67.9 71 74.2 78.3 81.7 85.3 88.8 90.9 92.3 91.8 92.1 92 91.5
-2.5 -2.5 -2.5 -2.5 -2.5 -2.5 -2.5 -2.5 -2.5 -2.5 -2.5 -2.5 -2.5 -2.5 -2.5 -2.5 -2.5 -2.5 -2.5 -2.5 -2.5 -2.5 -2.5 -2.5 -2.5 -2.5 -2.5 -2.5 -2.5 -2.5 -2.5 -2.5 -2.5 -2.5 -2.5 -2.5 -2.5 -2.5 -2.5 -2.5 -2.5 -2.5 -2.5 -2.5 -2.5 -2.5 -2.5 -2.5 -2.5 -2.5 -2.5 -2.5 -2.5 -2.5 -2.5 -2.5 -2.5 -2.5 -2.5 -2.5 -2.5 -2.5 -2.5 -2.5 -2.5 -2.5 -2.5 -2.5 -2.5 -2.5 -2.5 -2.5 -2.5 -2.5 -2.5 -2.5 -2.5 -2.5 -2.5 -2.5 -2.5 -2.5 -2.5 -2.5 -2.5 -2.5 -2.5 -2.5 -2.5 -2.5 -2.5 -2.5 -2.5 -2.5 -2.5 -2.5 -2.5 1.2 23.4 83.5 93 94 95.6 97.6 99.6 102.2 103.6 103.9 106 109.8 113.7 115.4 113.6 112.7 111.7 113.5 116.4 117.1 117.6 118.1 118.1 115.5 112.5 109.4 108.6 105.8 99.9 94.6 91.6 88.9 85.5 82.7 80.6 78.7 83.6 88.8 91.7 93.6 92.6 84.8 83.5 82.5 81.5 80.5 77.7 75.8 74.6 75.3 73.5 67.2 63 57.4 54.7 50.6 43.8 36.4 29.8 24.3 20.7 19.7 20.6 24.3 25.7 27 26.5 25.5 27.1 28.1 27.9 27.7 27.8 33.4 35.8 35.8 32.9 32.5 34.2 31.3 30.1 31.4 37.7 42.8 48.6 52.5 56.8 61.3 65.8 68.8 71.7 75.2 78.8 83 86.6 89.9 91.3 92.3 91.8 91.7 91.1 90.6
-2.5 -2.5 -2.5 -2.5 -2.5 -2.5 -2.5 -2.5 -2.5 -2.5 -2.5 -2.5 -2.5 -2.5 -2.5 -2.5 -2.5 -2.5 -2.5 -2.5 -2.5 -2.5 -2.5 -2.5 -2.5 -2.5 -2.5 -2.5 -2.5 -2.5 -2.5 -2.5 -2.5 -2.5 -2.5 -2.5 -2.5 -2.5 -2.5 -2.5 -2.5 -2.5 -2.5 -2.5 -2.5 -2.5 -2.5 -2.5 -2.5 -2.5 -2.5 -2.5 -2.5 -2.5 -2.5 -2.5 -2.5 -2.5 -2.5 -2.5 -2.5 -2.5 -2.5 -2.5 -2.5 -2.5 -2.5 -2.5 -2.5 -2.5 -2.5 -2.5 -2.5 -2.5 -2.5 -2.5 -2.5 -2.5 -2.5 -2.5 -2.5 -2.5 -2.5 -2.5 -2.5 -2.5 -2.5 -2.5 -2.5 -2.5 -2.5 -2.5 -2.5 0.7 2 3.3 8.9 19.4 80.3 91 93.2 94.8 97 99.2 101.4 104.7 104.8 105.1 107.7 111.7 114.5 115.7 114.2 111.7 110.6 112.4 114.3 114.5 114.8 114.9 114.3 112.5 109.8 107.7 104.6 101.7 97.2 93.1 90.5 88.2 85.2 82.7 80.5 78.7 79.9 81.3 84 84.1 84.3 83.7 83 82.2 81.3 79.2 80.3 76.8 75.9 75.2 72.1 69.6 66.1 62.3 56.5 52.1 44.7 37.3 30.3 23.1 19.7 19.7 21.6 24.4 25.8 27.4 26.8 21.9 25.5 26.6 26.4 25.8 27.9 30.6 33.4 32.8 32.8 31.5 29.9 30.9 34.4 36.2 37.2 43.3 49.5 52.4 56.8 61.3 65.8 69.9 73.1 73.7 77.3 82.2 86.9 89.4 90 91.6 91.4 90.8 90.3 89.8
-2.5 -2.5 -2.5 -2.5 -2.5 -2.5 -2.5 -2.5 -2.5 -2.5 -2.5 -2.5 -2.5 -2.5 -2.5 -2.5 -2.5 -2.5 -2.5 -2.5 -2.5 -2.5 -2.5 -2.5 -2.5 -2.5 -2.5 -2.5 -2.5 -2.5 -2.5 -2.5 -2.5 -2.5 -2.5 -2.5 -2.5 -2.5 -2.5 -2.5 -2.5 -2.5 -2.5 -2.5 -2.5 -2.5 -2.5 -2.5 -2.5 -2.5 -2.5 -2.5 -2.5 -2.5 -2.5 -2.5 -2.5 -2.5 -2.5 -2.5 -2.5 -2.5 -2.5 -2.5 -2.5 -2.5 -2.5 -2.5 -2.5 -2.5 -2.5 -2.5 -2.5 -2.5 -2.5 -2.5 -2.5 -2.5 -2.5 -2.5 -2.5 -2.5 -2.5 -2.5 -2.5 -2.5 -2.5 -2.5 -2.5 -2.5 -2.5 -2.5 22.5 25.2 35.3 64.6 73.3 77.7 91.4 93.7 94.4 97 99.5 102.1 103.5 106.4 106.8 107.1 109.7 113.5 115.8 116.3 113.3 110.8 109.5 111.2 111.3 111.4 111.6 111.2 110.8 109.8 107.4 104.6 101.6 97.8 94.1 92.2 89.9 87.7 85.1 81.4 78.4 80.1 81.2 83 85.3 84.4 83.4 83 82.2 81.7 80.8 80.2 79.5 78.9 76.9 76.4 73.2 69.4 67.3 64.5 60.1 52.8 45.8 37.4 30.7 23.7 19.7 19.7 19.7 25 26.5 28.8 27.4 17.3 24.1 24.3 23.4 22.5 28.5 31.8 30.6 29.9 30.4 30.3 27.3 34.2 35.7 36.7 38.5 44 49.4 53.1 56.7 61.2 65.7 70.8 72.5 73.6 76.1 80.8 85.6 88.9 89.1 90.7 89.9 89.6 88.6 87.5
-2.5 -2.5 -2.5 -2.5 -2.5 -2.5 -2.5 -2.5 -2.5 -2.5 -2.5 -2.5 -2.5 -2.5 -2.5 -2.5 -2.5 -2.5 -2.5 -2.5 -2.5 -2.5 -2.5 -2.5 -2.5 -2.5 -2.5 -2.5 -2.5 -2.5 -2.5 -2.5 -2.5 -2.5 -2.5 -2.5 -2.5 -2.5 -2.5 -2.5 -2.5 -2.5 -2.5 -2.5 -2.5 -2.5 -2.5 -2.5 -2.5 -2.5 -2.5 -2.5 -2.5 -2.5 -2.5 -2.5 -2.5 -2.5 -2.5 -2.5 -2.5 -2.5 -2.5 -2.5 -2.5 -2.5 -2.5 -2.5 -2.5 -2.5 -2.5 -2.5 -2.5 -2.5 -2.5 -2.5 -2.5 -2.5 -2.5 -2.5 -2.5 -2.5 -2.5 -2.5 -2.5 -2.5 -2.5 -2.5 2.1 5.4 13.4 28.9 53.7 74.2 82.1 86 89.1 91.9 94.7 96.8 97.2 100.2 102.6 104.4 105.5 107.6 108.7 109.7 112.4 115.4 117.4 117.4 113 110.6 108.7 108.3 108.5 108.7 108 107.8 107.7 106.5 103.9 101.2 98.2 94.5 91.4 89.5 88 86.3 83 80.5 79.8 82.3 83 84.8 86.6 85.8 83.8 82.1 81.3 80.6 79.7 78.5 77.8 77.2 76.9 76.5 74 69.6 67.4 65.3 60.6 55 47.5 38 31 23.7 20 19.7 19.7 22.5 27.7 29.7 27.1 22.3 21.9 22 20.1 22 27.8 31.2 28.6 29.1 27.5 22.5 28.8 33.2 35 35.9 38.7 44.9 50 54.3 57.8 63.1 67.9 70.9 72.1 74.8 76.8 81.1 85.1 87.3 88.5 89.5 88.2 88.6 86.4 86
-2.5 -2.5 -2.5 -2.5 -2.5 -2.5 -2.5 -2.5 -2.5 -2.5 -2.5 -2.5 -2.5 -2.5 -2.5 -2.5 -2.5 -2.5 -2.5 -2.5 -2.5 -2.5 -2.5 -2.5 -2.5 -2.5 -2.5 -2.5 -2.5 -2.5 -2.5 -2.5 -2.5 -2.5 -2.5 -2.5 -2.5 -2.5 -2.5 -2.5 -2.5 -2.5 -2.5 -2.5 -2.5 -2.5 -2.5 -2.5 -2.5 -2.5 -2.5 -2.5 -2.5 -2.5 -2.5 -2.5 -2.5 -2.5 -2.5 -2.5 -2.5 -2.5 -2.5 -2.5 -2.5 -2.5 -2.5 -2.5 -2.5 -2.5 -2.5 -2.5 -2.5 -2.5 -2.5 -2.5 -2.5 -2.5 -2.5 -2.5 -2.5 -2.5 -2.5 -2.5 -0.6 2.7 11.6 19.9 33.3 56 77 77 76 79.9 82.9 85.9 88.3 91.3 94.7 97.3 100.2 103.3 105.1 106.1 107.3 108.8 110.6 112.7 116.5 119.4 119.9 118.4 114.1 110.1 107.3 105.8 105.9 105.2 104.3 103.8 103.6 102.5 100.5 97.7 94.7 91.5 87.6 86.7 85.4 84.2 80.5 78.1 81.7 84.8 86 86.8 87.6 86.6 84.5 81.6 80.3 79.5 78.6 77.3 76.2 75.6 75.4 74.6 72.1 69.2 67.4 65.4 61.4 57.7 48.3 39.3 28.7 29 24.7 19.7 19.7 21.7 27.6 29.9 26.8 23 20.6 19.9 20.2 20.1 25.6 28.4 28.5 28.8 26 24.1 29.2 32.1 33.8 35.6 39.7 45.5 50.8 54.2 60.6 65.4 68.9 71 72.3 74.9 78.5 83.5 86.1 86.5 86.3 87 85.8 87.8 85.4 82.4
-2.5 -2.5 -2.5 -2.5 -2.5 -2.5 -2.5 -2.5 -2.5 -2.5 -2.5 -2.5 -2.5 -2.5 -2.5 -2.5 -2.5 -2.5 -2.5 -2.5 -2.5 -2.5 -2.5 -2.5 -2.5 -2.5 -2.5 -2.5 -2.5 -2.5 -2.5 -2.5 -2.5 -2.5 -2.5 -2.5 -2.5 -2.5 -2.5 -2.5 -2.5 -2.5 -2.5 -2.5 -2.5 -2.5 -2.5 -2.5 -2.5 -2.5 -2.5 -2.5 -2.5 -2.5 -2.5 -2.5 -2.5 -2.5 -2.5 -2.5 -2.5 -2.5 -2.5 -2.5 -2.5 -2.5 -2.5 -2.5 -2.5 -2.5 -2.5 -2.5 -2.5 -2.5 -2.5 -2.5 -2.5 -2.5 -2.5 -2.5 -2.5 -2.5 -2.5 2.5 35.6 51.7 54.1 53.5 65.6 81.7 81 80.3 80.3 81.4 83.3 85.8 88.9 92.6 95.7 98.7 102.9 106.5 107.7 108.2 109.2 111 113.4 116.6 119.7 122.2 123 120.9 115.9 110.6 107.5 103.1 102.4 102.1 100.9 99.7 99.1 98.7 97 93.7 90.7 88.4 83.8 83.8 83.4 81.2 77.2 79.4 82.5 85.8 87.1 88.3 88.6 87.6 84.7 81.5 79.5 78.3 77.4 76.2 75 74.1 73.8 72 69.8 68.2 66.5 65 61.6 58.6 51.7 42.8 35.4 31 27.5 22.8 19.7 19.7 25.2 28.7 26.4 22.1 19.8 18.6 20.8 18.7 21.3 23.3 24.6 27 23.3 25 29.3 30.5 30.9 34.1 41 47.2 51.6 55.7 61.8 66 69 71.1 73.1 75.2 78.6 82.6 82.9 83.6 82.4 81.5 81.6 80.5 80.2 80.3
-2.5 -2.5 -2.5 -2.5 -2.5 -2.5 -2.5 -2.5 -2.5 -2.5 -2.5 -2.5 -2.5 -2.5 -2.5 -2.5 -2.5 -2.5 -2.5 -2.5 -2.5 -2.5 -2.5 -2.5 -2.5 -2.5 -2.5 -2.5 -2.5 -2.5 -2.5 -2.5 -2.5 -2.5 -2.5 -2.5 -2.5 -2.5 -2.5 -2.5 -2.5 -2.5 -2.5 -2.5 -2.5 -2.5 -2.5 -2.5 -2.5 -2.5 -2.5 -2.5 -2.5 -2.5 -2.5 -2.5 -2.5 -2.5 -2.5 -2.5 -2.5 -2.5 -2.5 -2.5 -2.5 -2.5 -2.5 -2.5 -2.5 -2.5 -2.5 -2.5 -2.5 -2.5 -2.5 -2.5 -2.5 -2.5 -2.5 -2.5 -2.5 5.2 12.4 38.4 71 80.9 77.8 83 86.1 84.7 82.9 82.3 81.9 81.9 83.5 86.1 90.1 93.6 96.6 100.5 105.1 108.5 110.1 110.7 111.9 113.6 116.3 119 122.1 124 125 122.4 117.2 111.6 107.2 103.3 99.4 99.5 98 97.2 96 93.9 91.5 90.1 87.4 85.5 81.8 80.8 81.3 77.1 78 81.7 83.5 85.9 88.4 89.5 89.1 88.1 85.5 82.2 79.7 77.6 76.3 74.7 73.8 73.1 72.3 70.9 68.7 66.9 65.5 63.9 62.1 60.4 56.6 48.7 38.8 32.2 28.6 23.9 19.7 19.7 22.8 27 25.5 22.4 17.2 16.4 16 16 16.4 20 22.2 21.6 19.4 24.2 26.3 27 30.3 35.7 42.6 48 52.3 56.2 62.9 66 68.6 70.6 71.8 75.2 78.6 81.7 81.6 80.9 78.9 78.9 79.8 79.8 79.6 79.4
-2.5 -2.5 -2.5 -2.5 -2.5 -2.5 -2.5 -2.5 -2.5 -2.5 -2.5 -2.5 -2.5 -2.5 -2.5 -2.5 -2.5 -2.5 -2.5 -2.5 -2.5 -2.5 -2.5 -2.5 -2.5 -2.5 -2.5 -2.5 -2.5 -2.5 -2.5 -2.5 -2.5 -2.5 -2.5 -2.5 -2.5 -2.5 -2.5 -2.5 -2.5 -2.5 -2.5 -2.5 -2.5 -2.5 -2.5 -2.5 -2.5 -2.5 -2.5 -2.5 -2.5 -2.5 -2.5 -2.5 -2.5 -2.5 -2.5 -2.5 -2.5 -2.5 -2.5 -2.5 -2.5 -2.5 -2.5 -2.5 -2.5 -2.5 -2.5 -2.5 -2.5 -2.5 -2.5 -2.5 -2.5 -2.5 -2.5 -2.5 26.7 61.4 61.7 86.3 88.2 88.8 93.2 91.8 89.6 87.4 84.9 82.2 81.5 81.9 83.7 87.3 91.3 94.5 97.2 101.6 105.9 110.1 112.7 113.3 114.8 116.6 119.3 121.3 124 125.4 125.5 123 119.2 114.1 108.7 103.7 97.9 95.6 94.6 94.2 93 91.8 90.2 87.3 82.8 82.6 79.8 77.4 78 75.4 79.6 81.9 85.3 87.8 90.2 90.3 89.7 89.2 85.9 83 80.1 77.6 75.8 73.9 72.9 72.5 71.7 70.1 68.2 67.1 65.9 64.1 64.3 65 59.1 53.6 44.2 33.3 30 26.3 20.5 19.7 22.3 26 23.8 20 17.4 16.7 15.3 14.7 15.3 17.1 21.9 18.5 18.6 20.3 21.8 26.4 31.7 36.7 42.6 49.5 54.8 56.3 63.6 67.1 68.2 70.4 72 74.7 78.9 79.5 78.6 78.4 78.4 77.9 76.9 75.7 76 76
-2.5 -2.5 -2.5 -2.5 -2.5 -2.5 -2.5 -2.5 -2.5 -2.5 -2.5 -2.5 -2.5 -2.5 -2.5 -2.5 -2.5 -2.5 -2.5 -2.5 -2.5 -2.5 -2.5 -2.5 -2.5 -2.5 -2.5 -2.5 -2.5 -2.5 -2.5 -2.5 -2.5 -2.5 -2.5 -2.5 -2.5 -2.5 -2.5 -2.5 -2.5 -2.5 -2.5 -2.5 -2.5 -2.5 -2.5 -2.5 -2.5 -2.5 -2.5 -2.5 -2.5 -2.5 -2.5 -2.5 -2.5 -2.5 -2.5 -2.5 -2.5 -2.5 -2.5 -2.5 -2.5 -2.5 -2.5 -2.5 -2.5 -2.5 -2.5 -2.5 -2.5 -2.5 -2.5 -2.5 -2.5 -2.5 -2.5 0.9 41.7 83.5 86.8 90.6 94.1 95.1 94.2 92.9 90.5 89.3 86.7 83.8 81.7 82.7 85.1 88.3 91.5 94.3 97.5 102.6 107.4 112 114.4 116.6 117.7 120.5 122.5 124.8 126.1 126.8 128.5 124.9 121.5 116.8 110 105.3 101.3 97.3 91.4 88.7 88.5 88.7 87.3 84.5 80.8 79 77.7 74 73.2 77.1 79.8 83 85.8 89 90.5 91 90.2 88.5 86.3 83.2 80.6 78 75.8 74.6 73.3 72.5 72 70.1 68 66.4 66.4 64.3 65.2 64.7 60.4 55.2 49.8 36.4 32.5 28.5 23.6 19.1 19.8 24.3 23.5 19.5 16.8 15.6 14.4 14.3 14.6 15.1 17.1 16.5 16.8 17.3 20.7 25.4 30.3 35 41.6 44.2 55.4 54.6 61 64.7 67.7 69.4 72.1 74.4 76.4 77.1 75.5 75.9 75.9 75 74.3 71.7 72.7 74.6
-2.5 -2.5 -2.5 -2.5 -2.5 -2.5 -2.5 -2.5 -2.5 -2.5 -2.5 -2.5 -2.5 -2.5 -2.5 -2.5 -2.5 -2.5 -2.5 -2.5 -2.5 -2.5 -2.5 -2.5 -2.5 -2.5 -2.5 -2.5 -2.5 -2.5 -2.5 -2.5 -2.5 -2.5 -2.5 -2.5 -2.5 -2.5 -2.5 -2.5 -2.5 -2.5 -2.5 -2.5 -2.5 -2.5 -2.5 -2.5 -2.5 -2.5 -2.5 -2.5 -2.5 -2.5 -2.5 -2.5 -2.5 -2.5 -2.5 -2.5 -2.5 -2.5 -2.5 -2.5 -2.5 -2.5 -2.5 -2.5 -2.5 -2.5 -2.5 -2.5 -2.5 -2.5 -2.5 -2.5 -2.5 -2.5 -2.5 2.1 51.6 89.2 89.8 93.9 97 97.3 94.8 93.8 91.5 89.9 87.4 84.6 82.7 83.3 86 89 91.6 94.5 98.4 104.6 109.3 113.2 115.6 118 120.3 122.4 124.4 125.6 126.8 127.2 126.8 124.5 123.4 118.8 111.3 107 103.4 99.4 95.1 91.3 86.2 83.6 83.7 81.1 78.1 76.7 76.5 73.8 72.2 77 80.4 83.7 87 90 91.6 91.2 90.1 88.2 86.2 83.5 81.1 78.6 76.8 76.5 75 73.3 72.8 71.8 69.6 68.2 68.6 68 66.6 60.7 58.7 54.9 48.6 39.1 33.3 29.5 25.8 20.1 17 20.2 22.5 18.7 17 15 13.6 13.9 14.2 15 15.8 15.5 15.5 16.2 17.9 22.6 28 32.2 36.5 40.3 51.3 53.4 60.3 63.5 66.2 68.8 72.6 73.6 72.9 74.8 73.4 72.6 72.9 73.2 73 72.3 72 73.3
-2.5 -2.5 -2.5 -2.5 -2.5 -2.5 -2.5 -2.5 -2.5 -2.5 -2.5 -2.5 -2.5 -2.5 -2.5 -2.5 -2.5 -2.5 -2.5 -2.5 -2.5 -2.5 -2.5 -2.5 -2.5 -2.5 -2.5 -2.5 -2.5 -2.5 -2.5 -2.5 -2.5 -2.5 -2.5 -2.5 -2.5 -2.5 -2.5 -2.5 -2.5 -2.5 -2.5 -2.5 -2.5 -2.5 -2.5 -2.5 -2.5 -2.5 -2.5 -2.5 -2.5 -2.5 -2.5 -2.5 -2.5 -2.5 -2.5 -2.5 -2.5 -2.5 -2.5 -2.5 -2.5 -2.5 -2.5 -2.5 -2.5 -2.5 -2.5 -2.5 -2.5 -2.5 -2.5 -2.5 -2.5 -2.5 -2.5 3.9 70.7 89.9 92.3 96.1 97.8 97.1 95.9 94.6 91.9 89.5 86.7 84.1 82 82.6 85.6 89 91.8 94.9 99.9 105.8 110.4 114.1 117.7 120 121.5 123.2 125.5 126.4 126.5 126.4 125 124.5 123.7 119.8 112.5 107.2 103.9 100 95.9 92 88.3 82.7 80 78 75.3 75.8 76.3 74.5 71.4 76.4 80.6 83.8 88 90.9 92.5 92.2 90.3 87.6 85.7 84.3 81.7 79.3 77.7 77.9 77.8 76.1 76.5 75.4 75.5 73 73.8 71.7 71.1 62.5 59.7 55.2 50.4 41.9 33.3 29 25.4 20.4 17.7 18.1 20.2 18.6 17 14.4 13.2 13.3 14.1 15.4 15 14.6 15.3 16.6 19.2 21.9 26.1 32.8 36.3 37.3 43.9 50.1 57.8 62.1 65.2 68.6 69.1 72.5 71.9 72 72.4 72.2 72.5 72 71.7 72.2 72.2 72.7
-2.5 -2.5 -2.5 -2.5 -2.5 -2.5 -2.5 -2.5 -2.5 -2.5 -2.5 -2.5 -2.5 -2.5 -2.5 -2.5 -2.5 -2.5 -2.5 -2.5 -2.5 -2.5 -2.5 -2.5 -2.5 -2.5 -2.5 -2.5 -2.5 -2.5 -2.5 -2.5 -2.5 -2.5 -2.5 -2.5 -2.5 -2.5 -2.5 -2.5 -2.5 -2.5 -2.5 -2.5 -2.5 -2.5 -2.5 -2.5 -2.5 -2.5 -2.5 -2.5 -2.5 -2.5 -2.5 -2.5 -2.5 -2.5 -2.5 -2.5 -2.5 -2.5 -2.5 -2.5 -2.5 -2.5 -2.5 -2.5 -2.5 -2.5 -2.5 -2.5 -2.5 -2.5 -2.5 -2.5 -2.5 -2.5 -2.5 31 85.9 91.6 94.9 96.1 97.2 96.5 95.6 94.8 92.8 89 85.8 82.7 81.3 81.7 85 89.3 92 94.4 101.7 106.9 110.9 115.1 119.1 121.7 122.2 123.8 126.1 126.3 126.1 125.2 123.7 123.4 123.2 119.8 113.3 107.7 104.1 99.7 95.3 91.7 88 84.3 78.2 74.4 77 76.8 75.8 72.5 72.9 74.7 80.2 84.6 88.7 91.6 93.2 92.4 90.5 87.5 85.2 83.2 81.4 79.3 78.5 79.2 79.2 79.2 80.4 80.8 81.4 80.7 81.1 79.4 77 73.4 64.9 56.9 50 44.3 35.8 29.2 26.2 21.7 18.2 16.8 16.7 18.1 18 15.9 13.7 13.3 13.9 15.1 14.2 13.6 18.1 19.9 19.9 24.7 26.9 32.3 36.2 35.8 46.2 52.6 56.4 60.3 63.8 67.5 69.4 66.6 68.3 68.6 71.8 72.3 71.8 71.2 71.3 71.6 72.5 71.6
-2.5 -2.5 -2.5 -2.5 -2.5 -2.5 -2.5 -2.5 -2.5 -2.5 -2.5 -2.5 -2.5 -2.5 -2.5 -2.5 -2.5 -2.5 -2.5 -2.5 -2.5 -2.5 -2.5 -2.5 -2.5 -2.5 -2.5 -2.5 -2.5 -2.5 -2.5 -2.5 -2.5 -2.5 -2.5 -2.5 -2.5 -2.5 -2.5 -2.5 -2.5 -2.5 -2.5 -2.5 -2.5 -2.5 -2.5 -2.5 -2.5 -2.5 -2.5 -2.5 -2.5 -2.5 -2.5 -2.5 -2.5 -2.5 -2.5 -2.5 -2.5 -2.5 -2.5 -2.5 -2.5 -2.5 -2.5 -2.5 -2.5 -2.5 -2.5 -2.5 -2.5 -2.5 -2.5 -2.5 -2.5 -2.5 0.2 56.4 86.3 91.3 95.5 97.1 97.3 95.3 94.9 94.2 92.4 88.7 84.2 81.2 80 82 84.8 89.9 93.6 97.5 103.9 108.7 112.9 117.1 120.3 122.5 123 123.9 125.4 125.2 124.8 123.8 122.3 122.4 122 118.9 113.6 108.4 104 100 94.4 89.9 86.6 82.8 74.6 73.4 75.9 75.4 74.9 71.6 74.8 76 79.3 85 88.8 92.2 94.6 93.2 90.7 87.3 84.1 82 80.5 78.8 78.5 79.6 80.3 81.2 82.4 83.7 84.6 84.7 84.4 83.3 82 78.6 69.5 58.6 51.6 45.4 37.2 33.5 29.2 24.8 20.2 16.6 16 16.7 16.7 15.4 14 13.3 13.8 14.5 14 14.5 19.2 21.1 20.1 22.9 27.3 29.2 32 33.6 44.7 49.3 54.6 58 60.2 63.3 64.7 63.8 64.6 64.2 68.2 70.4 69.8 69.5 70 70.5 70.9 71.3
-2.5 -2.5 -2.5 -2.5 -2.5 -2.5 -2.5 -2.5 -2.5 -2.5 -2.5 -2.5 -2.5 -2.5 -2.5 -2.5 -2.5 -2.5 -2.5 -2.5 -2.5 -2.5 -2.5 -2.5 -2.5 -2.5 -2.5 -2.5 -2.5 -2.5 -2.5 -2.5 -2.5 -2.5 -2.5 -2.5 -2.5 -2.5 -2.5 -2.5 -2.5 -2.5 -2.5 -2.5 -2.5 -2.5 -2.5 -2.5 -2.5 -2.5 -2.5 -2.5 -2.5 -2.5 -2.5 -2.5 -2.5 -2.5 -2.5 -2.5 -2.5 -2.5 -2.5 -2.5 -2.5 -2.5 -2.5 -2.5 -2.5 -2.5 -2.5 -2.5 -2.5 -2.5 -2.5 -2.5 -2.5 -2.5 0.7 58.9 86 91 95.3 97.9 97.9 94.9 94.3 93.7 91.8 88.1 83.1 80 79.6 82.3 85.8 92.5 98.5 103.1 107.3 111.3 115.4 119.6 122.3 123.1 123.5 124.1 123.8 123.5 123.2 122.2 120.5 120.8 120.6 117.4 112.3 107.2 104.6 100.2 93.9 89.6 85.8 82 75.3 72.2 73.7 73.5 72.5 70.9 75.7 78.4 79.7 83.8 88.7 91.6 94.3 94 91 86.9 83.6 80.9 79.2 77.7 78.6 79.7 80.4 81.8 83.6 85.4 86.1 86.2 85.7 84.6 83.1 80.8 72 59.6 52.1 46.7 42.4 38.2 32.7 27.1 22.5 17.8 16 15.7 15.7 14.7 13.8 14 13.8 13.7 13.3 15.6 20.4 22 21.4 22.2 25.1 29.4 31.4 34.4 42.7 49.7 53 54.6 56.6 57.2 56.9 60.2 64.7 68.6 70.8 71.4 71.8 70.8 70.6 70.7 71.1 71.7
-2.5 -2.5 -2.5 -2.5 -2.5 -2.5 -2.5 -2.5 -2.5 -2.5 -2.5 -2.5 -2.5 -2.5 -2.5 -2.5 -2.5 -2.5 -2.5 -2.5 -2.5 -2.5 -2.5 -2.5 -2.5 -2.5 -2.5 -2.5 -2.5 -2.5 -2.5 -2.5 -2.5 -2.5 -2.5 -2.5 -2.5 -2.5 -2.5 -2.5 -2.5 -2.5 -2.5 -2.5 -2.5 -2.5 -2.5 -2.5 -2.5 -2.5 -2.5 -2.5 -2.5 -2.5 -2.5 -2.5 -2.5 -2.5 -2.5 -2.5 -2.5 -2.5 -2.5 -2.5 -2.5 -2.5 -2.5 -2.5 -2.5 -2.5 -2.5 -2.5 -2.5 -2.5 -2.5 -2.5 -2.5 -2.5 0.8 58.8 84.9 90.6 95 97.4 97.9 95.4 94 92.6 89.7 86.6 82.9 79.6 78.7 82.8 88.8 96.8 103.3 107.3 111.9 115.7 118.5 121.7 124.4 123.3 123.4 123.4 122.5 121.9 121.7 120.7 119.3 120 119.4 115.7 111 106.1 103.3 99.6 94.3 88 84.3 78.5 73.2 69.1 71.1 71.3 68.4 74.1 75.8 79.3 82.5 83.9 87.5 91.4 93.6 92.8 90.5 86.3 83.1 79.6 77.8 76.4 77.5 78.7 79.8 81.9 84.4 86.4 87 86.9 86.2 84.5 82.8 81.2 72 63 53.6 49.5 46 44.3 38.5 31.9 26.4 23.3 18.4 16 15.4 14.5 13.7 14 14.1 13 13 16.3 21.1 21.6 21.7 24 27.6 29.2 31 34.5 41.9 48.4 50 49.4 50.3 54.5 60.3 64.5 68.1 70.1 72 71.9 72.3 71.3 71 71.1 71.5 72.6
-2.5 -2.5 -2.5 -2.5 -2.5 -2.5 -2.5 -2.5 -2.5 -2.5 -2.5 -2.5 -2.5 -2.5 -2.5 -2.5 -2.5 -2.5 -2.5 -2.5 -2.5 -2.5 -2.5 -2.5 -2.5 -2.5 -2.5 -2.5 -2.5 -2.5 -2.5 -2.5 -2.5 -2.5 -2.5 -2.5 -2.5 -2.5 -2.5 -2.5 -2.5 -2.5 -2.5 -2.5 -2.5 -2.5 -2.5 -2.5 -2.5 -2.5 -2.5 -2.5 -2.5 -2.5 -2.5 -2.5 -2.5 -2.5 -2.5 -2.5 -2.5 -2.5 -2.5 -2.5 -2.5 -2.5 -2.5 -2.5 -2.5 -2.5 -2.5 -2.5 -2.5 -2.5 -2.5 -2.5 -2.5 -2.5 -2.5 60.7 83.4 90.2 94.6 97.1 97.3 94.7 93.3 90.8 88.2 85.2 81.6 78.2 78.5 83.1 91.1 100.3 107.1 112.1 116.9 121.5 123.1 124.1 125.7 123.7 122.2 122 121.1 120.2 120.2 119.2 117.9 118.6 118.2 114 109.4 105.1 102.3 99.3 94.4 86.9 81.9 77.7 72.2 66 68.7 67.9 67.9 73 75.7 79.3 82.3 84.5 87.2 90.2 92.4 91.8 89.6 85.3 81.8 79 76.7 75.5 76.7 78.4 79.8 81.9 84.6 86.7 87 87.1 86.5 84.4 82.6 80.5 76.9 71.9 62.4 53.3 51.1 49.7 43.1 36.6 31 26.8 24.3 21.5 15.9 14.9 13.6 13.4 13.9 13 12.7 17.8 20.8 21.3 21.3 23 27 29.2 30.9 35.1 38.4 44.8 48.1 48.5 54.6 58.6 61.7 65.7 69.4 70.9 72.6 72.8 73.2 71.8 71.3 71.7 70.9 73.4
-2.5 -2.5 -2.5 -2.5 -2.5 -2.5 -2.5 -2.5 -2.5 -2.5 -2.5 -2.5 -2.5 -2.5 -2.5 -2.5 -2.5 -2.5 -2.5 -2.5 -2.5 -2.5 -2.5 -2.5 -2.5 -2.5 -2.5 -2.5 -2.5 -2.5 -2.5 -2.5 -2.5 -2.5 -2.5 -2.5 -2.5 -2.5 -2.5 -2.5 -2.5 -2.5 -2.5 -2.5 -2.5 -2.5 -2.5 -2.5 -2.5 -2.5 -2.5 -2.5 -2.5 -2.5 -2.5 -2.5 -2.5 -2.5 -2.5 -2.5 -2.5 -2.5 -2.5 -2.5 -2.5 -2.5 -2.5 -2.5 -2.5 -2.5 -2.5 -2.5 -2.5 -2.5 -2.5 -2.5 -2.5 -2.5 -2.5 37.7 80.9 89 93.9 96.1 96.4 93.9 91.8 89.4 87 83.9 80.2 76.1 78.4 83.7 93.4 102.9 111 115.7 120.3 124.6 125.7 126.1 126.6 123.9 122 120.1 119 118.4 117.7 116.7 116 116.8 115.8 112.2 107.8 104.1 101.6 97.9 92.5 86.1 80.7 76.3 71.2 65.9 64.7 63.4 67.2 71.7 75.5 79.1 82 83.9 86.2 88.8 91.5 91 88.7 84.8 80.9 78.6 76.4 74.6 75.9 77.3 79.4 81.8 84.4 86.2 86.7 87.2 86.6 84.3 82.6 80.9 79.6 76.8 68 58.8 56.1 54.7 48 39.8 34.2 30.2 28.4 25.3 19.5 15.1 13.3 13 13 13.1 13.4 20.7 21.9 20.2 20.8 23.7 26.7 27.7 29.9 34.4 36.9 40.9 43.9 46.4 54.4 59.6 63.3 66.9 70 70.9 72.9 73.6 72.7 72.6 71.6 68.4 72.5 73.9
-2.5 -2.5 -2.5 -2.5 -2.5 -2.5 -2.5 -2.5 -2.5 -2.5 -2.5 -2.5 -2.5 -2.5 -2.5 -2.5 -2.5 -2.5 -2.5 -2.5 -2.5 -2.5 -2.5 -2.5 -2.5 -2.5 -2.5 -2.5 -2.5 -2.5 -2.5 -2.5 -2.5 -2.5 -2.5 -2.5 -2.5 -2.5 -2.5 -2.5 -2.5 -2.5 -2.5 -2.5 -2.5 -2.5 -2.5 -2.5 -2.5 -2.5 -2.5 -2.5 -2.5 -2.5 -2.5 -2.5 -2.5 -2.5 -2.5 -2.5 -2.5 -2.5 -2.5 -2.5 -2.5 -2.5 -2.5 -2.5 -2.5 -2.5 -2.5 -2.5 -2.5 -2.5 -2.5 -2.5 -2.5 -2.5 -2.5 35.5 79.1 87.8 93.4 95.1 95.8 93.5 90.4 88 85.6 82.8 78.4 75.2 78 85.2 94.6 103.8 111.2 117.2 122.3 126.2 126.7 126.5 126.8 123.5 120.3 118.7 117.2 115.8 114.9 114.4 113.9 115.2 113.2 109.8 106.2 103 100.2 96.6 92.2 84.5 76.9 74 71 65.6 61 63.5 66.8 70.1 74.8 78.8 81.9 84 85.3 87.9 90.6 89.9 87.8 83.7 80.3 78.1 75.7 73.2 75 76.9 79 81.5 84.2 85.7 86.6 87.1 86.1 84.8 84.8 82.8 81.6 80.8 76.1 63.9 60.4 57.7 50.1 42.9 36.9 32.4 28.1 25.2 20.3 14.9 14.1 14.4 13.3 12.8 13.7 20.9 23.3 21.1 20.8 23.7 25.5 25.6 27.5 32.1 35.4 39.9 41.2 45 53.4 59 63.9 67 69.5 70.9 72.4 72.8 72.4 71.7 67.4 72.1 73.1 74.2
-2.5 -2.5 -2.5 -2.5 -2.5 -2.5 -2.5 -2.5 -2.5 -2.5 -2.5 -2.5 -2.5 -2.5 -2.5 -2.5 -2.5 -2.5 -2.5 -2.5 -2.5 -2.5 -2.5 -2.5 -2.5 -2.5 -2.5 -2.5 -2.5 -2.5 -2.5 -2.5 -2.5 -2.5 -2.5 -2.5 -2.5 -2.5 -2.5 -2.5 -2.5 -2.5 -2.5 -2.5 -2.5 -2.5 -2.5 -2.5 -2.5 -2.5 -2.5 -2.5 -2.5 -2.5 -2.5 -2.5 -2.5 -2.5 -2.5 -2.5 -2.5 -2.5 -2.5 -2.5 -2.5 -2.5 -2.5 -2.5 -2.5 -2.5 -2.5 -2.5 -2.5 -2.5 -2.5 -2.5 -2.5 -2.5 -2.5 2.5 76.6 86.2 93.1 94.8 95.1 92.8 89.8 86.7 84.1 81.2 77 74.8 77.7 86.3 96 103.8 111.3 117.6 123.1 127.2 127.9 127.1 126.1 122.8 119.6 117.3 115.7 114.2 112.5 111.5 111.9 113.3 112.8 109.6 104.7 101 98.8 94.8 90.2 84.4 78.5 73.4 68.6 65.3 60.4 61.2 64.9 68.5 73.7 77.9 81.5 83.9 85 88.1 89.6 89.4 87.2 82.7 79.9 77.5 75.1 72.3 74.8 76.9 79 81.2 83.6 85.4 86 86.4 85.9 85.4 85.1 84.2 83.7 85.4 82.7 71.8 65.8 59.2 51.4 44.1 37.9 32.3 27.3 21.6 17.4 15 12.4 13.3 13.3 12.4 14.9 18.4 20.5 19.5 19.3 20.5 22.1 24 26.4 30.2 33.9 37.4 36.4 46 52.1 57.4 62.6 65.5 67.7 69.4 71 72.2 71.9 68.3 71.4 72.3 74.1 74.9
-2.5 -2.5 -2.5 -2.5 -2.5 -2.5 -2.5 -2.5 -2.5 -2.5 -2.5 -2.5 -2.5 -2.5 -2.5 -2.5 -2.5 -2.5 -2.5 -2.5 -2.5 -2.5 -2.5 -2.5 -2.5 -2.5 -2.5 -2.5 -2.5 -2.5 -2.5 -2.5 -2.5 -2.5 -2.5 -2.5 -2.5 -2.5 -2.5 -2.5 -2.5 -2.5 -2.5 -2.5 -2.5 -2.5 -2.5 -2.5 -2.5 -2.5 -2.5 -2.5 -2.5 -2.5 -2.5 -2.5 -2.5 -2.5 -2.5 -2.5 -2.5 -2.5 -2.5 -2.5 -2.5 -2.5 -2.5 -2.5 -2.5 -2.5 -2.5 -2.5 -2.5 -2.5 -2.5 -2.5 -2.5 -2.5 -2.5 1.9 75 84.4 92.3 94.6 94.5 91.9 88.7 85.6 82.4 78.1 74.2 73.6 77.5 85.7 95.9 103.4 111.2 117.7 123.3 127.3 129 128.5 126.6 123.2 119.7 116.5 114.3 112 109.7 108.7 108.7 110.5 110.9 107.9 103.3 100.2 97.4 92.8 88.8 83.4 77.7 72.8 69.3 66 62.5 59.5 63.3 67 71.6 76.1 80.9 84 84.5 87 88.8 88.6 86.7 82.7 79.6 77.4 75 72.3 73.8 76.4 79.2 81.6 83.9 85.8 86.2 86.3 86 86.1 87 87.2 89 90.6 86.6 85.4 80.1 71.6 58.4 47.2 39.6 32.5 25.4 18.8 14.6 14.6 12.4 12.5 13.3 12.4 14.7 17.5 18.9 18.8 18.1 20.7 22.3 22.8 25 26.8 28.3 33.1 37.3 43.6 47.3 54.2 59.6 62.9 64.9 65.5 66.9 70.2 68.2 70.4 71.5 72.6 74.1 75.1
-2.5 -2.5 -2.5 -2.5 -2.5 -2.5 -2.5 -2.5 -2.5 -2.5 -2.5 -2.5 -2.5 -2.5 -2.5 -2.5 -2.5 -2.5 -2.5 -2.5 -2.5 -2.5 -2.5 -2.5 -2.5 -2.5 -2.5 -2.5 -2.5 -2.5 -2.5 -2.5 -2.5 -2.5 -2.5 -2.5 -2.5 -2.5 -2.5 -2.5 -2.5 -2.5 -2.5 -2.5 -2.5 -2.5 -2.5 -2.5 -2.5 -2.5 -2.5 -2.5 -2.5 -2.5 -2.5 -2.5 -2.5 -2.5 -2.5 -2.5 -2.5 -2.5 -2.5 -2.5 -2.5 -2.5 -2.5 -2.5 -2.5 -2.5 -2.5 -2.5 -2.5 -2.5 -2.5 -2.5 -2.5 -2.5 -2.5 0.7 72.5 82.5 89.9 93.4 93.9 91.8 87.7 84.5 81.4 77.2 72.3 72.7 77.2 85.6 95.1 103.1 110.4 117 122.3 127 129 128.8 127 123.7 120.3 116.8 113.9 110 107.3 105.7 105.6 107.5 108 105.9 102.1 99.1 95.9 91.7 87.4 82.5 78 73.7 69.6 66.3 63.4 58.2 61.6 65.8 70.2 74.6 80.6 84 85.9 86.9 88.1 88 85.6 82.8 79.9 77.5 74.6 71.1 73.5 76.3 79.3 81.9 84.5 86 86.2 87 86.6 87.5 88.4 90.3 92.8 94.3 95.5 95.2 95.4 94.2 81.2 57.1 43 33.5 24.7 16.9 12.3 12.6 12.2 12.6 12 13 13.8 15.7 15.9 17 17.9 19.6 21.4 24.2 30.3 33.2 30.6 33.6 36.9 40 42.4 49.1 52.1 55.9 60.3 60.6 59.9 64.2 70 71.4 71.6 72.7 75 76.2
-2.5 -2.5 -2.5 -2.5 -2.5 -2.5 -2.5 -2.5 -2.5 -2.5 -2.5 -2.5 -2.5 -2.5 -2.5 -2.5 -2.5 -2.5 -2.5 -2.5 -2.5 -2.5 -2.5 -2.5 -2.5 -2.5 -2.5 -2.5 -2.5 -2.5 -2.5 -2.5 -2.5 -2.5 -2.5 -2.5 -2.5 -2.5 -2.5 -2.5 -2.5 -2.5 -2.5 -2.5 -2.5 -2.5 -2.5 -2.5 -2.5 -2.5 -2.5 -2.5 -2.5 -2.5 -2.5 -2.5 -2.5 -2.5 -2.5 -2.5 -2.5 -2.5 -2.5 -2.5 -2.5 -2.5 -2.5 -2.5 -2.5 -2.5 -2.5 -2.5 -2.5 -2.5 -2.5 -2.5 -2.5 -2.5 -2.5 -2.5 2.9 81 88.8 91.7 92.9 91 86.6 83.2 80 76.5 70.6 72.6 77.1 85.1 94.2 102.3 109.4 115.9 121.3 126.2 129.3 129.3 126.2 123.2 120.1 116.7 112.5 108.2 104.8 102.8 102.2 103.4 104.4 104 100.9 97.7 94.2 90.1 86 82 79 74.1 69.4 66.6 63.5 58.9 59.9 64.8 69.8 73.9 80.1 84.7 86.7 87.5 87.5 87.4 85.1 82.8 80 76.6 73 70.5 73.3 75.9 78.8 81.7 84.8 85.8 86.4 86.6 87.7 88.9 90.7 92.3 95.2 97.6 99.9 102.3 103.8 102.1 97.4 75.7 55.9 36.1 24.5 14.4 11.9 11.1 12.4 13 12.6 12.7 13.2 14.2 15.3 16.3 17.4 19.4 21.7 25.6 32.3 35.9 34.8 33.4 35.9 38.6 43 50.8 57.5 56.9 58.4 60.4 64.4 69 66.2 71.7 73.1 73.8 75.7 77.6
-2.5 -2.5 -2.5 -2.5 -2.5 -2.5 -2.5 -2.5 -2.5 -2.5 -2.5 -2.5 -2.5 -2.5 -2.5 -2.5 -2.5 -2.5 -2.5 -2.5 -2.5 -2.5 -2.5 -2.5 -2.5 -2.5 -2.5 -2.5 -2.5 -2.5 -2.5 -2.5 -2.5 -2.5 -2.5 -2.5 -2.5 -2.5 -2.5 -2.5 -2.5 -2.5 -2.5 -2.5 -2.5 -2.5 -2.5 -2.5 -2.5 -2.5 -2.5 -2.5 -2.5 -2.5 -2.5 -2.5 -2.5 -2.5 -2.5 -2.5 -2.5 -2.5 -2.5 -2.5 -2.5 -2.5 -2.5 -2.5 -2.5 -2.5 -2.5 -2.5 -2.5 -2.5 -2.5 -2.5 -2.5 -2.5 -2.5 -2.5 1.6 78.1 86.3 90.4 91.3 91 85.8 81.6 78.2 74.3 69 71.2 76.7 84 92.4 102.4 108.8 114 119.9 125.9 129.1 129.7 126.6 123 119.2 114.7 110.4 106.3 102.4 99.3 98.1 99.9 101.5 101.1 99 95.9 92.7 89.1 85 81.8 79.3 73.5 68.9 65.9 63.3 57.1 59.6 64.3 69.6 73.8 79.2 85.6 88.7 89 86.5 86.6 84.3 81.8 78.6 75.2 71.9 69.7 72.3 75.6 78.5 81.6 84.4 85.3 86.1 87.2 89.3 91 92.1 94.9 97.6 99.7 102.9 106.3 107.9 106.3 101.8 85 66.5 42.8 23.8 15.7 12.3 11.6 12.4 12.1 12.1 12.5 13.9 14.5 15.7 16.3 18.2 18.5 21.3 27.3 33.2 37.4 39.5 37.8 40.4 40.2 45.2 51.9 57.5 59.1 60 63.3 67.9 70.4 71.3 69.1 73.1 75 77.6 79.5
-2.5 -2.5 -2.5 -2.5 -2.5 -2.5 -2.5 -2.5 -2.5 -2.5 -2.5 -2.5 -2.5 -2.5 -2.5 -2.5 -2.5 -2.5 -2.5 -2.5 -2.5 -2.5 -2.5 -2.5 -2.5 -2.5 -2.5 -2.5 -2.5 -2.5 -2.5 -2.5 -2.5 -2.5 -2.5 -2.5 -2.5 -2.5 -2.5 -2.5 -2.5 -2.5 -2.5 -2.5 -2.5 -2.5 -2.5 -2.5 -2.5 -2.5 -2.5 -2.5 -2.5 -2.5 -2.5 -2.5 -2.5 -2.5 -2.5 -2.5 -2.5 -2.5 -2.5 -2.5 -2.5 -2.5 -2.5 -2.5 -2.5 -2.5 -2.5 -2.5 -2.5 -2.5 -2.5 -2.5 -2.5 -2.5 -2.5 -2.5 -2.5 74.9 84.6 88.3 90 88.8 84.7 79.7 75.9 72.5 67.6 69.6 76.8 83.4 90.6 101.1 107.8 114 118.8 124.4 128.8 130.6 127.4 122.6 118 113.4 109.1 104.4 100.2 96.3 94 96.3 97.6 97.6 96.6 94.9 91.6 88.4 85.2 81 77.9 72.3 67.5 65.3 61.9 53.9 60.4 64.5 70.2 75.1 79.9 84.6 88.2 88.8 88.3 86.4 84.1 81.2 77.1 73.8 70.5 69.4 72.1 75.3 78.6 81.4 84.1 85.3 86.3 88.3 90.7 92.7 94.1 96.6 99.2 101.3 104.1 107.1 110.1 108.6 102.3 88.5 68.7 46.3 24.8 14.7 14.2 11.5 12.3 12 12.2 12.4 13.3 14.2 14.9 15.9 18.4 18.3 20.8 30.3 34.7 38.2 40.5 40.4 43.7 42.8 44.8 50.1 55 57.4 61.2 65.2 70.9 72.1 74.2 71.9 74.9 77.7 80.2 81.3
-2.5 -2.5 -2.5 -2.5 -2.5 -2.5 -2.5 -2.5 -2.5 -2.5 -2.5 -2.5 -2.5 -2.5 -2.5 -2.5 -2.5 -2.5 -2.5 -2.5 -2.5 -2.5 -2.5 -2.5 -2.5 -2.5 -2.5 -2.5 -2.5 -2.5 -2.5 -2.5 -2.5 -2.5 -2.5 -2.5 -2.5 -2.5 -2.5 -2.5 -2.5 -2.5 -2.5 -2.5 -2.5 -2.5 -2.5 -2.5 -2.5 -2.5 -2.5 -2.5 -2.5 -2.5 -2.5 -2.5 -2.5 -2.5 -2.5 -2.5 -2.5 -2.5 -2.5 -2.5 -2.5 -2.5 -2.5 -2.5 -2.5 -2.5 -2.5 -2.5 -2.5 -2.5 -2.5 -2.5 -2.5 -2.5 -2.5 -2.5 -2.5 44.2 81.8 86.2 88.2 87 83.3 78.2 73.9 70.5 66.1 69.3 74.3 82 89.7 98.4 106.3 113.7 119 124.4 129.1 131.3 129.3 123.7 117 112.6 107.9 103.3 98 93.3 90.3 93.3 94.5 94.6 93.9 92.7 89.9 86.9 84.2 81.7 76.7 71 67.1 63.3 58.2 56.5 61.5 65.4 70.9 76 80.3 84.8 89 89.2 87.9 86.5 83.8 80.1 75.1 72 69 69.4 71.9 74.5 78.1 80.8 83.5 84.6 85.9 88.2 90.9 94 96 98.4 100.2 103.1 105.1 108.3 110.9 108.5 100.5 87.7 67.9 46.2 24.8 13.6 10.5 11.2 12 12 12.3 12.4 12.9 13.7 14.4 15.1 16.5 18 25.6 32.2 35.6 39.2 41.3 40.1 43 45.8 47.7 50.4 53.2 57.8 62.3 67.8 72.9 75.2 76.7 75.7 78 80.1 81.6 82.2
-2.5 -2.5 -2.5 -2.5 -2.5 -2.5 -2.5 -2.5 -2.5 -2.5 -2.5 -2.5 -2.5 -2.5 -2.5 -2.5 -2.5 -2.5 -2.5 -2.5 -2.5 -2.5 -2.5 -2.5 -2.5 -2.5 -2.5 -2.5 -2.5 -2.5 -2.5 -2.5 -2.5 -2.5 -2.5 -2.5 -2.5 -2.5 -2.5 -2.5 -2.5 -2.5 -2.5 -2.5 -2.5 -2.5 -2.5 -2.5 -2.5 -2.5 -2.5 -2.5 -2.5 -2.5 -2.5 -2.5 -2.5 -2.5 -2.5 -2.5 -2.5 -2.5 -2.5 -2.5 -2.5 -2.5 -2.5 -2.5 -2.5 -2.5 -2.5 -2.5 -2.5 -2.5 -2.5 -2.5 -2.5 -2.5 -2.5 -2.5 -2.5 -2.5 79.2 83.9 85.8 85.6 81.9 77.5 72.9 69.6 64.6 67.7 73.1 80.3 89.3 97.7 104.7 112.7 118.4 124.4 128.4 131.6 130.3 124.9 117.6 111.8 107.2 102 96.2 91.5 87.7 90.5 91.7 91.6 90.9 89.8 87.7 85.4 83.1 80.3 75.7 69.9 66.2 58.6 52.2 58.9 62.7 66.3 71.7 76.3 81.1 86 89.7 89.9 89 85.8 83.4 78.9 73.7 70.2 67.9 68.5 71.2 74 77.5 80.8 82.8 84.1 85.6 88 91.3 94.5 96.5 98.6 100.3 103.3 106.2 109.3 110.1 107.3 97.5 85.5 65.9 44 23.2 12.8 10.7 11.3 12.1 12.3 11.9 12.2 12.8 13.3 14 14.9 16.7 21.4 27.9 32.4 36.2 40 40.6 44 47.5 50.8 51.9 53.7 54.1 57.2 64.9 69.4 74.6 77.3 78.4 78.8 80 81.7 82.6 83.2
-2.5 -2.5 -2.5 -2.5 -2.5 -2.5 -2.5 -2.5 -2.5 -2.5 -2.5 -2.5 -2.5 -2.5 -2.5 -2.5 -2.5 -2.5 -2.5 -2.5 -2.5 -2.5 -2.5 -2.5 -2.5 -2.5 -2.5 -2.5 -2.5 -2.5 -2.5 -2.5 -2.5 -2.5 -2.5 -2.5 -2.5 -2.5 -2.5 -2.5 -2.5 -2.5 -2.5 -2.5 -2.5 -2.5 -2.5 -2.5 -2.5 -2.5 -2.5 -2.5 -2.5 -2.5 -2.5 -2.5 -2.5 -2.5 -2.5 -2.5 -2.5 -2.5 -2.5 -2.5 -2.5 -2.5 -2.5 -2.5 -2.5 -2.5 -2.5 -2.5 -2.5 -2.5 -2.5 -2.5 -2.5 -2.5 -2.5 -2.5 -2.5 -2.5 75.7 81.6 83.3 84.1 80.6 76.4 72.2 67.8 62.5 64.8 72.1 78.2 87.5 95.9 103.8 111.3 117.2 123.2 128.1 131.2 131.3 126.2 119 111.8 106 99.7 94.7 90.2 85.3 87.1 88.9 88.5 87.8 86.8 85.4 84.2 82 78.8 74.5 68.5 65.2 60 52.2 59.5 62.9 67.5 72.4 77.6 82.2 86.4 90 89.7 88.7 86.4 81.8 77.6 73.3 69 66.3 67.7 70.3 73.1 77 80 82.3 83.8 85.4 88.6 91.7 94.3 96.2 98.2 100.1 103.3 106.9 110 108.5 103 93 79.7 62.7 41.8 21 13.8 11.7 11.9 12.1 12 12 12.2 12.5 13.1 13.9 14.9 17.5 22.1 29.3 33.4 37.3 42.1 45.5 48.1 51.7 53.3 53 54.1 56.8 62.1 67 69.3 75.9 79.3 79.8 81.3 82.2 82.7 83.6 84.2
-2.5 -2.5 -2.5 -2.5 -2.5 -2.5 -2.5 -2.5 -2.5 -2.5 -2.5 -2.5 -2.5 -2.5 -2.5 -2.5 -2.5 -2.5 -2.5 -2.5 -2.5 -2.5 -2.5 -2.5 -2.5 -2.5 -2.5 -2.5 -2.5 -2.5 -2.5 -2.5 -2.5 -2.5 -2.5 -2.5 -2.5 -2.5 -2.5 -2.5 -2.5 -2.5 -2.5 -2.5 -2.5 -2.5 -2.5 -2.5 -2.5 -2.5 -2.5 -2.5 -2.5 -2.5 -2.5 -2.5 -2.5 -2.5 -2.5 -2.5 -2.5 -2.5 -2.5 -2.5 -2.5 -2.5 -2.5 -2.5 -2.5 -2.5 -2.5 -2.5 -2.5 -2.5 -2.5 -2.5 -2.5 -2.5 -2.5 -2.5 -2.5 -2.5 2.3 78.5 80.6 81.6 78.2 74.4 70.1 66.4 60.1 62.4 69.9 76.5 85.7 94.3 102.5 108.8 115 121.8 127.3 130.3 131.8 127.4 120.9 112.5 106.7 100.1 94.8 88.9 82 80 80 80.6 81.7 82.2 81.5 81 80.1 77.5 73.7 67.6 63.3 57.3 49.9 59.5 63.5 68.9 74.3 79.2 83.3 87.5 90.7 91.3 89 84.8 80.5 76.1 71.8 67.9 65.3 67 69.4 72.4 75.9 79.4 81.7 83.8 85.7 89.2 92.3 94.1 95.2 97.3 100 103.2 106.5 108.1 105.3 97.5 87.4 73.5 59.4 37.9 17.8 10.7 11.3 11.3 11.4 11.6 11.9 12.4 13.2 13.6 14.5 16.1 19.3 24.2 30 34.6 38.8 44.7 48.6 51.4 54.5 51.4 49.3 54.2 60.6 65.3 66.9 72.3 77.9 81.3 81.8 82.4 83.6 83.7 84.4 84.9
-2.5 -2.5 -2.5 -2.5 -2.5 -2.5 -2.5 -2.5 -2.5 -2.5 -2.5 -2.5 -2.5 -2.5 -2.5 -2.5 -2.5 -2.5 -2.5 -2.5 -2.5 -2.5 -2.5 -2.5 -2.5 -2.5 -2.5 -2.5 -2.5 -2.5 -2.5 -2.5 -2.5 -2.5 -2.5 -2.5 -2.5 -2.5 -2.5 -2.5 -2.5 -2.5 -2.5 -2.5 -2.5 -2.5 -2.5 -2.5 -2.5 -2.5 -2.5 -2.5 -2.5 -2.5 -2.5 -2.5 -2.5 -2.5 -2.5 -2.5 -2.5 -2.5 -2.5 -2.5 -2.5 -2.5 -2.5 -2.5 -2.5 -2.5 -2.5 -2.5 -2.5 -2.5 -2.5 -2.5 -2.5 -2.5 -2.5 -2.5 -2.5 -2.5 1.1 74.7 77.6 79.3 76.6 72 67.9 64.9 58.1 61.2 67.6 74.5 83.8 92.2 100 106.6 113.1 120.5 125.8 129.2 131.9 129.9 122.4 113.5 106.8 100.8 95.6 87.5 87 85.4 81.7 80.5 77.6 73.8 76.3 76.5 76.7 75.3 72 65.7 61.1 53.7 50.1 58.9 63.9 69.8 75.6 79.6 83.7 88 90.1 90.3 88.3 83.7 79.1 74.5 70 66.4 64.7 66.7 69.9 72.3 75.6 78.2 80.2 83.2 86.1 89.4 92.6 93.8 94.6 96.4 99 101.8 104.4 103.8 99.2 90.6 80.7 67.4 51.9 31.9 14.7 10.3 10.8 12.5 11.6 11.8 12.1 13.2 13.8 14.7 15.2 17.5 20.7 25.5 30.4 33.7 36.2 45.1 51.1 53.4 50.7 47.6 51 57.3 60.5 64.9 70 75.9 80.8 82.8 83.7 84.4 85.4 85.1 84.7 85.1
-2.5 -2.5 -2.5 -2.5 -2.5 -2.5 -2.5 -2.5 -2.5 -2.5 -2.5 -2.5 -2.5 -2.5 -2.5 -2.5 -2.5 -2.5 -2.5 -2.5 -2.5 -2.5 -2.5 -2.5 -2.5 -2.5 -2.5 -2.5 -2.5 -2.5 -2.5 -2.5 -2.5 -2.5 -2.5 -2.5 -2.5 -2.5 -2.5 -2.5 -2.5 -2.5 -2.5 -2.5 -2.5 -2.5 -2.5 -2.5 -2.5 -2.5 -2.5 -2.5 -2.5 -2.5 -2.5 -2.5 -2.5 -2.5 -2.5 -2.5 -2.5 -2.5 -2.5 -2.5 -2.5 -2.5 -2.5 -2.5 -2.5 -2.5 -2.5 -2.5 -2.5 -2.5 -2.5 -2.5 -2.5 -2.5 -2.5 -2.5 -2.5 -2.5 -2.5 70.5 73.2 74.8 73.4 68.7 66 63.3 57.7 55.5 64.1 71.7 79.9 88.7 97.6 105 111.4 118 124.7 129.4 132.7 131.9 125.5 116.3 109 102.7 97.2 90.5 91 91.1 91.4 87.6 81.1 72.7 67.6 70.7 72.2 72.1 69.2 64.4 57 47.3 50.5 58.2 63.5 70.9 75.9 80.2 84.2 87.5 89.6 89.1 86.7 82.4 77.6 73 68.3 65.7 64 66.5 69.7 72.5 75.2 77.7 79.6 82.9 86.2 89.5 92.9 93.8 94.6 96.1 98.6 100.4 100.2 97.6 92.8 84.3 73.2 61.8 43 25.4 13.1 10.6 11 11 11.8 11.8 12.1 13.3 13.6 14.8 15.8 17.3 19.7 21.5 24.2 27.9 33.3 41.4 48.3 47.1 45.7 51.1 57.3 60.7 65.3 68.4 73.3 78.7 82.8 85.4 86.6 86.3 86.5 86.4 85.8 86.3
-2.5 -2.5 -2.5 -2.5 -2.5 -2.5 -2.5 -2.5 -2.5 -2.5 -2.5 -2.5 -2.5 -2.5 -2.5 -2.5 -2.5 -2.5 -2.5 -2.5 -2.5 -2.5 -2.5 -2.5 -2.5 -2.5 -2.5 -2.5 -2.5 -2.5 -2.5 -2.5 -2.5 -2.5 -2.5 -2.5 -2.5 -2.5 -2.5 -2.5 -2.5 -2.5 -2.5 -2.5 -2.5 -2.5 -2.5 -2.5 -2.5 -2.5 -2.5 -2.5 -2.5 -2.5 -2.5 -2.5 -2.5 -2.5 -2.5 -2.5 -2.5 -2.5 -2.5 -2.5 -2.5 -2.5 -2.5 -2.5 -2.5 -2.5 -2.5 -2.5 -2.5 -2.5 -2.5 -2.5 -2.5 -2.5 -2.5 -2.5 -2.5 -2.5 -2.5 54 69.2 70.4 70.7 65.8 62.3 60.5 58.1 50.4 62.4 70.6 78.3 86.8 94.9 102.2 109.8 117.4 124.5 129.6 133.6 133.7 130.8 120 111.6 105.7 99.6 94.9 95 96.2 94 90 84.4 77.4 70 67.3 67.4 67.2 65.9 60.7 53.5 43.5 51.9 57.7 63.4 70.8 76 80.2 83.5 86.7 88.1 87.8 85.1 80.8 76 71.1 66.8 64.2 63.4 66.7 69.1 72.2 76.1 78.2 80 82.9 87 90.2 93.1 94.1 95.4 97.3 97.8 97.3 95.5 91.3 85.7 77.6 66.8 52.9 32.9 18.9 8.7 10.8 10.6 10.5 11.1 12.3 13 13.7 14.2 14.8 16.5 19.6 21.7 25.9 26.9 28.6 32.8 31.2 35.9 42.9 50.3 55.5 61.9 63.4 65.4 69.8 75.1 80 84.9 88.2 88.4 88.1 87.7 88.3 87.8 87.6
-2.5 -2.5 -2.5 -2.5 -2.5 -2.5 -2.5 -2.5 -2.5 -2.5 -2.5 -2.5 -2.5 -2.5 -2.5 -2.5 -2.5 -2.5 -2.5 -2.5 -2.5 -2.5 -2.5 -2.5 -2.5 -2.5 -2.5 -2.5 -2.5 -2.5 -2.5 -2.5 -2.5 -2.5 -2.5 -2.5 -2.5 -2.5 -2.5 -2.5 -2.5 -2.5 -2.5 -2.5 -2.5 -2.5 -2.5 -2.5 -2.5 -2.5 -2.5 -2.5 -2.5 -2.5 -2.5 -2.5 -2.5 -2.5 -2.5 -2.5 -2.5 -2.5 -2.5 -2.5 -2.5 -2.5 -2.5 -2.5 -2.5 -2.5 -2.5 -2.5 -2.5 -2.5 -2.5 -2.5 -2.5 -2.5 -2.5 -2.5 -2.5 -2.5 -2.5 -2.5 65.3 65 65.4 64.7 59.2 57.1 55.7 47.9 59.7 67.2 75.4 84.8 93.1 100.5 107.8 117 124.8 130.2 134.2 135.4 133.7 124.6 114.5 108.5 103.9 99 98.6 99.9 96.7 91.2 85 78.4 71.8 68.6 64.8 61.2 60.6 57.3 50.2 43.2 50.5 56.5 62.7 69.4 75.3 79.3 82.3 84.8 85.9 85.6 82.8 78.3 73.8 69.4 65.3 62.9 63.7 65.9 69.1 73.4 76.3 78.8 80.7 83.3 88 92 94.4 94.6 95.7 96.1 94.7 92.6 89.6 85.2 78.4 69.7 60 41.6 25.5 14.2 8.8 9.9 10.3 10.4 10.7 11.5 12.9 13.3 14.2 15.1 18.6 25.9 29.8 36.7 43.1 46.8 47.7 44.2 44.3 40.7 48.3 57 62.2 66.9 67.1 70.6 75.8 79.9 85.1 88.7 89.4 88.8 88.7 89 89.5 89.4
-2.5 -2.5 -2.5 -2.5 -2.5 -2.5 -2.5 -2.5 -2.5 -2.5 -2.5 -2.5 -2.5 -2.5 -2.5 -2.5 -2.5 -2.5 -2.5 -2.5 -2.5 -2.5 -2.5 -2.5 -2.5 -2.5 -2.5 -2.5 -2.5 -2.5 -2.5 -2.5 -2.5 -2.5 -2.5 -2.5 -2.5 -2.5 -2.5 -2.5 -2.5 -2.5 -2.5 -2.5 -2.5 -2.5 -2.5 -2.5 -2.5 -2.5 -2.5 -2.5 -2.5 -2.5 -2.5 -2.5 -2.5 -2.5 -2.5 -2.5 -2.5 -2.5 -2.5 -2.5 -2.5 -2.5 -2.5 -2.5 -2.5 -2.5 -2.5 -2.5 -2.5 -2.5 -2.5 -2.5 -2.5 -2.5 -2.5 -2.5 -2.5 -2.5 -2.5 -2.5 2.6 60.1 60.9 62 59 54.9 50.7 44.5 54.3 63.4 73.3 83.8 92.2 100.3 106.7 115.9 124 129.9 134 136.3 135.9 129.8 120.1 112.5 107.5 103.5 102.4 102.4 97.8 92.8 86 80 73.7 68.2 64.4 60.2 55.2 51.9 46.3 41 48.2 54.3 61.1 68.1 74.1 77.7 80.4 82.8 83.8 83.1 80 76.4 72.3 68.1 63.7 61 63.8 66.8 70.8 76.5 78.5 79.6 81.3 84.6 89 93 94.7 95.1 95.6 94 91.9 88.7 84.5 79 69.1 61.5 48.7 29.7 17.4 12.2 10.4 9.7 10.1 10.2 10.1 11.2 11.4 12.2 12.4 14.6 22.4 29.2 35.4 43.8 52.5 53.5 59.6 59.1 53.5 47 43 52.3 60.1 62.1 67 69.1 74.7 79.4 84.2 88.5 88.9 89 89.3 90.3 90.7 91.3
-2.5 -2.5 -2.5 -2.5 -2.5 -2.5 -2.5 -2.5 -2.5 -2.5 -2.5 -2.5 -2.5 -2.5 -2.5 -2.5 -2.5 -2.5 -2.5 -2.5 -2.5 -2.5 -2.5 -2.5 -2.5 -2.5 -2.5 -2.5 -2.5 -2.5 -2.5 -2.5 -2.5 -2.5 -2.5 -2.5 -2.5 -2.5 -2.5 -2.5 -2.5 -2.5 -2.5 -2.5 -2.5 -2.5 -2.5 -2.5 -2.5 -2.5 -2.5 -2.5 -2.5 -2.5 -2.5 -2.5 -2.5 -2.5 -2.5 -2.5 -2.5 -2.5 -2.5 -2.5 -2.5 -2.5 -2.5 -2.5 -2.5 -2.5 -2.5 -2.5 -2.5 -2.5 -2.5 -2.5 -2.5 -2.5 -2.5 -2.5 -2.5 -2.5 -2.5 -2.5 -2.5 55.5 56.7 57.8 57.1 52.8 47.6 42.6 50.3 61.8 71.6 82 90.8 98.5 105.6 114.1 122.1 128.6 133.4 137.1 137.4 133.4 125.1 117.2 110.8 107.1 105.9 103.9 98.3 94.4 88.9 80.1 73.4 67.7 63.5 58.1 53.5 47.3 44.5 38.2 44.9 52.1 59.3 66.4 72.2 75.3 77.5 79.9 81.1 80.4 77.4 74 70.2 66.3 62.3 63.4 65.2 69.8 73.6 77.9 80.5 81.2 83.3 86.9 91 94 95.2 94.4 94.4 91.8 88.9 83.8 77.7 70.2 60.5 50.5 36.5 19.5 13.8 10.6 10.4 9.8 9.9 10.1 10.3 11.1 11.3 12.1 14 19.1 26.5 33.8 40.7 48 54.7 60.5 68.1 67.8 63.9 55.8 49.8 47.3 51.6 60.8 68.9 70.4 72.9 79.5 84.8 88.4 89.4 89.2 89.5 90.5 91.2 92.2
-2.5 -2.5 -2.5 -2.5 -2.5 -2.5 -2.5 -2.5 -2.5 -2.5 -2.5 -2.5 -2.5 -2.5 -2.5 -2.5 -2.5 -2.5 -2.5 -2.5 -2.5 -2.5 -2.5 -2.5 -2.5 -2.5 -2.5 -2.5 -2.5 -2.5 -2.5 -2.5 -2.5 -2.5 -2.5 -2.5 -2.5 -2.5 -2.5 -2.5 -2.5 -2.5 -2.5 -2.5 -2.5 -2.5 -2.5 -2.5 -2.5 -2.5 -2.5 -2.5 -2.5 -2.5 -2.5 -2.5 -2.5 -2.5 -2.5 -2.5 -2.5 -2.5 -2.5 -2.5 -2.5 -2.5 -2.5 -2.5 -2.5 -2.5 -2.5 -2.5 -2.5 -2.5 -2.5 -2.5 -2.5 -2.5 -2.5 -2.5 -2.5 -2.5 -2.5 -2.5 -2.5 10.4 52.4 53.2 53.7 50.9 45.2 25.6 48.8 59.1 68.4 78.5 89.1 97 104.2 112.4 120.5 127.2 133.5 137.3 138.9 135 128.1 121.2 116.3 111.8 108.5 104.7 99.1 93.9 88.8 80.4 74.5 69.5 64.3 60 56 49.8 44.1 36.9 41.3 47.9 56.4 63.6 67.3 70.2 72.9 75.4 77.3 77.2 75 71.6 68.3 63.9 63.4 64.5 66.3 71.5 76.1 79.2 82 83.3 85.6 89.3 92.5 94.9 95 93.5 92.4 89.2 83.6 77.4 68.3 57.9 46.6 36 23.9 15.2 12 9.7 10.4 9.6 10.2 10.3 10.4 11 11.4 12.7 16.2 25.5 33.3 40.4 51.3 56.5 69 78.8 80.1 75.5 70.4 61 57.4 55.1 61.6 56.2 66.8 73.1 73.7 77.4 83.1 88.1 90.2 89.3 89.5 90.9 92 93.2
-2.5 -2.5 -2.5 -2.5 -2.5 -2.5 -2.5 -2.5 -2.5 -2.5 -2.5 -2.5 -2.5 -2.5 -2.5 -2.5 -2.5 -2.5 -2.5 -2.5 -2.5 -2.5 -2.5 -2.5 -2.5 -2.5 -2.5 -2.5 -2.5 -2.5 -2.5 -2.5 -2.5 -2.5 -2.5 -2.5 -2.5 -2.5 -2.5 -2.5 -2.5 -2.5 -2.5 -2.5 -2.5 -2.5 -2.5 -2.5 -2.5 -2.5 -2.5 -2.5 -2.5 -2.5 -2.5 -2.5 -2.5 -2.5 -2.5 -2.5 -2.5 -2.5 -2.5 -2.5 -2.5 -2.5 -2.5 -2.5 -2.5 -2.5 -2.5 -2.5 -2.5 -2.5 -2.5 -2.5 -2.5 -2.5 -2.5 -2.5 -2.5 -2.5 -2.5 -2.5 -2.5 -2.5 49.5 49.5 49.2 43.6 24.4 27.9 46.2 56.7 66.9 76.9 87.8 95.2 102.2 111 119.5 127.1 134.4 138.2 139.9 137 131.3 124.4 119 114.2 110.1 106.8 101 95.7 89.2 81.6 76.1 70.3 65.4 60.6 56.6 51 45.1 35.8 37.2 43.6 53.1 59.7 62.4 65.1 67.9 70.5 73.1 74 72.1 69.3 65.9 58.2 63.6 66.6 69.6 73.5 77.9 80.9 83.2 85.5 88.2 91.3 94.3 95.5 94.6 92.6 89.2 83.2 77.5 67.1 55.8 41.2 32.6 22.4 15.5 12.8 10.4 9.7 9.8 9.9 10.6 10.9 10.7 11.1 12.3 17.1 24.3 31.5 39.8 49.3 64.9 75.5 86.4 91.6 91.3 85.6 75.5 71 64.2 59.8 63.2 69.6 63.6 73.1 76.2 78.8 83.7 87.3 89.6 89 89.4 90.9 92.4 93.4
-2.5 -2.5 -2.5 -2.5 -2.5 -2.5 -2.5 -2.5 -2.5 -2.5 -2.5 -2.5 -2.5 -2.5 -2.5 -2.5 -2.5 -2.5 -2.5 -2.5 -2.5 -2.5 -2.5 -2.5 -2.5 -2.5 -2.5 -2.5 -2.5 -2.5 -2.5 -2.5 -2.5 -2.5 -2.5 -2.5 -2.5 -2.5 -2.5 -2.5 -2.5 -2.5 -2.5 -2.5 -2.5 -2.5 -2.5 -2.5 -2.5 -2.5 -2.5 -2.5 -2.5 -2.5 -2.5 -2.5 -2.5 -2.5 -2.5 -2.5 -2.5 -2.5 -2.5 -2.5 -2.5 -2.5 -2.5 -2.5 -2.5 -2.5 -2.5 -2.5 -2.5 -2.5 -2.5 -2.5 -2.5 -2.5 -2.5 -2.5 -2.5 -2.5 -2.5 -2.5 -2.5 -2.5 -2.5 2.9 43.6 24.1 12.5 37 43.3 53.9 64.3 76.3 86.9 94.9 101.1 110.1 119 127.8 135.4 139.6 140.6 138.1 133.7 127.4 121.2 116.3 111.7 107.6 102.7 97.2 91 84.7 76.5 70.5 65.8 61 55.9 50.5 45 37.7 34 40.9 48.1 54.6 57.7 60.4 63.1 65.9 68.6 68.9 67.5 65.1 61.8 60.8 64.5 67.6 71 74.6 79.2 83.1 85.8 87.9 91 93.7 95.5 95.5 92.6 88.5 82.8 76.3 67.7 54.8 38.8 25.3 16.5 13.7 12.1 10 9.1 9.4 9.9 10.5 10.7 10.8 11.1 12.7 17.9 24.6 30.3 37.6 45.3 62.8 78.8 89.9 96.8 100.8 99.4 93.5 82.5 77.1 73.1 68.8 69 72.7 70.3 67.1 75.5 79.3 81.8 86.1 88.2 88.9 88.9 90 91.2 94.4
-2.5 -2.5 -2.5 -2.5 -2.5 -2.5 -2.5 -2.5 -2.5 -2.5 -2.5 -2.5 -2.5 -2.5 -2.5 -2.5 -2.5 -2.5 -2.5 -2.5 -2.5 -2.5 -2.5 -2.5 -2.5 -2.5 -2.5 -2.5 -2.5 -2.5 -2.5 -2.5 -2.5 -2.5 -2.5 -2.5 -2.5 -2.5 -2.5 -2.5 -2.5 -2.5 -2.5 -2.5 -2.5 -2.5 -2.5 -2.5 -2.5 -2.5 -2.5 -2.5 -2.5 -2.5 -2.5 -2.5 -2.5 -2.5 -2.5 -2.5 -2.5 -2.5 -2.5 -2.5 -2.5 -2.5 -2.5 -2.5 -2.5 -2.5 -2.5 -2.5 -2.5 -2.5 -2.5 -2.5 -2.5 -2.5 -2.5 -2.5 -2.5 -2.5 -2.5 -2.5 -2.5 -2.5 -2.5 -2.5 1 1.3 2.8 34.2 40.3 51.5 62.6 75.4 86.4 94 100.9 109.5 119.4 129.5 136.3 139.3 140.6 138.3 135.5 129.1 122.4 116.9 111.3 108.1 105.3 99.2 92.5 86.2 79.4 72.3 66.6 61.2 55.9 50 44.6 38.9 33.5 39.2 44.3 49.5 54.5 57.3 60 63 56.5 47 47.7 48.9 53.3 61.1 65.4 68.9 73.4 76.2 81.6 85.2 87.7 90.5 94.2 96.2 95.6 93.7 89.1 82.2 76.5 68.6 55.9 41.2 26 15.7 11.8 10.2 10.4 9.7 9.2 9.5 9.8 10.1 10.7 11.8 12.5 16.1 23.6 29.4 36.9 41.3 58.6 76 92.1 102.3 103.8 105.5 104.6 100.2 93 86.5 82.5 76.3 74.3 76.4 77.3 64.5 76.8 77.4 80.7 85.3 87.6 88.6 88.8 90 92.3 95
-2.5 -2.5 -2.5 -2.5 -2.5 -2.5 -2.5 -2.5 -2.5 -2.5 -2.5 -2.5 -2.5 -2.5 -2.5 -2.5 -2.5 -2.5 -2.5 -2.5 -2.5 -2.5 -2.5 -2.5 -2.5 -2.5 -2.5 -2.5 -2.5 -2.5 -2.5 -2.5 -2.5 -2.5 -2.5 -2.5 -2.5 -2.5 -2.5 -2.5 -2.5 -2.5 -2.5 -2.5 -2.5 -2.5 -2.5 -2.5 -2.5 -2.5 -2.5 -2.5 -2.5 -2.5 -2.5 -2.5 -2.5 -2.5 -2.5 -2.5 -2.5 -2.5 -2.5 -2.5 -2.5 -2.5 -2.5 -2.5 -2.5 -2.5 -2.5 -2.5 -2.5 -2.5 -2.5 -2.5 -2.5 -2.5 -2.5 -2.5 -2.5 -2.5 -2.5 -2.5 -2.5 -2.5 -2.5 -2.5 -2.5 -2.5 0.2 3 37.6 49.4 61.7 74.5 85.7 93.5 100.6 109.4 119.9 130.2 135.6 138.2 139.7 137.2 134.6 128.5 122 115.3 109.5 106.4 104.2 100.3 94.4 88.6 83 75.3 67.6 61.1 55 49.5 45.2 41.6 32.3 37.2 42.1 45.3 51 54.7 57.1 50.5 43.6 52.2 59.1 60.1 60.3 63.3 65.8 70.7 74.7 78.3 84.9 87.5 89.6 93.2 96 96.6 94.7 89.1 82.8 75.6 69.3 60.7 47.7 31.6 18.5 11.2 9.7 11.6 10.1 9.7 9.4 9.8 10.2 10.5 12.9 14.3 18.5 24.3 30.8 37.1 43.1 55.5 73.6 88.7 101.5 105.5 106.2 107.3 107.2 106.7 103.2 97.1 91.3 84.1 79.7 80.1 78.6 72.4 74.4 79.7 81.6 85 87.8 88.8 89.8 91.4 91.7 95.7
-2.5 -2.5 -2.5 -2.5 -2.5 -2.5 -2.5 -2.5 -2.5 -2.5 -2.5 -2.5 -2.5 -2.5 -2.5 -2.5 -2.5 -2.5 -2.5 -2.5 -2.5 -2.5 -2.5 -2.5 -2.5 -2.5 -2.5 -2.5 -2.5 -2.5 -2.5 -2.5 -2.5 -2.5 -2.5 -2.5 -2.5 -2.5 -2.5 -2.5 -2.5 -2.5 -2.5 -2.5 -2.5 -2.5 -2.5 -2.5 -2.5 -2.5 -2.5 -2.5 -2.5 -2.5 -2.5 -2.5 -2.5 -2.5 -2.5 -2.5 -2.5 -2.5 -2.5 -2.5 -2.5 -2.5 -2.5 -2.5 -2.5 -2.5 -2.5 -2.5 -2.5 -2.5 -2.5 -2.5 -2.5 -2.5 -2.5 -2.5 -2.5 -2.5 -2.5 -2.5 -2.5 -2.5 -2.5 -2.5 -2.5 -2.5 -2.5 1 4.4 47 60 73.8 83.9 94.1 102.1 109.4 120.1 129.3 133.9 136 137.6 135.7 132.6 127.3 121.4 114.4 107.8 103.4 101.7 99.9 95.7 90.9 84.8 77.6 68.6 62 55.5 48.5 44.1 39.8 32.1 34.2 39.6 41.7 46 47.9 45.2 40.1 53.1 59.2 60.8 61.2 62.1 64.5 67.7 72.5 76.6 82 87.5 89.6 92.1 94.5 97.1 96 91.5 84.6 76.3 68.3 59.1 50.6 37.9 22.5 11.6 10 9.5 9.5 8.7 9.1 9.6 10 10.7 14.3 17.1 20.5 24.2 29.1 35.9 42.8 55.1 71.8 84.2 95.9 103.3 106.9 106 109.1 109.9 110.7 110 106.7 100.2 91.6 84.1 82.9 82.1 80.8 70.1 77 80.9 84.3 87.6 89.4 91.7 91.1 92.4 93.7
-2.5 -2.5 -2.5 -2.5 -2.5 -2.5 -2.5 -2.5 -2.5 -2.5 -2.5 -2.5 -2.5 -2.5 -2.5 -2.5 -2.5 -2.5 -2.5 -2.5 -2.5 -2.5 -2.5 -2.5 -2.5 -2.5 -2.5 -2.5 -2.5 -2.5 -2.5 -2.5 -2.5 -2.5 -2.5 -2.5 -2.5 -2.5 -2.5 -2.5 -2.5 -2.5 -2.5 -2.5 -2.5 -2.5 -2.5 -2.5 -2.5 -2.5 -2.5 -2.5 -2.5 -2.5 -2.5 -2.5 -2.5 -2.5 -2.5 -2.5 -2.5 -2.5 -2.5 -2.5 -2.5 -2.5 -2.5 -2.5 -2.5 -2.5 -2.5 -2.5 -2.5 -2.5 -2.5 -2.5 -2.5 -2.5 -2.5 -2.5 -2.5 -2.5 -2.5 -2.5 -2.5 -2.5 -2.5 -2.5 -2.5 -2.5 -2.5 -0.5 1.5 5.4 56.9 71.8 82.3 95.1 103.7 110.4 119.8 127.5 131.4 133 133.9 132.8 129.8 124.4 119.9 111.5 105.7 100.5 99.7 98.1 95.3 91.6 85.8 78.7 68.6 62 56.2 48.9 43.7 39.7 33.4 31.6 36.4 36.5 34.1 36.8 40.2 49.7 55.5 57.3 59.6 61.2 63.1 65.8 69.3 74.5 79.5 85.5 90.1 92 94.6 96.6 97.1 93.7 86.9 79.2 68.4 59.3 48.2 36.9 26 12.4 10.2 11 10.8 9.2 8.7 9.5 9.9 10.5 13.1 18 21.2 25.5 30.4 37.5 42.2 52 68.4 82.1 91.1 99.1 103.3 105.9 106.8 109.6 111.7 114.4 115.2 112.9 108.5 98.8 88.7 86 84.9 83.7 81.7 78.4 77 83.2 86.9 90.3 92.8 90.7 90.7 93
-2.5 -2.5 -2.5 -2.5 -2.5 -2.5 -2.5 -2.5 -2.5 -2.5 -2.5 -2.5 -2.5 -2.5 -2.5 -2.5 -2.5 -2.5 -2.5 -2.5 -2.5 -2.5 -2.5 -2.5 -2.5 -2.5 -2.5 -2.5 -2.5 -2.5 -2.5 -2.5 -2.5 -2.5 -2.5 -2.5 -2.5 -2.5 -2.5 -2.5 -2.5 -2.5 -2.5 -2.5 -2.5 -2.5 -2.5 -2.5 -2.5 -2.5 -2.5 -2.5 -2.5 -2.5 -2.5 -2.5 -2.5 -2.5 -2.5 -2.5 -2.5 -2.5 -2.5 -2.5 -2.5 -2.5 -2.5 -2.5 -2.5 -2.5 -2.5 -2.5 -2.5 -2.5 -2.5 -2.5 -2.5 -2.5 -2.5 -2.5 -2.5 -2.5 -2.5 -2.5 -2.5 -2.5 -2.5 -2.5 -2.5 -2.5 -2.5 -2.5 -0.3 1.9 25 68.6 82 94.8 101.9 111.1 120.8 126.6 129.3 130.1 130.3 129.3 126.6 121.5 116.5 108.2 101.8 97.5 97 96 93.2 90 85.2 77.8 68.6 61.4 55.6 49.2 43.7 39.4 35.1 29.6 31.2 33.4 38.2 43.3 47.6 50.6 53 55.6 58.7 61.7 64.5 67.4 71.2 75.8 83 88.7 92.6 94.2 96.1 96.8 95 89 80.4 70.7 59.9 48.3 37.3 25.2 13.9 9.5 9.3 10 8.5 8.6 8.9 9.4 10.5 12.9 17.4 22.9 28.1 33 36.8 43.5 49.2 62.1 78.4 87.7 94.7 100.4 102.8 105.5 108.3 112 114.8 117.3 118.7 118.7 114.3 105.7 93.5 88.7 87.9 87.1 85.2 83.2 81.4 82.9 87.3 90 92.4 91.1 90.8 92.5
-2.5 -2.5 -2.5 -2.5 -2.5 -2.5 -2.5 -2.5 -2.5 -2.5 -2.5 -2.5 -2.5 -2.5 -2.5 -2.5 -2.5 -2.5 -2.5 -2.5 -2.5 -2.5 -2.5 -2.5 -2.5 -2.5 -2.5 -2.5 -2.5 -2.5 -2.5 -2.5 -2.5 -2.5 -2.5 -2.5 -2.5 -2.5 -2.5 -2.5 -2.5 -2.5 -2.5 -2.5 -2.5 -2.5 -2.5 -2.5 -2.5 -2.5 -2.5 -2.5 -2.5 -2.5 -2.5 -2.5 -2.5 -2.5 -2.5 -2.5 -2.5 -2.5 -2.5 -2.5 -2.5 -2.5 -2.5 -2.5 -2.5 -2.5 -2.5 -2.5 -2.5 -2.5 -2.5 -2.5 -2.5 -2.5 -2.5 -2.5 -2.5 -2.5 -2.5 -2.5 -2.5 -2.5 -2.5 -2.5 -2.5 -2.5 -2.5 -2.5 -2.5 0.5 2.7 66.6 79.4 89.4 100.4 112.7 121.7 126 127.8 127.1 126.5 125.5 122.7 117.9 112.6 104.7 97.8 93.1 92.9 92.7 91.1 87.8 84.1 78 68.7 61.2 55.1 49.2 43.4 37.6 35.2 29.8 29.9 35.4 40.3 45.1 47.2 48.9 53.9 57.8 60.4 62.7 66.1 69 72.3 78.4 86.2 91.7 94.4 95.8 95.9 95 91.8 83.5 71 59.4 48.1 37 26 15.4 9.7 11 9.9 9 7.8 8.8 9.6 10 11.8 17.1 24.9 30.8 35.2 39.3 44.2 49.4 55.6 71.4 84.1 91.7 96.6 100.5 103.8 108 111.9 115.1 118 119.3 121.3 121.8 118.3 110.2 98.5 91.1 90.2 89.5 88.3 86.9 82 83.7 87.8 90 91.6 91.3 91.6 92.7
-2.5 -2.5 -2.5 -2.5 -2.5 -2.5 -2.5 -2.5 -2.5 -2.5 -2.5 -2.5 -2.5 -2.5 -2.5 -2.5 -2.5 -2.5 -2.5 -2.5 -2.5 -2.5 -2.5 -2.5 -2.5 -2.5 -2.5 -2.5 -2.5 -2.5 -2.5 -2.5 -2.5 -2.5 -2.5 -2.5 -2.5 -2.5 -2.5 -2.5 -2.5 -2.5 -2.5 -2.5 -2.5 -2.5 -2.5 -2.5 -2.5 -2.5 -2.5 -2.5 -2.5 -2.5 -2.5 -2.5 -2.5 -2.5 -2.5 -2.5 -2.5 -2.5 -2.5 -2.5 -2.5 -2.5 -2.5 -2.5 -2.5 -2.5 -2.5 -2.5 -2.5 -2.5 -2.5 -2.5 -2.5 -2.5 -2.5 -2.5 -2.5 -2.5 -2.5 -2.5 -2.5 -2.5 -2.5 -2.5 -2.5 -2.5 -2.5 -2.5 -2.5 -2.5 1.5 31.3 76.2 85.1 98 113 123 126.3 126.5 124.1 123.6 122.1 118.9 113.8 108.3 101.1 94.4 89.1 87.9 88.6 87.3 84.2 81 75.7 67.5 60.4 54.2 47.7 40.9 38.4 34.4 28.5 29.6 34.7 39.6 41.9 45 51.3 55.3 58.9 61.5 63.8 67.2 70.9 75.4 83.1 90 94.5 95.6 95.8 94.2 91.5 85.8 74.8 61.7 48.5 35.9 24.9 14.9 10.1 9.2 10.4 9.1 8.7 8.4 8.8 9.2 11.3 16.9 26.2 32.2 35.6 41.1 45 50.8 54.7 64.5 78.2 88 94.4 99.4 103.4 107.5 111.3 114.9 117.9 120.4 123.2 123.3 125.3 122.2 113.5 103.1 93.8 91.4 91.1 89.7 87.8 81.2 83.8 87.5 89.9 91.5 91.1 91.7 93.5
-2.5 -2.5 -2.5 -2.5 -2.5 -2.5 -2.5 -2.5 -2.5 -2.5 -2.5 -2.5 -2.5 -2.5 -2.5 -2.5 -2.5 -2.5 -2.5 -2.5 -2.5 -2.5 -2.5 -2.5 -2.5 -2.5 -2.5 -2.5 -2.5 -2.5 -2.5 -2.5 -2.5 -2.5 -2.5 -2.5 -2.5 -2.5 -2.5 -2.5 -2.5 -2.5 -2.5 -2.5 -2.5 -2.5 -2.5 -2.5 -2.5 -2.5 -2.5 -2.5 -2.5 -2.5 -2.5 -2.5 -2.5 -2.5 -2.5 -2.5 -2.5 -2.5 -2.5 -2.5 -2.5 -2.5 -2.5 -2.5 -2.5 -2.5 -2.5 -2.5 -2.5 -2.5 -2.5 -2.5 -2.5 -2.5 -2.5 -2.5 -2.5 -2.5 -2.5 -2.5 -2.5 -2.5 -2.5 -2.5 -2.5 -2.5 -2.5 -2.5 -2.5 -2.5 0.5 7.3 70.8 82.3 95.3 112.4 121 123.9 124.6 122.3 121 121.8 115.5 110 104.3 97.6 90.8 85.7 84.6 83.7 82.7 79.8 77.2 72.6 65.8 58.6 52.3 46.1 41.5 36.6 32.7 26.9 27.9 32.2 34.6 41.7 48 52.9 56.7 59.7 62.1 64.6 68.5 73.1 81.9 91.2 94 96.9 96.1 93.8 90.4 85.3 77.5 65.1 51.9 39 26.3 13.9 10.9 9.4 10.5 9.1 8.6 8.3 8.5 8.9 10.3 18.4 27.3 33.2 37.3 40.6 45.9 52.1 56.8 61 72.1 84 91.4 97.9 103 107.3 111 113.7 116.6 119.6 122.1 125.3 124.5 126.4 126.4 116.2 106.2 95.6 92.4 91.3 88.8 86.8 82.2 84.3 88.5 90.1 91.4 90.8 92.3 93.8
-2.5 -2.5 -2.5 -2.5 -2.5 -2.5 -2.5 -2.5 -2.5 -2.5 -2.5 -2.5 -2.5 -2.5 -2.5 -2.5 -2.5 -2.5 -2.5 -2.5 -2.5 -2.5 -2.5 -2.5 -2.5 -2.5 -2.5 -2.5 -2.5 -2.5 -2.5 -2.5 -2.5 -2.5 -2.5 -2.5 -2.5 -2.5 -2.5 -2.5 -2.5 -2.5 -2.5 -2.5 -2.5 -2.5 -2.5 -2.5 -2.5 -2.5 -2.5 -2.5 -2.5 -2.5 -2.5 -2.5 -2.5 -2.5 -2.5 -2.5 -2.5 -2.5 -2.5 -2.5 -2.5 -2.5 -2.5 -2.5 -2.5 -2.5 -2.5 -2.5 -2.5 -2.5 -2.5 -2.5 -2.5 -2.5 -2.5 -2.5 -2.5 -2.5 -2.5 -2.5 -2.5 -2.5 -2.5 -2.5 -2.5 -2.5 -2.5 -2.5 -2.5 -2.5 -2.5 3.2 67.5 80.9 93.6 109.6 117 120.1 121.8 120.5 118.8 118.8 113 107.2 101.4 95 88.4 82.9 81.1 80.5 78 75.4 72.6 68.5 63.2 57.1 50.8 45 40.7 36 31.7 26.1 26.6 30.4 35.1 43.4 49.2 54.2 57.6 60.2 63 66.6 70.8 80.5 88.1 93.3 95.3 96.3 93.7 89.8 85.3 78.4 67.5 54.3 40 28.3 16.8 9.9 9.2 10.2 9.3 8.9 8.6 8.6 8.7 9.8 17.6 27.8 35.7 41 44.9 49.2 51.6 58 63.8 69.4 79.7 89.6 95.6 101.4 106.4 110.2 113.1 114.4 116.5 119.9 123.5 126.7 126 125.5 125.6 119.1 109.1 98.1 93.7 91.4 88.9 86.4 82.9 84.6 88 89.5 91.5 90.5 92.3 94
-2.5 -2.5 -2.5 -2.5 -2.5 -2.5 -2.5 -2.5 -2.5 -2.5 -2.5 -2.5 -2.5 -2.5 -2.5 -2.5 -2.5 -2.5 -2.5 -2.5 -2.5 -2.5 -2.5 -2.5 -2.5 -2.5 -2.5 -2.5 -2.5 -2.5 -2.5 -2.5 -2.5 -2.5 -2.5 -2.5 -2.5 -2.5 -2.5 -2.5 -2.5 -2.5 -2.5 -2.5 -2.5 -2.5 -2.5 -2.5 -2.5 -2.5 -2.5 -2.5 -2.5 -2.5 -2.5 -2.5 -2.5 -2.5 -2.5 -2.5 -2.5 -2.5 -2.5 -2.5 -2.5 -2.5 -2.5 -2.5 -2.5 -2.5 -2.5 -2.5 -2.5 -2.5 -2.5 -2.5 -2.5 -2.5 -2.5 -2.5 -2.5 -2.5 -2.5 -2.5 -2.5 -2.5 -2.5 -2.5 -2.5 -2.5 -2.5 -2.5 -2.5 -2.5 -2.5 2.4 53.3 78.6 91.8 107.2 113.7 116.9 119.2 119.1 117.4 115.7 110.6 104.8 99 92.6 86.2 80.5 77.9 76.5 74.6 70.8 67.5 64.1 60 55.2 49.7 43.5 39.2 33.8 29.9 25.1 24.1 28.3 36.7 43.6 49.1 53.4 56.8 60.6 64.4 69.4 76.3 83.8 89.1 91.2 91.9 91.1 88 83.6 77.8 68.9 55.2 42.8 29.2 17.7 9.8 9.1 9.5 8.7 9 8.9 8.4 8.7 9.3 15.7 26.6 36.2 43.1 48.2 53 56.9 60 64.1 69.8 76.6 85.3 94.6 100.6 104.7 109.2 111.7 113.5 114.5 117.2 120.8 124.2 126 126 124.9 124.3 120.7 113.3 100.4 94.1 91.5 89.6 87.4 84.2 84.1 86.3 88.6 90.3 89.9 91.9 93.6
-2.5 -2.5 -2.5 -2.5 -2.5 -2.5 -2.5 -2.5 -2.5 -2.5 -2.5 -2.5 -2.5 -2.5 -2.5 -2.5 -2.5 -2.5 -2.5 -2.5 -2.5 -2.5 -2.5 -2.5 -2.5 -2.5 -2.5 -2.5 -2.5 -2.5 -2.5 -2.5 -2.5 -2.5 -2.5 -2.5 -2.5 -2.5 -2.5 -2.5 -2.5 -2.5 -2.5 -2.5 -2.5 -2.5 -2.5 -2.5 -2.5 -2.5 -2.5 -2.5 -2.5 -2.5 -2.5 -2.5 -2.5 -2.5 -2.5 -2.5 -2.5 -2.5 -2.5 -2.5 -2.5 -2.5 -2.5 -2.5 -2.5 -2.5 -2.5 -2.5 -2.5 -2.5 -2.5 -2.5 -2.5 -2.5 -2.5 -2.5 -2.5 -2.5 -2.5 -2.5 -2.5 -2.5 -2.5 -2.5 -2.5 -2.5 -2.5 -2.5 -2.5 -2.5 -2.5 0.8 5.7 75.3 90.3 104.2 110.2 114 116.5 117.9 116.4 114.1 109 102.3 96.5 89.2 83.2 77.9 75.2 72.4 69.9 66.5 62 59.9 57 53 48.2 42.9 37.6 32.4 28.4 23.4 25.4 27.8 36.8 41.9 47.3 53 57.7 61.4 66.1 74.8 80.6 86.9 87.5 87 86.4 85 80.9 74.9 70.2 56.4 42.9 30.6 18.5 9.5 9 10 9.2 8.7 8.4 7.6 8.3 8.9 12.9 23.6 35.3 45.8 51.2 55.9 60.1 64.2 67.1 69.9 76 82.7 91.7 101.3 105.7 108.1 111.3 113.2 114.1 114.7 119.1 122.4 127.6 125.2 125.1 125 124.6 123 117.5 104.3 94.7 91.6 89.7 88 86 84.7 87.2 87.5 88.3 89.3 91.4 92.9
-2.5 -2.5 -2.5 -2.5 -2.5 -2.5 -2.5 -2.5 -2.5 -2.5 -2.5 -2.5 -2.5 -2.5 -2.5 -2.5 -2.5 -2.5 -2.5 -2.5 -2.5 -2.5 -2.5 -2.5 -2.5 -2.5 -2.5 -2.5 -2.5 -2.5 -2.5 -2.5 -2.5 -2.5 -2.5 -2.5 -2.5 -2.5 -2.5 -2.5 -2.5 -2.5 -2.5 -2.5 -2.5 -2.5 -2.5 -2.5 -2.5 -2.5 -2.5 -2.5 -2.5 -2.5 -2.5 -2.5 -2.5 -2.5 -2.5 -2.5 -2.5 -2.5 -2.5 -2.5 -2.5 -2.5 -2.5 -2.5 -2.5 -2.5 -2.5 -2.5 -2.5 -2.5 -2.5 -2.5 -2.5 -2.5 -2.5 -2.5 -2.5 -2.5 -2.5 -2.5 -2.5 -2.5 -2.5 -2.5 -2.5 -2.5 -2.5 -2.5 -2.5 -2.5 -2.5 -2.5 3.1 72.9 87.3 101 107.8 113.4 116.1 116.8 114.4 112.5 106.9 100 93.9 86.4 80.5 75.2 72.5 69.2 65.8 61.8 57.9 56.1 54 50.8 45.9 40.3 35 28 24.7 24 25.9 30.8 36.5 41.4 47.6 53.4 58 62.5 68.6 76.9 82.8 85.7 84.6 82.2 80.3 76.1 70.9 65.9 57.5 46.3 31 19.1 10.5 9.1 8.9 9.3 8.6 8.5 8.2 7.9 8.6 12.1 22.2 33 44.3 51.4 57.1 62.3 67.2 70.3 72.8 75.5 81.1 88 97 104.3 107.4 111.2 112.3 114.5 114.1 114.8 118.9 122.7 126.2 125.2 126 125.2 126.3 124.7 120.4 108.7 97 92.4 89.5 87.6 85.3 84.8 87.8 88.8 88.6 89.2 91.9 93.3
-2.5 -2.5 -2.5 -2.5 -2.5 -2.5 -2.5 -2.5 -2.5 -2.5 -2.5 -2.5 -2.5 -2.5 -2.5 -2.5 -2.5 -2.5 -2.5 -2.5 -2.5 -2.5 -2.5 -2.5 -2.5 -2.5 -2.5 -2.5 -2.5 -2.5 -2.5 -2.5 -2.5 -2.5 -2.5 -2.5 -2.5 -2.5 -2.5 -2.5 -2.5 -2.5 -2.5 -2.5 -2.5 -2.5 -2.5 -2.5 -2.5 -2.5 -2.5 -2.5 -2.5 -2.5 -2.5 -2.5 -2.5 -2.5 -2.5 -2.5 -2.5 -2.5 -2.5 -2.5 -2.5 -2.5 -2.5 -2.5 -2.5 -2.5 -2.5 -2.5 -2.5 -2.5 -2.5 -2.5 -2.5 -2.5 -2.5 -2.5 -2.5 -2.5 -2.5 -2.5 -2.5 -2.5 -2.5 -2.5 -2.5 -2.5 -2.5 -2.5 -2.5 -2.5 -2.5 -2.5 1.1 34.7 84.1 97.7 106.2 112.7 114.8 116 113.4 110.2 104.9 97.5 92.4 84.2 78.3 72.7 69.5 65 60.9 56.1 52.8 51.7 50.2 48.2 43.8 38.2 33 24.6 22 24.5 28.7 31.1 37.1 42.5 48.2 54.2 59.3 64.4 72.8 77.8 81.8 82.4 79.8 76.5 73.3 69 62.5 54.4 47.3 39.2 21.9 11.7 9.2 9.4 8.7 8.3 8.3 8.3 8.3 8.4 9.8 19.8 30.4 40.6 49.7 56.6 62.2 67.7 72.6 76 79.2 83.1 86 92.5 100.6 105.1 108.8 111.3 113 114.3 113.6 114.4 119.4 122.4 124.8 126.2 124.9 126.5 124.8 119.8 121.5 111.8 98.5 93.1 90 88 86.6 84.9 86.8 89.3 89.2 89.5 92.2 94.1
-2.5 -2.5 -2.5 -2.5 -2.5 -2.5 -2.5 -2.5 -2.5 -2.5 -2.5 -2.5 -2.5 -2.5 -2.5 -2.5 -2.5 -2.5 -2.5 -2.5 -2.5 -2.5 -2.5 -2.5 -2.5 -2.5 -2.5 -2.5 -2.5 -2.5 -2.5 -2.5 -2.5 -2.5 -2.5 -2.5 -2.5 -2.5 -2.5 -2.5 -2.5 -2.5 -2.5 -2.5 -2.5 -2.5 -2.5 -2.5 -2.5 -2.5 -2.5 -2.5 -2.5 -2.5 -2.5 -2.5 -2.5 -2.5 -2.5 -2.5 -2.5 -2.5 -2.5 -2.5 -2.5 -2.5 -2.5 -2.5 -2.5 -2.5 -2.5 -2.5 -2.5 -2.5 -2.5 -2.5 -2.5 -2.5 -2.5 -2.5 -2.5 -2.5 -2.5 -2.5 -2.5 -2.5 -2.5 -2.5 -2.5 -2.5 -2.5 -2.5 -2.5 -2.5 -2.5 -2.5 -2.5 5.7 81.2 95.2 105.1 110.2 112.6 114.2 113.1 109 103 95.3 88.7 80.7 74.5 69.1 64.8 61.3 56.8 52 48.6 48.3 46.8 45.1 41.3 35 29.9 21.5 22.6 25.8 29.1 31.2 37.8 43.8 49.1 54.5 60.5 69.2 74.7 77.9 79.3 78.4 75 70.1 66.6 62.1 53.9 44.9 38.8 29.6 14.6 9.5 9.1 8.9 8.5 8.8 8.7 8.1 8 8.5 13.7 26.3 36.7 46 53.6 60.8 66.3 72.5 78 82.5 86.2 90.1 93.6 96.8 101.8 105.7 109 111.8 113.7 113.8 114.3 114.6 117.8 121.4 123.1 125.2 125 127.1 115.2 116.1 118.4 115.6 100.3 94.3 90.6 88.4 87.5 86.7 88.2 90 90.3 90.8 92.7 94.3
-2.5 -2.5 -2.5 -2.5 -2.5 -2.5 -2.5 -2.5 -2.5 -2.5 -2.5 -2.5 -2.5 -2.5 -2.5 -2.5 -2.5 -2.5 -2.5 -2.5 -2.5 -2.5 -2.5 -2.5 -2.5 -2.5 -2.5 -2.5 -2.5 -2.5 -2.5 -2.5 -2.5 -2.5 -2.5 -2.5 -2.5 -2.5 -2.5 -2.5 -2.5 -2.5 -2.5 -2.5 -2.5 -2.5 -2.5 -2.5 -2.5 -2.5 -2.5 -2.5 -2.5 -2.5 -2.5 -2.5 -2.5 -2.5 -2.5 -2.5 -2.5 -2.5 -2.5 -2.5 -2.5 -2.5 -2.5 -2.5 -2.5 -2.5 -2.5 -2.5 -2.5 -2.5 -2.5 -2.5 -2.5 -2.5 -2.5 -2.5 -2.5 -2.5 -2.5 -2.5 -2.5 -2.5 -2.5 -2.5 -2.5 -2.5 -2.5 -2.5 -2.5 -2.5 -2.5 -2.5 -2.5 1.8 78.6 91.8 104.6 107.5 109.7 111.9 112.1 107.8 102.3 93.6 86.5 79.4 71.9 66 61.6 57.7 52.3 47 43.2 43.9 43.4 41.3 38.2 32.6 25.9 20.8 21.7 25.6 27.7 32 38.2 44.1 50.1 55.4 64.7 73.5 75.8 75.8 75.8 73.8 68.4 63.2 58.9 53.8 44.6 36.1 28.6 19.5 11.2 9.1 9.5 8.4 8.7 8.8 8.5 8.3 8.1 9.5 20.6 31.9 42.2 49.9 57.8 65 71.5 78 83.6 88.5 93.7 98.9 101.6 101 101.8 105.7 109.5 111.6 113.6 113.5 114.1 115.5 116.8 120.1 121.5 123.3 125 127.3 124.5 119.5 119.5 117.1 102.8 95.8 91.9 88.9 87.9 88.7 90.9 91.7 90.9 91.6 93.1 95.7
-2.5 -2.5 -2.5 -2.5 -2.5 -2.5 -2.5 -2.5 -2.5 -2.5 -2.5 -2.5 -2.5 -2.5 -2.5 -2.5 -2.5 -2.5 -2.5 -2.5 -2.5 -2.5 -2.5 -2.5 -2.5 -2.5 -2.5 -2.5 -2.5 -2.5 -2.5 -2.5 -2.5 -2.5 -2.5 -2.5 -2.5 -2.5 -2.5 -2.5 -2.5 -2.5 -2.5 -2.5 -2.5 -2.5 -2.5 -2.5 -2.5 -2.5 -2.5 -2.5 -2.5 -2.5 -2.5 -2.5 -2.5 -2.5 -2.5 -2.5 -2.5 -2.5 -2.5 -2.5 -2.5 -2.5 -2.5 -2.5 -2.5 -2.5 -2.5 -2.5 -2.5 -2.5 -2.5 -2.5 -2.5 -2.5 -2.5 -2.5 -2.5 -2.5 -2.5 -2.5 -2.5 -2.5 -2.5 -2.5 -2.5 -2.5 -2.5 -2.5 -2.5 -2.5 -2.5 -2.5 -2.5 -2.5 74.5 87.7 103.8 105.9 106.4 110 111.1 107.8 101.4 92.9 84 77.4 70.4 63.6 58.5 53.7 48.2 43 38.9 38.6 39 36.2 32.5 28 22.8 19.6 21.4 24.5 27.2 31.9 38.1 44.6 50.5 58.6 70.1 74.2 74.1 73 71.5 68.1 62 56.2 51.3 46.1 35.5 27.4 20.8 13.1 9.1 9.2 8.7 8.1 8.6 8.4 8.5 7.7 8.3 13.5 25.9 37.3 46.4 54.3 62.5 69.8 75.9 82.5 89.1 95.6 101.1 105 104.9 102.7 103.4 105.7 109.8 111.9 113.5 113.3 114.2 116.4 116.6 118.6 120.4 122.2 124.3 126.5 126.7 122.8 121 118 105.1 97.7 93.8 90.2 89.1 90 91.9 92.7 92.1 92.6 92.9 95.9
-2.5 -2.5 -2.5 -2.5 -2.5 -2.5 -2.5 -2.5 -2.5 -2.5 -2.5 -2.5 -2.5 -2.5 -2.5 -2.5 -2.5 -2.5 -2.5 -2.5 -2.5 -2.5 -2.5 -2.5 -2.5 -2.5 -2.5 -2.5 -2.5 -2.5 -2.5 -2.5 -2.5 -2.5 -2.5 -2.5 -2.5 -2.5 -2.5 -2.5 -2.5 -2.5 -2.5 -2.5 -2.5 -2.5 -2.5 -2.5 -2.5 -2.5 -2.5 -2.5 -2.5 -2.5 -2.5 -2.5 -2.5 -2.5 -2.5 -2.5 -2.5 -2.5 -2.5 -2.5 -2.5 -2.5 -2.5 -2.5 -2.5 -2.5 -2.5 -2.5 -2.5 -2.5 -2.5 -2.5 -2.5 -2.5 -2.5 -2.5 -2.5 -2.5 -2.5 -2.5 -2.5 -2.5 -2.5 -2.5 -2.5 -2.5 -2.5 -2.5 -2.5 -2.5 -2.5 -2.5 -2.5 -2.5 2 84.1 99.6 102.1 104.2 107.7 109.6 107 99.7 91.7 82.6 75.2 68.7 62 56.3 51.2 45.1 39.8 34.5 35 35 31.3 27.8 24.4 20.1 18.2 21.4 23.5 25.9 30.5 39.4 46 52.2 62.8 70.6 72.2 70.8 69 67 62.6 56.1 48.7 44.2 38.6 27.6 19.7 13.3 9.4 9 8.8 8.4 8.1 8.5 8.4 7.4 8.2 10.1 18.8 30.9 43.1 51.9 60 67.6 73.5 80.8 87.7 94.7 100.9 106.3 109.4 108.6 105.8 105.2 106.9 109.7 111.4 113.4 113.1 112.9 115.4 116.7 118.1 120.7 122 123.6 124 123.9 124.4 117.8 110.4 105.7 99.7 95.1 92.3 90.8 91.1 92.1 93 93.2 93.8 94.1 95.8
-2.5 -2.5 -2.5 -2.5 -2.5 -2.5 -2.5 -2.5 -2.5 -2.5 -2.5 -2.5 -2.5 -2.5 -2.5 -2.5 -2.5 -2.5 -2.5 -2.5 -2.5 -2.5 -2.5 -2.5 -2.5 -2.5 -2.5 -2.5 -2.5 -2.5 -2.5 -2.5 -2.5 -2.5 -2.5 -2.5 -2.5 -2.5 -2.5 -2.5 -2.5 -2.5 -2.5 -2.5 -2.5 -2.5 -2.5 -2.5 -2.5 -2.5 -2.5 -2.5 -2.5 -2.5 -2.5 -2.5 -2.5 -2.5 -2.5 -2.5 -2.5 -2.5 -2.5 -2.5 -2.5 -2.5 -2.5 -2.5 -2.5 -2.5 -2.5 -2.5 -2.5 -2.5 -2.5 -2.5 -2.5 -2.5 -2.5 -2.5 -2.5 -2.5 -2.5 -2.5 -2.5 -2.5 -2.5 -2.5 -2.5 -2.5 -2.5 -2.5 -2.5 -2.5 -2.5 -2.5 -2.5 -2.5 -2.5 81.4 91.4 97.8 102.1 105.9 108.7 107.4 99.9 91.8 82 74 66.8 60.7 54.4 48.8 43.3 37.9 31.1 31.2 31.3 27.1 23.8 22 16.6 19.4 21.6 22.8 25.8 31.7 41 47.1 53.8 63.9 69.7 68.7 67.3 65.3 62.4 56.5 48.6 42.4 34.9 28.6 20.3 14.7 9.3 8.9 8.9 8.4 7.9 7.9 8.3 8 7.9 9.4 14.9 24.6 37.2 48.9 56.5 64.5 71.6 78 85.7 92.5 99 104.5 111 114.1 112.7 108.4 106.6 107.6 110.4 112 111.8 112.2 112 114.3 116.5 118.5 121 122.1 123.8 126.6 126.2 125.8 118.8 104.3 106.2 102.1 96.8 94.3 94.4 95 94.4 93.2 92.8 94.5 95.8 95.1
-2.5 -2.5 -2.5 -2.5 -2.5 -2.5 -2.5 -2.5 -2.5 -2.5 -2.5 -2.5 -2.5 -2.5 -2.5 -2.5 -2.5 -2.5 -2.5 -2.5 -2.5 -2.5 -2.5 -2.5 -2.5 -2.5 -2.5 -2.5 -2.5 -2.5 -2.5 -2.5 -2.5 -2.5 -2.5 -2.5 -2.5 -2.5 -2.5 -2.5 -2.5 -2.5 -2.5 -2.5 -2.5 -2.5 -2.5 -2.5 -2.5 -2.5 -2.5 -2.5 -2.5 -2.5 -2.5 -2.5 -2.5 -2.5 -2.5 -2.5 -2.5 -2.5 -2.5 -2.5 -2.5 -2.5 -2.5 -2.5 -2.5 -2.5 -2.5 -2.5 -2.5 -2.5 -2.5 -2.5 -2.5 -2.5 -2.5 -2.5 -2.5 -2.5 -2.5 -2.5 -2.5 -2.5 -2.5 -2.5 -2.5 -2.5 -2.5 -2.5 -2.5 -2.5 -2.5 -2.5 -2.5 -2.5 -2.5 4.2 86.4 94.5 101.6 105 108.4 107.5 100.7 92.7 82.6 73.6 65.3 58.9 53.3 47.6 42.3 36.2 31.8 26.4 26.3 23.3 20.9 18.1 17.2 19.7 21.3 23.1 26.2 33.9 41.7 47.2 53.9 61.2 65.5 64.5 62.5 59.8 55.6 47.7 40.7 35.1 26.2 21.5 14.6 9.3 8 8.9 8.7 8.4 7.9 8.4 7.8 8.2 8.5 10.9 19.1 32 44.3 53.2 61 68.6 76 81.2 88.9 96.9 102.8 108.1 115 117.9 117.1 111.6 108.4 108.9 110.5 110.8 109.5 109.2 111.1 113.3 115.5 117.9 120.1 121.8 123.3 130.8 128 125.3 124.4 118.1 105 105.2 98.8 97.2 96.3 95.9 94.7 94.4 93 95 97.2 94.8
-2.5 -2.5 -2.5 -2.5 -2.5 -2.5 -2.5 -2.5 -2.5 -2.5 -2.5 -2.5 -2.5 -2.5 -2.5 -2.5 -2.5 -2.5 -2.5 -2.5 -2.5 -2.5 -2.5 -2.5 -2.5 -2.5 -2.5 -2.5 -2.5 -2.5 -2.5 -2.5 -2.5 -2.5 -2.5 -2.5 -2.5 -2.5 -2.5 -2.5 -2.5 -2.5 -2.5 -2.5 -2.5 -2.5 -2.5 -2.5 -2.5 -2.5 -2.5 -2.5 -2.5 -2.5 -2.5 -2.5 -2.5 -2.5 -2.5 -2.5 -2.5 -2.5 -2.5 -2.5 -2.5 -2.5 -2.5 -2.5 -2.5 -2.5 -2.5 -2.5 -2.5 -2.5 -2.5 -2.5 -2.5 -2.5 -2.5 -2.5 -2.5 -2.5 -2.5 -2.5 -2.5 -2.5 -2.5 -2.5 -2.5 -2.5 -2.5 -2.5 -2.5 -2.5 -2.5 -2.5 -2.5 -2.5 -2.5 1 83.7 94 100.5 105.3 108 108.3 103.2 94.9 83.5 73.4 64.5 57.3 51.9 45.2 39.7 34 30.1 27.8 25.2 21 18.1 16.6 18.7 19.9 21.9 23.7 28.8 35.3 42.8 48.1 52.2 58.8 60 59.7 56.7 52.8 45.5 38.1 31.3 26.1 17.2 15 11.5 8.5 9 8.1 8.5 8.3 8.3 7.9 7.8 8.3 9.7 17.3 29.3 40.5 49 57.6 66 73 80 86.1 93.2 99.2 103.8 110.5 117.4 121.1 120.8 116.1 110.7 110.2 110.1 109.2 108 108.3 110.2 112.6 114.7 117.3 119.8 121.9 123.5 127.5 132.3 126.7 122.6 119.7 114.7 108.6 102.2 99.3 97.6 95.5 95 95.4 91.7 95.2 98.1 95.1
-2.5 -2.5 -2.5 -2.5 -2.5 -2.5 -2.5 -2.5 -2.5 -2.5 -2.5 -2.5 -2.5 -2.5 -2.5 -2.5 -2.5 -2.5 -2.5 -2.5 -2.5 -2.5 -2.5 -2.5 -2.5 -2.5 -2.5 -2.5 -2.5 -2.5 -2.5 -2.5 -2.5 -2.5 -2.5 -2.5 -2.5 -2.5 -2.5 -2.5 -2.5 -2.5 -2.5 -2.5 -2.5 -2.5 -2.5 -2.5 -2.5 -2.5 -2.5 -2.5 -2.5 -2.5 -2.5 -2.5 -2.5 -2.5 -2.5 -2.5 -2.5 -2.5 -2.5 -2.5 -2.5 -2.5 -2.5 -2.5 -2.5 -2.5 -2.5 -2.5 -2.5 -2.5 -2.5 -2.5 -2.5 -2.5 -2.5 -2.5 -2.5 -2.5 -2.5 -2.5 -2.5 -2.5 -2.5 -2.5 -2.5 -2.5 -2.5 -2.5 -2.5 -2.5 -2.5 -2.5 -2.5 -2.5 -2.5 -2.5 6 90.5 99.9 104.7 107.6 108.4 105.2 98.6 86.8 75.1 64.3 57 51.2 45.8 39.2 32.4 28.5 25.1 23.8 21 16.2 13.9 18.7 20.3 22 24.6 30.4 36.7 43.2 47.1 50.8 54 55.4 53.8 49.9 45.2 37.7 31.9 25.7 18.3 15.1 11.7 9 8.3 8.9 8.1 8.1 8.1 8.3 8.3 8.7 9 15.2 22.8 35.9 46.1 56.3 62.6 70.9 77.8 82.9 89 94.9 100.3 104.7 111.9 119.9 123.8 123.6 118.8 112.3 109.6 108.7 107.7 106.9 106.6 109.1 111.2 113.8 115.7 118.7 121.5 123.9 125.2 126.2 125 121.8 118.4 115 110.1 104.6 102 101 99.1 96.4 94.3 91.3 97.1 98.7 95.7
-2.5 -2.5 -2.5 -2.5 -2.5 -2.5 -2.5 -2.5 -2.5 -2.5 -2.5 -2.5 -2.5 -2.5 -2.5 -2.5 -2.5 -2.5 -2.5 -2.5 -2.5 -2.5 -2.5 -2.5 -2.5 -2.5 -2.5 -2.5 -2.5 -2.5 -2.5 -2.5 -2.5 -2.5 -2.5 -2.5 -2.5 -2.5 -2.5 -2.5 -2.5 -2.5 -2.5 -2.5 -2.5 -2.5 -2.5 -2.5 -2.5 -2.5 -2.5 -2.5 -2.5 -2.5 -2.5 -2.5 -2.5 -2.5 -2.5 -2.5 -2.5 -2.5 -2.5 -2.5 -2.5 -2.5 -2.5 -2.5 -2.5 -2.5 -2.5 -2.5 -2.5 -2.5 -2.5 -2.5 -2.5 -2.5 -2.5 -2.5 -2.5 -2.5 -2.5 -2.5 -2.5 -2.5 -2.5 -2.5 -2.5 -2.5 -2.5 -2.5 -2.5 -2.5 -2.5 -2.5 -2.5 -2.5 -2.5 -2.5 2.3 87.2 96.7 102.4 106.4 107 104.5 100.9 89.8 78.1 64.5 55.1 49.5 44.4 39 32 27 24.6 19.9 16.6 15.5 14.7 18.9 20.8 21.9 26.1 31.3 37.1 42.2 45.1 48 50.5 49.9 48.8 45.5 39 31.3 27 21.2 16.1 11.5 8.4 8 8.7 7.9 8 7.6 7.7 8.1 8.2 8.5 10.8 20.5 30.1 41.6 52.3 62.3 70.9 76.3 81.1 86.4 92.3 96.8 101.5 105.4 113.6 120.2 124.2 124.7 120 112.5 108.8 106.8 105.5 105.2 105.8 108.4 110.7 113.3 115.8 121.3 123.3 123.5 123.9 123.3 122.7 121 118.3 115.1 111.3 107 104.4 102.2 101.4 99 96.3 90.1 97.6 99.2 97.1
-2.5 -2.5 -2.5 -2.5 -2.5 -2.5 -2.5 -2.5 -2.5 -2.5 -2.5 -2.5 -2.5 -2.5 -2.5 -2.5 -2.5 -2.5 -2.5 -2.5 -2.5 -2.5 -2.5 -2.5 -2.5 -2.5 -2.5 -2.5 -2.5 -2.5 -2.5 -2.5 -2.5 -2.5 -2.5 -2.5 -2.5 -2.5 -2.5 -2.5 -2.5 -2.5 -2.5 -2.5 -2.5 -2.5 -2.5 -2.5 -2.5 -2.5 -2.5 -2.5 -2.5 -2.5 -2.5 -2.5 -2.5 -2.5 -2.5 -2.5 -2.5 -2.5 -2.5 -2.5 -2.5 -2.5 -2.5 -2.5 -2.5 -2.5 -2.5 -2.5 -2.5 -2.5 -2.5 -2.5 -2.5 -2.5 -2.5 -2.5 -2.5 -2.5 -2.5 -2.5 -2.5 -2.5 -2.5 -2.5 -2.5 -2.5 -2.5 -2.5 -2.5 -2.5 -2.5 -2.5 -2.5 -2.5 -2.5 -2.5 1.2 83.7 92.6 101.7 108.1 107.9 105.1 101.1 94 82.6 65.6 52.5 44.6 39.4 35.2 30 25.5 23.5 20.6 14.9 12.2 15.9 19.2 21 22.5 26.2 32 36.9 40.7 43.2 45.4 46 45.5 43.2 39.8 32.7 27.1 21.2 16.4 12.7 8.2 7.8 8.7 7.9 7.5 7.9 7.8 8 8.1 8.4 9.9 15.4 26.1 37.1 47.4 58 69.8 76.1 80.3 84.3 88.9 94 98.9 102.3 105.7 113 119 122.8 124 119.6 113.3 108.1 104.9 104.1 104.2 105.5 107.6 109.9 111.5 114.7 118.4 121.8 122 123 122.6 123.6 122.3 118.1 114.6 111.7 107.8 104.4 99.7 96.9 95.5 92.7 89.7 96.9 98.8 98
-2.5 -2.5 -2.5 -2.5 -2.5 -2.5 -2.5 -2.5 -2.5 -2.5 -2.5 -2.5 -2.5 -2.5 -2.5 -2.5 -2.5 -2.5 -2.5 -2.5 -2.5 -2.5 -2.5 -2.5 -2.5 -2.5 -2.5 -2.5 -2.5 -2.5 -2.5 -2.5 -2.5 -2.5 -2.5 -2.5 -2.5 -2.5 -2.5 -2.5 -2.5 -2.5 -2.5 -2.5 -2.5 -2.5 -2.5 -2.5 -2.5 -2.5 -2.5 -2.5 -2.5 -2.5 -2.5 -2.5 -2.5 -2.5 -2.5 -2.5 -2.5 -2.5 -2.5 -2.5 -2.5 -2.5 -2.5 -2.5 -2.5 -2.5 -2.5 -2.5 -2.5 -2.5 -2.5 -2.5 -2.5 -2.5 -2.5 -2.5 -2.5 -2.5 -2.5 -2.5 -2.5 -2.5 -2.5 -2.5 -2.5 -2.5 -2.5 -2.5 -2.5 -2.5 -2.5 -2.5 -2.5 -2.5 -2.5 -2.5 -2.5 19.2 93.6 103.8 109.9 109.4 106.8 101 94.6 85.8 70.4 55.7 47.2 40.7 35.1 29.7 25.7 22.1 19 10.3 14.2 16.2 18.9 20.4 22.5 25.6 31.6 36.5 39.9 41.9 41.9 41.4 39.9 36.3 30.9 25.8 20.4 18.8 12.5 11 7.9 7.8 8.7 7.3 8 8.1 8.7 8.6 9.4 10.4 13.8 23.4 34.7 46.9 54.5 65.9 75.5 81.3 85 88.6 92.8 96.6 100.1 102.7 106.3 111.8 118.2 121.2 121.8 118.9 112.8 107.3 104.2 103.2 103 104.3 107.6 109 111 114.2 116.5 119.4 121.5 122.6 122.8 123.1 121.9 117.3 114 110.4 106.4 98.7 93.3 91.8 90.9 90.2 90.5 95.6 96.5 96.6
-2.5 -2.5 -2.5 -2.5 -2.5 -2.5 -2.5 -2.5 -2.5 -2.5 -2.5 -2.5 -2.5 -2.5 -2.5 -2.5 -2.5 -2.5 -2.5 -2.5 -2.5 -2.5 -2.5 -2.5 -2.5 -2.5 -2.5 -2.5 -2.5 -2.5 -2.5 -2.5 -2.5 -2.5 -2.5 -2.5 -2.5 -2.5 -2.5 -2.5 -2.5 -2.5 -2.5 -2.5 -2.5 -2.5 -2.5 -2.5 -2.5 -2.5 -2.5 -2.5 -2.5 -2.5 -2.5 -2.5 -2.5 -2.5 -2.5 -2.5 -2.5 -2.5 -2.5 -2.5 -2.5 -2.5 -2.5 -2.5 -2.5 -2.5 -2.5 -2.5 -2.5 -2.5 -2.5 -2.5 -2.5 -2.5 -2.5 -2.5 -2.5 -2.5 -2.5 -2.5 -2.5 -2.5 -2.5 -2.5 -2.5 -2.5 -2.5 -2.5 -2.5 -2.5 -2.5 -2.5 -2.5 -2.5 -2.5 -2.5 -2.5 3.5 78.6 98.7 104.9 104.6 104.1 99.9 93.5 85.6 71.9 59.2 48.4 40.6 34 28.6 25 21.1 17.6 9.1 14.4 14.7 17.3 18.5 20.4 25.4 31.1 35.2 38.4 39.5 39 35.9 30.9 27.2 22.8 17.4 15.2 13 10.1 8.4 7.2 7.5 7.9 7.6 8 8.4 9.4 9.7 10.4 12.7 19.5 30.4 40.9 49.9 61.5 72.3 80.8 86.6 90.1 94.1 98.1 101.3 102.3 103.3 106.4 110.9 116.1 119.3 119.9 117.5 112.6 106.4 103.5 102.4 102.6 103.5 106.2 108.4 110.6 113.1 115.8 118.4 120.3 121.6 121.8 121.7 119.5 116.4 113.3 108.9 104.4 96.3 90.4 87.9 87.6 88.2 89.6 92.9 96.7 99.3
-2.5 -2.5 -2.5 -2.5 -2.5 -2.5 -2.5 -2.5 -2.5 -2.5 -2.5 -2.5 -2.5 -2.5 -2.5 -2.5 -2.5 -2.5 -2.5 -2.5 -2.5 -2.5 -2.5 -2.5 -2.5 -2.5 -2.5 -2.5 -2.5 -2.5 -2.5 -2.5 -2.5 -2.5 -2.5 -2.5 -2.5 -2.5 -2.5 -2.5 -2.5 -2.5 -2.5 -2.5 -2.5 -2.5 -2.5 -2.5 -2.5 -2.5 -2.5 -2.5 -2.5 -2.5 -2.5 -2.5 -2.5 -2.5 -2.5 -2.5 -2.5 -2.5 -2.5 -2.5 -2.5 -2.5 -2.5 -2.5 -2.5 -2.5 -2.5 -2.5 -2.5 -2.5 -2.5 -2.5 -2.5 -2.5 -2.5 -2.5 -2.5 -2.5 -2.5 -2.5 -2.5 -2.5 -2.5 -2.5 -2.5 -2.5 -2.5 -2.5 -2.5 -2.5 -2.5 -2.5 -2.5 -2.5 -2.5 -2.5 -2.5 2.2 47.1 93.4 98.7 99.4 100.1 98 91.4 82.9 72.4 62.3 49.5 40.4 32.4 26.7 22.8 19.1 14.4 12.2 13.5 13.9 14.9 16.2 19.4 24 29.6 33.3 36.2 36.5 35.2 29.3 21.4 18.4 15.1 12.2 10.7 10.2 8.6 8.3 7.6 9 7.9 7.7 8.5 9 11.8 12.2 12.9 17.9 26.9 36.4 47.3 57.4 67.4 77.1 86 91.2 94.3 97.9 101.5 103.7 104.7 105.5 106.8 110.6 113.5 116.7 117.4 116.3 111.6 105.4 103.3 101.9 102.5 103.3 105.4 107.5 110.5 113.4 116.1 117.5 119.1 119.7 120.4 119.7 119.3 115.3 111.5 106.8 101.7 94.7 89.3 87.3 86.5 87.1 89.1 92.6 95.9 98.7
-2.5 -2.5 -2.5 -2.5 -2.5 -2.5 -2.5 -2.5 -2.5 -2.5 -2.5 -2.5 -2.5 -2.5 -2.5 -2.5 -2.5 -2.5 -2.5 -2.5 -2.5 -2.5 -2.5 -2.5 -2.5 -2.5 -2.5 -2.5 -2.5 -2.5 -2.5 -2.5 -2.5 -2.5 -2.5 -2.5 -2.5 -2.5 -2.5 -2.5 -2.5 -2.5 -2.5 -2.5 -2.5 -2.5 -2.5 -2.5 -2.5 -2.5 -2.5 -2.5 -2.5 -2.5 -2.5 -2.5 -2.5 -2.5 -2.5 -2.5 -2.5 -2.5 -2.5 -2.5 -2.5 -2.5 -2.5 -2.5 -2.5 -2.5 -2.5 -2.5 -2.5 -2.5 -2.5 -2.5 -2.5 -2.5 -2.5 -2.5 -2.5 -2.5 -2.5 -2.5 -2.5 -2.5 -2.5 -2.5 -2.5 -2.5 -2.5 -2.5 -2.5 -2.5 -2.5 -2.5 -2.5 -2.5 -2.5 -2.5 -2.5 -2.5 5.7 74.6 94.3 95.8 95.9 95.4 90.4 80.5 70.9 61.5 51.1 42.3 31.6 25.3 20.7 16.7 13.2 8.9 12.9 14 15.4 15.9 18 21 26 29.9 32.6 32.4 29.4 23.9 17.3 14.2 11.6 9.2 7.9 7.9 7.7 7.6 9.2 8.1 8.1 8.6 9.1 11.5 14.2 15.3 18 24.6 32.3 42.8 52.8 62.1 72.1 82.5 90.9 95.4 98.5 100.8 103.9 105.8 107 108.1 109.1 111 112.9 114.9 114.9 114.3 110.8 104.8 102.4 101.2 101.8 102.3 104.3 107.1 110.9 113.8 116.5 118 118.1 118.7 119.2 118.7 118.1 114.7 111.8 105.5 101.7 95.5 91 89.4 88.2 86.2 87.8 91.3 92.8 95.9
-2.5 -2.5 -2.5 -2.5 -2.5 -2.5 -2.5 -2.5 -2.5 -2.5 -2.5 -2.5 -2.5 -2.5 -2.5 -2.5 -2.5 -2.5 -2.5 -2.5 -2.5 -2.5 -2.5 -2.5 -2.5 -2.5 -2.5 -2.5 -2.5 -2.5 -2.5 -2.5 -2.5 -2.5 -2.5 -2.5 -2.5 -2.5 -2.5 -2.5 -2.5 -2.5 -2.5 -2.5 -2.5 -2.5 -2.5 -2.5 -2.5 -2.5 -2.5 -2.5 -2.5 -2.5 -2.5 -2.5 -2.5 -2.5 -2.5 -2.5 -2.5 -2.5 -2.5 -2.5 -2.5 -2.5 -2.5 -2.5 -2.5 -2.5 -2.5 -2.5 -2.5 -2.5 -2.5 -2.5 -2.5 -2.5 -2.5 -2.5 -2.5 -2.5 -2.5 -2.5 -2.5 -2.5 -2.5 -2.5 -2.5 -2.5 -2.5 -2.5 -2.5 -2.5 -2.5 -2.5 -2.5 -2.5 -2.5 -2.5 -2.5 -2.5 5 53.4 88.7 91 90.8 91.6 88.2 78.5 69.6 61.6 51.8 45.4 31.8 24.9 18.3 14.4 12.3 11.8 12.9 13.4 14.1 15.2 17.5 19.8 23.2 25.7 26.6 25.9 22.8 18.4 14.1 11 7.9 7.4 7.5 7.3 7.4 7.1 9.6 9.1 9.8 12.4 12 14.5 16.6 18.5 22.2 28.8 38.1 48.8 58.7 69.6 79.6 87.8 95.3 100.8 103.7 104.9 105.7 107.1 108.3 109.6 111.2 112.5 112.8 112.8 112.6 112.5 108.9 103.9 101.9 100.5 101.1 101.5 103 106.4 110.9 113.6 116.4 117.6 117.4 118.2 118.5 117.8 115.7 114.1 110.4 106.3 104.7 100.2 94.6 92.4 90.4 89.2 85.3 89.4 91.1 93.8
-2.5 -2.5 -2.5 -2.5 -2.5 -2.5 -2.5 -2.5 -2.5 -2.5 -2.5 -2.5 -2.5 -2.5 -2.5 -2.5 -2.5 -2.5 -2.5 -2.5 -2.5 -2.5 -2.5 -2.5 -2.5 -2.5 -2.5 -2.5 -2.5 -2.5 -2.5 -2.5 -2.5 -2.5 -2.5 -2.5 -2.5 -2.5 -2.5 -2.5 -2.5 -2.5 -2.5 -2.5 -2.5 -2.5 -2.5 -2.5 -2.5 -2.5 -2.5 -2.5 -2.5 -2.5 -2.5 -2.5 -2.5 -2.5 -2.5 -2.5 -2.5 -2.5 -2.5 -2.5 -2.5 -2.5 -2.5 -2.5 -2.5 -2.5 -2.5 -2.5 -2.5 -2.5 -2.5 -2.5 -2.5 -2.5 -2.5 -2.5 -2.5 -2.5 -2.5 -2.5 -2.5 -2.5 -2.5 -2.5 -2.5 -2.5 -2.5 -2.5 -2.5 -2.5 -2.5 -2.5 -2.5 -2.5 -2.5 -2.5 -2.5 -2.5 1.8 33.6 84.3 85.9 83.8 85.7 84.5 76 63.9 57.9 49.8 40.6 35.9 26.9 20 14.7 11 11 12.3 12.8 13.1 14.7 16.5 19.8 21.5 21.5 21.3 20.2 17.9 13.8 9.6 8.7 7.8 7.6 7.8 7.7 7.4 7.9 9.6 10.2 12.7 16.1 17.4 17.7 20.4 23.1 27.3 36.1 44.8 57.4 66 75.9 84.4 92.5 100.5 105 107.3 107.9 107.3 107.7 108.6 110.3 111.7 112.5 112.4 111.5 111.1 110.7 106.9 102.8 101 99.8 100.2 100.5 102.5 105.7 109.6 113.6 115.9 117.3 117.9 117.5 117.2 117 115.8 113.4 110.7 107 105.1 101.4 99 97.3 94.8 92.4 89 84.8 86.6 90.6
-2.5 -2.5 -2.5 -2.5 -2.5 -2.5 -2.5 -2.5 -2.5 -2.5 -2.5 -2.5 -2.5 -2.5 -2.5 -2.5 -2.5 -2.5 -2.5 -2.5 -2.5 -2.5 -2.5 -2.5 -2.5 -2.5 -2.5 -2.5 -2.5 -2.5 -2.5 -2.5 -2.5 -2.5 -2.5 -2.5 -2.5 -2.5 -2.5 -2.5 -2.5 -2.5 -2.5 -2.5 -2.5 -2.5 -2.5 -2.5 -2.5 -2.5 -2.5 -2.5 -2.5 -2.5 -2.5 -2.5 -2.5 -2.5 -2.5 -2.5 -2.5 -2.5 -2.5 -2.5 -2.5 -2.5 -2.5 -2.5 -2.5 -2.5 -2.5 -2.5 -2.5 -2.5 -2.5 -2.5 -2.5 -2.5 -2.5 -2.5 -2.5 -2.5 -2.5 -2.5 -2.5 -2.5 -2.5 -2.5 -2.5 -2.5 -2.5 -2.5 -2.5 -2.5 -2.5 -2.5 -2.5 -2.5 -2.5 -2.5 -2.5 -2.5 -2.5 9.2 44.9 71.5 81.6 79.5 79.2 71.3 61.2 54 46 43.3 37.5 32.6 22.7 12.3 7.8 9.7 11.2 12.8 12.2 12.6 14.8 17.9 19.4 18.5 16.8 15.5 13.9 9.5 8.8 8.4 8.5 8.3 7.9 8 7.9 9.6 11.3 13.5 17.8 18.2 19.7 21 24.7 29.1 36.7 44.6 53.7 62.4 72 80.3 89.3 97.9 104.8 108.8 110.9 110.7 109.5 108.9 108.9 110 110.9 112.4 112.3 111 110 108.8 106.2 102.2 99.7 99.2 99.4 100.1 102.1 105.2 109.2 113.4 115.7 117.2 118 117.3 117.4 117.3 116 113.6 109.3 105.8 102.9 99.7 98.7 98.9 97.7 94.8 93 91.8 84.7 86.3
-2.5 -2.5 -2.5 -2.5 -2.5 -2.5 -2.5 -2.5 -2.5 -2.5 -2.5 -2.5 -2.5 -2.5 -2.5 -2.5 -2.5 -2.5 -2.5 -2.5 -2.5 -2.5 -2.5 -2.5 -2.5 -2.5 -2.5 -2.5 -2.5 -2.5 -2.5 -2.5 -2.5 -2.5 -2.5 -2.5 -2.5 -2.5 -2.5 -2.5 -2.5 -2.5 -2.5 -2.5 -2.5 -2.5 -2.5 -2.5 -2.5 -2.5 -2.5 -2.5 -2.5 -2.5 -2.5 -2.5 -2.5 -2.5 -2.5 -2.5 -2.5 -2.5 -2.5 -2.5 -2.5 -2.5 -2.5 -2.5 -2.5 -2.5 -2.5 -2.5 -2.5 -2.5 -2.5 -2.5 -2.5 -2.5 -2.5 -2.5 -2.5 -2.5 -2.5 -2.5 -2.5 -2.5 -2.5 -2.5 -2.5 -2.5 -2.5 -2.5 -2.5 -2.5 -2.5 -2.5 -2.5 -2.5 -2.5 -2.5 -2.5 -2.5 -2.5 1.3 11.1 44.5 73.1 71.7 71.7 67.6 55.8 44.2 44.9 39.4 32.2 29.2 3.1 3 3.3 8.2 8.9 12.4 12.2 11.8 12 13.1 13.9 13.4 10.5 9.8 9.3 9.6 8.7 8.2 8 7.6 7.6 8.3 11.9 13.1 12.7 16.5 18.6 22.3 23.7 26.9 30.5 37.8 45.1 51.2 60.6 69.2 78.7 87 95.3 103.2 109 112.7 113.5 113.2 112.1 111.1 110.2 109.9 109.9 111.2 112.4 110.9 108.4 106.7 105.2 101.5 98.8 98.5 98.8 99.8 102 105 109.3 113.5 115.3 116.5 117.2 117.8 117.6 117 116.1 113.6 109.2 104.4 100.6 98.2 96.8 96.9 96.3 94.2 92.7 92.4 91.1 82.1
-2.5 -2.5 -2.5 -2.5 -2.5 -2.5 -2.5 -2.5 -2.5 -2.5 -2.5 -2.5 -2.5 -2.5 -2.5 -2.5 -2.5 -2.5 -2.5 -2.5 -2.5 -2.5 -2.5 -2.5 -2.5 -2.5 -2.5 -2.5 -2.5 -2.5 -2.5 -2.5 -2.5 -2.5 -2.5 -2.5 -2.5 -2.5 -2.5 -2.5 -2.5 -2.5 -2.5 -2.5 -2.5 -2.5 -2.5 -2.5 -2.5 -2.5 -2.5 -2.5 -2.5 -2.5 -2.5 -2.5 -2.5 -2.5 -2.5 -2.5 -2.5 -2.5 -2.5 -2.5 -2.5 -2.5 -2.5 -2.5 -2.5 -2.5 -2.5 -2.5 -2.5 -2.5 -2.5 -2.5 -2.5 -2.5 -2.5 -2.5 -2.5 -2.5 -2.5 -2.5 -2.5 -2.5 -2.5 -2.5 -2.5 -2.5 -2.5 -2.5 -2.5 -2.5 -2.5 -2.5 -2.5 -2.5 -2.5 -2.5 -2.5 -2.5 -2.5 -2.5 1.2 11.1 34 45.9 49.3 44.7 37.3 32.1 24.7 22.6 17.1 8.7 3 3 3 3 6.8 10.6 12.1 11.8 11.3 13 12.7 10.4 10 9.5 9.3 9.8 8.9 8.3 8.1 7.7 7.5 10.5 15 14.8 15.1 17.2 19.2 24.3 27.7 32 37.4 44.2 51.7 58.3 66.2 75.2 84 92.9 100.6 107.9 113.8 117 116.5 115.9 114.5 112.7 111 109.6 110.3 111.6 112 110.4 108.1 105.7 103.1 100.5 98.3 97.7 98.1 99.5 101.8 105.5 110.4 113.7 116.3 117.3 117.2 117.3 117.3 116.5 115.4 113.8 108.8 104.4 100 97.4 96 95.5 95.1 93.8 91.5 90.5 90.3 86.1
-2.5 -2.5 -2.5 -2.5 -2.5 -2.5 -2.5 -2.5 -2.5 -2.5 -2.5 -2.5 -2.5 -2.5 -2.5 -2.5 -2.5 -2.5 -2.5 -2.5 -2.5 -2.5 -2.5 -2.5 -2.5 -2.5 -2.5 -2.5 -2.5 -2.5 -2.5 -2.5 -2.5 -2.5 -2.5 -2.5 -2.5 -2.5 -2.5 -2.5 -2.5 -2.5 -2.5 -2.5 -2.5 -2.5 -2.5 -2.5 -2.5 -2.5 -2.5 -2.5 -2.5 -2.5 -2.5 -2.5 -2.5 -2.5 -2.5 -2.5 -2.5 -2.5 -2.5 -2.5 -2.5 -2.5 -2.5 -2.5 -2.5 -2.5 -2.5 -2.5 -2.5 -2.5 -2.5 -2.5 -2.5 -2.5 -2.5 -2.5 -2.5 -2.5 -2.5 -2.5 -2.5 -2.5 -2.5 -2.5 -2.5 -2.5 -2.5 -2.5 -2.5 -2.5 -2.5 -2.5 -2.5 -2.5 -2.5 -2.5 -2.5 -2.5 -2.5 -2.5 -2.5 0.4 2 3.1 3 3.1 3 2.9 2.8 2.7 2.5 2.4 2.3 2.2 2.2 2.1 2.6 6.4 9.9 12 11.3 12.2 11.5 10.1 9.5 11.8 15.6 10.6 8.8 8.4 8.3 8.1 7.6 13.8 17 11.5 17.3 19 20.8 26.9 31.5 36.7 41.6 52.1 60.1 64.8 72 80 88.4 96.9 104.9 111.8 117.2 119.6 119.7 118.5 116.2 113.6 111.8 110 110.1 110.7 111 109.6 107.7 104.8 102.4 99.8 97.8 97 97.9 99 102.1 106.1 111 115.5 117.3 117.8 116.8 116.2 116.4 116.8 115.7 112.7 109 103.6 99.5 97.2 96.1 96.7 96.7 95.3 93 88.9 87.6 87.2
-2.5 -2.5 -2.5 -2.5 -2.5 -2.5 -2.5 -2.5 -2.5 -2.5 -2.5 -2.5 -2.5 -2.5 -2.5 -2.5 -2.5 -2.5 -2.5 -2.5 -2.5 -2.5 -2.5 -2.5 -2.5 -2.5 -2.5 -2.5 -2.5 -2.5 -2.5 -2.5 -2.5 -2.5 -2.5 -2.5 -2.5 -2.5 -2.5 -2.5 -2.5 -2.5 -2.5 -2.5 -2.5 -2.5 -2.5 -2.5 -2.5 -2.5 -2.5 -2.5 -2.5 -2.5 -2.5 -2.5 -2.5 -2.5 -2.5 -2.5 -2.5 -2.5 -2.5 -2.5 -2.5 -2.5 -2.5 -2.5 -2.5 -2.5 -2.5 -2.5 -2.5 -2.5 -2.5 -2.5 -2.5 -2.5 -2.5 -2.5 -2.5 -2.5 -2.5 -2.5 -2.5 -2.5 -2.5 -2.5 -2.5 -2.5 -2.5 -2.5 -2.5 -2.5 -2.5 -2.5 -2.5 -2.5 -2.5 -2.5 -2.5 -2.5 -2.5 -2.5 -2.5 -2.5 -2.5 -2.5 -2.5 -2.5 -2.5 -2.5 -2.5 -2.5 0.1 0.6 1.2 1.2 1.1 1.4 1.9 2.5 4.7 13.8 15 14.8 10.8 9.8 9.5 16.3 19.4 14 8.9 10.1 8 7.4 8.3 16.8 18.1 10.8 19.8 22.5 23.8 30.8 35 41.2 48.1 59.3 66.3 71.6 77.4 84.2 92.6 100.8 107.9 114.3 119 122.2 121.7 120.2 117.5 114.9 112.2 110.5 110.1 109.8 109.9 109.1 106.8 103.8 101.4 99.1 97.6 96.3 97.2 98.3 101.8 106.1 110.9 115.2 117.9 118.8 117.7 116.1 115.7 116.8 115.7 112.1 107.4 103.6 99.7 97.5 96.4 96.7 96.8 96.7 94.6 91.8 88.5 84.1
-2.5 -2.5 -2.5 -2.5 -2.5 -2.5 -2.5 -2.5 -2.5 -2.5 -2.5 -2.5 -2.5 -2.5 -2.5 -2.5 -2.5 -2.5 -2.5 -2.5 -2.5 -2.5 -2.5 -2.5 -2.5 -2.5 -2.5 -2.5 -2.5 -2.5 -2.5 -2.5 -2.5 -2.5 -2.5 -2.5 -2.5 -2.5 -2.5 -2.5 -2.5 -2.5 -2.5 -2.5 -2.5 -2.5 -2.5 -2.5 -2.5 -2.5 -2.5 -2.5 -2.5 -2.5 -2.5 -2.5 -2.5 -2.5 -2.5 -2.5 -2.5 -2.5 -2.5 -2.5 -2.5 -2.5 -2.5 -2.5 -2.5 -2.5 -2.5 -2.5 -2.5 -2.5 -2.5 -2.5 -2.5 -2.5 -2.5 -2.5 -2.5 -2.5 -2.5 -2.5 -2.5 -2.5 -2.5 -2.5 -2.5 -2.5 -2.5 -2.5 -2.5 -2.5 -2.5 -2.5 -2.5 -2.5 -2.5 -2.5 -2.5 -2.5 -2.5 -2.5 -2.5 -2.5 -2.5 -2.5 -2.5 -2.5 -2.5 -2.5 -2.5 -2.5 -2.5 -0.6 0.1 0.1 0.2 0.7 1.2 1.8 2.4 4.2 16 16.7 16.5 12.1 12.1 17 18.2 17.1 13.7 8.4 7.9 7.2 12 16.2 18.4 12 23 24.7 26.8 32.9 38.2 46 55.9 63.7 71.5 76.3 81.6 87.7 95.1 101.8 107.6 113.1 118 121.2 122.4 121.2 118.4 115.8 112.2 110 110.5 109.9 109.6 108.2 105.8 103.5 101.2 98.8 97.1 96.2 96.4 97.9 101.2 105.5 109.7 113.9 117.6 119 118 116.9 115.7 116.2 115.4 111.5 107.2 103.3 99.9 97.9 97 96 96.2 96.6 96.6 93.5 89.1 85.4
-2.5 -2.5 -2.5 -2.5 -2.5 -2.5 -2.5 -2.5 -2.5 -2.5 -2.5 -2.5 -2.5 -2.5 -2.5 -2.5 -2.5 -2.5 -2.5 -2.5 -2.5 -2.5 -2.5 -2.5 -2.5 -2.5 -2.5 -2.5 -2.5 -2.5 -2.5 -2.5 -2.5 -2.5 -2.5 -2.5 -2.5 -2.5 -2.5 -2.5 -2.5 -2.5 -2.5 -2.5 -2.5 -2.5 -2.5 -2.5 -2.5 -2.5 -2.5 -2.5 -2.5 -2.5 -2.5 -2.5 -2.5 -2.5 -2.5 -2.5 -2.5 -2.5 -2.5 -2.5 -2.5 -2.5 -2.5 -2.5 -2.5 -2.5 -2.5 -2.5 -2.5 -2.5 -2.5 -2.5 -2.5 -2.5 -2.5 -2.5 -2.5 -2.5 -2.5 -2.5 -2.5 -2.5 -2.5 -2.5 -2.5 -2.5 -2.5 -2.5 -2.5 -2.5 -2.5 -2.5 -2.5 -2.5 -2.5 -2.5 -2.5 -2.5 -2.5 -2.5 -2.5 -2.5 -2.5 -2.5 -2.5 -2.5 -2.5 -2.5 -2.5 -2.5 -2.5 -2.5 -1 -0.9 -0.6 0 0.6 1.2 1.9 2.5 4.3 18.3 18.2 18.2 18.2 12.9 13.5 17.4 12.2 10.3 8 6.9 8.1 14.9 18.5 14.2 23.3 25.2 29 34.4 41.2 47.9 54.9 63.4 72.1 73.8 83.9 89.3 95.7 101.7 106.8 111.4 115.7 119.1 121.5 121.1 118.6 115.6 111.9 108.7 109.6 109.6 108.8 107 104.9 102.6 100.3 98.5 96.6 95.3 96.5 97.8 100.9 105 108.9 112.9 116.6 118.2 117.6 116.5 115.7 115.3 114.2 111.2 107.2 104.3 101.5 99.3 98 96.2 95.9 96.1 96.2 93.3 90.7 88.2
-2.5 -2.5 -2.5 -2.5 -2.5 -2.5 -2.5 -2.5 -2.5 -2.5 -2.5 -2.5 -2.5 -2.5 -2.5 -2.5 -2.5 -2.5 -2.5 -2.5 -2.5 -2.5 -2.5 -2.5 -2.5 -2.5 -2.5 -2.5 -2.5 -2.5 -2.5 -2.5 -2.5 -2.5 -2.5 -2.5 -2.5 -2.5 -2.5 -2.5 -2.5 -2.5 -2.5 -2.5 -2.5 -2.5 -2.5 -2.5 -2.5 -2.5 -2.5 -2.5 -2.5 -2.5 -2.5 -2.5 -2.5 -2.5 -2.5 -2.5 -2.5 -2.5 -2.5 -2.5 -2.5 -2.5 -2.5 -2.5 -2.5 -2.5 -2.5 -2.5 -2.5 -2.5 -2.5 -2.5 -2.5 -2.5 -2.5 -2.5 -2.5 -2.5 -2.5 -2.5 -2.5 -2.5 -2.5 -2.5 -2.5 -2.5 -2.5 -2.5 -2.5 -2.5 -2.5 -2.5 -2.5 -2.5 -2.5 -2.5 -2.5 -2.5 -2.5 -2.5 -2.5 -2.5 -2.5 -2.5 -2.5 -2.5 -2.5 -2.5 -2.5 -2.5 -2.5 -2.5 -2.5 -1.8 -1.3 -0.6 0 0.6 1.2 1.8 2.5 4.3 17 24.3 21 15.5 11.6 13.3 16 12.3 9.6 6.7 7.2 11 14.2 13.7 22.4 25.6 30.7 38.2 44.1 51 55.1 67.9 74.7 80.3 84.4 90 95.7 102 106.3 111.5 113.8 116.1 119.3 119 117 114 110.7 107.8 109.6 110.4 108 105.8 103.9 101.6 99.2 97.7 96.6 94.4 96.2 97.9 100.8 104.1 108.1 111.7 114.8 116.5 116.8 115.7 115.9 115.8 114.2 111.7 108.3 105.6 102.4 100.2 97.4 96.1 95.6 95.6 95.5 94.1 90.8 88.4
-2.5 -2.5 -2.5 -2.5 -2.5 -2.5 -2.5 -2.5 -2.5 -2.5 -2.5 -2.5 -2.5 -2.5 -2.5 -2.5 -2.5 -2.5 -2.5 -2.5 -2.5 -2.5 -2.5 -2.5 -2.5 -2.5 -2.5 -2.5 -2.5 -2.5 -2.5 -2.5 -2.5 -2.5 -2.5 -2.5 -2.5 -2.5 -2.5 -2.5 -2.5 -2.5 -2.5 -2.5 -2.5 -2.5 -2.5 -2.5 -2.5 -2.5 -2.5 -2.5 -2.5 -2.5 -2.5 -2.5 -2.5 -2.5 -2.5 -2.5 -2.5 -2.5 -2.5 -2.5 -2.5 -2.5 -2.5 -2.5 -2.5 -2.5 -2.5 -2.5 -2.5 -2.5 -2.5 -2.5 -2.5 -2.5 -2.5 -2.5 -2.5 -2.5 -2.5 -2.5 -2.5 -2.5 -2.5 -2.5 -2.5 -2.5 -2.5 -2.5 -2.5 -2.5 -2.5 -2.5 -2.5 -2.5 -2.5 -2.5 -2.5 -2.5 -2.5 -2.5 -2.5 -2.5 -2.5 -2.5 -2.5 -2.5 -2.5 -2.5 -2.5 -2.5 -2.5 -2.5 -2.5 -2.5 -1.9 -1.2 -0.6 0 0.6 1.2 1.9 2.5 4.2 20.5 22 19.5 15 17.6 20 18.3 12.1 8.3 6.2 7.2 10 12.3 20.6 25.6 30.3 38.2 43.3 49.2 62 70 76.3 81.3 85.8 91.7 97.6 102.9 106.1 110.5 112.3 113.5 116 117.4 115.9 112.8 109.2 106.6 107.8 107.7 106.3 104.9 103.7 100.3 98 96.9 95.8 93.8 95.8 97.9 100.8 104.3 107.7 110.3 112.7 114.8 115.5 115.6 115.8 115.8 114.1 111.7 109.4 106.3 103.7 100.5 97.7 95.9 95 94.7 95.1 95 93.1 89.7
-2.5 -2.5 -2.5 -2.5 -2.5 -2.5 -2.5 -2.5 -2.5 -2.5 -2.5 -2.5 -2.5 -2.5 -2.5 -2.5 -2.5 -2.5 -2.5 -2.5 -2.5 -2.5 -2.5 -2.5 -2.5 -2.5 -2.5 -2.5 -2.5 -2.5 -2.5 -2.5 -2.5 -2.5 -2.5 -2.5 -2.5 -2.5 -2.5 -2.5 -2.5 -2.5 -2.5 -2.5 -2.5 -2.5 -2.5 -2.5 -2.5 -2.5 -2.5 -2.5 -2.5 -2.5 -2.5 -2.5 -2.5 -2.5 -2.5 -2.5 -2.5 -2.5 -2.5 -2.5 -2.5 -2.5 -2.5 -2.5 -2.5 -2.5 -2.5 -2.5 -2.5 -2.5 -2.5 -2.5 -2.5 -2.5 -2.5 -2.5 -2.5 -2.5 -2.5 -2.5 -2.5 -2.5 -2.5 -2.5 -2.5 -2.5 -2.5 -2.5 -2.5 -2.5 -2.5 -2.5 -2.5 -2.5 -2.5 -2.5 -2.5 -2.5 -2.5 -2.5 -2.5 -2.5 -2.5 -2.5 -2.5 -2.5 -2.5 -2.5 -2.5 -2.5 -2.5 -2.5 -2.5 -2.5 -2.5 -1.8 -1.2 -0.7 -0.1 0.6 1.3 2 2.6 4.7 22.4 33.4 26.4 25.4 25.1 20.2 16.7 16.4 9.5 6.6 7.2 11.9 18.8 26.2 32 39.6 43.7 49.3 62.5 71.5 77.7 82.4 87.4 93 98.9 103.7 110.2 108.3 108 111 113.4 114.3 113.4 111 108 105.4 105 104.7 103.9 102.8 101.4 98.7 97.3 96.4 94.6 92.9 94.5 97.4 100.4 103.7 106.7 108.8 111.4 112.6 114.2 114.5 114.6 115 114.2 112 109.7 109 107.6 103.4 99 96.8 95.3 93.7 93.9 94 94.5 91.5
-2.5 -2.5 -2.5 -2.5 -2.5 -2.5 -2.5 -2.5 -2.5 -2.5 -2.5 -2.5 -2.5 -2.5 -2.5 -2.5 -2.5 -2.5 -2.5 -2.5 -2.5 -2.5 -2.5 -2.5 -2.5 -2.5 -2.5 -2.5 -2.5 -2.5 -2.5 -2.5 -2.5 -2.5 -2.5 -2.5 -2.5 -2.5 -2.5 -2.5 -2.5 -2.5 -2.5 -2.5 -2.5 -2.5 -2.5 -2.5 -2.5 -2.5 -2.5 -2.5 -2.5 -2.5 -2.5 -2.5 -2.5 -2.5 -2.5 -2.5 -2.5 -2.5 -2.5 -2.5 -2.5 -2.5 -2.5 -2.5 -2.5 -2.5 -2.5 -2.5 -2.5 -2.5 -2.5 -2.5 -2.5 -2.5 -2.5 -2.5 -2.5 -2.5 -2.5 -2.5 -2.5 -2.5 -2.5 -2.5 -2.5 -2.5 -2.5 -2.5 -2.5 -2.5 -2.5 -2.5 -2.5 -2.5 -2.5 -2.5 -2.5 -2.5 -2.5 -2.5 -2.5 -2.5 -2.5 -2.5 -2.5 -2.5 -2.5 -2.5 -2.5 -2.5 -2.5 -2.5 -2.5 -2.5 -2.5 -2.5 -2.5 -1.3 -0.7 0 0.7 1.4 2 2.7 5.4 25.6 28.7 22.7 22.6 21.6 19.4 21.8 20.1 14.4 6.5 11.1 17.4 25.9 30.2 38.9 43.3 53.3 62.7 71.2 78.2 83.9 89 94 99.1 102.9 109.5 106.9 104.6 106.4 108.9 110.9 111.2 109 108.6 104.9 103.3 102.1 101.2 100.3 99.5 98.1 96.7 95.3 93.6 92.2 93.8 96.2 99.8 102.4 105.5 108 110.1 111.3 112.2 113.2 113.6 114.3 114.1 112.3 110.7 110.5 109.7 105.3 100.8 98.1 96.1 94 92.9 92.7 93.8 92.6
-2.5 -2.5 -2.5 -2.5 -2.5 -2.5 -2.5 -2.5 -2.5 -2.5 -2.5 -2.5 -2.5 -2.5 -2.5 -2.5 -2.5 -2.5 -2.5 -2.5 -2.5 -2.5 -2.5 -2.5 -2.5 -2.5 -2.5 -2.5 -2.5 -2.5 -2.5 -2.5 -2.5 -2.5 -2.5 -2.5 -2.5 -2.5 -2.5 -2.5 -2.5 -2.5 -2.5 -2.5 -2.5 -2.5 -2.5 -2.5 -2.5 -2.5 -2.5 -2.5 -2.5 -2.5 -2.5 -2.5 -2.5 -2.5 -2.5 -2.5 -2.5 -2.5 -2.5 -2.5 -2.5 -2.5 -2.5 -2.5 -2.5 -2.5 -2.5 -2.5 -2.5 -2.5 -2.5 -2.5 -2.5 -2.5 -2.5 -2.5 -2.5 -2.5 -2.5 -2.5 -2.5 -2.5 -2.5 -2.5 -2.5 -2.5 -2.5 -2.5 -2.5 -2.5 -2.5 -2.5 -2.5 -2.5 -2.5 -2.5 -2.5 -2.5 -2.5 -2.5 -2.5 -2.5 -2.5 -2.5 -2.5 -2.5 -2.5 -2.5 -2.5 -2.5 -2.5 -2.5 -2.5 -2.5 -2.5 -2.5 -2.5 -2.5 -1.3 -0.6 0.1 0.8 1.4 2.1 2.8 5.9 24 23.4 22.6 22.2 23.9 23.9 22 18.4 10.1 10.9 15.1 24.4 30.3 37.8 44.4 53.9 63.6 73.2 79.4 85 90.6 95.9 98.7 100.6 104.5 104.5 102.3 102.4 104.9 107.2 107.8 108.5 106.4 104.1 102.6 101.7 100.1 98.9 98.4 96.8 95.5 94.4 93.5 91.7 93.6 97.1 100.4 102.6 104.7 107.8 109.1 110.4 111.5 112.3 112.6 113.5 114.1 112.6 112.6 112.9 111.5 107.6 103.4 100 97.5 95.3 92.5 91.8 92.9 93.7
-2.5 -2.5 -2.5 -2.5 -2.5 -2.5 -2.5 -2.5 -2.5 -2.5 -2.5 -2.5 -2.5 -2.5 -2.5 -2.5 -2.5 -2.5 -2.5 -2.5 -2.5 -2.5 -2.5 -2.5 -2.5 -2.5 -2.5 -2.5 -2.5 -2.5 -2.5 -2.5 -2.5 -2.5 -2.5 -2.5 -2.5 -2.5 -2.5 -2.5 -2.5 -2.5 -2.5 -2.5 -2.5 -2.5 -2.5 -2.5 -2.5 -2.5 -2.5 -2.5 -2.5 -2.5 -2.5 -2.5 -2.5 -2.5 -2.5 -2.5 -2.5 -2.5 -2.5 -2.5 -2.5 -2.5 -2.5 -2.5 -2.5 -2.5 -2.5 -2.5 -2.5 -2.5 -2.5 -2.5 -2.5 -2.5 -2.5 -2.5 -2.5 -2.5 -2.5 -2.5 -2.5 -2.5 -2.5 -2.5 -2.5 -2.5 -2.5 -2.5 -2.5 -2.5 -2.5 -2.5 -2.5 -2.5 -2.5 -2.5 -2.5 -2.5 -2.5 -2.5 -2.5 -2.5 -2.5 -2.5 -2.5 -2.5 -2.5 -2.5 -2.5 -2.5 -2.5 -2.5 -2.5 -2.5 -2.5 -2.5 -2.5 -2.5 -1.8 -1.2 -0.5 0.2 0.8 1.5 2.2 2.9 5.6 20.4 23.2 24.4 27.3 30 24.5 20.5 15.1 10.7 13.5 23.6 31.9 37.3 45.1 54.6 64.5 73.1 79.6 85.1 90.9 96.7 98.9 99.5 100 101.1 100.6 99.5 101.1 103.4 105.1 105.8 104.8 102.7 101.6 101.5 100 98.6 97.4 96.9 94.7 93.6 93.1 91.4 93 96.8 99.2 101.3 104.5 107.5 108.6 109.1 110.9 111.4 111.8 112.8 113.9 113.5 113.6 114 114.1 110.5 106.2 103 99.8 97 93.8 91.3 92.1 93.5
-2.5 -2.5 -2.5 -2.5 -2.5 -2.5 -2.5 -2.5 -2.5 -2.5 -2.5 -2.5 -2.5 -2.5 -2.5 -2.5 -2.5 -2.5 -2.5 -2.5 -2.5 -2.5 -2.5 -2.5 -2.5 -2.5 -2.5 -2.5 -2.5 -2.5 -2.5 -2.5 -2.5 -2.5 -2.5 -2.5 -2.5 -2.5 -2.5 -2.5 -2.5 -2.5 -2.5 -2.5 -2.5 -2.5 -2.5 -2.5 -2.5 -2.5 -2.5 -2.5 -2.5 -2.5 -2.5 -2.5 -2.5 -2.5 -2.5 -2.5 -2.5 -2.5 -2.5 -2.5 -2.5 -2.5 -2.5 -2.5 -2.5 -2.5 -2.5 -2.5 -2.5 -2.5 -2.5 -2.5 -2.5 -2.5 -2.5 -2.5 -2.5 -2.5 -2.5 -2.5 -2.5 -2.5 -2.5 -2.5 -2.5 -2.5 -2.5 -2.5 -2.5 -2.5 -2.5 -2.5 -2.5 -2.5 -2.5 -2.5 -2.5 -2.5 -2.5 -2.5 -2.5 -2.5 -2.5 -2.5 -2.5 -2.5 -2.5 -2.5 -2.5 -2.5 -2.5 -2.5 -2.5 -2.5 -2.5 -2.5 -2.5 -2.5 -2.5 -1.8 -1.1 -0.4 0.2 0.9 1.6 2.3 2.9 6 26 27.7 31.7 33.7 26.1 23.4 14 9.6 14 20.6 28.7 36 48.4 57.2 65.6 72.3 78.3 84.8 90.5 96 98.9 98.3 96.1 95.7 96.2 96 98.1 100.6 102.9 104.1 104.4 101.3 100.5 100.3 99.6 98.2 96.7 95.4 94.8 93.1 92.8 91.5 91.5 95.2 97.5 99.7 102.8 106.3 108 107.6 110 110.8 110.9 111.6 113 113.2 113.1 114.5 115.5 113.3 108.4 104.2 101.1 97.7 94.3 91.1 91.6 93.2
-2.5 -2.5 -2.5 -2.5 -2.5 -2.5 -2.5 -2.5 -2.5 -2.5 -2.5 -2.5 -2.5 -2.5 -2.5 -2.5 -2.5 -2.5 -2.5 -2.5 -2.5 -2.5 -2.5 -2.5 -2.5 -2.5 -2.5 -2.5 -2.5 -2.5 -2.5 -2.5 -2.5 -2.5 -2.5 -2.5 -2.5 -2.5 -2.5 -2.5 -2.5 -2.5 -2.5 -2.5 -2.5 -2.5 -2.5 -2.5 -2.5 -2.5 -2.5 -2.5 -2.5 -2.5 -2.5 -2.5 -2.5 -2.5 -2.5 -2.5 -2.5 -2.5 -2.5 -2.5 -2.5 -2.5 -2.5 -2.5 -2.5 -2.5 -2.5 -2.5 -2.5 -2.5 -2.5 -2.5 -2.5 -2.5 -2.5 -2.5 -2.5 -2.5 -2.5 -2.5 -2.5 -2.5 -2.5 -2.5 -2.5 -2.5 -2.5 -2.5 -2.5 -2.5 -2.5 -2.5 -2.5 -2.5 -2.5 -2.5 -2.5 -2.5 -2.5 -2.5 -2.5 -2.5 -2.5 -2.5 -2.5 -2.5 -2.5 -2.5 -2.5 -2.5 -2.5 -2.5 -2.5 -2.5 -2.5 -2.5 -2.5 -2.5 -2.5 -2.5 -1.7 -1 -0.4 0.3 1 1.7 2.3 3.1 6.5 23.4 30.4 34 27.5 26.3 9.8 8.4 15.3 18.1 24.7 38.8 47.6 55.5 64 71.5 77.4 82.9 88.6 94.7 98.9 98.9 95.8 93.5 91.9 92.7 95.7 98.2 100.1 101.1 102.7 100.1 100.6 99 98.2 96 94.5 93.5 94 93.7 91.6 92.8 91.4 91.9 95.8 98.1 100.4 102.2 105.8 106.5 108.8 110.1 110 110.5 111.8 113 112.7 114.7 114.6 111.9 109.4 105.8 101.7 100.3 95.5 90.9 90.8 92.3
-2.5 -2.5 -2.5 -2.5 -2.5 -2.5 -2.5 -2.5 -2.5 -2.5 -2.5 -2.5 -2.5 -2.5 -2.5 -2.5 -2.5 -2.5 -2.5 -2.5 -2.5 -2.5 -2.5 -2.5 -2.5 -2.5 -2.5 -2.5 -2.5 -2.5 -2.5 -2.5 -2.5 -2.5 -2.5 -2.5 -2.5 -2.5 -2.5 -2.5 -2.5 -2.5 -2.5 -2.5 -2.5 -2.5 -2.5 -2.5 -2.5 -2.5 -2.5 -2.5 -2.5 -2.5 -2.5 -2.5 -2.5 -2.5 -2.5 -2.5 -2.5 -2.5 -2.5 -2.5 -2.5 -2.5 -2.5 -2.5 -2.5 -2.5 -2.5 -2.5 -2.5 -2.5 -2.5 -2.5 -2.5 -2.5 -2.5 -2.5 -2.5 -2.5 -2.5 -2.5 -2.5 -2.5 -2.5 -2.5 -2.5 -2.5 -2.5 -2.5 -2.5 -2.5 -2.5 -2.5 -2.5 -2.5 -2.5 -2.5 -2.5 -2.5 -2.5 -2.5 -2.5 -2.5 -2.5 -2.5 -2.5 -2.5 -2.5 -2.5 -2.5 -2.5 -2.5 -2.5 -2.5 -2.5 -2.5 -2.5 -2.5 -2.5 -2.5 -2.5 -2.5 -1.6 -0.9 -0.3 0.4 1.1 1.8 2.4 3.2 9.7 30.1 30.3 26.6 24.2 10.5 8.1 13.4 18.2 21.2 35.9 45 54.5 62.4 69.5 75.1 81.3 87.3 93.5 98 99.6 97.3 93.2 90.4 90.1 92.6 96.2 97 98.8 100.3 98.1 98.8 99 97.7 95.7 93.9 91.8 92.9 92.4 91 93.1 92.6 90.2 94.3 95.6 97.6 101.2 103.8 105.9 107.2 108.9 109.5 109.6 110.7 112.4 111 114.6 115.8 114.3 110.4 107.7 105.5 102 97 92.2 88.8 88.7
-2.5 -2.5 -2.5 -2.5 -2.5 -2.5 -2.5 -2.5 -2.5 -2.5 -2.5 -2.5 -2.5 -2.5 -2.5 -2.5 -2.5 -2.5 -2.5 -2.5 -2.5 -2.5 -2.5 -2.5 -2.5 -2.5 -2.5 -2.5 -2.5 -2.5 -2.5 -2.5 -2.5 -2.5 -2.5 -2.5 -2.5 -2.5 -2.5 -2.5 -2.5 -2.5 -2.5 -2.5 -2.5 -2.5 -2.5 -2.5 -2.5 -2.5 -2.5 -2.5 -2.5 -2.5 -2.5 -2.5 -2.5 -2.5 -2.5 -2.5 -2.5 -2.5 -2.5 -2.5 -2.5 -2.5 -2.5 -2.5 -2.5 -2.5 -2.5 -2.5 -2.5 -2.5 -2.5 -2.5 -2.5 -2.5 -2.5 -2.5 -2.5 -2.5 -2.5 -2.5 -2.5 -2.5 -2.5 -2.5 -2.5 -2.5 -2.5 -2.5 -2.5 -2.5 -2.5 -2.5 -2.5 -2.5 -2.5 -2.5 -2.5 -2.5 -2.5 -2.5 -2.5 -2.5 -2.5 -2.5 -2.5 -2.5 -2.5 -2.5 -2.5 -2.5 -2.5 -2.5 -2.5 -2.5 -2.5 -2.5 -2.5 -2.5 -2.5 -2.5 -2.5 -2.5 -1.5 -0.8 -0.1 0.5 1.2 1.8 2.5 3.6 11.5 23.3 21.7 18.6 11.5 6.6 12.7 16.5 21.2 35.8 44 51.6 60.5 67.9 73.7 80.4 86.7 92.6 96.2 97.1 97.3 94.5 89.9 88.5 90.6 94 94.9 95.9 97.6 96.3 97.6 98 96.1 94.5 93 91.8 90.9 90.3 90.2 92.2 92.9 88.9 90.8 94.1 96.7 99.6 103 105.5 105.8 107.2 107.4 108.6 109.8 110.3 111.3 114 116.5 116.2 112.3 108.6 105.8 95.4 95.5 92.3 88.5 85.5
-2.5 -2.5 -2.5 -2.5 -2.5 -2.5 -2.5 -2.5 -2.5 -2.5 -2.5 -2.5 -2.5 -2.5 -2.5 -2.5 -2.5 -2.5 -2.5 -2.5 -2.5 -2.5 -2.5 -2.5 -2.5 -2.5 -2.5 -2.5 -2.5 -2.5 -2.5 -2.5 -2.5 -2.5 -2.5 -2.5 -2.5 -2.5 -2.5 -2.5 -2.5 -2.5 -2.5 -2.5 -2.5 -2.5 -2.5 -2.5 -2.5 -2.5 -2.5 -2.5 -2.5 -2.5 -2.5 -2.5 -2.5 -2.5 -2.5 -2.5 -2.5 -2.5 -2.5 -2.5 -2.5 -2.5 -2.5 -2.5 -2.5 -2.5 -2.5 -2.5 -2.5 -2.5 -2.5 -2.5 -2.5 -2.5 -2.5 -2.5 -2.5 -2.5 -2.5 -2.5 -2.5 -2.5 -2.5 -2.5 -2.5 -2.5 -2.5 -2.5 -2.5 -2.5 -2.5 -2.5 -2.5 -2.5 -2.5 -2.5 -2.5 -2.5 -2.5 -2.5 -2.5 -2.5 -2.5 -2.5 -2.5 -2.5 -2.5 -2.5 -2.5 -2.5 -2.5 -2.5 -2.5 -2.5 -2.5 -2.5 -2.5 -2.5 -2.5 -2.5 -2.5 -2.5 -2.1 -1.4 -0.7 0 0.7 1.3 1.9 2.5 3.8 25.3 20.6 17.2 12.1 6.3 10.7 16.7 25.7 34.7 42 50.7 59.2 67 71.7 78.3 85.2 89.8 94.6 95.6 96.4 95.5 91.5 86.1 89.7 92 93.3 94.5 95.5 95.2 96.7 96.8 94.9 93.1 91.3 89.9 88.5 90 90 91.4 93.6 90.6 90.5 94.1 96.4 99.2 102.6 105 105.3 106.7 106.3 108.4 108.4 109 111.2 113.2 114.9 115.7 112.6 108.5 105.1 102.2 96.7 93.3 89 85.3
-2.5 -2.5 -2.5 -2.5 -2.5 -2.5 -2.5 -2.5 -2.5 -2.5 -2.5 -2.5 -2.5 -2.5 -2.5 -2.5 -2.5 -2.5 -2.5 -2.5 -2.5 -2.5 -2.5 -2.5 -2.5 -2.5 -2.5 -2.5 -2.5 -2.5 -2.5 -2.5 -2.5 -2.5 -2.5 -2.5 -2.5 -2.5 -2.5 -2.5 -2.5 -2.5 -2.5 -2.5 -2.5 -2.5 -2.5 -2.5 -2.5 -2.5 -2.5 -2.5 -2.5 -2.5 -2.5 -2.5 -2.5 -2.5 -2.5 -2.5 -2.5 -2.5 -2.5 -2.5 -2.5 -2.5 -2.5 -2.5 -2.5 -2.5 -2.5 -2.5 -2.5 -2.5 -2.5 -2.5 -2.5 -2.5 -2.5 -2.5 -2.5 -2.5 -2.5 -2.5 -2.5 -2.5 -2.5 -2.5 -2.5 -2.5 -2.5 -2.5 -2.5 -2.5 -2.5 -2.5 -2.5 -2.5 -2.5 -2.5 -2.5 -2.5 -2.5 -2.5 -2.5 -2.5 -2.5 -2.5 -2.5 -2.5 -2.5 -2.5 -2.5 -2.5 -2.5 -2.5 -2.5 -2.5 -2.5 -2.5 -2.5 -2.5 -2.5 -2.5 -2.5 -2.5 -2.5 -1.9 -1.2 -0.5 0.1 0.8 1.4 2 2.6 4.6 16.9 12.7 9.9 5.7 11.1 17.3 29.2 36.8 40.7 44.9 56.7 65.5 70.1 76.5 83.7 87.6 91.5 94.1 93.3 92.5 91.7 84.6 87.5 89.8 91.3 92.6 92.6 92.8 94.1 96.3 94.2 92.8 91.2 88.3 85.9 87.4 89.2 91.6 92.1 88.6 91.4 95.4 96.6 100.3 103.7 104.8 105.8 106.1 106.4 106.9 105.8 107.7 110.8 112.5 113.8 113.7 112.1 108.3 104.6 102 98.7 94.2 89 84.1
-2.5 -2.5 -2.5 -2.5 -2.5 -2.5 -2.5 -2.5 -2.5 -2.5 -2.5 -2.5 -2.5 -2.5 -2.5 -2.5 -2.5 -2.5 -2.5 -2.5 -2.5 -2.5 -2.5 -2.5 -2.5 -2.5 -2.5 -2.5 -2.5 -2.5 -2.5 -2.5 -2.5 -2.5 -2.5 -2.5 -2.5 -2.5 -2.5 -2.5 -2.5 -2.5 -2.5 -2.5 -2.5 -2.5 -2.5 -2.5 -2.5 -2.5 -2.5 -2.5 -2.5 -2.5 -2.5 -2.5 -2.5 -2.5 -2.5 -2.5 -2.5 -2.5 -2.5 -2.5 -2.5 -2.5 -2.5 -2.5 -2.5 -2.5 -2.5 -2.5 -2.5 -2.5 -2.5 -2.5 -2.5 -2.5 -2.5 -2.5 -2.5 -2.5 -2.5 -2.5 -2.5 -2.5 -2.5 -2.5 -2.5 -2.5 -2.5 -2.5 -2.5 -2.5 -2.5 -2.5 -2.5 -2.5 -2.5 -2.5 -2.5 -2.5 -2.5 -2.5 -2.5 -2.5 -2.5 -2.5 -2.5 -2.5 -2.5 -2.5 -2.5 -2.5 -2.5 -2.5 -2.5 -2.5 -2.5 -2.5 -2.5 -2.5 -2.5 -2.5 -2.5 -2.5 -2.5 -2.5 -1.7 -1.1 -0.4 0.2 0.9 1.5 2.2 2.8 5.2 9.5 6.3 5.1 12.6 20.7 31.6 36.4 38.2 36.2 51.3 63.3 68.5 74.5 80.5 84.8 88.7 91.4 92.3 92.7 91.9 88 81.6 87.2 88.9 90.1 91 91 91.5 93.4 94 92.8 90.3 87.7 85.3 85.1 87.1 90.3 89.3 85.2 91.9 95.8 98.3 99.8 101.1 103 104.1 104.5 103.3 103.9 105.3 109.1 111.3 112.3 113.3 112.8 111.5 108.5 105.7 103.1 100 95.7 89.6 84
