ncols 200
nrows 90
xllcorner 170000
yllcorner 41500
cellsize 50
82.6 79.5 76.5 75.8 76 78.2 82 86 89.7 92.6 95.2 96.9 97.3 97.2 97.1 97 97 97.1 96.9 97.4 97.7 97.5 97.2 97.2 96.2 94.6 93.8 94.9 97.2 101.2 104.4 108 110.9 113.1 114.5 115.9 116.6 116.8 117 116.3 115.5 113.9 112.2 110.4 108.9 108.6 108 108 109.4 111.3 113.5 115.6 117.8 119.8 121.4 122.8 123.1 123.1 122.2 121.1 118.9 115.8 112.6 109 105.9 103 100.5 98.6 97.2 96.1 95.1 93.5 91.7 90.5 90.1 89.8 91.2 93.1 95.1 97.5 101.3 105.3 107.4 109.6 111.7 114.4 116.9 119.6 122 123.7 125.4 125.6 125.7 125.7 125.1 125 124.3 123.4 122.7 121.9 120.7 119.3 117.8 116.1 114.4 112.7 111.4 110.3 108.7 107.4 105.9 104.7 103.7 103.1 102.7 102.6 102.6 103.1 103.9 105 105.5 106 106.7 106.8 105.4 103.6 101.4 98.6 95.4 92.9 90.3 88.4 86.3 83.8 81.3 79.2 78 77.3 76.5 74.9 73.4 72 70.5 68.9 67.6 66.8 65.8 65.1 64.3 63.2 61.8 61 59.1 57.9 57.4 56.8 56.5 56.7 56.8 56.3 57.3 61.1 66.3 69.7 70 68.6 65.3 61.4 56.9 52.2 48 45.8 44.9 44.4 43.8 44.3 46 48.6 51.7 57.8 63.5 67.5 72.1 76.2 76.5 74 70.2 64.7 58.6 48.6 40.4 47.7 59.1 65.7 68.3 67.4 64.4 59.7 54.1 46
70.1 67.8 67.4 68.6 70.2 74.7 79.2 83.6 87.2 90.5 93.4 95.2 95.8 96.3 96.5 96.5 96.6 97.2 98 98.7 99.1 99.5 99.6 99.7 99.8 99 99.1 99.8 101.4 103.2 106.1 109.2 112 113.9 115.6 117 117.9 118.1 118.2 118.1 117.2 115.8 114.2 112.5 111.6 111 110.5 110.4 110.4 111.9 113.6 115.3 117.2 119.3 120.8 122.4 123 122.9 122.2 121 118.5 115.6 112.6 109.2 105.7 102.2 99.1 97.1 95.3 94 93.1 91.5 90.3 89.1 88.5 88.2 89.1 90.7 93.2 95.7 103.4 104.8 105.4 106.8 108.6 110.8 113.1 115.9 118.7 121.3 123 123.9 124.1 124 123.8 124 124.1 123.6 123.3 122.2 121.1 119.8 118.3 116.7 114.9 113.1 112.1 111 109.1 107.3 105.6 104.4 103.5 102.8 102.3 101.8 101.6 102 102.6 103.4 104.2 105.3 106.2 106.5 106.8 105.6 103.3 101.2 98.8 96.5 95.2 93.3 91.2 89.4 88.2 87.3 85.2 83.1 80.9 79.2 77.5 76 74.1 72.4 70.9 69.6 68.9 67.9 66.9 66.4 66.3 65.7 64.8 64.3 63.6 62.2 61.3 61.3 61.9 60.7 57.9 56.4 58.8 62.1 62.5 59.5 55.5 52.5 49.3 47.3 46.9 47.3 46.9 46.5 47.5 49.8 53.6 57.4 61.1 65.1 68.1 71.2 73.9 74.7 72.8 69 64.3 58.3 49.9 42.8 49.2 55.7 63.2 69.6 72.5 71.6 68.6 63.6 58.3 51.6
57.8 57.8 59.3 61.7 65.8 71.3 76.4 80.8 84.6 88.1 91 92.7 93.6 94.5 94.5 94.7 94.9 96.4 97.8 98.9 100 100.5 101.3 101.7 102.2 102.5 103.5 103.8 104.7 105.9 107.4 110 112.6 114.9 116.6 117.7 118.9 119.3 119.5 119.4 118.6 117.7 116.1 114.9 113.9 113.3 112.5 112.2 112.4 113.2 114.2 115.8 117.5 119 120.7 122.1 122.4 122.3 121.2 119.4 117.4 115.4 112.6 109 105.3 101.3 97.8 95.5 93.6 92.2 91.2 89.8 88.8 87.7 87 86.6 87.2 88.6 91 101.3 102.9 102.7 102.8 104.2 105.4 106.5 108.7 112.2 115 117.9 120.3 121.7 122.4 122 121.8 122.1 122.6 123.3 123 122.3 121.3 120.2 118.8 117.1 115.4 113.8 112.3 110.9 109.1 107.2 105.5 104.8 103.7 102.9 101.8 101.3 100.9 100.9 101.5 102.2 103.5 104.8 106 106.3 106.9 107.1 105.7 105.3 103.3 101.6 101.1 99.9 97.9 96.5 96.4 96 93.7 90 86.6 83.8 81.6 79.8 77.9 76 74.4 73.1 72.4 72 71.4 71.7 71.8 70.6 69.3 68.3 67.7 66.9 65.3 64.6 65 65.4 63.3 60.4 56.6 54.7 53.4 51.4 49.9 49.5 49.6 50.4 50.9 50.5 50.5 51.6 54 59.2 64 67.3 68.8 69.8 71.4 72.7 73 71.9 68.4 63.8 56.8 49.6 45.6 53.3 60.6 62.1 66.6 72.8 75.2 74.2 71.5 66.4 60.6 51.5
52.8 53.5 54.8 56.7 61.1 67.1 73 77.6 81.6 84.9 87.3 89 90 91.1 91.7 91.7 92.5 94.3 96.2 97.8 99.3 100.4 101.2 102.3 103 103.6 104.4 105.5 107 107.8 109.3 111.1 113.4 115.7 117.3 118.7 119.9 120.5 120.8 120.6 120.3 119.4 118 117.2 116.3 115.6 114.8 114.1 114.2 114.5 115.5 116.3 117.6 118.7 120 121 121.6 120.7 119.1 117.4 115.5 113.4 110.9 107.2 103.6 99.7 96.1 93.6 91.9 90.5 89.3 88.2 87.3 86.3 85.7 85.3 85.5 90.2 98.3 96.5 98.5 99.9 100.3 100.9 101.4 102.5 105.1 108.5 111.6 114.7 117.5 119.6 120.4 120.1 119.1 119.4 120.8 122 122.4 121.9 120.9 119.8 118.5 117.1 115.4 113.7 112.2 110.8 109.2 107.5 106.3 105.6 104.7 103.2 101.9 100.8 100.4 100 100.6 101.3 102.8 104.4 105.8 106.6 107.4 107.7 108.2 107.9 107.9 107 106.8 106.4 105.5 104.7 104.6 104.1 101.9 98 93.6 90.4 86.9 84.2 81.7 79.6 77.3 76.6 77.1 77 76.9 76.7 76.2 74.5 73 72.2 71.5 70.2 67.6 66.7 68.1 69.8 70.4 69.1 63.8 59 56.5 55.2 54.4 52.4 51.8 53.7 54.3 54.7 56.1 59.6 64.9 70.9 73.9 74.4 74.2 74 73.8 72.7 71.3 68.3 63.6 57.2 50 51.5 56.6 65.1 69.4 69 70.6 75.7 78 76.6 73 66.8 57.9 50.9
58.6 58.1 58.5 57.9 57.9 62.4 68.6 73.3 77.7 80.3 82.3 83.5 85.1 86.2 86.6 87.1 88.8 91 93.3 95.3 97 98.3 99.7 100.9 101.6 102.3 103 104.2 106 107.4 109.5 111.7 114 116.5 118.1 119.7 121.3 122.1 122.4 122.5 122.3 121.2 120.3 119.5 118.7 117.9 117.1 116.4 116.1 116.1 116.8 117.1 117.7 118.3 119 119.4 119.4 118.1 116.8 115 113.2 111 108.3 105.3 101.3 97.7 94.3 91.8 90.4 89.3 88.3 87.8 86.7 85.6 84.6 84.3 92.9 94.7 89.6 91.7 94.1 96.7 97.4 97.1 97.5 99.2 102.3 105.8 109.5 112.7 116.1 118.2 118.7 118 115.6 115.8 118.3 120.2 120.8 120.9 120.2 119.1 117.8 116.5 115.2 113.7 112.3 110.8 109.5 108.2 107 106.2 105.5 103.5 101.9 100.7 99.8 99.4 99.7 100.7 101.8 103.6 105.6 107 108.3 109.2 110.1 110 110.9 111.8 108.5 112.6 112.2 111.2 110.4 109.7 108.4 105.9 102 98.2 94.1 90 85.9 82.6 80.4 80.5 81.2 81.7 81.6 81 80 78.2 76.7 75.7 74.1 72 68.3 69.9 73.2 76 77 75.3 71.3 67.2 64.9 62.7 59.3 55.5 54 55.4 57.6 59.2 63.3 69 75 78.9 78.9 78 76.7 75.3 73.7 71.7 69.1 65.2 58.7 51.9 52.9 61.1 69.4 74.4 76.4 74.7 74.5 78.2 79.2 76.9 72.2 63.9 57.5 57.8
66.5 67.2 66.8 63.6 59.1 58.9 64 68.1 72.1 74.3 76.2 77.7 79.7 81.1 82.2 83.4 85.3 88 90.4 92.5 94.4 95.9 97.2 98.5 99.6 100.4 101.1 101.9 104.2 106.9 109.4 111.9 114.4 117 119.2 121 122.8 123.8 124.1 124.4 124.3 123.4 122.4 121.6 120.8 120 119.2 118.6 118 117.7 117.6 117.6 117.7 118.1 118 117.3 116.8 115.4 114 112.4 110.5 108 105.2 101.8 98.7 95.5 92.7 90.7 89.7 88.8 88.3 87.6 86.8 85.6 85.5 93.1 87.3 83.6 85 88.1 90.6 92.6 93.6 93.6 93.7 96.8 100.2 103.9 107.9 112 115.3 117 117.8 116.4 112.8 111 114.7 116.5 118.4 118.9 118.6 118 117 115.7 115.1 113.8 112.6 111.3 110.4 109.1 107.9 106.7 105.8 103.8 102 100.6 99.6 98.8 99 100.1 101.3 103.2 105.2 107.5 109.4 110.6 111.7 112.4 113.2 114.1 114.8 115.3 108.8 114.8 113.9 112.7 112 110.6 108 104.6 100.2 95.2 90.2 85.9 84.1 84.9 85.6 86.3 85.5 84.6 83.3 81.7 80.2 79.1 77.4 74.6 69.9 74.3 79.3 81.9 81.8 79.4 76 72.9 69.4 65.7 61.4 57.4 56.6 58.5 61.4 64.4 70.4 77.1 81 81.9 81.1 79.5 77 74.4 72.1 69.9 66.3 59.7 53.8 55 63.9 73 79.1 82.2 83.3 80.6 78.4 80.4 79.7 76.2 70.8 64.3 63.2 63.4
71.4 72 71.2 67.7 62.5 57.8 59.5 63 66.1 68.3 70.6 73.3 75.6 76.8 78 79.4 81.9 84.8 87.3 89.3 91 93 94.8 96 97.2 97.8 98.8 100.5 103.1 106.2 109.2 112.1 114.8 117.4 120.2 122.4 124.3 125.4 125.8 126.2 126.5 125.8 124.6 123.7 122.8 122 121.1 120.4 119.7 119 118.8 118.3 117.9 118.1 117.3 115.8 114.3 112.6 111.1 109.5 107.9 105.1 102.1 99.2 96.1 93.6 91.6 90.6 90.1 89.8 89.4 88.6 87.4 91.7 88.6 85.1 83.6 82.2 81.8 83.5 86.4 88.4 89.4 89 91.2 95.1 99 103.3 107.7 112.8 115.9 116.7 116.6 114.4 110.2 105.6 109.7 113.3 115.5 116.3 116.7 116.5 116.1 115.5 114.9 113.8 112.9 112.2 111.3 110.1 108.9 107.4 105.5 103.6 101.7 100.4 99.5 98.6 98.4 99.4 100.1 102.1 104.4 107.3 109.7 111.3 112.2 112.9 113.8 115.2 116.2 117.3 117.2 116.8 108.9 114.6 113.5 112.5 110.3 107.5 103.4 98.8 93.3 88.7 88.5 90.4 90.6 91 89.9 88.2 86.6 85.2 83.7 82.4 80.6 76.8 73.4 79.7 84.7 86.1 85 82.3 78.6 74.7 70.6 66.1 61.3 59.7 61.2 63.3 66.1 70.1 76.6 81.5 82.8 82.7 81.4 79 76 72.5 70 65.4 59.5 54.3 56.6 64.8 73.3 80.7 85.4 88.1 89 87.1 84.7 83.3 81 76.4 71.5 68.2 67.8 67.1
75.2 75.3 73.4 70.8 66.6 59.9 57.7 58.9 60.8 63.2 65.8 68.6 71.4 72.6 73.8 75.8 78.2 81 83.7 86.1 87.6 89.7 92 93.4 94.3 94.9 96.2 99 102.3 105.7 108.6 111.9 115 117.9 120.8 123.2 125.4 126.5 127.3 127.6 127.7 127.1 126.3 125.6 124.8 123.8 122.9 122.2 121.5 120.8 119.9 119.4 118.9 117.9 116.4 114.5 112.4 110.8 109 107.5 105.4 102.6 99.5 97.2 94.8 93.1 92.4 93.1 92.8 92.8 92.3 93.6 92 91.4 90.6 88.6 85.8 83.1 81.4 80.8 81.8 83.8 84.6 86.3 90.3 94.1 98 101.8 105.9 110.5 114.9 115.7 115.1 111.8 106.8 100.7 103.6 108.6 112.3 114.3 115.3 115.5 115.5 115.3 114.7 114.1 113.1 112.6 112.2 111.2 109.9 108.2 105.6 103.4 101.5 100.3 99.3 98.3 97.8 98.3 99 101 103.7 106.7 109.5 111.3 112.3 113.4 114.6 115.9 117 118 118.5 117.6 116.7 115.6 109.1 113.1 111.1 108.7 105.5 101.2 96.9 93.8 94.5 98.1 96.7 96.2 94.6 93 91.6 89.8 88.1 86.2 84 78.3 78.3 84.6 88.3 88.7 86.8 83.4 79.2 75.1 70.4 65.2 62.7 64 66.6 68.7 71 75 80.2 83.1 83.5 83 81.2 78 74.5 71.1 65.7 59.6 54.8 56.7 61.2 68.8 76.8 84.3 89.2 91.9 92.3 91.5 89.3 86.2 82.5 78.2 74.3 72.6 72.1 70.8
75.1 76.1 75.2 72.9 69.5 64.1 59.5 58.6 59.2 60.1 61.8 64.5 67 68.2 69.8 72 74.5 77.2 79.9 82.7 84.7 87 89.3 90.5 91.2 92.9 95.5 98.9 102.5 105.5 108.3 111.7 114.8 118 121.2 123.8 126.2 127.7 128.2 128.7 128.7 128.2 127.6 127 126.1 125.5 124.8 124 123.3 122.3 121.3 120.5 119.4 118.2 116.2 114 111.3 109.4 107.5 105.2 103 100.5 98.4 96.5 94.9 94.6 95.3 96.2 96.4 95.7 99.6 98.1 96.9 95.2 93.7 91.5 88.9 86.5 83.7 81.5 80.5 80 80.7 83.3 86.9 90.1 93.9 97.9 101.2 106.3 111.7 114 113.3 110.2 104.3 96.6 97.5 103.6 108.7 111.6 113.7 114.6 114.9 114.7 114.5 114 113.4 112.9 112.2 111.5 110.1 108.3 105.8 103.5 101.2 99.9 98.7 98 97.4 97.6 98.2 100.1 103 106 108.6 110.7 112 113.3 114.5 115.8 117.4 118.7 119.1 118.2 117 115.9 114 112.8 109.3 109 106.1 101.1 100 100 100.5 100.8 100.8 100.7 99.7 98.7 97.2 94.8 92.6 89.9 85.9 77.9 82 87.9 90.5 90.3 88 83.9 79.4 74.8 69.8 66.3 67 70.2 73.3 75.7 77.9 80.5 81.9 82.5 82.8 81.9 79.7 76 72.5 67.8 61.3 57 60.8 63 63.9 69.3 77.3 85.3 91 94.3 95.4 94.7 92.2 88.8 85.1 81.9 79.7 78.6 77.5 75.2
74.3 75.4 75.7 73.9 71.2 67 63.5 61 60.4 60.7 61.4 62 63.7 64.7 66 67.8 70.6 73.5 76.2 79.1 82 84.5 86 87.1 88.6 91.5 95.5 99.1 102.7 105.7 108.5 111.5 114.6 118 121.4 124.1 126.6 128 128.9 129.7 129.7 129.5 129.1 128.6 128.1 127.5 126.8 125.9 124.9 123.8 122.8 121.5 119.9 118.2 116 113.7 111 108.3 105.9 103.6 101.8 100.2 98.2 96.1 96 97.1 98.9 98.2 102.2 104.9 104.6 103.2 100.3 98.3 96.6 94.6 92.3 90.2 86.5 84.1 82.3 80.5 79 78.8 81.6 84.6 88 92.1 96.8 102.5 108.6 112.3 111.9 109.2 103.9 95.9 92.4 98.8 105.4 108.9 111.4 113.1 113.9 114 113.7 113.4 113 112.5 111.8 110.9 109.8 107.9 105.5 103.5 101.2 99.8 98.5 97.8 97.1 97 97.6 99.3 102.2 104.5 107.3 109.5 111.6 113.1 114.4 115.8 117.2 118.5 118.5 117.8 116.4 115 112.9 112 110 108.6 107.1 104.5 102.6 101.9 103.1 103.9 104 103.5 103 102.3 100.9 98.1 95 91.4 86.3 78.8 86 90.3 92.2 91.8 88.8 83.9 79.1 74.4 70.5 69.4 72.2 76.5 79.7 82.2 83.8 83.9 82.1 80.3 79.7 78.9 76.9 73.7 69.2 63.2 61 63.7 66.8 68.2 67.8 70.3 77.9 86.1 92.6 95.3 97.1 97 94.6 91.5 89.1 87.2 85.8 84.7 83 80
73.1 74.9 75.6 75.1 72.9 70.2 67.1 64.1 62.4 61.8 61.8 62 62.6 63.2 63.8 64.9 66.6 69.5 72.5 75.5 78.6 80.8 82.2 84 87.2 90.8 94.9 98.9 102.7 105.9 108.6 111.8 115 118.3 121.5 124.1 126.3 128.1 129 129.9 130.4 130.6 130.8 130.6 130 129.5 128.7 127.7 126.5 125.3 124.1 122.5 120.6 118.6 116.1 113.4 110.6 107.8 105.3 103.1 101.2 99.8 98.7 97.3 100.4 100.6 101.3 105 108.3 109.1 108.4 106.6 104.7 102.1 99.2 97 94.4 92.4 89.4 87.7 85.9 83.4 80.4 77.9 77.2 79.3 82.9 87.3 93.7 100.2 106.8 110.6 110.7 108.2 103.4 94.2 87.9 93.9 101.1 105.7 108.4 110.8 112.1 112.7 112.8 112.3 111.7 111.3 110.9 110.2 109 106.8 105.1 103.1 101.1 99.7 98.5 97.7 96.9 96.4 96.9 98.4 100.7 103.1 106 108.3 110.5 113 114.6 115.8 117 117.7 117.7 116.7 115.3 113.9 112.2 110.7 109.5 108.2 106.9 105.4 105.6 105 105.3 106 105.8 105.5 104.9 103.9 101.9 99 95.4 91.1 85.3 84.5 89.2 93.1 94.5 93.9 90.6 84.6 79.8 76.5 74.1 73.1 76.8 81.3 85 87 86.7 84.6 81.7 78.7 76.7 75.6 74 70.3 65.3 64.8 68.7 70.2 71.5 72.8 72.4 72.9 79.9 88.2 93.3 96.5 98.4 98.4 95.9 93.6 92.4 91 90.5 89.3 87.1 83.7
73.2 75.4 76.2 76.2 75.3 73.2 70.2 67.1 64.8 64.1 63.9 64.1 64.3 64.7 64.7 64.9 65.5 66.7 69.3 72.2 75.1 76.8 79.4 82.7 86.3 90.4 94.8 98.8 102.7 106.2 108.8 112 115.2 118.2 121.1 123.6 125.7 127.8 129.1 130 131 131.4 132.1 132.6 132.1 131.8 130.9 129.6 128 126.7 125.4 123.5 121.6 118.9 116.1 113.6 111 108.3 105.8 103.5 101.9 101.1 99.1 103.9 102.1 104.5 106.5 109.7 112 112.9 112.6 111.3 109.6 107.8 104.9 100.8 97.1 94.1 93 91.5 89.8 86.9 83.4 79.4 76.7 76.1 78.5 83.2 90.5 98.2 104.7 108.5 108.3 105.7 101.6 93.1 85.3 90.2 96.6 101.5 105 107.9 110.1 111 111.5 111.2 110.4 110 109.6 109.1 107.9 106.1 104.7 102.8 101.1 99.6 98.4 97.3 96.6 95.9 96.4 97.7 99.6 102 104.9 107.6 110.1 112.4 114.5 115.6 116.7 116.8 116.9 115.7 114.2 112.7 111 109.3 108 106.8 106.1 106.1 106.1 106.3 106.6 107.6 107.3 106.3 105.4 104.2 102.3 99 95.6 90.9 86.3 89 93.5 95.9 96.8 96.7 92.8 87.5 83.9 81.7 79.3 77.3 80.8 85.5 88.9 89.2 86.9 84.4 80.8 76.7 74.3 73.1 70.4 67.4 68.5 72.4 74.9 75.8 76.9 78 78.6 78.4 83.3 90.2 94.4 97.4 99.2 99.7 97.5 95.2 94.2 93.4 93.2 91.9 89.8 86.6
74.2 76.2 77.2 77.4 77 75.7 73.3 70.3 67.9 66.8 68.6 69.7 70.1 70.3 69.9 68.7 67 66.2 67.4 69.2 71.6 74.4 78.8 83 86.5 90.5 94.8 98.7 102.6 106 109 112.2 115 117.7 120.3 122.4 124.8 126.9 128.7 130.1 131.1 132.1 132.9 133.7 134.1 133.7 132.9 131.3 129.7 128.1 126.4 124.5 122.4 119.6 116.7 114.2 111.8 109.2 106.7 104.6 102.8 102 104.7 106.9 103 105.9 109.2 112.9 115.2 116.4 116.5 115.8 114.3 112 108.6 104.2 100.1 98 96.4 95.5 93.8 90.6 87 82.8 78.6 75.8 75.6 78.9 88.1 96.3 102.3 105 104.5 101.3 96.2 89.2 83 87.9 91.7 96.9 101.8 105.2 107.4 108.8 109.6 109.3 109.1 108.7 108.3 107.8 107.1 105.8 104.5 102.9 101.3 100 98.6 97.1 96.3 95.6 95.7 96.5 98.5 100.9 103.9 106.9 109.5 111.7 113.8 115.3 116.3 116.5 115.8 114.8 113.3 111.8 110 108.3 106.5 105.4 105.1 105.2 105.5 105.9 106.8 107.7 107.5 106.7 105.9 104.7 102.5 99.2 95.8 91.5 89.3 93.5 96.9 98.6 99.3 98.1 94.9 91.5 89 87 84.8 82.2 84.2 88.3 90.1 89.2 86.7 83.6 79.9 76.5 74.3 71.7 70.3 71.6 74.7 78.5 81.4 82.4 83.2 83.9 84.8 84.9 88.2 93.4 96.3 98.3 100 100.7 98.5 95.2 94.9 94.3 94 93.5 91.6 88.9
75.5 77.3 78.3 79 78.5 78 76.2 73.6 71.2 69.8 71.7 73.5 74.5 74.6 74.3 73.6 70.7 67.9 67.3 68.1 70.2 73.6 78.3 83.1 87 90.9 94.7 98.6 102.4 105.5 108.3 111.3 113.8 116.3 118.8 121.3 123.6 125.7 127.6 129.3 130.8 131.8 132.8 133.8 134.7 134.5 133.8 132.3 130.6 129 127.1 124.9 122.7 120.3 117.4 115 112.5 110 107.8 105.6 103.7 106.5 108.7 104.4 107 109.4 112.2 115.7 118.2 119 119.3 119.1 117.5 114.7 111.2 107.3 104 102.4 101.9 97.2 97 93.7 89.8 84.7 81.4 78.7 75.3 75.5 84.7 92.2 97.6 99.9 92.5 94.6 89.3 82.4 77.4 81.9 88.8 93.4 96.9 98.6 103.2 104.9 106.3 106.8 106.8 107.1 107 106.6 106.6 105.7 104.4 103.2 101.8 100.2 98.8 97.3 96 95.3 94.7 95.4 97.3 99.8 102.9 105.9 108.9 111.1 113.2 114.7 115.6 115.9 115.2 114.1 112.9 111.2 109.4 106.8 104.6 102.9 102.7 103.5 104.1 104.8 105.7 106.8 106.8 106.8 106.4 105.1 102.8 99.6 96.1 92.4 92 95.4 98.2 100.7 100.8 99.5 97.7 95 93.4 91.8 89.4 86.4 87.2 90 90.7 89.4 86.9 83.2 80.6 78.8 76.1 73.5 73.4 76.3 80.8 84.4 87.3 88.7 89.3 90.1 90.3 90.5 93.6 96.1 97.9 99.3 100.3 100.4 97.2 93.7 94.4 94.2 94.1 94 92.6 89.7
77.8 79 80.1 80.7 80.6 80.4 78.7 76.9 74.6 73.2 74.5 76.2 77.1 77.5 77 76.1 74.1 70.8 68.5 68.3 69.9 72.8 77.5 82.5 87.2 91 94.7 98.1 101.4 104.4 107.2 109.7 111.9 114.2 116.7 119.4 121.9 124.1 126.2 128.1 129.6 130.8 131.9 132.9 134 134 133.7 132.7 131.4 129.5 127.4 125.3 123 120.6 118.2 115.7 113.3 111.1 108.9 106.9 108.4 106 107.6 109.3 109.8 112.7 114.8 117.5 119.8 120.9 121.1 120.7 118.9 116.8 113.8 110.9 108.6 106.4 104.3 101.8 98.3 94.2 91.8 88.2 86.2 83.7 78.9 74.4 77.2 86.2 92.1 90.9 91.1 88.9 83.8 76.6 74.2 78.8 84 87.9 91.3 94.2 97.2 99.1 100.1 103.1 103.1 104.3 105.5 105.9 106 105.7 105.1 104.1 102.8 101.1 99.4 97.7 96.1 95.1 94.3 94.2 96 98.7 101.9 105.3 108.2 110.5 112.4 113.8 114.7 114.9 114.4 113.4 112.3 110.8 108.7 106.2 103.4 100.8 99.5 100.8 102.3 103.3 104.4 105.4 105.9 106.2 106.8 105.5 103.3 100.4 97.2 94.7 95.1 96.8 99.6 101.6 101.9 101.3 99.8 98.3 96.9 95.3 92.5 88.4 89.6 91.6 91.5 89.7 87.1 85.2 83.9 82.1 78.8 75.4 76.1 80.8 85.5 89 91.5 92.8 93.5 94.3 94.6 95.1 96.7 98 99.1 100 100.1 99.5 96.2 93.7 94.1 94 93.9 94.2 92.4 90.1
80.4 81.7 82.5 83.2 83.4 82.7 82 80.1 78 76.5 77.1 78.7 79.7 79.9 79.3 78.2 76.4 73.6 70.4 69.2 70 72.1 76.7 81.7 86.4 90.5 94.4 97.8 100.8 103.5 105.4 107.4 109.5 111.9 114.4 117 119.7 121.8 123.9 126 127.7 129.1 130.4 131.5 132.1 132.5 132.5 131.7 130.9 129.3 127.2 125.3 123.4 121.3 118.9 116.8 114.4 112.3 110 110.2 107.6 108.5 111.6 111.8 111.7 113.7 116.4 118.9 120.3 121.4 121.7 121.6 120.4 118.4 115.9 113.3 110.6 108 105.2 102.4 99.3 96.5 95.3 93.8 91.9 91.4 90.3 78.7 73.5 78.3 83.4 85.9 86.2 83.1 78 71 70.1 73.8 78.5 82.5 85.3 88.1 90.7 93 95.6 96.2 98 101.5 103.9 102.5 100.6 100.7 104.2 104.2 103.2 101.6 100.1 98.3 96.6 95.2 94 93.6 94.8 97.4 100.7 104.5 107.7 109.9 111.6 113 113.6 113.8 113.5 112.5 111.3 109.6 107.9 105.4 102.4 99.7 97.4 97.7 99.4 101 102.5 103.3 104 104.4 104.9 105.1 104.7 102.3 99.3 97.6 97.3 98.8 100.9 102.7 103.1 102.5 102.2 101.1 99.7 97.4 93.4 90.6 91.8 93.6 93.2 91.4 89.9 88.8 87.4 85.5 82.1 77.6 79.4 85.5 90.5 92.6 93.9 95 95.3 95.6 96.1 96.8 97.9 99 99.2 99.1 98.7 97.7 97 95 92.7 92.3 93.5 94.2 93.1 91
83.1 84.3 85.5 86.3 86.5 86.1 85.2 83.4 81.4 79.9 80.4 81.3 82.2 82.1 81.7 80.5 78.7 76.3 72.8 71.1 70.4 71.7 75.7 80.4 85.2 90 94.1 97.6 100.8 103 104 105.4 107 109.1 111.8 114.7 117.1 119.1 121.1 123.2 125.2 127 128.2 128.7 129.4 130.2 130.6 130.4 129.5 128.4 126.8 125.2 123.6 121.7 119.8 117.7 115.7 113.6 111.9 111.4 111.1 111.9 113 113.2 114.2 116 118 119.7 120.8 121.7 121.6 121.3 120.6 119 116.5 113.8 111 108.1 105.4 102.8 100.2 99.2 98.2 98 96.6 94.3 89.8 84 77.9 74.1 76.1 78.5 78.3 75.6 70.5 67.5 67.2 67.8 72.8 76.6 79.2 81.7 83.8 86.4 89.5 94 99.1 102.4 104.7 105.8 106.3 106.4 105.2 104.5 103.9 102.3 97.4 98.9 97.2 95.5 93.9 93.1 93.7 96.2 99.8 103.4 106.7 109.2 110.9 112.3 112.6 112.7 112.4 111.5 109.9 108.3 106.3 104.1 101.2 98.2 95.5 94.5 96.2 97.9 99.3 100.8 102.1 103.1 103.5 103.7 103.9 104.2 101.8 101 100.6 101.6 102.3 103.6 104.3 104.7 104.4 103.4 101.5 98 94.7 94.2 95.5 96.6 95.9 94.6 93.9 92.8 91.2 88.9 84.9 80.1 82.9 89 92.7 94.2 95.1 95.6 96 96.5 96.8 97.2 97.7 98.5 98 98.1 96.8 95.2 93.8 91.6 89.2 90.4 92.5 93.8 93.3 91.8
85.7 87.1 88.3 89.6 90 89.7 88.9 87.4 85.3 84 84.2 84.6 84.9 84.7 84.1 82.4 80.7 78 75.2 73.2 71.9 71.7 74.2 79.1 84.6 90 94 97.7 100.8 101.9 102.4 102.3 104 105.9 108.3 110.9 113.3 115.4 117.6 119.8 121.8 123.2 124.6 125.8 126.7 128 128.5 128.7 128.1 127.1 125.7 124.5 123.4 122 120.6 118.6 117.3 112.8 115.2 115.1 114.6 115.1 115.7 116.2 117.4 118.2 119.8 120.6 120.8 120.9 120.7 120.3 119.7 118 115.6 113 110.6 108.2 105.9 104.7 103.7 103.2 102.8 102.7 101.7 99.1 95 91.2 85.6 79.3 75.4 74 73.6 72.6 70.2 67.8 66.3 65.8 66.5 69.7 72.4 74.4 76.8 82.4 89.3 96.3 100.8 103.6 105.4 106.7 107.5 107.5 106.4 105.6 104.8 103.3 101.9 100.1 96.9 95.9 94.1 92.6 92.8 94.7 98.2 102.2 106.1 109 110.4 111.5 111.5 111.5 110.7 108.9 107.2 105.8 103.5 101 98.9 96.2 93.7 92 92.8 94.5 96 97.5 99.5 101.1 102 102.6 102.7 103.2 103.5 103 102.6 102.2 101.2 102.5 103.3 103.8 103.4 103 102.4 101.1 100.4 99.6 99.1 99.5 98.7 97.9 97.1 96.4 95 92.4 87.9 83.9 85.9 90.8 93.2 94.7 94.7 95.1 95.2 95.6 96.3 96.8 97.5 97.6 97.2 96.6 95.6 92.2 90.2 88.3 87.7 89.7 92.4 93.5 93.5 92.8
87.4 89 90.4 91.6 92.4 92.7 92.2 90.9 89.8 88.6 88.4 88.5 88.7 87.9 86.7 84.7 82.4 80.2 78.2 76.2 74.6 73.1 73.4 77.6 83.9 90.4 95 98.7 100.5 100.5 99.3 98.8 100.1 102.1 104.2 106.4 108.5 110.9 113.2 115.3 117.4 119.3 120.9 122.7 124.2 125.4 126.1 126.4 126.1 125.7 124.5 123.7 122.8 122 121.2 119.7 113.3 118 117.8 117.6 117.5 117.9 118.3 119.1 119.7 120.3 120.4 120.5 120.1 119.4 118.5 117.7 117 115.8 113.3 111.7 110.1 108.5 107.6 107.4 107.6 107.5 107.1 106.5 105.3 103.6 101 97.8 94.2 89.9 86.9 85 83.7 81.7 77.2 71.7 69.2 68.8 66.3 65.6 66.4 69.7 76.1 83.3 90.7 96.8 101.5 104.5 106.1 107.5 108.1 108.1 107.7 106.7 105.8 104.6 103.2 101.1 98.9 96.5 94.4 92.9 91.9 93.1 96.7 101.2 105.7 108.8 110.1 110.5 110.4 109.2 108.1 106.2 104.4 102 99.9 97.8 96.5 94.8 92 89.9 89.4 90.6 92.1 93.6 96.1 98.1 99.7 100.9 102 102.8 103.4 103.6 104 104 105.3 106.2 107.3 107.9 107.1 106.2 104.7 103.7 102.9 102.4 101.6 100.8 99.8 99.6 99.8 99.2 97.4 95.7 92.3 88.7 89.2 92.1 94 94.6 94 94 94 94.5 94.9 95.4 95.7 95.7 94.4 92.8 91.4 90.8 89.5 89.3 87.9 89.4 91.9 93.3 93.7 93.1
88.9 90.6 92 92.9 93.9 94.8 95.2 94.5 93.8 93.1 92.6 92.5 92.2 91 89 86.8 84.7 83.2 81.9 80.7 79.6 77.2 74.6 75.5 82.1 89.6 95.3 98.3 98.6 96.9 94.5 93.2 94.8 97.5 99.4 101.5 103.6 105.9 108.4 110.9 113 116 118.2 120.2 121.7 122.7 123.6 123.9 123.7 123.2 122.5 121.5 121.4 121.6 121.1 113.5 119.7 120 119.9 119.7 119.7 119.8 120.3 120.5 120.7 120.6 120.4 119.6 118.3 116.8 115.2 114.2 112.9 111.8 110.1 109.6 108.7 107.8 108.1 108.2 108.6 108.9 108.5 107.8 106.9 106.4 104.9 102.8 101.2 98.8 96.8 94.7 91.4 87.4 82.1 76 73.2 71.9 69 65.8 64 67.2 74.6 82.1 89.4 95.9 100.6 104.2 106.5 108 108.7 108.6 108.2 108 106.8 105.2 103.8 101.7 99.6 97 94.3 93 91.7 91.9 95.2 99.8 104.9 108.1 109.3 109.1 106.8 107.7 106 104 101.3 98.2 96.6 95.2 93.9 92.6 90.8 88.9 87.2 86.8 88.2 89.6 92.1 94.7 96.5 99.2 101.2 102.4 103.2 104 104.4 105.4 106.7 107.9 108.5 108.4 107.8 107.1 106.4 105.5 104.6 103.7 102.8 101.9 101.4 101 100.7 100.3 99.6 98.3 97.3 96.4 95.3 95.1 94.2 94.4 93.2 91.9 91.5 91.9 92.4 93 93.7 93.5 92.2 90.8 88.3 85.2 81.9 80.9 83.1 86.6 90.5 91.9 93.3 92.7
89.2 91 92.7 94.2 95.2 96.6 97.6 97.6 97 96.7 96.3 95.9 94.9 93.3 91.3 89.3 87.4 86.1 85.3 84.5 83.5 81.6 78.5 76.4 79 85.3 91.1 93.4 92.8 90.7 88.2 87.7 89.3 91.4 93.6 95.8 98 101.2 103.9 106.5 109.9 112.9 115 117.1 118.4 119.3 119.9 119.9 119.9 119.7 119.5 119.9 120.6 120.9 113.7 118.8 121.6 121.9 122 121.8 121.8 121.8 122 121.9 121.7 120.8 119.7 117.9 116.1 114.1 112.2 110.6 109.2 108.1 107.4 106.9 106.6 106.1 106.3 106.8 107.3 107.6 107.8 107.8 107.5 107.9 108.4 107.4 106.2 104.9 103 99.9 96.2 91 85.1 79.2 76.2 74.7 71.7 67.8 63.1 64.7 72.5 80.6 88.6 94.9 99.8 103.9 106.1 107.7 108.9 108.9 108.6 108.3 107.1 105.4 104 102.2 100.5 98.2 95.9 92.8 90.5 91.4 93.9 98.4 102.3 107.7 109.2 109 107.7 105.7 103.8 101.4 98.5 95.4 92.6 91.3 91.5 90.4 89.6 88.3 86.5 84.8 84.5 85.8 88.6 91.5 94.7 98.3 100.6 102 102.9 103.8 104.7 105.6 106.5 107.6 107.9 107.9 107.7 107.4 106.8 105.9 105.5 104.7 103.9 103.1 102.4 101.6 101.2 100.7 100.2 99.5 98.5 97.4 96.6 95.9 95.4 94.8 93.1 90.5 89.7 89.1 88.9 89.5 90.3 89.9 88.8 87.2 84.1 80.9 77.4 74.9 77 82.5 88.4 91.7 91.7 91.4
87.3 90.2 92.7 94.6 96.1 97.6 99.1 100 99.5 99.4 99.2 98.6 97.2 95.7 93.7 91.9 90.3 89.6 88.8 88 86.9 85.2 82.4 79.3 78.1 80.6 84.6 86 85.3 83.8 83.1 83.5 84.8 86.4 88 89.7 92.8 96.2 99.6 103.1 106.6 109.5 111.7 113.6 114.9 115.6 115.7 115.8 115.8 116.4 117.6 118.3 119 116.9 116.3 121.9 123.3 124.1 123.9 123.8 123.6 123.6 123.5 123 122.2 120.8 118.8 116.8 114.6 112.3 110.1 108.1 106.7 105.7 104.6 104 103.7 103.8 103.9 104.3 104.6 104.8 105.4 105.9 107 107.9 109 109.4 109.5 109.1 107.7 104.5 100.5 95.9 90.6 84.5 80.2 79.2 76.6 71.7 64.7 63 70.8 80 87.6 93.9 98.9 102.9 105.1 105.6 106.7 106.9 107 107.1 106.5 105.2 103.9 103 101.3 99.5 97.5 94.6 92 92 95.2 98.9 103.6 106.5 108.5 107.6 105.9 103.8 101.7 99.6 96.7 92.7 88.7 87.6 88.2 88.7 88.8 87.8 86 84.3 82.7 83.6 87 90.8 94.4 97.9 100.1 101.7 102.6 103.3 104.1 105 105.9 106.9 107.1 107.3 107.4 107.3 106.9 106.3 105.6 104.9 104.1 103.2 102.6 101.9 101.1 100.5 99.8 99.3 98.8 98 97.3 96.6 96.3 95.8 93.2 90.3 89.1 87.3 85.7 86 86.4 85.1 84.4 83.2 80.6 77 73 70.7 72.2 76.4 84.5 90.1 92.2 92.2
85.5 89.2 92.4 95.4 97 98.7 100.1 101.5 102.2 102 101.9 101.4 100 98.5 96.6 94.8 93.8 93 92.2 91.4 90.1 88.1 85.4 82.3 79.5 78.5 79.3 80.2 80.3 80.8 81.8 83.2 84.7 85.5 86.1 87.1 88.9 91.7 95.2 99.2 102.9 106.1 107.9 109.7 110.7 111.4 111.4 111.9 113.2 114.4 115.5 117.1 118.1 114.5 122 122.4 123.7 124.9 125.2 125.4 125.3 125.2 124.9 124.3 122.8 120.7 118.7 116.7 114.2 111.8 109.4 107.1 105.1 103.2 102.2 101.4 100.8 100.8 100.9 101.2 101.3 101.3 102.6 103.9 105.7 107.5 108.6 109.6 110.9 111.8 111.2 108.7 104.5 99.9 95.1 89.1 85 84.1 81.9 76.8 68.4 62.7 68 77.6 85.2 91 96.2 99.7 102.5 102.5 102.7 103.9 104.4 105.3 105.3 105 104.4 103.5 102.5 100.6 99.7 97.4 93.7 90.9 92.2 97.9 101 104.4 106.4 104.9 102.5 100.8 98.8 96.9 93.8 89.9 85 84.5 85.9 87.1 88.1 87.7 86.3 83.6 81.2 82.3 86.6 90.6 94.2 97.3 99.5 100.8 101.7 102.5 103.6 104.4 105.2 105.7 106.2 106.7 106.9 106.8 106.5 106.1 105.6 105 104.1 103.2 102.5 101.2 100.5 100.1 99.7 99.3 98.8 98.4 97.9 97.2 97.1 97.1 96.6 91.8 89.6 87.6 83.6 82.3 81.8 80.4 79.7 78.9 76.5 72.2 68.1 66.8 68.5 73 80.3 87.3 90.4 90.9
84.8 89 92.1 95.1 97.9 99.9 101.7 102.8 103.5 104.2 104.3 103.9 102.8 101.5 99.9 98.3 97.3 96.4 95.6 94.8 93.3 91.1 88.3 85.1 81.6 79.7 79.5 80.2 81.2 82.6 84.3 86.2 87.6 88.1 88.1 88.3 88.5 89.3 91.4 94.9 98.4 101.8 104 105.4 106.2 106.7 107.4 109.1 110.6 112.2 114 115.6 113 115.6 120.2 122.1 123.9 125.2 126.2 126.7 126.9 126.8 126.4 125.5 123.3 121 118.6 116.6 114.5 112.4 110 107.5 105.1 102.7 100.3 99 98.2 97.8 98.3 98.4 98.1 99.2 100.9 103 105.3 107.1 108.7 110.2 112.1 113.2 113.6 111.5 108.3 103.9 98.5 93.5 90 88.3 85.9 80.3 71.4 63.5 63.6 72.5 81.3 87.1 92.2 95.7 98.1 99.4 99.4 100.1 100.6 102.4 104 104.5 104.3 103.5 101.5 103.5 102 99.3 95.9 91.2 90.9 94.4 97.8 101.2 101.8 100.5 99 96.8 94.8 92.5 90.5 88.3 82.7 80.2 80.6 85.1 86.9 87.1 85.8 83 79.5 80.6 85.5 89.7 93.6 96.6 98.6 99.5 100.2 100.9 102.4 103.1 103.7 104.2 104.3 104.9 105.4 105.4 105.7 105.6 105.4 105 104.1 103.3 102.1 100.5 99.6 99.1 99.4 99.2 98.6 98.5 98.2 97.8 98.2 98.3 97.7 96.1 92.5 90.7 85.3 81.6 77.8 75.7 74.6 73.6 71.2 66.9 64 63.5 66 70 77.1 84.5 88.1 89.3
84.2 88.6 92.4 95.4 98.2 100.7 102.6 104.1 104.9 105.7 105.9 105.7 105.1 104.1 102.8 101.7 101 100.3 99.3 98.3 96.7 94 90.9 88 84.8 82.6 82.6 84.3 86.2 88.1 90 91.7 92.5 93.4 93.5 93 91.5 89.6 89.7 91.5 94 97.1 99.1 100.4 101.7 103.5 104.9 106.7 108.1 110.7 113.1 111.4 116.1 116.9 119.3 121.5 123.8 125.5 127.2 127.9 128.2 128.4 127.9 126.6 124.3 121.9 119.4 117.1 115.1 112.9 110.5 108.1 105.4 102.5 99.6 97.5 96.7 96.1 96.6 96.6 96.8 98.3 101.2 104 106.6 108.5 110.3 112.2 114 114.9 114.8 113.5 110.9 106.9 101.8 97.4 93.7 91 88.1 82.5 73.9 63.1 60.7 69.1 78.1 83.2 87.8 90.7 93.3 94.8 95.3 96.2 97.3 99.9 102.4 102.5 103.1 104.6 105.7 105.3 104.1 102 98.8 93.8 89.4 88.9 92.8 94.9 91.2 93.1 93 90.8 89.2 88.4 85.4 83.1 80.2 79 80.7 83.6 85.3 84.2 84.4 82.7 79.3 78.4 84.3 88.5 92.7 95.5 97.6 97.9 98.5 99.2 100 100.9 101.5 101.3 102.3 102.9 103.5 104.2 104.7 105 105.1 104.9 104.2 103.2 101.6 99.6 98 98.2 98.8 98.6 98.2 97.5 98.3 98.4 99 99.3 98.9 97.5 95.7 92.1 87.9 82.7 77.6 72.5 69.9 68 65.3 61.8 60.3 60.5 63.6 67.2 73.3 81.3 85.7 86.6
84.3 88.7 92.5 95.7 98.6 101.1 103.4 104.9 106.4 107.2 107.4 107.4 107.4 106.6 105.9 105.7 105.4 104.4 103.4 102.2 99.7 97.4 94.3 91.2 88 86.2 86.9 88.6 91.5 93.7 95.7 97.4 98.4 98.6 98.7 97.8 95.4 92.9 90.8 90.3 91.4 93.2 95.3 97.3 99.6 101.9 104 105.8 107 110.2 109.1 112 114.6 116.6 118.7 120.8 122.9 124.9 126.5 127.4 128 128.4 128.2 127.4 125.8 123.4 120.7 118.1 115.7 113.4 110.8 108.1 105.3 102.5 99.6 97.3 96 95.4 95 95 96 99.6 104.2 107.9 109.7 111.1 112.9 114.2 115 114.5 114.1 112.8 110.5 107.9 104.1 100 96.2 93.3 89.8 84.2 75.4 64.1 59.6 67.3 74.9 79.9 83.5 86.8 89.3 90.4 91.8 92.9 95.2 97.8 100.7 104.3 105.9 107 107.4 106.9 105.9 104.3 102 97.5 92 88.5 86.6 86.4 87.7 87.7 86.5 85.5 83.8 81.9 80.5 79.5 77.1 76.4 78.8 80.9 82.2 83.4 84.2 82.6 79 76.4 83.2 87.6 91.9 94.8 96.5 96.9 97.2 97.6 97.3 97.3 97.4 97.7 98.8 99.9 100.9 101.8 103.2 104.1 104.7 104.5 104.2 103.2 101.5 99.4 97.5 96.6 97.6 97.7 97.8 95.1 98.3 98.4 99.1 99.5 98.7 97.8 96 92.4 88.4 83.2 77.7 71.1 65.6 62.2 60.1 58.5 57 58.4 62.7 65.1 70.2 77.6 82.9 84
84.5 88.8 92.7 95.9 99 101.5 103.9 105.4 106.7 108.2 108.7 109.2 109.4 109.7 110 110 109.8 108.6 107.6 105.6 102.7 100.3 97.4 94.3 91.7 90.8 90.6 92.4 95.8 98.3 100 100.9 101.8 102.3 101.7 100.7 98.6 96.3 93.9 91.8 91.6 93.4 96.1 98.5 100 102.3 104 104.9 107 106.9 110.8 111.3 114.4 116.3 118.3 120.1 121.3 122.8 124.3 125.5 126.5 127.5 127.7 127.2 126.2 124.6 122 119.1 116.1 113.5 110.9 108 105.2 102.6 100.1 97.6 95.5 94.1 92.5 92.8 97.7 104 108.7 111.3 112.1 112.6 113.1 113.5 112.9 111.8 110.9 109.9 108.7 106.7 104.4 100.9 97.7 94.2 90.5 85.1 76.3 63.9 58.9 65.1 71.8 75.4 78.8 81.4 83.9 85.1 87.5 91.1 95.3 99.5 103.1 105.9 107.5 108.4 109 108.5 107.8 106.6 104.5 102 97.8 93.5 88.7 84.2 82.9 82.3 81.2 79.8 78.7 77.2 75.4 75.9 75.1 74 76 77.3 78.9 80 80.4 79.7 81.9 75.6 82.2 86.7 91.3 94.1 95.2 95.8 96.1 95.7 94.4 93.2 93.4 94.1 95 96.3 97.5 99.2 101.6 103.6 104.3 104.3 104 103.2 101.5 99.3 96.5 95.3 95.8 96.6 96.4 91.7 95.7 96.7 96.9 97.6 97.3 96.6 94.4 90.5 86.1 81.1 74.9 68.2 62.8 58.4 56.3 55 53.9 55.8 60.3 62 65.3 73.7 79 81.8
83.8 88.7 92.8 96.2 99.4 101.8 103.7 105.3 106.8 108.1 109.3 109.8 110.6 111.6 112.3 112.9 113.1 112.4 111 109.2 106.2 103.4 101.4 98.3 95.6 94.9 94.5 96.1 99.1 102.1 102.9 103.6 104 104.1 103.7 102.4 101 99.3 97.8 94.7 93.1 94.6 96.7 99.3 100.6 102.6 102.3 104 103.8 109.8 111.1 112.3 114.2 115.9 117.7 118.7 119.5 120.6 121.9 123 124.1 125.2 126 125.8 125.5 123.9 121.8 119.1 116.3 113.6 110.9 108.3 105.8 103.1 100.6 98.1 95.6 93.5 90.1 89.5 97.2 104.8 109.1 111.1 111.8 111.9 111.8 111.2 109.8 108.4 107.5 106.2 105 103.9 102.1 99.6 96.3 92.9 89.5 84.8 76.8 64.5 58.4 62.6 68.1 71.3 73.6 76.1 78.5 81.7 86.1 90.6 95.1 99.4 103.8 107 109 109.9 110.4 110.1 109.5 108.4 106.7 104.8 102 98.1 92.2 85.5 82 80.6 79.4 78.4 76.6 75.1 72.9 74 73.3 72.5 72.6 73.6 75.3 76.3 76.9 76.3 73.4 81 81.7 86.2 90.2 92.6 94.1 94.8 94.7 94 92 90 89.2 90.4 91.2 92.9 95.2 98.7 101.8 103.3 103.9 104.1 103.8 103.1 101.5 98.5 95.9 94.4 93.7 94.6 94.4 88.9 93.1 93.9 94.7 95.7 95.1 93.6 91.6 87.9 82.9 77.7 71.9 65.5 60.2 55.9 53.3 51.8 51.3 52.9 56 56.4 59 69.2 74.5 77.8
82.7 87.8 92.1 96.1 99 100.8 102.3 104.2 106 107.4 108.2 110 111.2 112.3 113.3 114.1 115.3 115.1 114.5 113 111.2 108.9 106.2 102.7 99.7 98.4 99.1 100.7 102.7 104.4 105.2 105.5 105.7 106 105.9 105.1 105 103.3 100.9 95.8 93.4 94.3 97 99.6 101.2 101.5 100.5 101 107.5 109.9 110.8 113 114.1 115.4 116.2 116.9 117.7 118.6 119.6 120.7 121.8 123 124 124.2 124.1 123.1 121.5 119.1 116.4 113.8 111.3 109.2 106.2 103.6 101.1 98.5 96 92.8 88.5 87.2 93.8 101.3 105.7 108.4 109.3 109.5 108.9 107.3 105.8 104.2 102.5 101.1 99.8 99 97.7 95.4 92.5 89.3 86 81.4 74.9 64.5 58.1 60 64.3 67.4 70.1 73.4 77 80.8 85.1 89.9 94.7 99.9 104.9 108.4 110.5 111.2 111.8 111.5 111 110.2 108.5 106.7 103.4 99.4 93.7 87.5 83.1 81.3 79.9 78.7 77.2 76.1 74.9 74 73 71.6 71.2 71 70.9 71.9 72.5 71.7 70.6 75.1 80.6 85.7 89.1 91.3 93 93.8 93.7 92.6 89.8 87.1 85.3 86.2 88 91.4 96 99.7 102.4 103.6 104 104 103.8 102.8 101.1 98.5 96.2 94.7 92.8 91.5 90.6 89.2 91.6 91.8 92.6 94.3 94.6 94 90.7 84.7 79.7 74.4 68.8 63.4 58.4 54.7 51.7 49.3 49.3 49.8 51.1 51.8 54.7 64.6 69.8 73
80.6 86 91.1 95 97.5 99 100.6 102.3 104.2 105.9 106.5 108.4 110.3 111.9 113.7 114.7 115.8 116.8 116.9 116.2 114.8 113.2 110.5 107.4 104.6 103.6 105 105.8 106.4 106.9 107.6 108.2 108.4 108.4 108 107.6 105.9 103.2 100 95.2 93.5 94.4 96.2 98.7 100.5 99.1 98.5 105.1 108.2 109.9 110.7 112.3 113.2 114 114.5 115 115.8 116.8 117.9 118.9 120 121.2 121.8 122.4 122.3 121.5 120.4 118.5 116.4 114 111.8 108.8 106.1 103.1 100.3 97.6 95.1 92.1 87.6 84.4 89.1 95.3 100 103.4 105.1 105.2 104.5 103.2 101.5 99.8 97.7 95.6 94.3 93 91.5 89.3 85.7 82.1 78.2 75.3 69.9 62.2 57.3 58.3 62.4 66.9 71.2 74.5 77.8 81.6 85.8 90.7 96.2 102.1 106.9 110 111.5 112.4 112.8 112.7 112.2 111.2 109.7 107.3 104.1 99.6 94.6 89 85.3 84.2 82.9 81.7 81.1 79.9 78.2 75.9 73.8 71.9 70.7 69.5 68.8 68.3 68.4 68.3 69.3 74.8 79.8 84.5 87.8 90.2 91.6 92.3 92.7 90.9 87.5 84.5 82.1 83.2 86.5 91.4 96.9 100.8 102.9 104 104.1 104.2 104.2 103 101.9 99.7 98 96.4 94 89.6 86.9 85.4 84 88.2 90.3 92 93.5 92.8 88.5 83.5 77.6 72.3 66.3 61.6 57 53.6 50.4 48.5 47.9 47.7 47.4 47.4 49.7 58.5 65.1 68.1
77.3 83.3 88.8 93 95.3 97.1 98.5 99.9 101.4 103.2 105 107.1 109.1 111.3 113.4 114.8 116.2 117.4 118 117.7 117.3 115.8 114.6 112.9 111 109.9 110.2 110.1 110.2 110.6 111 110.8 110.4 109.8 109.3 108.2 106.2 102.9 99.8 96 94 94.7 96.3 97.8 99.4 96.5 102.4 106.4 108.4 109.8 111.9 111 111.6 112.3 112.8 113.1 113.9 115 116 117.1 118.2 119.5 120.2 120.9 121.1 120.3 119.2 117.6 115.4 113 110.6 107.9 105.2 102.4 99.2 96.6 93.8 90.8 87.1 83.6 85.3 90.1 94.1 97.1 98.7 99.6 99.5 98.4 96.5 94.6 92.2 89.5 86.9 84.8 82 78.8 74.7 71.3 68.7 66.2 61.8 58.3 56.1 57.3 62.4 67.6 71.6 75.4 79.1 83.1 87.7 92.7 98.5 104 108.3 111.2 111.7 113.1 113.7 113.2 112.6 111.4 109.5 106.7 103.5 99.2 94.5 90.4 89.2 90.5 89.6 88.4 87.6 86 83.6 80.8 77.8 74.9 72.9 70.9 69 67.6 66.7 66.4 67.8 72.6 77.4 81.7 84.8 87.9 90 90.4 90.2 88.5 85.3 81.7 79.7 81.7 87.4 93.8 97.6 100.6 102.6 103.7 104.3 104.4 104.4 103.7 102.9 101.8 100.4 99.1 97.1 93.6 89.6 85.2 82.8 84.3 87.5 89.3 90.5 88.4 85.5 80.9 75.8 70 64.2 59.7 55.4 52.2 49.3 48.1 46.9 46.2 45.2 44.6 45.7 51.4 59.2 63.5
72.3 78.6 83.7 88.2 90.8 92.4 93.9 96 98.2 100.1 103.1 106.1 108.6 110.9 113 114.7 116.2 117.4 118.3 118.7 118.7 118.6 117.5 116.1 115.4 115.2 114.9 114.4 114.6 114.8 112.7 112.8 111.9 110.9 109.9 107.4 104.9 102.1 99.5 97.1 94.8 95.3 96.5 97.7 95.5 102.2 105.6 107.2 108.8 108.7 109.6 110.6 110.6 111 111.1 111.3 112.1 113 114 115.3 116.7 118 119.1 119.7 120.1 119.3 118.3 116.5 114.1 111.8 109.3 106.6 103.8 100.9 97.9 95 92.3 89.7 86.8 83.4 81.7 84.7 87.9 89.9 90.8 91.4 92.1 92.4 91.3 88.8 85.8 82.1 77.7 73.8 70.3 67.3 64.7 63 61.4 59.7 58.6 56.7 55.4 56.9 61.7 66.6 71.2 75.6 80.3 84.6 89.6 94.8 99.8 104.5 109 110.8 111.8 113.2 113.8 113.5 113 111.5 109.6 106 102.6 98.4 94.7 93.8 95.3 96.7 95.9 94.7 93.2 91.3 88.5 85.6 82.7 80 77.2 74.9 72.2 69.2 67.2 65.7 65.8 68.4 72.8 77.2 81.8 84.4 85.9 86.6 86.6 85.6 83.7 80.4 78 81.8 88.2 93.1 96.3 98.8 101.3 102.8 104 104.5 104.4 104.1 103.8 103.3 102.5 101.8 100 97.3 93.7 88.4 83.3 81.1 83 85.9 86.2 84.5 81.2 76.4 71.5 66.5 62 57.8 53.5 52.1 51 50.3 47.9 45.2 43.4 42.6 42.5 46.9 55.2 61.6
72.5 72.8 76.7 81.1 85.2 88.7 92.4 95.4 97.9 100.6 102.8 105.5 108.1 110.7 113.3 114.6 116.2 117.4 118.4 119.4 120.1 120.6 121 120 119.3 118.6 117.8 117.5 117.7 116.8 115.6 114.1 112.8 111.4 109 105.4 103.4 101.2 99 97.6 96.3 96.3 96.9 95.4 100.5 103 106 107 107.9 110.4 108.9 109.2 109.4 109.4 109 109.2 109.7 110.8 112.1 113.6 115.2 116.8 117.9 118.6 118.8 118 117.1 115.3 112.9 110.1 107.3 104.6 101.7 98.8 96 93.6 91 88.7 86.2 83.1 80.3 80.2 82.4 83.5 83.6 83.2 83.8 84.3 84.2 82.1 77.6 73 68.3 66.1 65.4 64.5 63.7 63 62.8 62.2 61.3 59 55.7 55.6 59.3 64.1 69.2 73.6 79.1 84.7 90 94.9 100 104.4 107.8 110.4 111.6 113 113.6 113.6 113.3 112.3 110.5 107.1 103 99.1 98.4 99.8 100.6 100.7 99.7 98.3 96.8 94.5 92 89.4 86.7 83.4 80.5 77.9 75.4 72.4 68.7 66.8 65.5 65.8 67.7 72.3 76.5 79.5 78.7 80.7 82.2 83.2 82.5 79.4 75.8 81.3 85.7 89.3 92.9 96.4 99.3 101.8 103.3 104.1 104.4 104.2 103.9 103.9 103.5 102.7 101.4 99.2 95.8 91.1 85 79.7 78.9 79.8 79.7 78.5 75.6 71 66.4 62.3 58.6 56.4 55.6 55 54.8 53.7 51.1 47.7 44.1 41.9 40.9 44.3 53.9 60.2
79.8 75.6 74.2 80.7 86 90.7 94.6 97.5 99.6 101.5 103.6 105.7 108.3 110.9 113.5 115.2 116.5 117.6 118.5 119.5 120.6 124.4 127.1 125.4 123.1 121.2 120.2 119.8 119.6 118.4 115.9 113.8 111.5 109.8 107.2 105 103 100.9 99.6 98.7 97.8 95.7 95.3 99.6 101.8 103.9 105.7 106.3 107.4 107.5 108 108 108 107.6 107.1 107 107.3 108.5 110.2 112 113.7 115.4 116.8 117.1 117.2 116.4 115.3 113.6 111 108.2 105.3 102.5 99.3 96.5 94.4 92.1 89.9 87.8 85.4 82.9 80.4 78.4 77.8 77.8 77.4 76.4 75.3 74.5 75.5 73.6 70.7 68.8 69.2 71.3 72.9 72.2 70 68.4 67.2 66.8 65.7 62.5 57.3 55 56.8 61.5 66.6 71.5 77.4 83.3 89.3 94.3 99.2 103.1 106.4 109.1 111.5 113 113.6 114.2 113.6 113.1 111.3 108.3 104.6 102.4 103.2 104.1 104.1 103.6 102.4 100.7 98.8 96.3 93.9 91.3 88.2 85.2 82.3 79.7 76.6 72.9 70.9 70.9 68.8 66.4 64.8 66.5 69.7 71.5 72.5 73.4 76.1 80.8 81 77.2 72.7 78.4 82 85.3 88.8 92.7 96.8 99.8 101.7 103.2 104.1 104.2 104.1 104.1 103.9 103.3 102.1 100.3 97.8 94.3 88.8 82.3 77 74.3 73.6 72.3 69.4 65.9 63.1 60.5 59.1 59.7 59.9 58.7 57.7 55.9 53.2 49.7 45.8 42.8 40 41.9 51.1 58
84 82.2 77.7 77.2 83.4 89.1 94.4 97.6 99.3 101.3 103.3 105.9 108.5 111.1 113.8 115.8 117 118 118.9 119.7 121.6 125.4 127.2 127.1 124 122.2 121.4 120.4 119.4 117.6 115.3 112.8 110.8 108.8 106.5 104.7 103 101.3 99.8 99.2 96.7 96.4 99.1 100.5 102.7 103.9 105.6 106.3 106.9 107 107 106.8 106.3 105.9 105.1 104.8 105.4 106.6 108.6 110.8 112.7 114.4 115.6 115.8 115.6 114.6 113.3 111.3 109.1 106.4 103.7 100.9 98.1 95.5 93 90.6 88.5 86.4 84.7 82.5 80.8 79.2 77.5 76.4 75.5 74.7 74.7 74.8 74.1 73.9 74.4 75.8 78.7 81.5 82.3 80.9 77.8 74.1 71.2 69.6 68.6 66.1 60.9 55.3 54.7 58.9 64.1 69.5 75.3 81.4 87.4 92.5 97.1 100.9 105.2 108.5 111.4 112.8 113.7 114.2 114.6 113.9 112.4 109.7 106.6 106.1 106.9 106.8 106.4 105.5 104.2 102.4 100.2 97.6 95 91.9 88.6 85.3 82.6 79.6 76 74.3 75.3 75.9 74.4 71.7 67.7 64.4 64.5 65.1 65.6 67.5 72.1 76.6 77.9 73.9 69.4 74.6 77.1 80.1 84.1 88.3 92.5 96.5 99.4 101.6 103.1 103.6 103.9 103.7 103.5 103.2 102.4 101.4 99.5 96.4 92.1 86.1 79.7 74.7 71.5 68.7 66.1 64 62.7 63.2 64.5 64.7 63.4 61.8 59.7 57.6 55 51.2 47.4 43.7 39.4 39.8 47.6 54.5
88.7 87.5 85 80.6 80.2 86.2 92 94.9 96.1 97.9 101 104.9 108.3 111.5 114.1 116 117.6 118.7 119.5 120.2 121.4 124.2 126.3 126 124.3 123.2 121.8 120.5 118.6 116.9 114.7 112.5 110.3 108.2 106.4 104.5 102.7 101.4 100.4 96.8 98.6 99.9 100.7 101.8 103.4 104.2 105.3 106.7 106.8 106.8 106.4 105.7 105 103.9 103 102.8 103.3 104.7 107 109.9 111.9 113.8 114.9 114.9 114.2 112.9 111.2 109.5 107.5 105 102.4 100 97.4 94.8 92.4 89.9 87.8 86 84.6 83.4 82 80.6 80 79.4 79.4 79.1 79.5 80.5 81.3 82.2 83.6 86.7 89.8 90.9 90.9 89 85.6 80.4 76 74 72.5 69.5 63.8 56.4 52.9 55.9 60.6 68.3 74.5 79.9 85.3 90.9 96.4 100.6 105 108.2 110.8 112.8 114 114.6 115.2 114.7 113.6 111.1 109.4 109.1 109 108.9 108.2 106.9 105.4 103.4 100.8 98 94.9 91.5 88.1 84.6 81.3 78.2 77.6 79.1 80.3 80.4 79 75.4 69.9 66.3 67.3 65.6 63.1 61.9 64.7 69 70.1 67.3 65 68.9 71.9 73.9 77.5 82.8 87.8 92.2 96.1 98.9 100.7 101.6 102.1 102.3 102.4 102.5 102.2 101.3 99.3 96.6 92.8 88.5 83 78.9 75.6 71.9 69.3 68.1 68.5 69.8 70.5 69.5 67.7 65.2 62.3 59.9 56.8 52.8 48.5 44 38 37.7 44.9 50.4
93.8 92.7 90.6 88.2 83.5 81.6 84.1 87.7 89.2 90.4 96 102.1 106.6 110.5 113.3 115.9 117.6 119 119.8 120.5 121.4 123.3 124.7 124.9 124.6 124 122.6 121 119 117 114.8 112.4 110.5 108.4 106.3 104.5 102.9 102.7 98 100.8 101.4 102.2 102.5 103.3 104.4 105.5 106.4 106.9 106.7 106.3 105.6 104.4 103.4 102 101.3 101.1 101.4 102.8 105.8 108.8 111.1 113.2 114.2 114 112.8 111.3 109.9 108 106 103.8 101.4 99.2 96.7 94.2 91.9 90.1 88.2 86.8 85.7 84.8 83.7 82.8 82.4 82.8 82.8 83.7 84.2 86.4 89.1 91.3 93.4 96.2 98.2 98.5 97.4 95.6 92 87.8 85.2 82.4 79.2 74.4 68.7 59.6 52.5 53.7 60.7 71 77.3 82.4 87.9 92.2 96.4 100.6 104.6 108.2 110.9 113.1 114.6 115.1 115.7 115.5 114.6 113.1 112 111.7 111.4 110.9 109.7 108.3 106.3 103.9 100.9 97.6 93.9 90.5 86.6 82.9 80.1 79.6 81.5 83.2 83.3 82.3 80.1 75.3 69.9 71.9 75.4 73.8 68.6 64 61.3 61.7 62.8 61.3 60.2 62.2 64.2 66.5 71.1 75.7 82.3 87.8 92.3 94.7 96.4 97.7 98.4 99.3 99.8 100.4 100.5 99.8 98 96 93.4 90 87.3 84.1 82 79.2 77.2 75.8 76.1 76.7 75.9 74.2 72.1 69.3 66 62.7 59.5 55.7 51.3 45.2 37.7 34.5 41 46.4
96.9 96.9 95.4 93.5 91.7 89.2 91.3 95.6 96.7 94.3 91.3 95.4 102.6 107.6 111.4 114.7 117.3 118.8 119.9 120.7 121.5 122.8 123.9 124.6 124.8 124.3 123.2 121.5 119.6 117.5 115.2 112.9 110.9 108.7 106.5 104.5 103 100.3 102.8 103.3 103.6 104.3 104.3 104.2 107 106.8 107.5 107.2 106.9 106 104.9 103.8 101.8 100.2 99.8 99.5 99.6 101.1 103.9 107.2 110.4 112.6 114 113.4 111.8 110.3 108.6 106.9 104.9 102.6 100.4 98.6 96.3 94.1 92.4 90.7 89.7 88.8 87.7 86.8 85.8 85.3 85.1 86.1 86.6 87.5 88.6 91.7 95.1 98.1 100.3 102.1 103.3 103.4 102.6 101 98.3 96.1 93.9 90.7 85.4 79.1 72.6 62.5 53 53 62.3 72.8 78.9 84.5 89.4 92.5 95.9 99.9 103.9 107.8 111.1 113.5 115.3 116.1 116.3 116.1 115.5 114.6 113.7 113.2 112.7 112.2 110.7 109 106.7 104 100.5 96.8 93.1 89.3 85.5 83.3 82.5 82.6 83.7 83.5 82.3 79.4 76.7 73.8 74.1 79.3 82.7 82.5 78.3 72.7 68 64.2 62.1 60.9 59.6 58 58 59.2 63.4 69.3 74.7 82 87.5 90.2 91.8 92.9 93.8 94.9 96 96.6 97 96.5 95.2 94 93.2 92 90.5 89.1 87.4 86 84.7 83.7 83 81.6 79.8 77.4 75.1 72.5 69.3 65.5 62.1 58.5 54 48.2 40.8 32.5 36.5 42.3
99.3 99.7 99.3 98.2 97.3 96.7 97.9 99.3 99.4 99 99.5 96.2 93.9 102.4 108.2 112.8 116.1 118.1 119.4 120.6 121.5 122.6 123.8 124.7 124.9 124.7 123.6 121.9 119.9 117.7 115.6 113.4 111 108.7 106.7 104.7 105.8 105 104.9 105.2 105.2 104.7 104.7 109.4 107.2 107.4 107.7 107.5 107.2 106.2 104.8 103.4 101.7 100 98.5 97.8 97.5 99.2 102.1 106 109.7 112 113.8 113.4 111.9 109.9 108 106 103.6 101.3 99.5 97.8 96.1 94.3 93.2 91.9 91 90.2 89.7 88.9 88.3 87.9 88.1 89 90.6 91.7 92.9 95.9 98.7 101.3 103 105.1 106.3 106.6 106.3 105.3 103.5 101.3 98.5 94.8 89.1 82 75.2 65.1 53.9 52.2 62.9 72.3 78.6 84 88 90.5 93.2 98 103.2 107.6 111.3 114.1 116 116.8 116.9 116.7 116.3 115.4 114.8 114.3 113.9 113.1 111.6 109.5 106.8 103.5 99.8 96 92.3 88.6 86.1 85.4 84.9 83.1 81.5 80.2 78.7 76.5 75.9 77.5 81.5 85.9 88.3 88.5 85.9 82.5 78.6 75.3 72 68.3 63.5 60.1 57.7 56.2 56.8 61.3 67.1 76.3 81.3 84.7 86.1 87 88.1 89.1 90.1 91 91.7 91.5 91.2 91.6 91.9 92.1 91.4 90.7 89.8 89.4 88.6 88 86.6 84.3 81.8 79.1 76.6 73.7 70.4 66.9 63.3 60 56 51.2 44.6 35.2 31.9 38.2
100.7 101.4 101.9 101.6 101.5 101.6 101.8 102.3 103.4 103.4 104.1 103.8 99.1 96.2 104.1 110.4 114.5 116.9 118.6 120 121.3 122.5 123.6 124.6 124.8 124.4 123.4 121.7 119.7 117.3 112.8 110.6 109.6 109.8 108.2 107.9 106.9 106.9 106.9 106.7 106.3 109.7 107.5 108.1 108.5 108.8 108.7 108.4 107.6 106.3 104.9 103.4 101.7 99.6 97.4 95.5 94.9 97.3 101 105 108.7 111.3 112.8 112.9 112.1 110.2 107.7 104.6 101.8 100.1 98.4 97.3 96 94.8 94 93.3 92.8 92.3 91.8 91.3 91.1 90.8 91.1 92 93.7 94.8 96.6 98.9 101.7 104.1 106 108 109.4 109.4 109.1 108 106.1 103.8 100.5 96.3 90.6 83.3 76.1 67.3 54.7 51.9 59.7 69.2 75 79.6 83.1 85.6 90.7 97.4 103 107.5 111.8 114.8 116.5 117.3 117.4 117.5 117 116.5 115.9 115.4 114.5 113.5 111.6 109.2 105.8 102.2 98.6 95 91.4 89 87.8 87 84.8 82.5 81.1 81.2 81.6 82.4 83.4 85.3 88.3 91.3 92.5 92.3 90.9 88.3 85.2 81.6 76.7 70.9 65.9 61.8 59.3 56.6 55.2 56.5 61.4 72.1 72.6 78.1 79.3 79.9 80.9 82 83.1 84.3 85.2 85.3 85.8 87.2 89 89.7 89.6 89 88.6 88.8 89.3 88.5 87.3 84.6 81.7 78.9 75.5 72.4 69.2 65.8 61.5 58.4 54.6 50.3 48.3 40.6 29.7 32.5
100.8 102 103.2 103.9 104.7 105.3 105.7 106.7 107.5 107.9 108 107.4 105.7 101 98.6 107.2 112.2 115.5 117.5 118.4 119.9 121.8 123.9 124.8 122 117.5 115 114.3 116.7 117.8 115.6 113.8 112.1 110.6 109.3 109.2 108.8 110 111.4 110.3 110.3 109.8 110.2 110.7 110.9 110.6 110.4 109.5 108.3 106.8 105.2 103.6 101.5 99.2 96.9 94.1 92.6 95.5 99.6 103.4 106.9 109.1 110.8 112.2 111.9 110.2 107.4 103.4 100.2 98.7 97.2 96.2 95.6 95.4 94.8 94.7 94.8 94.3 94.1 93.8 93.7 93.6 94.2 95.3 96.6 98.1 100 102.4 104.8 107.1 109.3 110.5 111.7 111.8 111.4 110 108.3 105.1 101.2 95.8 88.7 80 72 64 55.1 50.6 54.2 60.2 66 71.4 77.4 84.4 91.7 98 103.8 108.4 112.7 115.5 117.3 118.1 118.2 118 117.6 117.2 116.7 115.8 114.6 113.5 110.9 108.1 104.4 100.8 97 94.3 92.1 90.5 89.1 87 84.7 83.3 83.6 85.5 88 89.6 90.9 92.2 93.7 95.2 95.6 95 93 90.7 87.2 82.8 76.3 70.4 67.4 64.8 62.4 59.1 56.4 55 57 64.3 69.4 67.9 72.2 72.8 73.9 75 76.1 76.9 77.4 77.8 79.4 81.6 84.5 86.6 86.7 85.4 84.1 86.1 87 86.7 86.1 83.5 80.6 77.2 73.8 70.1 66.3 62.3 58.4 54.8 50.4 48 43.6 37.6 31.4 29
99.7 102.2 104.2 105.4 106.8 107.5 108.3 109.2 110 110.5 110.8 110.5 108.8 106.6 102.2 102.4 109.3 113.1 115 116.4 116.5 115.3 115.5 117.9 123.6 123.6 123.1 122.3 120.7 119 116.6 114.7 114.6 114.9 112.3 111.3 110.9 111.2 112 112.5 112.5 112.7 112.8 113 113.1 112.5 111.8 110.7 109.2 107.3 105.3 103.5 101 99 96.5 93.7 91.4 93.8 97.5 100.7 103.8 106.3 108 110 110.6 109.5 106.3 102.3 98.9 97.2 95.8 95 95.3 95.8 95.8 96.2 96.3 96.3 96.4 96.3 96.4 96.7 97.3 98.1 99.3 100.9 103 105.3 107.5 109.8 111.4 112.6 113.5 113.7 113.3 111.6 108.9 105.6 101.1 93.9 85 77 70.9 64.8 57.6 50.5 51.3 56.4 65.9 74.8 81.9 89.2 96.1 101.2 105.8 110.1 113.8 116.6 118.1 118.7 118.7 118.4 118 117.6 116.9 115.9 114.7 112.8 109.8 106.7 103.1 99.4 96.9 95.4 94.1 92.4 90.6 88.6 87.2 86.3 86.9 89.1 92 94.5 96.1 96.8 97.7 97.5 97.5 96.4 94.2 91.2 87.4 81.8 75.3 73.1 72 68.9 65.9 63.5 60.3 56.6 52 57.3 61.3 63.3 65 66.2 65.5 67 67.3 66.8 67.6 68 69.9 74 78.4 81.5 82.1 80.4 78.9 81.3 82.6 82.4 81.4 80 77.7 74.2 70.6 66.1 61.2 57.1 51.4 49.7 46 42.6 39 36.4 30.8 28.6
97.9 101.2 104 106 107.8 109.2 110.5 111.4 112.2 112.8 112.9 113 111.7 110.2 107.6 110.6 113.8 114.1 113.4 112.7 114.5 118 120.9 122.3 123.1 124 123.8 123.3 119.5 120.6 119.4 117.9 116.1 115.6 114.9 114.1 113.5 113.7 114.2 114.8 114.7 114.8 114.9 115 114.5 114 113.2 111.9 110.2 107.7 105.4 103.2 100.3 98.1 96 93.5 90.4 91.7 94.5 97.6 100.4 103 105.5 107.7 109.3 108.6 105.2 100.9 97.6 95.2 94.1 93.5 94.7 95.6 96.9 97.7 97.9 98.1 98.3 98.6 99 99.4 99.8 100.3 101.8 103.7 105.9 108.2 110.1 111.7 113.3 114.4 115.2 115.2 114.6 112.4 109.4 105.6 100.5 93.3 87.5 83.4 77.9 71.3 61 51.3 49.6 56.1 67.5 80.1 89.1 95.3 100.6 105.3 109.3 112.5 115.5 117.3 118.8 118.8 118.9 118.7 118.2 117.7 116.8 115.9 114.1 112.1 108.9 105.4 102.2 100.1 98.9 97.9 96.5 94.7 93 91.4 90.3 89.6 90.1 92.2 95.3 98 99 99.9 100.1 99.6 98.9 97.5 95.1 91.6 86.9 81.2 77.5 78.2 77 74.2 71.8 69.8 67 62.5 57.1 54.4 55.1 56.8 57.9 58 57.8 58 58.2 57.6 59 62.5 60.7 65.3 70.4 74.2 75.7 74.8 73 74.2 75.9 76.2 75.5 74.2 72.5 69.7 65.8 60.4 55.3 50.5 47.2 42.9 37.2 32.2 31.1 30.9 28.4 27.9
93.6 98.6 102.4 105.4 107.8 109.5 111.4 112.7 113.5 114.3 114.3 112.3 112.4 112.5 109.9 107.3 106.4 107.9 110.3 111.9 113.9 116.3 119.9 122.2 123.8 120.8 124.4 125 123.6 122.9 121.3 119.8 118.6 117.8 117.2 116.4 116 116.2 116.7 117.2 117.1 117.2 117.3 117 116.5 116 115 113.4 111 108.2 105.5 102.9 99.8 96.4 93.8 91.6 89 88.7 91.5 93.9 96.6 99.4 102.6 104.9 107.1 106.8 103.7 99.3 96.5 93.8 92.1 92.4 94.2 96.6 97.8 98.8 99.3 99.6 100.1 100.4 100.8 101.2 101.7 102.8 104.5 106.3 108.3 110.1 111.8 113.3 114.7 115.7 116.5 116.5 115.8 113.9 110.5 106.1 101 96.9 93.2 89.4 84.2 77 64.3 51.8 48.7 56.2 69.7 83.5 93.7 99.7 104.7 109 112.3 115 117 118.5 119 118.9 118.7 118.2 117.8 117.3 116.6 115.6 113.9 111.9 108.6 105.8 103.4 102.1 101.4 100.6 99.3 98 96.2 95 94.2 93.4 93.3 95.2 98.1 100.4 101.1 101.7 101.7 101.1 99.8 97.7 94.9 90.9 86.8 81.9 81.4 82.2 81.4 79.9 78.5 76.2 72.7 68.3 62.7 57.9 54.5 52.6 51.4 51.1 50.4 51.4 51.6 51.4 50.9 51.2 51.7 55.5 60.7 64.6 67.1 67.7 65.6 65.1 67.7 67.7 67.2 66.3 65.5 63.4 59.4 52.8 45.7 42 39 34.3 31.7 30.8 31 30.7 29.7 28.3
92.7 95.6 100.4 104.4 107.1 109.4 110.6 110.6 111.9 114.6 115.4 115.6 115 114.1 112 110 110.1 111.2 112.5 113.3 114.5 115.8 116.2 120.2 122.5 124.5 126.3 126.7 126.2 125 123.7 122.8 122.3 121 119.9 119.1 118.8 118.8 119.3 119.6 119.7 119.7 119.7 119.6 119.1 118.3 116.9 115 112.1 108.8 105.7 102.2 98.7 95 92.6 90.8 88.4 86.3 86.8 89.2 92.3 95.8 99.4 102.2 104.7 104.9 102.4 98.5 95.4 92.6 89.8 91.7 94.4 96.7 98.3 99.6 100.3 101 101.7 102.3 102.5 103.1 103.7 105.1 106.7 108.2 109.8 111.4 113 114.5 115.9 116.6 117.4 117.7 117.1 115.7 112.8 108.8 105.3 101.9 98.3 94.4 88.7 80.8 66.6 53 47.8 55.3 70.1 86.2 96.3 102.4 107.4 111 113.9 116.3 117.8 118.6 118.8 118.7 118.3 117.8 117.4 116.9 116.2 115.3 113.9 112.2 110 107.5 106.1 104.8 104 103.2 102 100.9 99.8 99 98.2 97.4 96.8 98.2 100.4 101.9 102.7 102.7 102.6 101.9 100.2 97.8 94.3 90.1 86.3 84.7 85.1 85.4 84.8 83.7 81.7 79.4 75.9 71.7 66.5 62.1 57.4 54.4 52.6 50.8 49.3 48.3 47.5 47 46.2 45.8 45.4 45.6 46.6 51 55.5 59.3 58.8 56.7 58.7 59.1 58.5 55.8 55.4 53.8 48.1 42.3 38.5 35.8 33 32.4 32.7 33.3 33.4 32.5 31.5 30.5
97.3 98.9 103.3 108.5 109.8 108.3 111 113.4 114.4 115.6 116.8 117.1 116.9 115.8 114.1 113 113.2 114.6 115.8 116.4 118.5 117.2 118.4 120.2 123 125.9 127.8 129.1 129.2 129.1 128.9 127.4 125.6 123.9 122.8 122.2 121.8 121.7 122.4 122.8 122.7 122.6 122.6 122.4 121.6 120.6 118.8 116.1 112.9 109.5 105.6 102.2 98.4 96 94.9 92.9 90.6 87.3 84.6 84.7 88 92.1 95.7 98.4 100.5 102 100 97 93.9 89.5 87.5 90.5 93.6 95.7 97.6 99 100.5 101.7 102.8 103.6 104.2 104.9 105.5 106.5 107.6 109.1 110.9 112.3 113.7 115 116.5 117.7 118.5 118.9 118.1 117.2 115.6 112.6 109.7 106.6 103.4 99.1 93.1 83.2 67.8 53.6 47.4 53.7 70 86.9 96.4 102.3 107.2 111.1 113.9 116.4 117.8 118.2 118.4 118.2 117.8 117.4 116.9 116.4 115.8 114.8 114 112.7 111.2 109.3 107.9 106.8 106.3 105.6 104.8 103.9 102.9 102.3 102.2 101.4 100.8 101.6 102.6 103.3 103.6 103.1 103 101.8 100 97.5 93.4 89.7 88.6 88.4 88.4 88.4 87.1 85.8 83.7 81.4 78.2 74.8 70.7 66.3 61.6 57.8 55.2 53.7 52 50.5 49.3 48 47.7 46 45.3 45 45.3 45.4 43.3 44.2 45.3 46.5 47.3 47.4 46.2 46.2 44.4 41.9 38.4 35.8 34.1 33.8 34.2 34.6 36.3 37.5 35.7 34.4 33.1 31.9
101.9 101.8 108.8 104.3 105.3 108.1 110.6 113 115.4 116.7 118.1 118.9 118.8 117.9 116.9 116 116.2 117.8 120.1 118.7 120.1 120.5 121.2 121.5 123.8 126.7 129.5 131.5 132.6 133.8 134.4 132.7 130.2 128 126.5 125.6 125.3 125 125.6 125.9 125.7 125.6 125.6 125.7 124.7 123.5 120.4 117.4 114 110.1 106.3 102.4 99.7 98.9 98 96.2 93.6 90.3 86.9 83.2 83.8 87.9 91.3 93.7 95.7 97.4 97.6 94.6 90.8 86 85.4 89.3 91.9 94 95.7 97.6 99.2 100.5 102 102.8 103.5 104.3 105.3 106.7 108 109.6 111 112.4 113.7 115.2 116.6 117.6 119 119.9 119.6 118.5 117 115.4 113.2 110.5 107.6 103.3 96.8 85.9 69.3 54 47 52.9 70.3 86.3 94.6 100.6 105.6 109.9 113 115.4 116.4 117.2 117.5 117.4 117.3 117 116.5 116 115.3 114.5 113.7 112.9 111.4 110.6 109.6 108.7 108.2 107.8 107.1 106.7 106.1 105.5 105.1 104.5 103.9 104.1 104.4 104.5 104.5 104 103.1 101.3 99.3 96.7 93.3 92 91.6 91.5 91.5 90.5 89.2 87.7 85.7 83.3 81.1 78.4 75.1 70.7 66.4 61.7 57.9 56.5 55 53.8 52.7 51.8 51.1 50.3 49.2 49.4 50.8 52.8 52.1 49 46 42.7 41.2 39.4 38.7 38.1 37.2 37.1 36.8 37.1 37 37.7 38.7 40.2 41.8 41.2 39.1 36.2 34.3 33.9
107.8 106.9 102.9 103 105 108 111 113.7 116.1 118 119.5 121.9 121.3 120.3 119.4 118.3 120.4 119.7 121 121.8 122.4 123 123.3 123.5 125.5 128.5 131.3 133.5 135.8 137.7 139.2 137.3 134.7 132.2 130.5 129.4 129 128.8 129 129.4 128.7 128.6 128.6 129.3 128 126 122.8 118.7 115 111.1 107.2 103.8 102.9 102.4 101.1 99.1 96.7 94.1 90.4 85.4 81.2 82.7 85.9 88.4 90.4 92.2 93.4 92.9 88.3 82.2 83.2 87.1 89.5 91.1 92.4 94.2 95.5 97 98.8 100.1 101 102.3 103.3 104.9 106.4 108.1 109.7 111.2 112.9 114.5 116 117.1 118.4 119.6 120.3 119.4 118.2 117.2 115.6 113.3 110.4 106.1 99.9 89.2 71.3 53.7 45.7 52.4 69.2 83.6 91.2 97.1 102.4 107.4 110.7 113.1 114.4 115.4 116.3 116.7 116.6 116.5 116.1 115.5 114.9 114.1 113.3 112.5 111.5 110.8 110.1 109.7 109.2 108.9 108.7 108.6 108.1 107.6 107.2 106.7 106.2 106 105.5 105.5 105.2 104.5 103.2 100.9 98.7 96.7 94.8 94.8 94.8 94.6 93.9 92.6 91.3 89.8 88.2 86.6 85 82.7 79.2 75 69.6 64.6 62 60.1 58.7 58 57.3 56.7 56.2 55.8 57.7 60.6 62.6 64.2 63.2 60.2 56.3 52.9 50.7 49.2 48.4 47.4 45.9 43.5 42.7 42.2 42.9 44.5 46.2 47.2 45.9 43.7 40.6 37.8 35.3 35.3
106.9 105.2 103.8 104.6 106.5 109.4 112.4 115.1 117.4 119.4 120.8 122.3 122.4 121.7 121.7 126.6 126.6 123.9 123.8 124.5 125.2 125.6 125.8 126.1 127.4 130.2 133 135.6 138.1 139.9 141.1 140.4 138.2 136.2 134.5 133.2 132.7 132.6 132.7 132.6 131.8 131.7 131.8 131.6 130.3 128.2 124.9 120.5 116.3 112.6 108.8 106.8 106.3 105.8 104.2 102 99.7 97 93.1 86.7 80.5 78.9 79.8 81.4 83.7 86.1 87.9 88.8 85.6 79.3 79 82.5 85.3 86.5 87.4 89 90.8 92.5 94.3 95.8 97.2 98.7 100.6 102.2 103.7 105.7 107.3 109.2 111.2 113.3 115 116.2 117.4 118.4 119.1 119 118.5 118.4 116.9 115.1 111.7 106.7 99.7 89.2 71.3 52.1 44.9 51.7 67 79.1 85.6 91.7 97.7 103 107.3 109.9 111.6 113.1 114.7 115.6 115.9 115.8 115.7 115.1 114.4 113.8 112.9 112 110.9 110.1 110.4 110.2 110.1 109.9 109.8 109.6 109.2 108.7 108.4 108.2 107.8 107.4 106.7 106.3 105.9 104.9 103.3 101.3 99.5 97.6 97.1 97.6 97.7 97.3 96.9 95.9 94.6 93.3 92.5 91.4 89.3 86.1 81.5 76.6 71.3 67.9 66.6 65 63.9 63.7 63.1 62.6 62.8 65.1 69.2 72.6 74.1 73.9 72.1 68.8 65.1 61.1 59 58.1 57.4 55.7 53.4 51.1 50.4 51.3 52.8 54.4 54.4 52.1 49 45.2 41.5 38.5 36.2 36.4
107.3 105.8 107.4 106.1 107.8 110.9 113.7 116.3 118.8 120.7 122 123.2 123.9 124 124.8 125 124.8 126.4 127 127.3 127.9 128.2 128.5 128.8 129.4 131.9 134.6 136.9 139.1 141 142.5 142.4 141.3 140.2 138.8 137.6 137 136.6 135.7 135.1 134.6 134.2 134.4 133.4 131.9 129.9 126.8 122.6 118.4 114.7 111.6 110.6 110.4 109.6 108 105.5 103.2 99.5 92.4 85.2 80.7 80.9 79.8 78.5 78.6 78.6 79.8 82.3 80 75.3 73.6 75.8 78.1 79.7 81.1 83 85.6 87.6 89.3 91 92.6 93.8 95.7 98 100.3 102.5 105 107.2 109.4 111.7 113.5 115.2 116.2 117 117.4 117.9 117.5 117.3 116.1 113.8 110.2 105.2 98.1 87.1 69 52.1 44.1 50.9 63.9 73.6 79.1 84.7 91.4 97.8 102.7 105.8 108.4 110.5 112.5 113.7 114.8 115 115 114.6 114.1 113.6 112.4 110.9 109.7 109.5 110.2 110.4 110.6 110.5 110.4 110.4 110.2 109.8 109.6 109.3 108.9 108.5 107.9 107.4 106.6 105.6 104.5 103.1 101.3 99.8 99.8 100.4 100.4 100.1 99.8 99.5 99.1 98.8 97.8 96.1 92.6 88.2 82.9 78 74.3 71.4 70.9 70.6 71.7 73.2 74.1 73.7 74.2 77.1 80.3 82.1 81.5 80.4 78.6 75.7 71.5 67.2 66.2 66.3 65.2 63.1 61.5 60.5 61.1 61.8 61.6 60.8 59 55.3 50.8 46.3 42.5 39.3 37.2 38
109.7 111.3 111.2 109.3 108.6 111.7 114.5 117.8 120.3 122.1 121.9 125.2 125.8 126 126.4 126.6 126.9 128.1 129.2 130.1 130.6 131 131.4 131.7 131.8 133.5 135.8 138 139.9 141.9 143.2 143.8 144.2 143.6 142.6 141.5 140.4 139.2 138.1 137.3 136.8 136.2 136.1 135.2 133.3 131.5 128.3 124.7 120.8 117.3 115.3 114.8 114.3 113.3 111.6 109.3 106.3 100.5 89.7 82.5 83.5 88.9 88.8 86.4 83.2 79.2 71.4 75.1 75.6 74.3 73 70.1 70.3 72.1 74.5 77.3 80.1 82.4 84.4 86 87.5 88.9 90.9 93.1 95.7 99 102 104.9 107.3 109.6 111.6 113.4 113.6 114.2 114.9 114.9 115 114.8 113.6 111.5 108.1 103.5 96.7 86.3 70.8 53.8 43.9 49.4 61 67.6 73 78.4 84.5 91.1 96.6 100.6 104.1 107.2 109.6 112.1 113.1 114.2 114.2 114.3 113.9 113.4 112.2 110.7 109.2 108.3 108.9 110.1 110.7 110.7 110.6 110.7 110.8 110.6 110.2 110.1 109.8 109.4 109 108.5 107.6 106.8 105.9 104.9 103.4 102.3 102.6 102.7 103.1 103.7 103.7 104.3 104.1 103.2 101.4 98.8 94.2 89.2 83.9 80.7 78 75.8 76.6 78.3 81 83.4 84.8 85.3 85.9 87.1 87.6 87.9 86.9 86 83.8 81 77.7 74.7 74.5 75.4 74.2 71.9 70.3 69.5 69.6 69.1 67.7 65.5 62.1 58.1 53.3 48.7 43.5 40 38.6 39.2
114.6 114.9 114.8 112.5 111 112.4 115.7 119 121.7 123.8 124.7 126.6 127.5 127.8 128.3 129.2 130 130.8 131.8 133 133.6 133.7 134.2 134.6 134.8 135.6 136.8 138.7 140.5 142 143.4 144.6 145.3 145.2 144.5 143.1 142 140.7 139.9 139.1 138.4 137.5 137.3 136.7 135.2 133.2 130.3 127.2 124.1 120.6 119.3 118.9 118.5 116.9 115.2 113 108.6 98.2 86.6 83.5 90.1 96.5 97.3 95.6 92 87.1 82.2 79.8 78.2 76.6 75.2 71.3 68.4 66.7 67.9 71 74.2 76.6 78.5 80.1 81.7 83.9 86.1 88.5 91.8 95.7 99.3 102.4 105.1 107.1 108.8 109.2 109.4 110 110.3 111 111.7 111.6 111.2 109.1 106.5 101.9 95.4 85.6 73.9 57.6 44.8 47.7 56.2 62.1 67.4 72.8 77.9 83.5 89 94.4 99.4 103.4 106.7 109.3 111.8 113.2 113.6 114 113.5 113.1 112 110.6 108.5 106.7 107.7 109.6 110.4 110.8 110.8 110.8 110.9 111.1 111 110.8 110.6 110.2 109.7 109.1 108.4 107.6 106.7 105.9 105.2 104.7 104.8 104.9 105.3 105.8 106.4 106.9 106.5 105.4 103.3 99.9 95.4 90.9 87.4 84.6 82.9 82.5 83.9 86 88.4 90.3 92.2 93.1 93.6 93.5 93 92.3 92.8 91.8 89.2 86.3 83.5 82 82.9 83.8 82.7 80.4 77.9 76.6 75.6 74 71.5 68.7 65.1 61.2 56.4 51 44.7 41 40.1 41
116.7 116.5 116.3 115.3 114.2 114.5 116.8 119.4 122.2 124.5 126.2 127.5 128.7 130.1 131 132 132.9 133.8 134.6 135.9 136.8 137 137.5 137.4 137.3 137.6 138 139 140.5 141.9 143.2 144.5 145.2 145.3 144.7 144.1 143.1 142.2 141.2 140.5 140.1 140.6 139.6 139.8 138.7 136.2 132.5 129.5 126.8 124.2 123.3 122.9 122.1 120.6 118.6 115.6 109.8 95.6 85.8 89.8 98.5 102.6 103 101.2 97.7 93.8 90.7 87.7 85.3 81.2 77.6 74.1 70.6 67.3 65.7 66.2 68.1 70.5 72.2 73.9 75.9 78.5 81.3 84.6 88.7 92.9 96.5 99.7 102.3 103.6 104.4 104.8 105.1 105.4 105.7 106.9 108.1 108.6 108.7 107.1 104.7 100.6 94.2 86.1 76.1 61.8 47.7 43 49.5 55.9 61.1 66.1 70.8 75.7 81.4 88 94.1 98.9 103.6 107.3 109.9 111.7 112.7 113.1 113.1 112.7 111.7 110.1 107.9 105 105.8 108 109.3 110.2 110.7 110.9 111 111.2 111.3 111.2 111 110.5 110 109.4 108.6 108 107.2 106.6 106 105.3 105.8 106.2 106.7 107.4 108.1 108.1 107.5 106.2 104 100.4 97.7 94.3 91.1 88.7 88.4 89.1 90.3 92.1 94.2 96.3 97.8 98.2 98 97.6 97.1 94.3 96.7 96.3 94.3 92.1 89.4 88.6 89.2 89.8 88.5 86.4 84 82.4 80.6 78 74.6 71.4 68.1 64.2 58.9 52.7 46 42.2 41.8 42.9
117.8 118.4 118.1 117.6 116.5 116.7 117.4 120.1 122.2 124.5 126.7 129 130.6 131.9 133.4 135 136 137 138.5 139.7 140.4 140.7 140.7 140.3 140.2 139.4 139.1 139.1 140 141.3 142.7 143.6 144.3 144.3 144.3 143.7 143.1 142.5 141.8 141 143.7 146.6 142.9 141.6 141.4 138.8 134.6 131.6 129.6 128 127.2 126.3 125 123.1 120.1 116.8 108.6 93.5 87.7 96.7 105 107 105.9 103.6 100.8 97.5 94.7 91.5 87.9 83.7 79.4 76 72.8 69.5 66.2 64.1 64.1 64.6 66.1 67.9 70.6 73.7 76.9 81 86 90.2 93.5 96.6 98.7 99.6 99.9 100.2 100.3 100.3 100.4 102.3 104.1 105.4 105.6 105.2 103.2 99.3 93.2 85.6 76.3 63.8 50.2 42.8 43 49.3 54.1 58.9 63.7 68.8 74.7 82.4 88.9 94.9 100.6 105.2 108.5 110.8 112.1 112.4 112.4 112.2 111.1 109.4 106.7 103.8 103.6 105.8 108 109.3 110 110.5 110.9 111.1 111.1 111 111 110.7 110 109 108.2 107.6 107.2 106.9 106.5 106.1 106.2 107 107.8 108.5 108.9 108.7 108.2 106.9 104.6 102.3 100.1 97.5 94.4 93.2 93.2 94 95.5 97.3 99 100.8 101.8 101.6 101.1 101.2 100.5 99.4 100.2 99.4 98.3 96.6 94.5 94.6 94.4 94 92.3 90.4 88.2 86.4 83.8 80.3 76.3 73 69.5 65.1 59.8 52.9 46.7 43.8 43.3 44.5
120.2 119.9 119.5 119.1 117 117.9 119.3 121.1 123 124.7 127.4 129.8 132 133.9 135.5 137.5 139.3 140.9 142.5 143.4 144.2 144.5 143.8 142.9 141.9 140.8 140.2 139.6 139.5 140.4 141.3 141.7 141.7 141.8 141.7 141.4 141.2 141.2 141 141.3 144.6 147.7 143.7 142.6 143.2 139.9 135.7 133.4 132 131.1 129.6 128.6 125.9 123.3 120.2 116.1 107.8 93.3 91 100.7 106.6 107.3 106.3 104.2 101.3 98.2 95.4 91.5 87.5 83.8 80.1 76.3 72.9 69.8 67 64.3 62.7 61.6 62.2 63.8 66.4 69.3 73.2 77.9 82.6 86.5 89.8 92.4 94.3 95 95.3 94.9 94.5 94.2 94.8 96.6 98.8 100.7 102.5 102.5 101.6 98.1 92.1 84.6 74.9 63.2 51.7 44.9 40.4 43.1 48.2 53.3 58.9 65.3 71.9 78.9 86.4 93.6 99.6 104.2 107.7 110.2 111.5 111.6 111.7 111.6 110.3 108.6 106.1 102.2 101.2 103.6 105.9 107.3 108.6 109.5 109.8 110.2 110.5 110.5 110.6 110 109 108 107.2 106.6 106.3 106.1 105.9 105.8 106 106.6 107.4 108.8 109.1 109.2 108.7 107.7 106.6 104.8 102.5 100.2 98.4 97.7 98.1 98.6 100.1 101.5 103 103.7 104 103.8 103.4 104.1 103.9 103.3 102.7 101.8 100.9 99.7 98.3 98 97.4 96.4 94.8 92.6 90.2 87.9 85.1 81.2 77.3 73.6 69.6 64.7 58.9 52.2 48 45.3 45.6 46.2
121.4 121.2 120.9 120.4 120.7 121.5 121.3 122 123.8 126 128.8 131.4 133.2 135.4 137 139.2 142.5 144.6 146.3 147.8 148.4 148.5 147.4 145.5 144.4 142.6 141.3 140.6 140.3 140.2 139.6 139 138 137.5 137.5 137.7 138.2 138.8 139.2 139.5 142.4 145.5 142.2 141.9 143.1 139.9 136.8 134.8 133.5 132.3 130.9 128.4 125.3 121.6 117.6 114 107.5 93.9 92.8 101.5 105.9 106.6 105.7 103.7 100.9 98 94.6 90.6 87.1 83.5 79.9 76.4 73.6 70.9 68 65.1 63 61.5 60.1 60.4 62.2 65.2 69.7 74.3 78.7 82.4 85.6 87.7 89.6 90.3 89.9 89.2 88.3 87.2 87.6 90.3 93 95.8 98.3 100.4 100.8 98 93.4 86.9 77.4 65.8 54.1 48.3 42.5 40.2 43.8 50.6 57.7 64.8 71.8 78.8 86 92.7 98.5 103 106.4 109 110.6 110.9 110.9 110.8 109.7 108.2 105.6 101 98.7 101 103.1 104.9 106.2 107.5 108.6 109.1 109.4 109.4 109.4 108.7 107.6 106.6 106 105.5 105.1 104.9 104.7 104.5 105.1 105.7 107 108.3 108.7 109.1 109 108.5 107.7 106.3 104.8 103.4 102.2 102.1 102.6 102.9 103.6 104.6 105.4 105.8 106.1 105.6 105.7 105.6 105.3 104.9 104.4 104 102.9 101.8 100.5 99.7 98.8 97.9 96.2 93.7 91 88.8 85.8 81.8 77.2 73 68.8 63.7 58.7 53.9 49.7 47.4 47.2 48.6
122.1 121.5 122 121.8 123 124.3 123.9 123.6 125.2 127.4 130.2 132.4 134.6 137.3 138.9 142.1 145.5 147.8 150.1 151.8 152.7 152.9 151.8 149.1 146.5 143.7 142.1 141 140.3 140 139.1 136.7 135 134.3 133.6 133.8 134.2 134.9 136.4 137.3 138.1 138.8 139.3 140.7 142.3 139.8 137.3 135.8 134.3 132.8 130.9 128.1 124.2 118.3 113.6 109.4 103.4 93.4 94.7 101.4 105.6 106.4 105.3 103.7 100.9 98.2 94.5 90.4 86.9 83.7 80.6 77.5 74.6 71.9 69.2 66.3 64 62.5 60.9 59.4 59 61.1 64.9 69 73.5 77.6 80.7 82.9 84.1 84.2 83.6 82.5 81.2 79.7 79.5 82.1 86 89.2 93.5 97.5 99.9 99.5 96.5 90.7 83.3 72.9 60.1 53.4 47.4 41.6 41.2 46.5 54.5 62.4 70.1 77.5 84.5 90.5 96.3 100.8 104.2 106.9 109 110 110.5 110.3 109.3 108 104.9 100.5 96.8 97.4 99.5 101.4 103.9 105.2 106.7 107.7 108 108.2 108 107 106.1 105.2 104.7 104.1 103.3 102.5 102.5 102.5 103.2 103.7 105.3 107.2 108.4 108.9 109.2 109.2 108.5 107.8 106.4 105.3 104.8 104.9 105.2 105.5 106.1 106.8 107.5 107.6 107.3 106.9 106.2 106 105.8 105.5 105.3 105.4 104.6 103.3 101.9 100.7 99.8 98.7 97 94.7 92 89.4 86.3 82 77.1 72.4 68.1 64 59.3 55.2 51.4 49.1 49.7 51.9
122.4 121.7 122.5 123.3 124 125.8 126.4 126.5 127.8 130.4 132.5 133.6 136.9 139.8 142.3 145.4 148.4 151.2 153.5 155.7 156.8 157.4 156.2 153.2 148.5 144.3 142.3 141.2 140.3 139.5 138.3 135.5 133.2 131.6 130.7 131 130.9 130.4 132.7 134.7 135.7 136.6 138.1 139.1 139.7 138.7 137.1 135.7 134.5 133.2 130.8 127.6 122.6 115.8 107.4 101.1 96.5 93.6 96.8 101.7 105.2 106.2 105.6 104.2 101.4 98.6 95 91.6 88.4 85.2 81.9 78.7 75.4 72.7 70.1 67.4 66.2 65.1 63.1 61.2 58.8 57.3 59.5 62.6 66.9 71.1 74.8 77 77.7 77.4 76.3 75.1 73.5 71 70 72.1 76.4 81.8 88.3 93.6 97.8 99.9 98.5 94.8 88.6 80.5 69.5 60.6 54.4 47.2 41.4 41.9 48.4 56.8 65.2 73.3 80 86.7 92 96.8 100.5 104.1 106.9 108.8 109.7 109.5 109 107.7 105.1 100.9 96.6 94.1 95.9 98.4 101 102.9 104.6 105.6 105.9 106.3 106 105.2 104.4 103.6 102.7 101.9 101.1 100.4 99.8 99.7 100.6 101.7 103.8 105.6 107.2 108.7 109.1 109.2 108.8 108.5 107.9 106.8 106.8 106.5 106.8 107.1 107.7 108.5 108.8 108.5 107.7 106.8 105.9 105.6 105.1 105.4 105.3 105.3 105.2 104.2 102.9 101.6 100.3 99.2 97.6 95.5 92.9 90.2 86.5 81.7 76.7 71.8 67.4 63.3 59.2 55.6 53.3 51.9 52.4 55.6
120.7 121.8 123.2 124.2 126.9 127.7 128.4 129.3 131.7 133.2 133.9 134.9 138.5 141.4 144.5 148 151.2 154.1 156.7 159.3 161 161.8 160.4 157.3 152.2 146.7 142.8 141 139.8 138.6 136.8 134.1 131.8 130.2 129.5 129.3 128.3 127.8 128.8 130.3 132 133.9 135.7 136.2 136.4 137 136.3 135.6 134.7 133.4 130.7 127.1 121.4 114.4 105.6 96.8 95.3 97 99.7 102.4 104.4 106.2 106.3 105.1 102.8 99.8 96.4 93 89.9 86.6 83.1 79.5 75.9 72.8 70.1 68.5 67.3 66.4 65.5 63.2 59.6 56.9 56.3 56.9 59.8 63.6 67.7 69.7 70.5 69.8 68.3 66.1 64.5 63 62 63.8 68 74.7 84 90 94.7 97.7 98.4 97.3 93.4 87.3 79.6 69.7 64.8 56.9 47.6 41.7 41.6 48.9 57.4 65.7 73.1 80.3 86.3 91.3 96.6 101 104.6 107.6 108.8 108.8 108.9 107.8 106 103 98.6 93.8 93 95.2 97.9 100.3 101.9 102.9 103.8 103.7 103.2 102.4 101.9 101.2 100.3 99.3 98.2 97 96.1 95.9 97 98.9 101.9 104.9 106.7 108.2 109 109.2 108.8 108.5 108.2 107.5 107.5 107.5 107.5 108.1 108.6 109 108.8 108.3 107.3 106.5 105.6 104.5 104 104.4 104.6 104.7 103.9 103.4 102.7 101.6 100.4 99.1 97.7 95.6 93.2 90 85.9 80.9 75.9 70.9 66.1 61.9 58.9 56.4 55.2 54.3 55.4 60.7
119.8 121.6 123.3 124.1 127.7 128.8 130.6 133.1 136.1 136.6 135.7 135.9 139.5 143.6 147.2 150.6 153.9 157.1 160.1 163.1 165 165.3 164.4 161.6 156.5 150.5 144.6 141.2 139.4 138 135.5 133.2 131.4 129.2 128.6 128.5 127.8 127.6 126.7 126.5 127.7 129 129.9 130.2 130.9 132.4 133.5 134 133.5 132.1 129.6 125.6 120 112.6 104.6 99 100.6 104.3 105.6 105.1 106.3 106.8 107.3 106 103.9 100.8 97.7 94.4 90.9 87.1 83.6 80.1 76.5 73.4 71.3 69.7 68.5 67.6 66.6 64.2 61 60.5 59.2 56.9 55.4 56.1 59.5 61.4 62 61.4 60.2 57.6 55.8 54.4 54.2 55.9 59.5 67.4 77.6 85 89.7 93.4 96.3 97.9 96.7 92.8 87.5 80.1 73.3 67 57.9 48.7 41.2 41.4 47.8 56.2 64.5 72.7 79.2 86.3 92 97.6 102.3 105.4 107.5 108 108.3 107.7 106.8 104.7 100.8 95.5 91.5 91.8 94.1 96.7 98.5 99.6 100.2 100.4 100.2 99.8 99.2 98.1 97.1 96 94.6 93.1 92.3 91.5 93.4 96.9 100.9 104 106.2 107.9 108.4 108.6 108.6 108.3 107.8 107.6 107.5 107.3 107.3 107.4 107.6 108.2 108 107.3 106.3 105.3 104.3 103.4 102.8 102.7 102.2 101.8 101.7 101.5 101.1 100.6 99.8 99 97.7 95.6 92.7 89 84.3 79.4 74.3 69.5 65.1 61.8 59.4 57.8 56.8 57 58.8 64.9
119.5 121.5 122.8 127.3 128.2 130.1 132.9 136.2 137.7 138 138.9 140.9 143.1 146.5 150 153.6 157 160.8 163.9 166.8 168.1 168.6 167.9 165.6 161 154.9 147.3 142.8 140.3 137.9 135.7 133.7 132.1 131 131 130.1 129.3 128.9 128.6 127.1 124.8 124.3 124 124.2 125.3 128.1 130.3 131.1 130.6 129.1 126.4 121.9 115.8 108.5 102.4 102.8 108.2 112.1 111.4 108.9 108 108.4 108.3 107.2 105 102.2 99 95.7 91.6 87.2 83.7 80.4 77.3 74.7 72.7 71.2 70 68.9 67.3 65.7 65.4 65.1 64.3 62.3 59.2 54.7 53.1 53.2 52.9 53.2 52.6 50.6 48.8 48.3 48.6 48.9 50.4 58.6 68.8 76.6 82.5 87.9 92.4 96 97.6 96.1 92.1 86.7 80.3 73.9 66.8 57.6 47.6 40.2 39.9 46.2 55.8 65.1 73.3 81.1 87.8 93.8 99.3 103.1 105.3 107 107.6 107.4 106.7 105.3 102.6 98.4 92.7 88.9 89.8 92.5 94.9 96 96.4 96.8 96.4 95.9 95.8 94.9 93.5 92.2 90.6 89.2 87.4 87.9 91.8 96.1 100 103.4 105.8 107.6 108.3 108.2 108.1 107.7 107.1 106.5 106.5 106.6 106.6 106.3 106.1 105.8 105.5 104.6 103.5 102.6 101.5 100.7 100.1 99.9 99.5 98.7 98.8 99.2 99.4 99.2 99.1 98.7 97.4 95.3 92.2 87.6 82.5 78 74.3 70.2 67.2 64.6 61 58.7 58.2 59.1 60.9 65.7
118.8 121.9 123.3 127.2 128.7 131.4 134.4 136.4 138 138.5 142.7 145.1 146.9 149.9 153.3 156.7 160.3 164.2 167.7 170 171.1 172 171 168.8 164.6 158.9 151.3 144.7 141.7 139.8 138.2 136.4 134.9 134.1 132.7 131.2 130.8 131.4 132.6 131.9 127.5 122.9 121.3 120.7 120.5 122.9 125.4 126.5 125.5 123.1 119.8 114.3 109.6 105.7 105.4 110.2 116 117 115 112.5 111.3 111 110.4 109.3 106.7 103.9 101 97.1 92.6 88.1 84 81.1 78.9 76.8 74.7 72.8 71.5 70.2 68.9 68.2 68.5 68.8 68.7 67.7 65.4 61.2 56.9 54.6 54.9 51.6 50 48.9 49.1 48.8 47.7 46.3 43.6 45.3 57.3 67.1 74.7 81.3 87.2 92.6 96.1 97.1 95.4 91.7 85.9 79.3 71.8 63.6 53.9 44 37.5 36.7 45.7 58.2 68.1 76.2 83.3 90.2 95.6 99.6 102.9 105.1 106.9 107 106.4 105.6 103.4 100.5 95.3 88.9 85.4 87.4 90.8 92.1 92.8 92.9 91.9 91.3 91.4 91 89.8 88.4 86.8 85.3 83.9 86 90.6 95.2 99.2 102.8 105.2 107.2 107.9 108.1 107.7 106.8 105.6 104.5 104.5 104.7 104.8 103.9 102.9 102.2 101.9 101.3 100.1 99.4 98.6 98 97.5 96.9 96.2 95.7 95.6 96.3 96.9 97.1 97.7 97.8 97.2 95.5 92.7 88.6 83.7 80.7 77.4 73.7 70.6 67.3 63.8 60.1 59.6 61.3 63.6 66
119.1 122.3 122.8 127.8 129.4 132.4 135.3 136.8 138.2 138.8 145.4 148 150.5 153.4 156.6 160.1 163.7 167.6 170.7 172.7 174.3 174.7 173.5 171.4 167.2 161.6 154.6 147.6 143.8 142.4 141.3 139.9 137.6 135.9 134.1 132.7 132.5 133.9 135.1 134.4 130.6 124.1 120.9 119.6 118.7 118.4 119.2 119.7 118 115.2 112.8 110.3 109.9 111.9 114.5 119.3 120.9 119.5 117.2 115.1 114.3 113.9 112.7 111.2 108.4 105.6 102.4 98.4 94.2 90.1 86.3 83.3 81.1 78.9 76.8 74.7 73 71.8 70.9 70.8 71.6 72.2 72.4 72.4 72.3 70.2 66.2 62.5 60.7 59.8 59.8 60.5 61.1 62 61.6 60.9 54.1 44.8 45.4 58.7 67 73.9 81.3 88.1 93.3 96.7 97.1 94.7 90.1 83.8 76.7 69.7 62.1 52.2 44.1 35.9 36.8 49.7 62.6 71.2 78.4 85.2 90.5 95.4 100.1 103.5 105.4 105.5 105.1 104.1 102.3 100 96.6 90.6 83.4 80.4 83.7 86.8 88.1 87.3 85.8 86.1 87.1 86.7 86 84.5 82.9 81.2 81.1 85.4 90.5 95.6 99.7 102.8 105.1 106.8 107.6 107.7 107 106 104.6 102.3 101.5 101.4 101.8 101.1 99.5 98.4 97.7 97.5 96.8 96.2 95.7 95.1 94.3 93.3 93.1 92.8 92.7 93.4 93.8 94.2 95.3 96.3 96.6 95.9 93.5 90.5 87.9 84.9 80.8 76.6 72.7 69.5 65.5 62 62.2 63.7 66.5 67.8
119 122.3 124 128.5 130.2 133.4 135.5 137.1 138.3 145.1 148.1 150.9 153.6 156.7 159.8 163.5 167.2 170.7 173.6 175.1 176.3 176.6 175.5 173.4 169.5 163.7 157.7 151.1 146.3 144.9 144.3 142.9 140.8 139.3 137.2 136.1 136.1 137.1 137.2 136.5 132.9 126.7 121.8 119.7 117.8 116.8 115.5 113.9 112.9 112.1 111.5 110.9 116.2 120.7 123.6 124.9 123.8 122 119.7 118.3 117.2 116.1 115 113.5 110.6 107.8 104.2 100.3 96.5 92.7 88.9 85.7 83.3 81.1 78.9 76.8 75 73.9 72.9 73.5 74 75.1 75.8 76.7 78 78.3 75.4 72.9 71.6 72.9 75.7 77.5 77.9 78 76.4 72.5 64.2 53.4 43.6 47.9 58.3 66.3 75.1 82.7 89.5 94.7 97.6 96.5 93 87.4 81.1 74.8 68.1 60.2 53.1 41.4 33.1 41.5 56.6 65.2 72.7 79.6 85.5 92.9 98.2 101.7 103.2 103.4 102.6 101 100.1 98.8 95.6 91.2 84.4 79.1 76.9 80.6 82.6 81.2 80 80.8 82.4 82.4 81.7 80.6 79.2 77.7 80.1 86.2 91.6 96.6 100 102.8 105 106.2 107.3 106.8 106.1 105.2 103.8 100.8 98.3 96.8 97.3 96.4 94.7 93.8 93.1 93.1 93 92.7 92.4 92.4 91.7 90.9 90.6 90.4 90.3 90.3 90.7 91.9 93.6 95.3 95.8 96.5 95.2 93.3 91.1 88.1 84 79.2 74.9 71.2 67.2 64.3 64.5 66 66.9 69.9
118.3 122 125.8 128.2 130.5 134.1 137.9 137.5 138.9 147.4 150.4 153.3 156.2 159.1 162.2 165.6 169.2 172.3 175 176.5 177.6 178.1 177.1 175 171.6 166.5 160.4 154.4 150.1 148.1 147.6 146.3 145 143.8 142.9 141.9 141.6 141 140.3 138.4 134.9 129.7 124.9 121.1 118 116.4 115.5 113.8 112.2 111.7 111.4 112.5 118.3 123.5 125.8 126.2 125.3 124.4 122.5 121.2 119.7 118.6 117.3 115.7 113.5 110.8 106.9 103 99.2 95.3 91.7 88.4 85.3 83 80.9 78.9 77.3 76.1 75.6 76.5 76.5 77.9 79.1 82.3 84.1 85.5 85.4 85.4 85.2 86.1 89.1 89.8 89.8 88.4 85.7 81 73.4 63.2 52.2 41.5 48.9 57.8 67 76.6 84.8 91.2 95.8 96.4 94.6 91.2 85.5 78.1 70.8 63.9 55.8 43.3 33.2 38.2 50.6 58.8 66.7 74.3 82.9 90.4 95.6 98.5 99.3 99.2 98.4 97.5 96.8 96.9 95 92.6 89 84.5 76.7 73.6 75.2 75.2 73.7 74.8 74.2 73.4 77.1 76.1 75.1 75.6 80.5 87.8 93.1 97.6 100.5 102.9 104.6 105.8 106.6 106 105.2 104.4 102.3 99.1 95 91.2 91 91.2 89.8 88.8 88.1 88 88.2 89.1 90.1 90 89.6 88.5 87.9 87.5 87.3 86.6 87.2 89.6 92.1 94.3 96.4 97.6 97 95.5 93.6 91 87.2 82.2 76.7 72.9 69.2 66.5 66.5 67.8 69.8 72.1
117.1 120.6 124.6 128.3 131.1 134.9 138.5 142.5 145.5 148.8 152 154.7 157.8 160.8 163.5 166.4 169.5 172.4 174.9 176.5 177.5 178.3 178.2 177.4 174 169.5 164.7 159.2 155 152.4 151.1 150.1 149.3 148.6 148.2 147.5 146.1 145 143.1 141 137.5 133.4 130 126.5 121.8 117.6 115.4 114.6 113.5 112.3 111.9 112.7 117 121.2 124 125.2 125.1 125.4 124.9 124.2 122.7 121 119.6 118.4 117.6 114.8 110.6 105.8 101.7 97.8 94 90.7 87.7 85.1 83.2 81.5 79.7 78.4 78.3 79.3 79.7 81.6 85.5 88.5 90.3 92.4 94.5 95.2 94.8 95.3 96 96.2 95.8 94.1 91.8 88.1 81.6 73.9 64.1 51.1 41.8 47.9 58 69.3 78.6 85.6 91.9 94.4 94.8 93.3 89.4 82 73.4 66.7 59.3 48.1 36.1 35.3 43.8 51.8 60.9 70.6 79.7 87.4 92 94.1 94.7 93.7 92.5 92.1 94.1 96.2 96.9 95.4 93 89.3 81.4 72.3 69.4 68.9 68.8 68.7 68.9 69.5 69.1 69.1 73.9 74.9 82.6 89.5 94.8 98 100.8 102.6 103.9 105.2 105.7 105.7 104.9 103.7 101.1 97.8 93.1 87.8 85.7 85.3 84.8 83.8 83.1 83.4 85.2 87.3 88.4 88.4 87.5 84.9 83.5 83.3 82.9 82 84.4 88.6 91.6 94.8 97.2 98.5 98.5 97.6 96 93.6 90.3 84.8 78.3 74.4 70.8 67.1 68 69.4 72.1 73.9
115.4 119.1 122.8 126.9 131.1 134.8 138.5 142.3 146.1 149.5 152.5 155.1 158.2 160.8 163.2 165.7 168.5 171.3 173.3 175.2 176.8 178 179 179.2 177.4 174.6 171.2 165.7 160.6 157.3 155.4 154.4 153.8 153.7 153.3 152.2 150.1 148.3 145.7 143.3 140.1 137 135.4 132.7 128.2 121.3 115.3 112.7 114.2 113.4 112.6 112.7 114.9 118.3 121.5 124.1 125.9 125.8 125.6 125.2 124.3 122.6 121.3 120.1 118.4 116.4 112.9 108.3 104.3 100.1 96 92.8 89.9 87.6 84.8 83.4 82.1 80.7 80.6 81.8 83.3 87 90.6 92.8 94.1 96.1 98.8 99.7 99.8 99.9 100.1 100.1 99.5 98.2 96.2 93.1 88.2 81.8 73.2 62.4 48.7 40.3 46.9 58.5 70.5 78 85 89.5 92.8 94 91.5 86.2 78.3 71.8 65.7 56.5 43 33.5 36 44.2 55.6 66.5 75.8 82.8 87.2 88.7 87.7 85 84.2 85.4 90.7 96.1 98.6 97.8 95.5 92.1 86 77.5 70.6 66.5 66.7 68.3 68.2 69 69.5 69 69.1 77 85.8 91.8 96.1 98.9 100.6 102.1 103.3 104.2 104.5 104.7 103.9 102.6 100 96.5 91.5 86.1 80.7 79.4 78.9 77.8 77.9 80.8 84.3 86.3 87.1 86.5 84.2 80.8 79 78.3 77.5 78.5 82.9 87.7 92.1 95.4 98.1 99.2 99.5 98.7 97.6 95.4 92.1 85.3 79.6 75.7 72 70.2 70.4 72.4 74.4 75.8
113.9 115.9 122 125.5 130.4 134.4 138 141.9 146 149.2 151.9 154.5 156.7 159.5 162.6 164.9 167 169.1 171 173.2 174.9 177.3 179 180.7 181.1 180 177.5 173.4 167.9 163.1 159.9 158.5 158 158.4 157.6 156.3 154.2 151.7 149 145.5 142.2 140.2 138.8 136.6 132.9 127.4 118.9 115.6 114.8 114.1 113.4 113 114.3 117.5 120.8 125.2 126.5 126.8 126.4 125.5 124.6 123.3 121.9 120.3 118.4 116.2 113.2 109.6 105.9 101.7 98 94.8 92.1 90.2 87.1 85 83.6 82.5 83.2 84.5 87.4 90.5 92.4 94.4 96 98 100.3 101.1 101.4 101.9 101.9 101.7 101.3 100.3 98.7 96.2 91.5 85.7 78.9 70.4 58.7 46.5 38.9 48.2 59.4 69.5 77.8 84.3 89.6 92.1 92 88.8 83 77.5 72.1 64.1 52.4 39.1 32.2 37.4 49.7 61.9 70.8 77.4 81.5 82.2 79.2 76.4 77.2 82.5 90.6 97.4 99.8 99.2 96.8 93.8 88.7 80.6 73.5 67.1 63.5 63.9 67.4 68 68.9 69 69.1 79.4 87.6 92.7 96.3 98.4 99.9 100.9 102.2 102.9 103.4 103.5 102.6 101.6 99.3 95.9 91.6 85.7 79.3 74.8 72.7 72.5 77.5 82.5 85 85.9 85.9 83.9 80.3 76.3 74.2 73.3 73.3 76.1 80.9 87.4 92.7 96 98.5 99.4 99.8 99.4 98.4 95.9 91.8 85.5 81 77.3 72.6 70.9 72.8 74.9 76.5 77.7
112.6 114.8 121.2 124.6 128.9 133.1 137.4 141.5 145.2 148.1 150.9 153.3 155 158.2 160.6 162.6 164.5 166.5 168.7 170.9 173.5 176.3 178.5 180.7 182.5 183.2 182.2 179.3 174 169 164.8 163 162.1 161.7 160.4 158.7 156.4 153.8 150.6 146.6 143.7 142.6 141.2 139.1 135.9 131.8 124.8 117.6 115.6 114.9 114.1 113.7 114.5 117.4 122.4 127.7 128.3 128.1 127 126 124.7 123.2 121.6 119.6 117.3 115.2 112.9 109.8 106.4 103 99.9 96.8 94.9 92.7 89.4 86.5 85.1 84.5 85.1 86.9 89.3 91.1 92.7 94.5 96.1 98.1 99.9 100.8 101.1 101.5 101.8 101.9 101.5 99.9 98.5 96.1 92.2 87.3 82.1 75.9 67.6 56.3 44.9 39 48 59.2 70 79.6 84.9 87.5 89.1 88.9 85 80.1 76 70 61.2 48.6 34.8 32.3 43.2 56.1 64.6 70.2 74 73.1 69.4 69.1 74.2 82.4 91.7 97.7 100 99.3 97.2 94.8 89.3 81.7 74.2 68.6 63.8 62.4 61.1 63.7 65.6 68.7 71.7 79.9 84.4 91.5 92.9 93.9 97.5 99.2 100.5 101.4 101.6 102 101.4 100.6 98.7 95.6 91.7 87 81.6 74.6 68.7 70.5 79.1 83 84.7 84.6 83.7 80.8 77.2 73.4 70.8 69.2 71.2 74.8 79.4 86.5 92.5 96.2 98.3 99.3 100 99.8 99 95.7 91.8 86.5 82.5 79.1 71.1 74 75.6 77.4 78.6 79.9
110.9 112.5 120.7 122.8 126.5 130.9 136 140.3 143.8 146.6 149.1 150.4 153.4 155.8 158.4 160.5 162.5 164.5 166.7 169.6 172.4 175.2 177.8 180.2 182.2 183.5 183.8 182 178 173.7 169.3 167.1 165.4 163.3 161.8 159.6 156.7 153.5 150.4 147.3 145.1 144.2 143.1 140.4 137.1 133.4 127 119 116.5 116.1 115.3 114.1 115.3 118.6 124 127.6 128.7 128.4 127 125.6 124.4 123 120.5 118.1 115.8 113.5 111.3 108.4 105.4 102.8 100.4 97.9 95.9 93.6 90.2 87.8 86.5 86 86.7 88 89.7 90.7 92.2 94 95.5 96.5 97.7 98 98.4 98.7 99 99.3 99.1 97 95.4 93.5 90.1 85.7 81.1 75.9 70.7 64.2 54.6 42.2 39.9 49.3 62.3 71.7 78.5 81.8 84.1 85 83 78.8 75.3 70.3 63.8 54.2 39.1 30.4 38.1 49.9 56.8 60.8 62.9 62.1 61.3 65.4 72.8 81.8 90.7 96.5 99.3 99.3 97.5 95.2 89.9 83.4 77.5 72.5 67.8 63.5 60.8 60.8 65.4 70.4 71.5 77.7 83.2 86 91 93.4 95.4 96.8 98.1 98.7 99.6 100.2 100 99.4 97.9 95.7 92.4 88.2 83.2 77.1 67.3 68.6 78 81.2 81.7 81.2 80 77.2 73.6 68.4 65.6 66.5 70.5 74.3 78.8 85.1 91 94.6 97.7 99.3 100.4 100.4 99.4 96.7 92.5 88.7 84.5 70.7 78.6 77.7 78.3 79.7 81.1 82.2
110.3 112.1 121.3 119.6 123.1 128.6 133.3 138 142 144.1 145.9 148.2 151.8 154.4 157.1 159.3 161.4 163.4 166.2 168.5 171.5 174.3 177 178.8 180.4 181.8 182.3 181.6 179.3 176.2 172.7 169.6 166.9 164.1 161.8 159.3 155.8 152.2 149.4 147.4 146.4 145.2 143.7 141.1 137.5 132.9 126.5 119.8 117.5 117 116.1 114.9 115.5 119 123.3 126.8 128.4 128.1 127.4 126.1 124.5 121.8 119.4 116.7 113.7 111.5 109.5 107 104.7 102.3 100 97.5 95.1 92.6 90.3 88.7 88 87.2 86.8 87.3 88.4 89.4 90.8 92.4 93 93.6 94.1 94.2 94.6 94.8 95 95 94 92.4 90.5 88 85.3 81.8 77.2 68.8 61.7 54.9 45.8 40.7 37.5 43.6 56.4 64.9 70.9 74.5 77.1 78.1 75.6 71.9 68.7 65.3 62.4 57.3 44.4 30.9 35.4 43.6 48.6 51 52.4 53.4 57.6 62.8 70.3 80.4 89.3 95 98.4 98.9 97.8 95.7 91.9 87 82.1 77 72.4 68.1 61.8 59.6 70 70.4 70.7 71.2 79 80.8 83.6 86.7 90.6 93.2 94.5 95.6 97.1 98 98.5 98.1 97.3 95.1 92.6 88.4 82.8 75.9 66.3 66.1 74.1 76.8 76.9 76.5 74.5 70.8 67.3 61.7 61.9 65.7 69.8 73.4 77.9 83.5 89.3 93.5 96.9 99.2 100.6 100.7 99.6 97.4 94.1 90.5 86.4 84 82.1 81.4 81.9 82.4 83.8 84.7
111.3 113.7 116.6 118.9 123.5 127.3 131.3 136.1 139.8 142.1 144 147.3 151 154.4 157.3 160.1 162.9 165.1 167.3 169.4 171.3 173.8 175.7 177.2 178.3 179.3 179.8 179.2 177.4 175.8 172.9 169.4 165.6 162.6 159.9 157.3 154.2 151.3 148.8 147.7 147.3 145.8 143.6 140.6 136.7 131.7 125.1 120.2 118.5 117.6 116.3 115.5 115.8 118.1 121.6 124.6 127.5 128.2 127.9 126.8 124.9 122.3 119.6 116.5 112.6 109.6 106.6 104.3 102.4 100.6 98.4 96.4 94.2 92.1 90.3 88.6 87.4 86.3 85.2 85.6 86.4 87.2 88.6 89.2 89.1 88.8 89.7 89.3 89.5 89.5 89.3 88.5 87.4 85.8 83.1 81.5 79.5 76.2 66.5 59.6 44.8 39.5 50.5 39.4 37.4 40.3 49.2 55.7 61.3 65.3 67.8 68 64.7 60.7 57.4 55.4 55.1 55 47.7 32.3 31.5 38 42.6 44.7 46.6 49.6 55.4 61.3 69.2 79.4 88.2 94 97.4 98.6 97.8 95.7 92.4 88.1 84 79.3 74.5 69.3 62 65.3 71 70.4 68.2 75 76.1 79.3 80.6 82.7 86.4 88.7 90.6 92.3 94.1 95.5 96.6 96.8 96.1 94.6 92.3 88.1 82.2 74.2 65.2 62.2 68.8 70.8 71.1 69.3 65.1 61.9 59.9 58 61.9 65.7 69.1 71.9 76 81.5 87.4 92 95.4 97.8 99.3 99.7 98.9 97.1 94.6 91.8 89 86.7 85.4 85 85.3 85.7 86.3 86.8
114 117.5 118.2 123.9 127.1 130.4 133.8 137.1 140.1 142.4 144.8 147.6 150.8 154.5 158.2 161.4 164.7 167.3 169.8 171.1 172.8 173.8 174.7 175.2 176.1 176.7 176.8 176.3 175 173.2 170.3 166.1 162.6 159.6 157.1 154.1 151.2 148.3 145.7 145.5 145.3 144.7 142.5 139.2 134.8 129 124 121.4 119.6 117.9 116.5 115.8 115.2 115.6 117.6 121.8 125.3 127.5 127.9 127.2 125.3 122.6 119.7 116.8 112.9 108.7 104.7 101.3 99.4 97.2 95.4 93.8 92 90.2 88.4 87 85.2 84 83 83.2 83.3 84 85.1 84.6 82.9 81.5 82 81.1 80.5 80.8 80.7 79.8 79 77 73.9 73.1 70.9 64.6 51.3 52.6 49.5 48.5 49.2 46 42.7 37.3 37.9 42.6 49.4 54.2 56.5 55.3 51.9 47.4 43 40.8 43.2 46.3 44.4 34.2 28.6 32.1 36.6 39.6 43.4 48.8 55.2 62.5 71.1 79.6 87.4 93.1 97 98 97 94.7 91.7 88.1 84.2 80.1 74.1 66.4 61 67 70 69.3 71.9 74.4 77 71.3 77.8 79.8 82.2 83.5 85.5 88.2 90.9 93.4 94.7 95.3 95.1 93.7 91.6 87.6 82.2 75.8 67.4 59.5 61.6 63.8 62.9 60.6 57.3 53.8 54.3 57.9 61.7 64.8 67.5 70.3 74.2 79.4 84.6 89 92.2 94.6 96.9 97.9 97.2 96.1 94.6 92.5 90.7 89.4 88.2 87.7 87.3 87.6 87.8 87.6
117.7 121 122.5 127.1 129.8 133 136.5 139.3 141.7 143.9 146.1 148.6 151.4 154.7 158.3 162.3 166 169.2 171.7 173.3 174.4 174.9 174 174.1 173.4 173.8 174 172.8 171.6 169.5 166.5 162.4 159.4 156.2 152.9 149.9 147.5 145.3 143.3 142.4 142 141.2 139.2 135.7 131.1 127 125.8 125.3 122.6 119.5 118.6 116.4 115.3 114.7 114.5 119.6 122.9 125.5 127.1 126.8 125.5 123.1 120.3 117.2 113.5 109.4 104.8 100.6 96.9 93.6 91.7 90.4 89.1 87.7 86.2 84.6 82.9 81.2 80.4 80.3 80.3 80.3 80.2 79 76 72.8 73.3 69.3 65 65.2 66 66.2 67.3 63.4 63.4 60.1 55.5 47.9 47.9 51.9 59.4 60.4 59.5 56.6 51.7 43.5 36.2 33.8 35.3 40.2 42.9 42 38.2 34.5 31.6 30.6 32.9 35 36.1 32.3 27.3 28.2 33.2 38.2 43.2 49.4 57 64.6 72.7 80.8 87.5 93.1 96.5 96.6 96 93.8 90.2 86.8 83.1 78.3 70.9 64.4 61 68.6 70.3 68.7 69.3 71.3 74.7 67.4 67.4 74.7 77.6 78.4 80.8 85.2 88.2 91.2 92.7 93.5 93.3 92.6 90.6 87.3 82.9 77.8 70.5 60.1 55.9 56.4 55.1 52.9 50.9 50.2 53.8 57.6 60.7 62.8 65.2 67.5 71.1 75.8 79.7 83.6 87.2 90.4 93.7 95.1 95.8 95.2 93.8 92.3 91.3 90.4 89.6 89.2 88.8 88.6 88.5 88.2
120 122.8 124.8 128.6 132.2 135.6 138.6 141 143.5 145.9 148.1 150.2 152.6 155.1 158.8 162.8 166.6 170 172.5 174.4 175.2 175.3 174.1 172.4 171.1 169.8 169.9 169 167.6 165.3 162.2 159 156.4 155.1 153.9 152.3 150.6 148.6 146.1 142.2 138.6 137.4 135.2 132.5 130.7 131.6 131.9 131.3 128.9 125.1 121.4 118.8 116.3 114.2 113.2 116.7 120.4 123 124.3 125.2 124.7 123.2 120.8 118.1 115.1 111 106.7 102.1 97.6 93.3 88.7 86.6 85.3 84.3 83.1 81.6 79.9 78.4 77.4 77.1 76.5 76 74.6 72 67.4 64.3 69.5 65.7 60.5 60.4 60.2 59.7 59.1 56.3 60.8 50 49.2 50.2 57.9 64.8 68.8 69.7 68.3 63.8 57.1 49.5 41.9 37.9 34.8 33.8 33.1 32.8 33.1 35.3 36.3 34.2 32.6 29.5 28.2 27.8 26.2 27 31.4 36.6 42.3 50.1 58 65.9 73.9 82 88.7 93.4 95 94.7 94.1 91.9 87.8 84.3 79.9 74.8 70 64.5 61 69.1 69.8 70.5 69.7 65.8 68.4 67.4 67.4 75.1 73.6 74.4 78.3 82.5 85.7 88.8 90.5 91.5 91.5 90.9 89.6 86.4 82.9 77.9 72.2 63.9 55.6 51.6 49.3 48.6 47.4 48.9 52.8 55.8 58.4 60.2 61.9 64.6 67.6 71.5 74.8 78.2 64.3 86.2 90 92.3 93.8 94.2 93.5 92.4 91.6 90.8 90.2 90 89.3 88.9 88.4 87.5
120.9 123.9 126.7 129.3 133.6 137.3 140.5 143.4 145.7 148.1 150.4 152.8 154.7 156.7 160.3 163.6 166.9 170.3 173.1 175.3 175.6 175.1 173.5 171.1 168.9 167 166.1 165.2 163.6 160.8 158.9 157.5 158.7 160.1 159.4 157.6 154.9 151.9 149.1 143.5 138.4 137 135.6 136.2 137.5 139 139.1 137.3 134.9 132.5 127.5 122.8 119.4 115.6 112.9 113.4 116.4 119.2 121.4 122.7 123.4 122.2 120.3 117.9 114.9 111.3 106.9 103.1 98.5 93.5 88.1 84 81.8 80.8 79.8 78.5 77 75.5 73.9 73.1 72.2 70.4 68.4 64 62.5 64.5 69.8 66.8 62 61 60.4 59.9 59.2 56.3 61.2 58.6 58.8 63.8 70.2 73.9 76.1 75.4 73.8 69.3 63.2 56.9 51 46.6 42.6 40.2 39.5 40.7 44.7 50.7 50.3 43.8 37.8 33 28.3 26.7 25.1 25 28.9 34.3 41.4 52.1 60.1 67.3 75 82.7 89.4 92 91.6 91.2 90.4 88.2 84.4 80.3 76.4 73.4 70.3 65.3 61.2 69.3 69.8 69.9 68.9 65.8 65.8 65.8 69.5 69.3 69.7 72.4 76.6 80.7 83.4 86.2 88 88.9 89.2 88.7 87.7 85.1 81.7 77.9 72.9 66.2 58.8 52.1 47.7 45.5 45 47.6 50.9 53.8 55.8 57.3 58.7 61.6 64.7 67.9 68.2 69.9 77 83 87.2 90.1 92.4 93.8 93.3 92.5 91.8 91.3 90.7 89.9 88.8 87.7 87.1 86.1
121.4 124.3 128.1 129.2 134.7 138.6 142.8 145.8 148.2 150.5 152.9 155.4 157.4 159.3 162.6 165.6 168.3 171.2 174 175.8 175.9 174.8 172 169.3 167.1 165.7 164.1 162.7 160.5 159.3 159.4 160.1 161.9 163 161.8 159.6 157.1 153.5 149.2 143.4 141.3 143.1 143.8 144.8 145.6 146.2 145.2 143.3 141.5 139.1 134.5 129.4 123.6 116.9 114.8 112.7 110.3 113.3 117.4 120.2 121.2 120.5 119 117.1 114 110.4 106.2 101.8 97.4 92.5 87.2 82.6 79.2 77.3 76.3 75.3 73.6 71.3 70.1 69.5 67.7 65.1 63.9 64.6 69.6 75.3 76.4 72.8 70.4 68.7 66.4 64.6 65.6 67.5 69.4 70.9 70.7 74.4 78.6 81 82.1 81.3 79.6 76.9 74.1 69.8 65.1 59.6 56.1 53.7 52.6 54.8 60.4 65 63.2 53.5 43.1 36.3 30.7 27.1 25 24.2 26.5 32.2 41.7 53.2 61.6 68.4 75.4 82.8 87.8 87.8 87.2 86.5 84.9 82.6 80.9 78.4 75 71.9 69.3 65 61.2 68.9 65.5 65.5 65.5 65.8 65.8 65.8 65.8 65.8 69.3 71.5 74.8 77.6 80.5 83.1 85.4 86.4 86.7 86.4 85.6 83.4 80.8 77.1 72.6 66.7 59.6 53.5 49.3 45.4 42.4 45.6 48.1 50 51.7 53.3 56.2 58.9 62.8 62.6 67.5 72.3 76.3 81.2 85.6 88.6 91.2 93 93.3 92.6 92 91.1 90.4 89.4 88.2 87 85.8 84.8
120.2 123.6 127.7 131.3 136.3 140.2 144.1 147.7 150.4 152.9 155.4 158.2 159.6 161.9 165.2 168.5 171 173.4 175.2 176.1 176.2 174.8 172 169.1 166.9 165.2 163.9 162.9 161.9 161.6 161.9 162.9 163.9 164 162.8 161 157.7 153.8 148.4 145.5 148.1 150.6 151.5 151.5 151 150 148.7 147.3 145.4 142.9 139.3 134.2 127.6 121.4 117.6 114 107.2 106.3 111.5 115.9 117 117.3 117.8 115.5 111.6 107.6 103.2 98.9 94.5 90.2 85.6 81 77 74.4 73 71.9 70.3 68.6 68.5 67.8 67.1 67.5 70.8 75.9 81.8 84.6 84.8 84.5 84 83.2 80.2 77.8 79.4 81.8 82.9 83.1 81.9 83.5 86.1 88.6 88.9 88.4 87.7 86.8 85.3 83.2 81 76.2 71.7 70.5 70.8 72.4 76.4 77 71.9 61 47.7 39.3 33.3 28.8 25.7 24.4 24.8 30.1 42.2 53.3 61.8 68.8 74.1 80 82.6 82.2 80.7 79.6 79.6 79 78.4 76.9 74.4 71 68.2 64.3 60.5 68.4 69 69 67.3 65.8 65.8 65.8 65.8 65.8 65.3 69.3 71.8 73.4 76.4 79.6 82.2 83.6 84 83.9 83 81.4 79.2 75.6 71.1 65.3 59 53.8 50.3 46.3 41.1 40.7 43.5 44.6 47.2 51.3 54.9 60.2 61 66.2 69.4 72.6 76.8 81.2 84.9 88.3 91.6 93.2 93.7 93.1 92.2 91.2 90.4 89 87.8 86 84.4 82.7
119.9 125.1 128.1 134.6 138.2 141.5 145.2 149.3 152.5 155.8 158.6 161.2 162.8 165.1 168.3 171.6 174 175.5 176.6 176.9 176.6 175.6 172.8 169.9 168.4 168.4 168.3 167.7 166.6 165.7 164.6 164.8 164.9 164.2 163 161.1 158.2 153.6 149.8 152.1 154.6 155.1 155.1 154.2 152.7 151.4 150.1 148.5 146.5 143.9 140 135.6 130.8 125.1 119.4 111.8 103.5 100.7 103.7 109.1 111.5 113 114.3 112.4 108.8 103.6 98.9 95 90.7 86.7 82.6 78.2 75.4 73 71.7 70.8 70.6 70.4 70.6 69.5 70 73.8 79.6 85.4 89.4 89.9 89.7 91.1 92.7 93.4 91.9 91.2 91.4 91.4 91.4 90.3 89.1 90.1 92.7 95.1 95.6 95.7 96 96.3 96.1 95.1 93.1 90.2 88.5 85.8 85.4 85.6 84.9 80.8 74.3 63 49.9 40.5 35.1 30.9 27.9 24.9 24.2 28 40.2 51.5 60.2 67 71.6 75.1 75.3 72.8 71 72.8 74.7 76 76.1 75.4 73.6 71.2 68 62.5 59.5 68 69 69 69 65.8 65.8 65.8 65.8 66.5 60.9 63.8 66.3 68.9 72 75.4 78.7 80.8 81.1 81.2 80.3 78.9 76.7 73.3 68.5 62.8 58.9 54.3 50.6 46.3 41.5 34.4 39.1 41.9 46.9 51.6 56.2 61.1 64.9 68.9 71.9 74.9 78.5 82.9 86.1 89.6 91.7 93.1 93.6 93.2 92.4 91.3 90.1 88.9 87.1 85.2 82.7 80.5
121.8 122.4 131.8 136.1 139.6 143.1 146.6 151 155.1 158.1 161 163.4 165.1 168.1 171.3 174.5 177 178 178.5 177.9 177.2 176.5 173.8 171.3 171.1 172.6 173.6 173.2 171.3 169.2 167.8 166.6 165.4 164.2 162.8 160.9 157.3 153.5 155.5 158.1 158.7 158.2 157.3 155.5 153.4 151.3 149.6 147.8 145.7 143.2 139.4 134.9 130.5 126 117.9 106.3 98.5 96.7 97.1 100.1 103.4 105.9 107.3 107.9 104.9 98.4 93.7 90.1 85.5 80.7 77.9 76.4 75.6 75 73.9 73.7 73.8 73.8 73.8 73.9 73.3 75 80.5 85.7 89.4 91.2 92.7 95.2 97.5 98.3 98.3 98.5 97.4 97.6 97.5 96.4 95.4 96.7 98.9 100.5 101.3 102.2 103 103.9 104.4 103.4 101.1 99.3 96.3 93.9 92.5 90.2 86.7 81.2 72.8 59.5 48.4 41.1 38.3 34.7 30.4 26.9 24.9 25.7 36.2 49.2 57.9 62.9 65.6 63.4 61.1 60.3 62.5 66.8 70.3 72.3 73.2 72.6 71.6 70.2 67.3 61.9 59.7 68 65.5 65.5 68.9 65.8 66.5 64.3 65.8 64.8 56.1 58.3 61.4 64.4 67.6 71.4 75.2 77.6 78.4 78.3 77.1 75.8 73.8 70.1 65.8 62.1 58.4 54.5 50.5 46.3 41.5 33.4 36.6 40.5 46.6 51.8 57 62.4 66.8 70.4 73.5 76.4 79.8 84.4 87.7 90.1 91.9 93 93.5 93.1 92.5 91.6 90.6 89 87 85 82.4 79.8
121.7 127.1 132.2 136 140.1 143.7 147.8 152.7 157.1 160 162.8 165 168 171.1 174.3 177.2 179.1 180.3 180.7 179.6 178.3 176.7 174.9 174 174.5 176.1 176.9 176.7 174.9 172.6 169.9 167.9 165.6 163.6 161.8 159.9 156.6 157.6 161 162.4 162 160.5 158.4 155.7 153.2 150.8 148 145.8 143.5 141 137.4 133.4 129.1 124 115.6 103.5 96.3 95 94.1 94.3 95.2 97.5 99.2 98.9 96.3 92 88.5 84.1 80.2 79.3 79.3 78.6 78.7 78.8 77.7 77.1 77.2 77.2 77.1 77.2 76.6 76.6 80.2 83.7 87.5 90.4 93.3 96.8 99.4 100.7 100.9 101.6 102.3 102.5 102.5 102.1 102 102.7 104.1 104.8 106.1 107.2 108.6 109.4 109.4 108.2 106.4 103.8 100.6 97.4 94.8 91.4 86.5 79.4 66.5 54.5 49.3 46.6 44.9 40.6 34.8 29.7 25.9 23.6 31.2 44.3 53.2 57.4 53.9 48.9 48.9 51.8 56.1 61.2 65.7 68.4 69 69.1 68.8 67.8 64.9 60.7 57.7 66.1 64.3 68.5 64.3 65.8 65.8 64.3 66.8 60.5 51.3 53.2 55.8 58.8 63.1 67.4 71.4 74.3 75.5 75.4 74.2 72.7 70.9 67.3 64.2 61.2 57.7 54.2 50.2 45.9 41.3 34.6 33.3 40.2 45.9 51.1 56 61.7 66.9 70.7 73.6 76.7 80.6 84.9 87.9 90.3 91.9 92.9 93.2 92.9 92.6 92.2 91.1 89.6 87.5 85.1 82.4 80.1
120.8 125.5 131.1 135.8 140.1 144.2 148.5 153.6 158.3 161.7 164.5 167.5 170.6 173.5 176.4 178.8 181 182.3 182.4 181.2 179.6 178.3 178.3 178.2 177.9 178.8 179.7 179.2 177.8 174.9 171.4 168.3 165.5 162.8 160.8 158.8 159 162.6 165.2 165.7 164.4 162.4 159.9 157 153.8 150.1 146.9 143.5 140.8 137.9 134.6 130.8 126.6 121.7 114.1 102 95.2 93.6 92.3 91.5 90.6 90.5 90.6 90 88.7 87.1 85.3 83.7 84.1 84.4 83.4 82.1 81.4 81.2 80.9 80.5 80.4 80.3 80.3 79.9 79.4 79.9 81.4 82.7 85.4 88.6 92.9 97 99.9 101.6 102.1 103 103.9 104.2 104.4 105 105.3 106 107.1 108.2 109.2 110.4 111.6 112.2 111.9 111 109.2 106.5 102.8 98.7 95.5 91.1 84.2 73.8 62.6 56.3 53.5 53 51.4 47.7 42.2 35.3 28.4 23.5 26.6 34.2 40.9 40.9 38.4 38.9 41.5 45.5 50.4 55.9 60.9 64 64.4 64.3 64.1 62.9 60.9 57.6 53.8 59.6 68.6 68.6 68.3 67.3 67.4 66.3 64.3 53.9 45.9 47.5 49.9 53.6 58.3 63 67.3 70.5 72.4 72.4 71.6 70.2 68.4 65.6 62.9 60.2 57 53.5 49.2 44.7 39.7 32.6 33.1 40 45.7 50.9 54.2 60.5 65.5 69.6 73.2 77.1 80.7 84.3 87.4 89.6 91.1 92.4 92.9 92.5 92.7 92.7 91.9 90.4 88.3 85.5 83.1 81.4
120.3 125.9 131 136.1 140.4 144.5 148.9 154.1 158.8 162.4 165.9 168.9 171.5 174.1 176.9 179.4 181.5 182.9 183.8 182.7 181.2 180.8 181.2 181.9 181.6 181.8 182.1 181.4 179.7 176.6 172.9 169.3 166.1 163 160.6 160.5 163.3 166 168 168 166.4 164.4 161.6 158.2 154.3 150.4 146.7 143.2 139 134.9 131.1 126.8 122.9 118.3 110.3 99.2 94.8 93.1 92 90.7 89.3 88.6 87 85.8 85.2 84.8 86.7 88.1 87.9 87.2 86.1 85 84.2 83.6 83.3 83.4 83.5 83.2 83.1 82.6 82.1 82.4 83 83.1 84.4 87.3 91.6 95.7 98.9 100.9 102 103.3 104.3 105 105.5 106 107.1 108.3 109.2 109.7 110.6 111.8 113.1 113.3 112.9 112 110.5 108 103.8 99.2 94.7 87.8 79.8 72.7 68.1 63.9 60.4 59.7 58.3 55.4 51.6 45.5 34.4 25.1 22.5 25.2 27.1 27.1 28.9 31.9 35.1 39.9 45.3 50.9 56.5 58.5 58.6 58.6 58.4 57.6 56.2 54 52 53 63.7 65.5 63.5 61 58.3 54.9 49.9 42.7 41 42.9 45.5 49.4 54.4 59.2 63.5 67 69.1 69.6 69 67.6 66.2 64.1 61.4 58.4 55.4 51.7 47.4 43 37.9 30.8 32.1 39.8 45.7 50.7 54.6 60.3 65.6 69.9 73.5 77 80.8 83.9 86.7 88.8 90.3 91.8 92.4 92.4 92.6 92.7 92.1 90.7 88.6 86 84.3 82.9
119.7 125.3 130.6 135.4 139.7 143.8 148.1 153.9 158 161.8 166.1 169.2 171.9 174.5 177.1 179.2 181.3 184 185.2 185 184.4 184.4 184.6 185.1 185.2 184.4 184 182.6 181 178.3 174.4 170.4 167.3 164.4 162.3 162.3 165.2 168.2 169.8 169.8 168.5 166.2 163.2 159.3 155 151.2 147.4 143.8 139.6 135 128.8 121.7 116.1 112 105.6 98.5 95.4 93.9 92.7 91.8 92 90.9 89 88 87.4 87 89 89.9 89.4 88.7 88.2 87.8 86.9 85.8 85.7 85.9 86.2 85.9 85.4 85.1 84.8 84.1 84.1 84.2 85.5 87.5 90.9 94.3 97.7 99.7 101.3 102.6 104 105 105.8 106.6 107.7 108.9 109.9 110.7 111.8 112.9 114 113.9 113.4 112.6 111.3 108.6 104.6 99.7 94.5 88.3 84.8 82 78 73 68.1 66.2 64.9 61.3 59.3 56.3 47 32.8 25.7 21.7 20.9 20.4 21.7 25.2 28.8 33.8 40.5 45.8 49.8 50.6 50.5 50.8 50.9 51.1 51.2 50.6 49.3 47.6 53.6 53.9 50.2 46.8 42.6 40.1 36.8 36 37.4 39.4 43.1 47.9 52.9 58.1 62.1 65.3 67 67.5 67.2 65.8 64.4 62.2 59.5 56.5 53.2 49.4 45.1 41.3 36.9 29.2 32.4 39.6 45.3 50.8 54.6 61.6 66.9 70.8 74.3 77.2 80.3 83.2 85.7 88 89.5 91.2 92.3 92.5 92.5 92.3 91.3 90.1 88.7 86.6 85.4 84.2
119.2 124.3 129.6 134.7 139 143.1 147.2 152.3 155.6 160.2 164.6 168 171.2 173.7 176.1 179 181.7 184.4 187.3 188.2 189.3 189.5 189.2 188.3 187.4 186.6 185.4 183.8 181.8 179.4 175.9 171.9 168.9 166.3 164.3 163.2 165.9 169.1 170.8 170.7 170 167.7 164.4 160.3 156.6 152.8 148.9 143.9 139.4 134.1 127 118.1 109.9 106.3 102.3 100.9 98.1 96.8 96.4 96.4 96.1 95 93.7 92.5 91.6 91.1 91.8 91.7 91.3 90.3 89.8 89.3 88.6 87.7 87.6 87.5 87.2 86.7 86.4 86.3 86.8 86.5 85.7 86.3 87.7 89 90.8 93.5 96.5 98.5 100.4 101.9 103.2 104.1 105 106 107 108 108.9 109.6 111.2 112.9 114 113.9 113.4 113.2 112.3 110.4 107.1 102.9 99.4 96.4 94 90.7 86.4 81 75.5 72.8 70.9 67.1 64.2 62.7 58 45.6 32.6 27.2 23.3 20.9 19.1 18.8 20.9 25.3 33.1 38.6 41.8 42 41.5 42 43 44.1 45.7 47 47.5 45.7 44.3 42.5 37.4 32.5 27.8 26.6 29 32.1 34.5 37.2 42.6 48.5 54.1 58.7 62.8 65.2 66.2 65.9 65.5 64.1 62.6 60.3 57.2 54 50.7 46.5 43 39.5 35.1 27.6 31.7 38.5 44.4 53 55.4 62.8 67.4 70.4 73 75.4 78.7 82 84.6 87.5 89.7 91.5 92.4 92.1 91.4 91.1 90.2 89.1 87.9 87.1 86 84.8
117.5 122.7 128 133.3 138 142.1 146.3 150.7 154.1 158.3 162.7 166.5 170.1 172.6 175.1 178 181 184.7 188.3 191 192.7 193.1 192.4 191.3 190.2 188.2 186.7 184.9 182.7 180.2 176.8 173.4 171.3 169 166.8 164.9 165.7 168.7 170.8 171.4 170.5 169 166 162.3 158.4 154.2 149.3 143.5 136.7 130 122.7 116.2 112.8 110.7 107.5 107 107.7 108.9 105.3 102.1 100.3 98.7 97.7 96.6 95.2 94 93.6 93.1 92.2 91.1 90.7 90.2 89.4 88.5 88.2 87.8 87.5 86.9 86.6 86.7 87 87.4 87.7 88.3 89.3 90.4 91.7 93.4 95.4 97.5 99.6 101 102.4 103.3 104.2 105.2 106.1 106.8 107.8 108.8 110.1 111.3 112.6 113.3 113.2 113.6 113.2 111.8 110.4 108 105.9 103.4 100.3 96.8 92.2 87.2 81.9 78 74.9 72.3 69.8 67.2 61.1 50.6 39.7 33.3 29.6 26.9 23.7 20.2 18.9 18.5 23.2 28.7 32.6 33.2 34.3 35.7 37 38.8 41.1 43.2 44.4 43.9 41.3 37.5 43.9 31.2 25.9 22.3 24.6 28.3 31.8 35.6 43.3 51.2 56.8 61.3 63.7 64.3 64.7 64.5 63.8 62.3 60.7 58 54.8 51.5 48.2 43.6 40.3 37.2 33.2 26.3 30.7 36.9 44 52.7 55 61.6 66.1 69.1 70.7 73.6 77.4 80.7 84.2 87.2 89.4 91.4 91.6 90.9 90.3 89.8 89.1 87.9 87.5 87 86.6 85.4
114.1 120.8 126.2 131.6 136.7 141.1 145.5 149.7 153.5 157.6 161.3 164.9 168.1 171.3 174 177.2 180.4 184.2 188.7 192.3 194.6 195.8 195.3 194 192.3 190 188 186.1 183.8 181.2 178.4 175.9 173.6 171.2 169.2 167.1 166.2 167.8 169.8 170.9 170.7 169.2 167 163.9 159.9 154.9 147.8 140.1 134.8 131.7 127.5 124.8 123.5 122.2 120.5 118.4 116.1 115.2 111.7 107.9 104.3 101.9 100.5 98.6 97 95.2 94 93 91.8 90.9 90.6 89.9 89.2 88.4 88.1 87.2 86.4 86 85.6 85.4 86.1 86.6 87.7 89.3 90.7 92 93.2 94.4 95.8 97.7 99.4 100.6 101.7 102.7 103.6 104.2 104.8 105.6 106.5 107.3 108.5 109.6 111.2 112.6 113.3 113.7 113.7 113.5 112.4 111.7 110.6 109 105.6 101.6 97 92 87.1 82.5 79.8 76.8 72.7 68.2 60.8 51.5 44.8 39.5 35 31.4 28 24.6 20.2 18.4 17.7 19.9 23.5 25.1 27.2 29.3 31.4 33.3 36.1 39.2 39.6 39.3 38.7 36.4 33.1 29.6 26.3 23.1 22.3 26.2 30.2 36 45.2 53.6 58.9 62.2 62.7 63.3 63.3 63.1 62.1 60.5 58.6 55.8 52.6 48.7 44.9 41.1 37.5 34.4 31 25 29.8 36.1 43.4 52.1 54.3 60.5 64.4 66.4 67.9 71.8 75.7 79.7 83.7 86.6 88.7 90.5 90.2 89.2 88.4 87.8 87.2 86.6 86.9 86.9 86.6 85.7
112.5 118.7 124 129.3 135.1 139.9 144.3 148.4 152.2 156.2 159.8 163.1 166.4 169.6 172.7 175.8 178.9 183.5 188.2 192.9 195.6 197.2 196.9 195.8 193.9 191.6 189.4 187.2 184.7 182.1 179.6 177.4 175 172.5 170.6 169 166.8 166.5 168.4 169.8 170.5 169.2 167.7 164.9 160.8 155 150 147.8 145.5 142.8 138.9 135.2 132.2 129.7 127.5 125.2 121.7 118.4 115.7 111 107.3 104.2 101.4 99 97 95.2 93.4 91.5 90.4 89.8 89.6 89.1 88.4 87.3 86.5 85.7 84.8 84.3 84.1 84.1 85.3 86.5 88.3 90.7 92.3 93.6 94.8 95.9 97.1 97.8 99.1 100.6 101.5 101.8 102.4 103 103.5 104.3 105.1 105.7 106.9 108.2 109.8 111.6 112.5 113.6 114.6 114.5 114.1 113 112.8 111.6 108.7 105.1 101 96.3 91.5 86.6 82.4 77.9 73.3 67.8 60.5 53.5 48.3 43.2 38.8 34.5 30.7 27.4 24.5 22.3 20 17.5 17.1 18.2 20.1 22.9 26.1 29.2 32 34.9 36 35.9 35.6 33.9 31.5 29.1 26.3 22.9 20.8 22.8 27.9 37.3 46.7 53.8 58.2 60.1 61 61.5 61.6 61.2 60.5 59 56.4 53.9 49.7 45.5 42.1 38.6 34.9 31.8 28.7 23.6 29.1 36.2 43.2 48.7 53.5 58.9 62.2 63.3 65.5 70 74.1 78.5 82.3 85.1 87.1 88.2 87.6 86.6 85.8 85.4 85 85.4 86.2 86.6 86.6 85.6
112.8 116.7 121.6 126.6 132.2 137.8 143.1 147.3 150.9 154.5 158.1 161.4 164.7 168.1 171.1 174.4 178.1 182.7 187.5 192.3 195.9 197.6 198 196.8 195.1 192.8 190.5 188.1 185.7 183.2 180.4 178.1 175.8 173.4 171.9 170.7 168.3 166.8 167.9 169.4 170.3 169.4 168.1 165.3 161.2 157.3 157.1 156.8 154.9 151.5 147.8 143 139.2 136.1 132.1 127.4 123.4 119.3 116.5 112.3 107.9 104.3 101.5 98.8 96.5 94.1 92 89.9 88.8 87.7 87.6 87.3 86.7 85.5 84.6 84 83.4 82.7 82.2 82 83.9 86.2 89.2 93.1 94.1 95.1 96.4 97.9 98.6 99 99.5 100.5 101.1 101.2 101.2 101.7 102.1 102.9 103.4 104 105.2 106.6 108.2 110.1 112.1 113.9 115.7 115.7 115 114.1 113.3 112 110.3 108 104.4 99.4 94.7 88.8 82.8 77.7 73 67.9 61.1 54.4 49.6 45.5 41.8 37 33.3 31.1 28.9 26.3 23.2 19.4 16.8 15.8 15.4 17.4 22.1 26.1 28.3 30 31.6 31.8 31.2 30.4 28.6 27 25.4 22.9 19.6 19.9 25 35.4 45.1 51.4 55.2 57.2 58.1 58.6 58.6 58.5 57.7 56.5 54.6 52.3 48.5 44.9 41.3 37.4 33.8 30.6 27.3 22.6 28.1 36.5 42.9 45.8 51.3 56 58.1 59.5 63 67.5 72.6 77 80.4 82.7 84.3 84.6 83.9 83.2 82.5 81.9 82.3 83.8 84.7 85.7 86 85.5
116.1 115.6 118.9 123.7 129.4 135.5 141.7 146.3 149.9 153.4 156.8 160 163.3 166.5 170 173.6 177.4 181.9 186.7 191.6 195.8 198 198.6 198.1 196.2 193.9 191.6 189.2 186.4 183.4 180.9 178.5 176.4 174.5 173.1 171.5 169.6 168.4 168.7 169.1 169.8 169.6 168.6 166.3 163.1 162.2 163.1 162.7 160.8 157.2 153.2 148.6 144.3 140.9 136.5 130.2 124.7 120.8 117.3 112.8 108.6 105.1 102 99.4 96.6 94.1 91.5 88.8 86.9 85.4 85.1 84.6 84.1 83.5 82.7 82 81.5 80.8 80.4 80.8 82.6 85.6 89.1 92.7 94.8 96.5 97.8 99.2 99.8 100 100.6 100.8 100.6 100.6 100.2 100.2 100.6 101 101.5 102.3 103.5 104.9 106.8 108.8 110.9 113 115 114.9 114.2 113.4 112.9 112 110.6 108.7 105.8 101.7 96 90 83.8 78.4 73.4 68.1 61.5 55.6 50.9 46.7 43.1 39.3 36.8 34.9 33 30.5 26.8 22.9 19.7 17.4 16 15.4 16.1 18.7 21.6 24.2 25.5 26.1 26.5 25.8 25 24.6 24.8 23.6 20.6 17.8 21.3 31.9 41 47 51.4 53.6 54.6 55.4 54.9 54.4 53.6 52.8 51.9 50.2 48.3 46.2 43.3 39.1 34.9 31.1 27.4 21.9 27.9 36.2 41.1 44.8 48.3 50.7 52.9 55.5 60.1 64.9 70.1 74.6 77.7 79.7 81 80.7 80.2 79.6 78.8 78.4 79.7 81.3 82.7 84.2 84.8 84.9
