ncols 200
nrows 82
xllcorner 330000
yllcorner 635900
cellsize 50
211.1 214.5 216.9 217.3 215.8 212.1 203.9 189.7 179 166.8 179.8 196.8 212.4 223.5 234.1 245 256 266 278 292.7 305.8 313.9 313.7 312.5 330.4 343.5 354.2 363.3 373.2 383.9 394.7 404.3 411.6 418.9 429.4 440.1 448 453.6 456.1 454.7 450.4 442.8 432.1 420 406.6 391.6 377.6 364.2 349.6 335.3 321.8 311.1 299.5 286.2 274.4 262.2 244.9 231.9 220.6 213.4 208.2 202.4 195.5 189.3 187.9 201 213.2 222.5 232.3 242.4 248.8 250.7 251.6 253.8 258.6 265.5 273.5 282.1 292.2 302.7 312.2 323.4 335.3 347.4 360.8 374.1 385.7 393.5 397.1 399.1 402.6 408.9 419.5 433 447.9 463.5 478.9 495.3 512.6 529.5 541.6 547.6 544.2 537.5 527.4 503.3 477.1 452.7 430.1 409.7 391.5 373.9 357.5 341.7 327.5 316.7 307.1 301.5 294.8 287.8 295 289.2 296 318.5 338.8 356.9 379 399.6 421.7 446.7 468.3 486.2 502.3 505.9 503.6 491.2 475.6 457.9 436.3 412 387.2 360.7 333 307.7 284.9 260.3 234.7 215.1 229.2 258.1 289 317.5 343.3 366.1 384.4 398.6 411.6 423 431.5 438.5 442.4 445.6 448.1 449.7 450.9 453.8 456.3 457.6 457.1 456.8 452.2 444.9 434.2 422.3 415.9 408.2 397.1 392.8 416.6 440.2 450.3 453.7 454.8 455.2 455.4 453.9 450.7 446.5 442.3 439.2 436.2 433.2 430.3 426.9 423.1 418.8 416.1 413.7 412.4 406.4
200 204.8 208.1 209.4 208.4 205.9 199 187.2 175.7 165.8 180.9 197.7 211.9 223.5 234.4 245.1 255.6 265.9 277.5 292.3 303.3 305.7 298.4 310.7 330.2 343.8 353.6 362.8 373.9 385.8 397.5 406.9 415.8 425.1 435.6 444.8 449.2 452.9 453 450 444 436.5 426.2 414.1 400.6 387.3 374 359.8 345.9 333.8 321.2 310.2 296.5 284.2 272.6 257.5 242.5 230.7 219.7 211.4 205.6 200.8 195.3 189.4 187.5 204.8 216.4 226.1 237.2 246.7 252.3 252.6 253.6 255.6 260.9 268.6 277.6 285.9 296.2 306.9 317.6 328.4 340.3 353.5 367.4 381.4 392.2 400.6 407.4 412.3 417.2 424.4 435.4 447.8 462.9 478.5 493.6 508.6 523.7 537.6 545.7 545.1 540.7 535.4 524.5 510.1 493.1 472.4 451.2 431.5 411.7 392.5 375.9 360.7 348.4 338.7 331.9 327.4 311.3 287.5 279.2 284.5 312 339 362.3 385.2 404.9 424.7 443.9 463.6 480.8 497 504.9 504.9 498.5 485.8 471.2 451.6 428.3 402.4 376.6 350.4 324 298.7 273.4 249.6 226.4 215.7 236.3 264.1 295 323.6 348.1 368.5 384.9 398 410.5 419.4 426.7 432.1 435 434.7 434.6 433.8 431.4 432.5 434.7 436.3 437.1 436.7 433.1 426.5 413.3 394.4 388.7 381.7 370.1 380.1 407.3 430.2 444.8 451.8 456.4 459.1 461.5 460.3 458.8 455.9 452.8 450.1 447.3 444.4 441.3 438.1 435.2 433.3 431.4 433.3 431.2 425.5
189.4 194.3 198.7 199.8 200 198.5 193.6 183.7 170 166.1 187.4 203.6 216.6 226 235.5 244.4 254.4 265.5 276.7 288.4 298.1 291.7 286.7 309.4 326.9 339.8 350.5 360.7 372.9 385.7 399.9 411 421.6 430.9 440.5 445.9 448.9 450.5 448.6 443.6 436.8 428.6 418.3 406.6 394.1 381.1 367.5 353.6 341.9 331.4 319.6 306.3 292 279.4 267.2 253.7 240.6 229.3 220.5 212.7 206.1 200.5 195.3 189.8 185.5 208.3 218.6 228.9 240.8 249.7 252.3 251.7 252.6 255.2 259.6 267.4 277.9 288.4 298.6 310.5 322 333.3 345.5 358.8 372.2 385.5 394.9 403.2 411.8 420 428.2 437 448.4 461.2 476.2 491.6 505.2 517.9 530 539.8 544 541.9 536.7 530 518.5 505 491.9 480.3 466 450.2 430.5 409.1 389.5 373 361.2 350.9 344.2 337.6 316.6 291.7 274.9 288.7 315.2 342.9 369.7 394.7 417.7 438.7 457.5 472.2 487.2 499.3 503.8 502.1 493.4 481.3 463.9 443.3 419.5 392.5 366.8 341 315.7 289.3 264 240.3 218 217.6 242.1 270.4 301.3 326.9 349.4 368.5 382.4 395.3 406.1 413.9 420.5 425.3 427 424.8 421.7 415.1 408.4 408.2 409.7 412 414.6 416.7 414.2 407.5 393.2 374.1 360.9 355 349.2 373.9 399.5 422.6 440 450.4 457.4 462.7 466 467 466 464 462.2 460 457.1 454.1 451 448.5 447.3 446.1 446 448.9 449.2 446.3
180.5 186.2 190.1 191.9 192.1 190.6 187 178.8 165.9 169.6 191.4 209.1 217.2 226.6 235.2 243.2 253.3 263.1 272.6 282.6 287.6 275.1 285.1 305.2 320.4 332.4 344.3 356.1 370.1 386.5 401.5 413.9 424.3 434.2 442.6 446.6 447.6 446.4 442.1 435.2 427.4 419 408.5 397.4 385.8 373.6 359.9 347.6 337.3 326.1 312.5 299.6 283.9 272.2 260.8 249.7 238.2 229.2 222.6 215.4 208.7 202.4 196.7 189.8 187.9 211.4 220.9 231.1 242.3 249 248.8 248.1 249.1 251.3 256.1 265.2 276.7 288.5 300.1 312.8 324.4 335.6 346.9 359.8 372.5 385.4 392.7 399.7 410 420.3 432.4 447.1 460.5 473.8 488.6 503.1 514.9 524.6 532.4 538.9 540.9 537.5 532.6 525.5 512.1 497 485.3 474.2 463.2 449.9 432.5 409.8 387.6 366.2 352.2 341.3 335.5 332.2 315.9 293.2 271 282.9 307.1 334.7 364.3 390.9 415.6 438.4 457.9 472.7 486.4 496.7 500.7 497.2 489 475 455.8 433.7 409.2 382.5 357.4 331.9 307.1 280.6 255.5 229.8 209.9 223 250.4 277.3 303.1 326 345.8 363.3 376.1 389 400.3 408.7 415.1 418.5 418.5 415.6 408.7 393.7 382.2 383.7 384.5 383.9 389.7 395.7 395.1 388.5 373.9 358.1 338.5 329.3 342.3 368.9 393 416.6 435.3 448.8 458.4 465.5 469.9 472.3 472.1 471.5 470.2 467.7 465.2 462.4 459.9 458.4 457.8 458.5 461.4 464.2 466.1 464
171.4 178.6 183.2 185.4 186.2 184.9 181.2 174 162.7 172.5 192 204.1 213.8 222.7 232.5 242.7 251.9 260.4 268.8 279.3 279 262.4 278.8 296.7 310.7 324.2 337 349.6 366.7 385.6 401.6 414.9 425.4 434.5 442 445.2 443.7 440.8 434.1 425.6 416.7 408 397.8 386.6 376.4 363.7 351.1 339.4 326.6 314.4 301 287.5 276.2 265.5 255.2 243.8 234.7 229.7 227 223.6 214.3 206 200.4 187.6 189.3 213 222.3 231.3 239.1 244 241.9 238.9 237.8 239.9 246.2 259.4 272.2 285.4 298.3 312 323.1 331.7 340.8 350.8 363.3 376.2 384.2 391.1 401.4 412.4 427 445.3 464.4 482.1 498.3 512.5 522.8 529 532.2 536.3 535.9 533 528.1 520.2 506 493.1 476.5 463.7 453.4 441.2 425.1 403.4 377.6 352.6 334.5 324.9 320.1 318.8 308.9 289.7 268.2 276.9 299.1 327.4 357.1 385.3 410.7 433.5 449.7 466.1 482.4 491.9 494.9 490.4 481.6 465.6 445.2 422.9 398.7 374.2 349 323.7 297.8 271.7 247.5 226.3 208.4 227.5 252.7 276.7 295.6 315.3 334.6 350 363.9 380.6 394 404.5 410.5 413.7 412.3 408 398.1 377.3 358.5 358.9 359.4 355 366.7 374.9 376.3 369.1 355.7 340.5 322.1 315.4 338.1 363.7 388.1 411.2 431.6 447.3 458.4 467.1 473.4 477.1 478.6 478.4 477 475 472.9 470.1 467.9 465.8 465.6 467 470.7 475.2 477.5 475.6
164.2 166.6 169.6 173.5 177.2 178.2 175.5 171.1 162.2 165.7 185.3 199.3 208.4 219.2 230 240.8 249.4 256 262.6 272.2 268.9 252.2 270.2 287.1 300.1 314.2 329.8 345.9 365.9 384.3 400.6 413.7 425.2 433.8 440.4 442.9 441 436.5 427.6 416.8 406.9 397 384.9 374.2 364.1 352.2 341.1 327.5 313.5 302.8 292.7 280.9 269.7 259.1 249.4 244 238.7 235.2 232 228 219.2 210.3 204.4 185.1 188.8 206 220.7 228.2 232.9 232.7 227.6 221.6 221.2 225.6 234.6 248.2 263.3 279.2 293.8 307.4 317.8 324.5 330.3 337.4 348.4 360.3 369.5 377.1 389 403.8 421.6 442 464.2 486.1 505.4 519.8 527.3 529.9 530.9 531.6 530.5 528.2 523.3 513.3 502 485.6 472.4 456.9 440.7 425.3 412.2 389.3 363.5 340.1 320.9 310.2 303.7 302.2 296.8 280.1 264.4 274.7 298 324.8 353.9 381.2 407.5 430.7 448.6 463.3 480.5 488.5 489.6 485 474 455.3 433.6 411.5 389.6 366.8 341.4 316.9 290.1 263.6 239.6 217.9 209 225.1 244.1 260.4 277.5 300 319.5 332.9 351.9 374.8 391.4 401.8 408 410.8 408.1 401.8 390.6 372.3 346.1 335.9 335.3 330.4 347 355.4 357.2 350.3 338.2 321.8 302.9 306.1 333.7 359.8 384.5 408.2 429.1 445.7 458.3 469.4 477.1 482.1 484.2 484.7 483.8 482.2 480 477.5 474.1 470.9 470.2 470.5 473.6 478 480.4 479.7
159.1 157.4 157.1 158.1 160.6 165 167.5 167.7 161 159.8 179.3 195 205 216.4 228.2 238.1 245.1 250.3 253.7 260.8 255.4 242.8 262.9 278.4 289.6 303.4 324 344.1 364.4 382.6 398.2 410.8 423.3 432.3 438.9 440.2 437.7 431.5 421.3 409.9 398.5 386 371.8 359.7 349.3 339.9 328.2 315.9 304.2 296.6 286 274.1 266.7 260.3 254.8 248.7 243.5 238.1 232.7 227.4 220.2 211.4 205.4 183.3 186.1 192.6 210 221.8 225.4 220.3 209.4 210.7 215.4 221.4 228.9 238.8 253.5 269.9 284.6 297.6 309.8 316.6 320.6 326.4 337.7 350.2 361.6 374.3 389.8 407.4 426.2 447.3 469.5 491 510.2 521.9 526.5 526.9 526.7 525.8 525 522.6 516.5 504.4 492.7 481.2 465.5 450.5 438.2 419.8 387.4 365 342.3 323.6 310.5 297.1 286.1 285.7 281.8 263 262 276.7 299.7 325.4 352.4 380.4 407.3 430.4 449.3 461.2 478 486.8 488.1 480.1 465.7 445.3 422.6 401.5 381.9 359.4 334.5 310.1 282.6 256.6 233.6 211 211 233.7 257 274.7 289.3 301.6 318.2 338.1 357.3 377.1 390.7 400.8 407.2 408.4 404.2 396.2 385 370.2 347.3 321.3 311.4 311.6 327.2 336 338 332 319.9 302.4 288 304.1 332.7 358.1 382.6 406.4 427.9 444.2 458.5 471.2 480.6 486.9 489.7 490.6 490.3 489.2 486.8 483 478.7 473.9 470.4 468.4 468.7 471.9 472.4 471.4
155 154.2 153.1 152.3 152.6 153.8 156.5 161 157.5 158.1 176.6 190 201.8 215.3 227.6 236 241.1 242.8 243.4 245.4 238.2 237.2 255.9 266.8 278.4 299.9 321.4 342.6 363 381 396.6 410.2 421.7 431.4 437.6 438.3 435.5 430.4 420.1 406.6 393.4 378.7 362.5 350.2 341.2 331.2 320.2 310.6 298 291.9 286.5 279.7 272.2 265.1 258.4 251.4 244.8 239.1 232.6 226 218.6 209.4 201.4 182.8 185.2 185 191.3 209.3 213.6 205.5 201.8 210.3 217.3 222.7 228.5 236.5 248.7 261 273.5 286.1 297.7 308.3 315.7 327.6 343.4 358.2 372.5 388 404.3 420.9 439.6 459.4 478.5 497.1 512 520.1 522.8 523.4 523.2 521.9 519 515.3 507.6 493 482.2 472.5 457.5 444.8 432.8 416.2 395.4 370.8 347.3 323 301.7 289.3 277.3 272 265.6 257.4 262.7 279.7 302.3 330 357 384.5 411 433.1 450.7 462.8 476.6 485.6 486.2 473.6 458.2 438.1 417.7 397.8 376 353.4 328.5 303.6 277 252.8 230.1 208.2 211.7 238.6 265.4 288.6 308.4 323.7 338.9 353.9 369.3 383.6 395.1 404.4 408.5 404.8 398.7 388.4 378 365.1 346.5 323.7 297.9 292.5 306.8 315.3 316.9 313.5 301.1 284.7 279.7 305.1 332.9 357.9 382.4 405.4 426.4 442.5 457.9 471.3 482.4 490.1 494.2 496.1 496.6 495.7 492.8 487 481.2 473.5 467.1 462.4 460.8 460.3 459.7 459.3
153.1 153 152.4 151.6 151.8 152.7 153.9 155.2 155.4 156.7 171 184.1 197.3 211.7 225.9 234.1 236.8 234 229.4 226.3 220.6 230.4 243.1 259.2 278.7 300.1 321.1 342.7 363.1 380.4 395.8 408.9 420.6 430.7 437.5 439.5 436.6 431.5 422 408.8 392 375.2 358.9 347 337.6 328.7 318.3 311.1 306.1 300.1 293.5 285.5 277.2 269.1 261.3 253.7 246.8 240.1 232.8 225.5 218.2 210 201.7 187.6 184.7 183.9 183.9 192.4 201.1 194.8 202.3 210.7 217.3 223.6 231.4 240.2 252.7 265.6 276.4 286.1 295.7 309.2 324.1 342.9 359.8 374.8 389.4 404.4 420.3 436.7 453.9 471.8 488.5 501.5 511.2 516.2 518.2 519.6 519.6 517.2 511 505.3 494.9 481.8 472.8 463 448.8 435.3 423.6 408.6 392.7 378.5 358 331.5 305.6 285.2 272.3 261.7 254.4 254.2 270.2 289.5 311.8 338.7 365.3 391.4 415.6 435.8 451.5 464.2 476 485.5 486.2 473.5 456.3 436.3 413.9 393.9 372.1 349 322.7 298.3 272.6 249.4 226.4 203.5 212 240.5 268.5 295.2 318.6 338.3 353.9 368.2 380.7 391.8 401 407.7 406.1 400.7 391.7 380.8 368.7 355.9 340 320.4 298.7 278 286.6 295 296.8 294.8 283.4 271.3 282.3 310.1 335.5 359.9 383.5 405.3 424.5 440.5 455.8 469.2 481.6 490 496.1 499.8 501.5 500.5 496.2 489.6 481.2 470.6 462 455.8 449.4 446.8 448.3 446.6
152.6 152.6 151.9 151.3 151.7 152.6 153.5 154.4 154.3 155.6 164.1 176.2 189.3 203.5 218.3 228.7 232.2 221.3 211.6 209.3 215.4 231.8 248.6 267.1 284.2 302.5 323.5 343.5 362.8 380.1 394.6 407.4 420.2 431.1 439.1 441.5 439.5 434.6 425.3 412.2 394.8 378.2 361.4 348.3 339 331.2 324.7 319.1 314 307.8 301.2 294.2 285.9 275.8 267 258.4 250 241.8 235 227.9 220.4 212.5 204.9 195.5 181.2 183.2 182.8 182.6 186.8 190.3 200.1 208.3 214.7 222.8 232.8 245.4 260.3 275.4 288.4 299.8 312.8 327.5 344.2 361.1 375.8 390 404.2 419.8 435.9 451.5 467.4 481.3 492.9 500.4 504.6 508.8 511.3 513 513.7 509.5 502.6 493.8 482.9 473.1 465 453.5 438.7 422.6 409.9 397.1 384.9 375.6 363.9 337.6 310.5 285.2 269.6 256.2 249.8 262.2 283.8 304.3 326.6 349.9 372.5 396.1 417.1 434.9 450.6 463.4 475.3 483.9 483.8 471.9 455.2 434 410.6 389.6 369.4 345.5 319.6 293.9 269.4 246.5 223.3 201.1 214.3 242.1 270.4 297.2 321.7 344.4 361.5 376.8 388.4 397.5 405.4 407.7 402.7 394.9 384.9 372.1 358.4 345.2 329.4 311.5 291.9 271.7 269.6 275.9 278.1 277.5 269.9 262.2 287.8 314.5 339.3 363.2 385.2 404.6 421.7 436.7 451.6 464.9 476.8 485.8 493.9 499.6 503.9 502.7 498.2 490.3 479.1 466.6 457.3 449.3 440.7 436.6 436.2 435.1
152.5 152.2 150.8 151.1 151.5 152.2 152.7 153.4 153.3 153.4 155 164.7 176.6 188.4 202.2 215.8 222.5 210.1 195.3 203.2 217.9 231.9 248.1 266.2 285.2 305.5 326.1 345.5 363.4 379.3 393.6 406.8 419.5 431.3 440.2 444.9 444.6 439.8 429.6 416.3 399 383.5 368.1 354.9 345.6 338 332 327.2 322.4 317.1 311 303.4 294 284.9 275.4 265.1 254.4 245.9 238.7 231.7 225 218.2 211.2 203.1 194 180 181.6 182 182.1 184 192 203.6 210.6 220.4 234.3 249.3 266 282.4 299.8 315.1 329 345.4 360.5 373.6 387.1 401.5 416.9 432.8 448.4 462.2 473.4 482.9 489.3 492.3 494.1 497.7 501 504.9 505.9 501.4 493.9 484.2 474.9 464.7 454.6 442.2 427.6 410.7 393.8 380.7 373 370.7 367 345.2 315.1 285.4 265.7 249.5 247.5 264.5 287.9 310.7 332.2 352.6 373.1 392.6 412 429.7 446.9 462 472.2 479.9 479.4 468.8 451.8 430.2 408.8 387 366.4 343.7 318.6 294.1 268.9 245.1 221.9 200.8 213.8 242.5 270.7 297 321.8 344.5 363.5 381 393.3 400.7 406.6 405.5 398.8 388.1 375.6 361.7 346.9 330.9 315.6 299 282.3 264.8 256.1 259.6 261.1 261 255.5 265.8 293.4 318.9 343.1 365.6 384.9 402.3 418 432.1 445.3 456.9 468.1 478.3 487.5 495.8 501.8 502.5 499.8 490.5 477.1 464.6 453 444 436.2 429.6 427 425.4
152.6 151 150.7 151 151.3 151.5 151.9 152.3 152 151.3 151.5 152.9 161.8 173.7 185.6 197.8 208.6 196.7 190.8 204.6 214.6 227.1 242.4 261.7 281.7 303.4 324.8 344.8 361.6 377.3 391.1 403.2 416 428.4 440.3 448.3 449.3 443.7 432.6 418.9 404.2 390.4 376.2 363.5 353 345.9 340.8 337.3 332.9 328.2 322.8 314.2 304 294.6 284.6 273.2 261.1 251.4 244 236.9 230.1 223.4 216.7 210.7 202.2 192.9 181.3 181.5 181.5 181 183.6 196.2 204.4 217.6 234 251.6 268.9 286 300.6 319.3 337.5 354.5 368.8 382.7 396.5 411.4 427.2 442 454.8 464.5 468.5 471.4 474.2 476.9 478.4 482.2 487.7 494.2 498.7 495.3 488.1 478.1 467.8 456.5 441.3 425 412.2 400.5 381.5 362.4 356 362.1 366.1 347.7 318.8 288.5 264.9 246.9 245.2 262.8 284.9 306.4 327.3 348.9 368.5 387.6 407 425.7 444 459.7 467.7 473.3 472.9 461.1 445 423.8 404 383.5 363.9 342.5 320 296.2 269.1 244.1 219.4 199 214.8 241.6 269 294.7 318.2 340.4 360.2 377.9 390.8 399.7 403.3 400.6 392 379.5 367.1 352 333.9 316.3 299.8 284.8 271.3 255.9 242 243 244.3 244.4 250.6 273.9 299.6 322.7 345.6 366.3 383.1 398.4 411.2 423.3 435.1 446.4 457.2 467.8 477.9 487.8 495.1 499.6 498.4 488.1 475.3 465 452.9 442.8 432.8 423.4 418.4 415.6
151.5 150.3 150.8 150.9 150.6 150.7 151.1 151.3 150.8 150.2 150.3 150.1 150.6 157.1 170.5 182.3 192.8 183.3 190.1 200 210.4 220.6 236.8 256.9 276.7 298.2 320.4 340 356.6 371.7 384.4 397.7 411.7 425.2 438.2 447.7 450.6 443.9 432.9 421.9 410.6 397.9 384.3 372 363.5 356.3 351.7 348.8 345.5 341.7 337 329.3 320.3 309.3 296.5 283.9 271.4 259.1 250.3 242.7 235.1 228.1 221.4 215.4 209.3 201.8 191.1 182.2 180.2 180 180 187.6 199.8 213.4 231.8 250.2 268.6 286.4 300.5 318.4 337.7 356.3 373.8 389.3 404.1 418.9 433 445.3 450.5 449.6 447.6 448.4 450.7 453.1 456.5 462.4 471.9 483.2 490.6 490 484.6 476.2 463.6 448.5 426.5 406 395.9 385.8 366 345.5 335.9 352.2 363.5 349.9 321.9 290.7 266.6 245.9 242.4 256.7 277.7 299 321.8 344.6 364.8 384.7 404.8 423.6 441.9 457.3 463.9 465.5 461.7 450.2 435.2 417.5 398.9 380.3 361.5 342.8 321.5 296.2 269.9 245 219.4 198.1 212.4 237.9 263.2 287.4 310 331.6 351.3 368.3 381.7 392.7 395 390.1 381.4 370.5 358 342.3 322.4 301.6 284 270.1 258.7 244.1 232.3 228.2 232.7 244.1 262.8 284.9 306.1 327 347.6 366 379.8 391.4 402.4 412 421.9 433.7 444.5 455.7 466.5 477.3 486.4 493.6 494 485.1 474.2 464.1 454 442.6 431.9 421 414 407
149.7 149.5 149.4 149.8 149.4 149.2 149.4 149.3 148.7 148.3 148.1 147.5 147.2 146.6 144.7 155.9 177.9 165.6 187.3 197 206.5 216.3 230.7 250 270.1 291.5 312.6 331.3 346.3 361.3 375.1 390 404.5 418.2 430.7 441.7 444.7 439.9 433 425.1 415.7 403.5 393.9 386.2 377.1 370.3 365.6 361.9 359.6 356.1 350.7 342.9 333.7 322.9 308.8 294.6 280.5 267.5 256.1 247.5 239.4 232.4 225.5 218.5 212.4 205.9 198.5 187.3 180.8 179.7 179.3 181 195.7 210.1 229.4 249.3 267.4 284.8 299.7 317.7 336.8 354.6 373.7 391.8 407.1 419.8 429.8 436.4 434.4 425.9 423.9 424.3 425.7 427.3 432 442.8 457 471.4 481.6 485.6 482.2 475.2 463.3 443.7 418.3 392.1 375 365.3 348.3 329 322.5 342.8 359.2 352.4 327.7 296.2 269.4 249.2 239.7 251.2 271 293.3 316.7 340.4 361.2 381.2 402 422.2 440.4 455 460.4 457.2 450.3 437.8 424 408.6 391.9 374.8 358.6 342 322.3 298.5 272.7 246 222.1 196.9 206.2 229.4 252.4 275 297.8 319.5 339.7 356.2 370.2 380 382.3 378.9 372.7 361.3 348.8 331.8 312.8 292.5 273 254.6 241.7 229.5 220.9 227.5 244.7 260.2 278.9 296.5 314.3 331.9 349.2 362.3 373.8 382.1 390.5 399.5 407.5 418.3 430.2 442.6 454.2 465 475.4 483.9 486.5 479.8 473.5 464.5 453.9 442.2 431.2 418.6 411.2 403.1
148.4 148.5 148.4 147.4 147.7 147.2 147.5 147.4 148 147.5 147.2 147.5 146.1 146.5 146.4 149.5 159.5 175.6 185.7 194.5 203.5 213.2 225.7 241.5 260.6 280.8 299.8 318.4 333.9 348.6 363.8 379.3 394.4 408.6 419.6 430.2 435.3 435.9 434.9 427.4 416.6 408.6 406.1 402.5 393.9 386.2 379.6 375.4 372.1 368.7 363.3 356.1 345.4 334 321 306 288.9 274.8 263 253.6 244.6 236.3 229.3 222 215 208.1 201.1 192.4 180.6 178.3 179.3 179.1 191.2 206.1 225.7 245.8 262.2 279.1 296.3 313.7 330.9 347 366.6 386.3 401.7 412.4 419.7 421.7 416.6 407 402.9 401.1 401.1 403.3 413.3 428.6 444.3 459.2 473 480.1 479 472.1 463.9 446.6 422.5 397.1 371.9 351.4 331.9 313.5 307 319.8 337.9 348.1 328.1 301.6 276.6 255.8 238.9 245.3 265.3 288.4 312 336.1 357.2 378 398.8 419.5 439.3 452.9 454.7 448.3 438.3 426.1 412.6 397.7 383.3 368.8 355.3 339.4 321.6 300.9 276.8 250.5 226.1 202 197.8 217.6 239.5 262.7 283.5 305.3 324.6 341.8 356.8 366.7 371.5 371.4 363.7 352.4 338.8 321.8 303.4 283.4 263.3 243.8 227.8 215.4 220.7 238.8 257 272.5 290.4 306.7 322.2 336.6 349.7 358.7 366.8 372.5 378.8 386.2 393.1 402.6 415 427.9 440.4 451.6 462.3 470.3 476.1 476.7 469.4 462.3 452.7 441.2 429.6 418.1 410 403.1
148.6 148.6 148.5 148.3 147.7 147.6 146.1 146.1 147.7 147 146.4 144.7 146.2 146.1 146.2 145 157.4 174.2 182.4 191.2 200.8 210.9 221.7 235.1 250.6 267.2 284.7 303.3 320.6 337 353.5 370.4 385.2 398.7 410.2 419 426.5 432 432.7 424.6 421.7 421.1 422.3 419.5 413.2 405.5 397.2 389.5 384.1 380.9 377 370.2 357.2 345.8 332.4 315.8 298.6 284.6 273.3 263.7 253.5 242.3 233.2 225.1 217.3 210.1 203.2 194.2 180.4 179.2 178.5 178.2 186.5 202.1 221 239 254.8 270.1 287.1 303.5 316.4 331.9 351.8 372.1 387.5 398.2 405.9 406.9 398.8 386.3 381.3 379.5 379.9 385.8 402.9 419.6 435.6 450.7 465.1 475.6 475.6 470.9 464.5 451.6 429.7 404.6 379.3 355.7 333.5 309.9 289 290.3 315.9 333.4 319.6 299.2 278.7 264.6 245.6 241.1 260.5 283.6 307.4 332.2 353.9 374.7 395.5 416.6 437.9 450.2 449.6 440.2 427 414.7 401.1 387.7 373.7 361.5 349.1 334 318.7 300.8 281 259.6 234.9 211.4 194.4 205.8 225.6 248.2 269 289.3 309.2 327.2 343.7 356.5 363.4 361.9 353.5 342.7 328.5 312.3 294.7 273.9 253.5 233.7 216.3 212.1 230.7 251.5 270.4 285.5 300.3 314.9 328.1 340.1 349.4 355.2 359.8 363.3 367 370.9 376.3 386.2 399.4 412.4 425 436.7 447.8 457.5 465.9 467.8 463.8 456.3 446.1 434.7 425 416.1 409.9 408.4
148.8 148.7 148.6 148.1 148 147.8 147.6 147.4 146.1 146.5 146.4 146.6 147 147.1 146.5 144.7 146.6 166.5 178.5 188.6 199.3 209.3 219.2 230.6 243.5 258.3 275.9 292.9 308.1 326.5 345.2 361.6 376.2 390.2 401.3 409.2 416.9 423.8 425.6 428.2 432.5 435.3 436.2 434.3 430.8 426.8 419.4 409.1 400.5 394.5 390.5 383.3 370.5 356.9 343.2 326.4 309.6 297 287.2 276.4 264.2 250.6 237.4 227.6 218.5 210.9 203.3 195.4 179.3 178 178.3 177.8 183 198 214.5 230.9 245.1 257.9 272.4 285.9 299.5 314.8 332.8 350.4 365.3 376.3 383.7 384.9 377.4 366.4 361 360.2 361 374.6 394.4 413 430.1 445.8 461 473.1 474.5 470.5 465.7 455.7 434.8 408.8 384.7 360.7 336.9 311.7 288.2 275.7 298.2 315.5 303.4 284.6 266.4 254.8 241.6 237.6 256.1 279.1 302.9 328 350.5 371.4 392.9 415.8 438 449.2 445.8 432.4 417.1 404 391 378 364.4 352.7 340.5 327.1 312.4 298.3 282.5 265.5 244.4 221 195 194.4 211.9 232.9 253.6 273.6 292.7 311.3 330.4 345.4 353.7 352 343.8 331.9 318.7 303.5 286.2 265.9 246.2 224.9 205.8 217 240.1 260.5 278.2 293.6 307.6 320.6 331.8 341.8 347.2 351.2 353.7 354.1 353.4 354.8 358.4 369.9 383.6 397.1 410.4 421.4 432.1 444 452.2 455.8 452.5 445.8 434.1 425.2 415.6 412.6 413.6 415.9
148.7 148.8 148.1 148 147.9 147.8 147.8 147.5 147.2 147 147 147.4 146.9 146.9 147 144.7 147 157.1 175.1 184.8 193.9 205.7 215 225.7 238 253.3 271.3 289.7 306.1 323.3 340.2 355 369.4 382 392 399.7 407.1 414.7 421.4 429.6 436.5 441.4 443.5 444.7 442.3 438.9 435.8 430 421.9 412.9 404.6 396.2 382.4 368.5 352.4 336.2 322.2 312.6 303.3 289.7 275 258.6 241.7 230.2 220.3 211.6 203.3 195.5 179 176.7 177.5 177.1 181.4 193 206.3 219.6 232.3 244 254.9 265.6 278.7 294.2 310 325.8 339 349.1 356.3 358 354.5 349 343.8 342.4 357.6 373.1 390.5 409 426.4 443.5 459.2 470.9 473 471.2 465.1 455.8 436.9 410.6 384.3 358.9 333.6 309.1 284.9 263.9 280.5 294.8 282.6 263.6 249.2 240 230 237.7 255.2 277.4 300.3 324.9 347.8 369.5 393.5 417.7 440.4 450.8 445.3 431 414 397.2 382.8 369.2 355.8 342.5 329.5 315.4 302.1 290.9 277.6 265 249.7 231 210.9 190.1 198.5 217.1 237.1 257.1 276 295.2 314.6 331.5 340.6 340.2 332.7 321.7 309.1 295.2 278.7 259.6 239.3 216.7 201.7 222.2 245 265 282.7 297.9 311.1 323 333.8 340.7 343.1 344.7 346.8 347 344.4 340.4 341.8 352.4 367.1 382.1 394.9 406.4 419.3 430.8 437.5 442.6 441.1 434.1 423.9 414.2 410.7 414.1 416 418
151.3 151.2 150.6 150.7 150.5 150.5 150.4 150.2 150.5 150.3 149.3 147.8 146.8 146.2 146.6 144.7 146.2 147.5 168.2 180.8 194.8 206.2 215.3 225.6 238.1 255 273 290.8 309.3 325 338.1 351.4 362.5 372.5 381.1 388.6 395.3 404 413.8 424.8 434.6 443.2 448.5 451.5 451.3 449.9 448.1 445.4 440.8 433.3 422.2 411.6 397.1 379.5 359.2 347.2 335.3 327.7 318.6 303.7 288.1 265.6 246.3 232.7 221.6 212.5 204.4 196.9 181.4 177 176.7 176.6 181 188.9 195.9 205.3 216.4 226.2 235.4 245.2 257 271.5 286 299.5 311.7 321 326.9 329.3 331 330 327.8 346.8 362.5 378.3 394.9 411.9 429 444.7 458.4 468 471.8 468.9 462 451.7 433.6 410 383.4 358 332.5 307.1 282.9 262.1 261.9 275.7 264.4 246.9 233.7 227.9 230.9 242.8 263.8 287.2 310.5 333.1 355.7 376 399.6 421.9 443.3 453 447.6 433.1 416 398.1 381.2 364.3 349.4 334.8 318.8 302.3 287.8 275.3 265.5 257 248.4 237.3 221.9 202.4 189.7 201.1 219.9 238.6 256.9 276.5 295.4 310.8 321 324.2 320 311.4 299.8 286.6 272.4 253.9 232.2 209.8 202.3 222.9 243.8 263.9 283 298.9 312 322.9 331.7 336.5 336.4 336.3 339.3 338.8 334.3 325.7 327.1 337.6 352.2 367.6 379.7 392.5 405.1 415.5 422.5 427.7 429.1 420.3 411.8 405.5 409.1 411.5 411.8 413.2
151.9 152.7 152.7 153.2 153.2 152.9 152.6 152.3 152.1 152.1 151.3 149.6 148.5 147.6 146.4 146.4 145.9 147.2 169.4 184.4 197.8 207.8 217.6 228 239.2 255.5 274.1 291.4 308.5 323.7 334.6 344.9 354 362.5 369.4 376.2 383.5 392.2 403.8 416.6 429.2 440.8 448.3 453.2 455.3 454.8 454 453.7 452.3 449.8 440.9 427.5 409.2 389.4 372.9 360.2 350.1 340.4 330.7 315.9 296.6 271.7 251.4 236 223.5 213 205.4 198.5 187.7 176.4 176.1 175.7 180.4 188.1 198 203.1 205.8 209.1 215.9 224.7 235.8 248.6 260.7 273.3 285.1 294.8 300.1 303.4 306.1 316.6 335.7 352.6 369.2 385 400.7 416.9 433.1 446.4 458.1 465.9 468.2 465.3 458.2 445.1 426.6 404.4 380.1 354.8 329.8 304.6 279.9 261 247.3 256.5 247.2 232.1 222.7 227 237.3 252.3 275.1 298.6 321.3 344.3 367.3 385.5 405.8 427.5 445.9 455.3 451.3 437.1 418.5 399.7 382 364.9 348 331.2 314.2 296.7 279.6 261.9 248.8 239.8 233.8 229.2 224.8 211.5 191.5 188.8 200.6 215 233.6 255.4 272.7 285.8 296.1 303 304.2 299 288.5 277.2 266 249 228.6 206.1 200.4 221.6 241.8 262 281.1 297.2 310.3 320.6 327 329.3 329.1 329.2 331.2 330.1 323.4 314.3 312.5 323.7 338.3 351.6 363.2 375.8 387.8 398.7 408 412.1 411.9 402.2 398.2 398.7 403.6 400 402.8 404.6
154.2 154 153.5 153.3 153 152.5 152.6 152.1 151.5 151.5 151.4 151 150.7 149.2 147.4 146.5 144.7 146.4 165.2 184.2 200 210.1 220.3 230.1 239.9 253.7 271.7 289.1 304.1 316.3 327.4 335.8 344.5 352.5 359.7 366.9 373.9 382.9 393.8 407.3 422.1 433.8 442.7 449 454.6 457.5 458.8 460.2 460.9 461.2 454.7 440.9 421.3 403.1 387.8 374 364.1 355.1 341.5 327.4 304.3 277.7 255.8 239.6 225.7 214.3 206.8 199.9 191.8 174.5 175.2 175 178 188.3 203.6 215.1 219 224.8 231 233.9 237 242.4 249.5 255.2 264.3 278.7 292.9 304.5 315.7 331.2 346.4 361.2 376.5 391.6 406.6 421.4 435.3 447.2 458.2 464.2 464.1 460.2 451.4 435.9 417.1 395.6 371.6 346.6 321.6 296.7 272.9 256.3 243.4 238.1 231.2 220.8 222.2 231.9 245 262.9 285.5 308.6 331.1 354 376.3 394.6 412.3 432.4 449.1 459.5 456.5 440.1 420.8 401.5 383.4 366.9 351 336.2 320.8 303.1 284.6 266.8 251.6 238.4 225.5 215.5 208.7 204.7 198.2 187.7 185 191 210 231.8 246.3 259.1 269.7 278.4 284.2 283.9 275 266 257.3 245.3 227.7 206.2 195.4 217.9 238.8 258.5 277.3 294.3 308.2 316.8 321.1 323.1 323.6 322.3 323.5 320.8 314.6 305.5 300.6 311.2 324.7 335.7 346 358.1 370.7 382.8 392.3 396.4 391.5 386.4 388.4 391.8 389.6 388.4 389.9 395.1
160.7 160.1 158.7 156.6 153.6 152.1 152 151.9 151.1 150.7 150.8 151 151 150.1 148 146.8 145.6 146.1 156.8 181.9 198.9 210.1 220.7 230.5 240 252.2 267.1 282.3 295.8 307.3 318.1 326.6 334.1 341.4 349 356.4 364.4 374.5 386.6 400.1 412.5 424.3 434.5 443.2 451.1 456.1 459.8 463.8 466.9 468.2 463.3 452.8 435 417.4 405.9 393.4 384.1 374 357.1 337.7 313.1 284.1 259.9 242.7 228.3 216.2 208.1 200.7 192.8 178.6 175.1 174.6 174.9 183.3 202.3 220 227.4 233.8 239.8 245.3 252.5 261.3 272.3 283.9 298.9 313.7 327.8 331.9 331.1 343.3 357.9 372.6 386.7 401 412.4 424.1 435.8 448 457.1 462 460.6 454.1 441.2 424.6 407.3 384.8 361.2 337.4 312.9 288 266.4 252.2 239.5 229.4 222.4 218.2 224.7 238.4 253.1 272.6 295.4 318.5 341 363.9 385.3 403.2 420.8 438.4 454.7 466 463.3 446.8 425.2 404.2 387.5 372.9 358 343.4 329.1 312.1 293.7 276.3 260.5 246.3 233.7 221.7 213.2 209.1 201.8 196.4 185.7 182.9 190.1 205.7 219.4 230.8 241.8 251.9 261 264 258.9 252.7 248.3 241.9 227 206.6 188.4 212.6 234.7 255.2 274.4 291.1 302.9 311.1 315.1 318.6 318.3 315 313.7 311.2 305 297.2 290.1 299.1 311 321.4 330.6 342 354.3 367.2 375.1 377.6 374.1 373.9 377.4 378.2 374.3 373 375.8 384.9
171.1 169.6 166.8 162.8 157.4 152.5 151.1 150.8 150.7 150.4 150.6 150.9 151.1 150.7 148.7 146.5 146.2 144.7 147.1 174 191.6 206.6 219 229.8 239.9 250.9 263.1 276.3 288.6 298.7 307.2 315.5 322.2 329.1 336.9 345.7 354.2 364.1 378.7 392.3 403.2 414.6 424.2 435.7 444.6 451.2 458.2 466.2 470.7 472.9 469.5 461.6 448.7 435.6 426 414.3 400.7 387.9 369.4 347.2 321 291.9 264.6 245 230.3 217.5 208.8 201.3 193.6 179.8 174.9 174.4 174.1 179.2 197 216.4 227.8 233.9 241.6 251 262.8 275.1 289.9 304.7 321.8 336.8 350.6 353.3 348.5 357 369.6 383.6 397.5 409.1 418.2 426.4 435.3 446.6 455.7 459 456.3 447.3 434 417.5 397.8 373.9 349.6 326.3 303.6 279.7 260.6 246 232.7 224.2 218.1 217.8 229.7 244.9 261.7 282.8 305.3 328.3 351.1 373.3 393.9 411.9 429.6 446.5 461.9 473.2 470.2 454 432.6 412.1 394.8 380.4 365.9 351.5 337.2 321 302.9 284.8 268.2 253.2 241.7 230.6 228.3 227.6 222.2 214.3 201.9 188 181.4 182.3 193.3 204.3 214.6 225 236.3 241.9 239.5 238.5 239.3 236.5 222.1 203.1 183.4 208.5 230.2 251.3 271.8 287.5 297.4 305.8 312.8 313.7 310.8 307.3 303.9 300.3 296.2 287.9 281.5 287.9 298.1 307.6 316.8 326.3 338.3 350 356.2 358.2 357.6 358 363.5 358.3 358.5 360.1 366.4 376
181.6 177.7 171.8 165.6 160.5 155.1 151 150.5 150.3 150.1 150.3 150.9 151 151 150.5 147.7 146.8 144.2 145.4 165 182.1 199.5 215.1 228 239.9 250.7 261.4 271.8 282.9 294.1 302 306.5 312.1 318.6 326.3 335.1 345.3 357.2 369.4 382.6 394.9 405.9 415.6 427.1 438.1 446 457.6 467.3 472.9 476.2 475.8 470.1 459 448.8 440.9 429.8 416.1 402.7 381.2 356.5 328.8 299.2 270.9 247.2 231.9 218.8 209.9 202.3 194.8 182.1 172.9 173.5 173.3 177.1 191.5 210.2 223.3 231.2 239.9 251 264.1 280 297.5 312.9 330.4 347.9 363.5 370.5 367.6 374.1 384.3 396.1 407.6 416 422.2 428.5 436.2 445.6 452.6 455.8 452.3 440.8 427.1 409 385.8 361.7 338.3 314.4 291.3 270.2 253.3 238.3 225.7 217 208.5 222.2 237 252.5 270.8 292.8 315.1 338.2 360.9 383.1 403 420.7 438.6 455.4 470.3 480.6 477.9 462.2 442.2 422.7 404.7 388.7 373.4 359 345 329.1 310.9 292.6 275.8 260.3 248.5 242.6 245.7 245.7 241.9 233.3 218.6 203.5 190.3 181.1 178.1 179.7 187 197.6 209 217.3 218.6 219.6 225.2 227.1 217.1 199.7 179.7 205.7 227.1 248.7 269.1 283.2 294.5 305.6 310.7 309.1 304.9 300.1 296.6 292.1 286.9 280.2 274.8 277.1 284.4 294.1 303.7 312.7 323 331.5 338.4 341.2 343 343.4 343.6 344.4 342.9 348.8 358.6 368.4
192.7 185 174.8 167.3 162.8 158 152.1 150.5 150 149.7 150.5 151 151.3 151.1 150.6 148.9 146.6 145.9 144.1 162.9 186.1 201.3 215.5 228.7 241 252 263.3 271.7 278 287.5 296.3 300.9 305.2 310.8 317.7 327.3 338.8 350.5 362 373.9 385.7 396.6 407.4 420.6 431.6 442.3 456.5 467.4 474 479.5 481.9 478.7 470.5 460.1 452.2 440.3 425.3 409.2 385.8 360.6 332.5 302 274.7 250.1 233.6 220.9 211.5 203.5 195.3 186.4 173.9 172.7 172.6 174.5 187.5 201.6 214.1 224.5 233.9 246.2 260.4 278.2 296.2 314.6 334.4 354 372 381.7 384.4 392.3 401.5 408.8 415.3 419.9 423.9 429.8 436.8 442.9 447.3 450.3 444.6 433.3 418.7 397.1 373.1 349.2 325.7 302.1 278.9 259.6 242.7 228.2 217.2 206.8 215.6 229.3 244.8 260.9 280.8 303 325.5 348.2 370.9 392.4 412.4 430.9 449.1 464.5 478.3 487 485.1 471.1 452.2 433.8 415.9 398.7 381.8 366.7 352.1 336.4 318.7 300.7 283.9 267.8 257.4 258.3 262.5 263 260.1 251.2 237.2 221.9 208.2 196.2 184.8 178 175 174.4 181.5 191.2 194.1 197.5 204.2 207.7 206.4 193.9 177.1 203.2 226.7 248.1 266.3 281 295.6 304.5 307.6 304.9 299.3 295 289.9 285.6 281.3 273.9 268.3 267.6 273.1 281.2 289.6 298.9 306.8 312.9 320.6 327.6 328 329.3 329 328.8 331.4 339.2 351.9 362.3
200.1 189.7 178.4 169.9 165 159.9 153.9 150.3 149.3 149.5 150.7 151.1 151.4 151.1 150.6 149.8 146.7 145.7 144.1 162.9 191.1 207.8 222.9 237.2 249.4 258.2 265.1 270.1 274.9 281.8 288.4 293.3 298.4 304.2 311 321.6 333.4 343.7 354.7 365.5 376.1 388 399.3 412.4 425.3 439 452.7 463.6 472 480.3 485.6 485.3 477.2 468.2 460.2 447.6 427.8 406.9 385.3 359.1 331.4 302.1 275.6 252.2 236 222.9 213.1 204.9 196.8 189.2 178.1 172.7 171.7 174.4 185.3 197.5 209.7 220.6 230.4 241.4 254.4 273.2 293 312.5 334.3 356.6 376.3 390.8 399 405.5 411.3 417.9 422 425 428.6 431.9 435.6 437.7 439.7 440.2 435.1 423.7 405.7 383 359.1 335.5 312 288.4 266.4 248.7 232.2 218.6 207.1 210.8 225.6 241.5 256.3 273.4 294.6 316.1 337.5 358.9 380.7 401.5 422.2 441.8 458.2 471.7 484.2 492.7 491.5 479.5 463 445 427.7 409.8 392.4 375.5 360.1 344 326 307.5 290.7 276.2 270.5 274.8 279.9 282 277.8 268.8 256 242.3 228.7 213.3 202 190.2 180.7 175.5 170.9 170.9 171.5 173.9 178.3 184.1 190.4 184.5 179.4 202.8 226 248.3 265.8 281.5 295.7 304.4 301.7 298.1 293.9 289.8 284.2 280.1 274 267.4 262 258.9 262 267.9 275.8 285 290 296.3 305.3 310.5 315.6 314.1 314.2 315.2 321.1 330.8 343.4 356.7
204.2 193.4 181.4 172.8 168 162.8 154.8 150.4 149 149 150.1 150.8 150.8 150.8 150.5 148.8 146.3 145.7 144.1 166.1 193.6 210.8 226.4 243.2 254.3 260.6 264.5 267.4 270.6 274.5 280 283.9 290 297.3 304.6 314.4 324.5 334.9 346 357.3 368 379.4 391 402.1 417.5 431.6 444.8 456.3 466.3 476.9 485.9 491.6 487.1 474.3 461.4 446.1 426.4 402.5 379.7 353.5 326 298.8 273.2 253 237 224.7 215.2 206.4 198.2 190.5 182.4 170.5 171 173.5 184.1 197.5 208.9 219.9 231.9 244.6 255.8 268.9 288.9 310 332.1 354.7 376.6 395.1 405 409.3 417.4 424.9 430.5 433.4 436.1 436.4 435.9 435.7 431.7 429.5 422.8 410.7 393.5 370.3 345.9 321.7 298.1 275.1 255.8 238.5 222.5 209.6 203.8 220.3 239.7 257.8 274.7 292.3 310 330.2 349.6 368.8 388.8 408.8 428.2 446.8 462.6 475 486.1 493.8 493.6 482.6 464.7 446.7 430.4 414 397.6 381.8 365.7 349.2 331.3 312.6 296.3 285.4 287.9 293.2 297.9 299.9 295.5 285.4 273.2 260.5 246.8 231.6 219.9 207.6 197.1 190.2 183.3 178.9 173.6 168.7 166.8 165.8 169.3 172.1 180.4 203.6 226.4 248.4 266.1 282.4 296.5 301.9 298.2 293.9 289.9 284.9 280 274.8 268.1 261.6 255.6 251.7 252.4 257.4 263.9 269.4 276 284.4 291.7 297.5 300.1 300.2 300.6 305.2 314.8 326.3 339.9 355.1
207.9 196.5 184.4 175.1 170.2 165.3 158.7 153.3 150.4 149.1 149.4 150 150.3 150.3 149.9 147.7 145.7 145.6 144.1 168.1 196 214.1 229.1 245.6 255.9 261.2 263.9 264.3 265 266.5 270.6 275.7 283 289.3 296.7 306.1 315.8 326.3 337.6 348.9 359.6 371.2 382.5 392.9 406.8 421.3 434.9 446.5 455.4 468.5 480.9 497.6 494 481 463.2 443.4 420.8 396.5 370.8 346.2 320.2 294.9 273.4 252.3 236.5 224.5 215.2 206.5 198.5 191.4 184.4 175 170.7 172.2 181.2 196.4 209.4 221 233.2 248.4 264.8 273.8 286.1 306.4 328.4 350.6 373.3 392.6 404.6 413.5 421.9 430.6 438.3 444.7 446.7 443 439.8 436.6 430.3 421.6 410.3 396.9 382.2 360.1 335.2 310.8 285.9 263.1 245.6 228.6 213.2 200.3 211 230.4 251.9 272.8 290 305.6 321.1 339.9 357.7 376.1 394 411.5 428.5 444.4 459.4 470.9 480.1 487.4 487.7 478.2 459.4 441.6 426 410.3 394.4 379.2 364.2 348.8 333.3 316.4 303.4 301.6 307.5 311.7 314.5 314.7 309.8 301.1 289 275.5 262 247.7 235.8 223.9 212.8 203.5 196.5 192 187.7 182.6 176.3 170.3 163 163.4 177.3 201.3 225.8 247.1 266.3 284.3 296.3 298.8 295.4 291.3 286.7 281.5 276.1 270.3 262.8 255.4 248.8 246 244.1 246.1 251.1 257.4 264.7 273.2 278.9 283.1 286 287.8 291.1 299.4 311 324.4 339.8 355.9
211 198.7 186.7 176.2 171.2 166.9 161.9 156.8 152.7 150.9 148.8 149.2 149.6 149.8 148.3 146.3 145.4 145.7 144.1 171.2 199 216.4 232.3 247.2 256.5 261.6 262.4 261.2 258.7 258.7 262.4 269.6 276 282.2 288.6 297.5 307.6 318.2 329.3 340.3 350.7 361.6 372.8 383.4 395.5 408.1 421.1 435.2 444.4 457 470.6 488.8 491.5 479 458.5 437.6 412.9 386.2 359.8 337.8 315.5 294.1 272.4 251 236.5 224.2 214.8 206.4 198.5 191.4 184.6 177.4 170 170.5 177.3 195 209.3 221.3 234.5 251.4 270.5 285.1 293.6 304.8 326.9 349.3 370.4 389.3 405 416.4 425.9 435.3 444.8 456.7 458.9 453.2 447.7 441.4 431.9 417.8 402 385.2 369.1 348.5 325.1 300.8 276.3 254.9 238.1 221.8 205.9 199.3 215.8 237.9 261.3 282.2 298.2 311.1 323.8 339 354.1 370.2 385.8 401.6 417.4 432.7 447.1 457.1 465.1 472.9 473.5 467.4 453 435.6 421.3 406.1 390.6 376.1 361.4 346.5 331.8 319.5 314.9 321 328.2 329.5 328.6 324.1 318.1 309.4 297.6 283.8 269.1 255.6 243.2 231.4 222.7 214.1 207.3 203.4 199.5 194.8 189 182.8 173.2 161.4 165.8 194.4 220.4 244.7 266.3 285.5 296.8 297.3 294 290.2 286.2 279.2 273 266.6 258.9 250.6 243.5 239.8 238 237.2 241.2 247.1 252.8 259.9 265.5 270 273.6 277.5 286.2 296.1 310.2 325.1 340.7 357.3
213.4 200.1 188.4 177.8 172 167.9 163.4 159.1 154.9 151.8 149.3 149.1 148.8 148.8 147.9 146 145.4 145.6 144.9 174.4 202 220 235.5 248.6 256.4 261.4 261.4 257.5 253.2 251.8 255.9 263.4 269.5 274.8 280.6 289.1 298.8 309.3 320.4 331.3 341.1 351 361.7 372.5 384.3 396.6 408.8 422.4 433.9 446.9 462.3 474.9 479.3 469 445.9 424.4 399.2 373 350.5 330.4 311 290.5 268.8 250.4 236.3 224.4 214.9 206.9 199.7 192.5 185.2 179.1 169.9 169.4 174 190.6 208.2 221.3 236 254.4 274 293.5 307.2 317.9 334.9 353.5 371.1 388.5 405.6 418.7 428.6 438 449.1 464 467.2 460.6 453.9 446.8 434.2 416.3 398.4 380 360.7 338.5 314.4 290.4 267.2 250.8 235.2 219.2 205.3 198.4 215.8 239 263.1 283.5 297.1 304.8 314.7 328.2 342.7 356.8 372.1 388.2 404 418.6 430.2 439.1 447.3 455.8 455.8 451.5 444.1 429.6 416.2 402 387.1 372.3 358.1 343.4 329.4 323.5 326.6 339.1 344.9 343.6 338.8 330.4 321.2 310.2 298.9 286 271.7 259.1 248.7 238 228.4 221 216 213.6 211.7 207.1 200.7 192.4 181.5 170.2 161.4 188 213.5 240.7 264.4 285.1 295.9 295.7 293 289.8 285.8 277.4 270.7 263.9 257 248.5 240.9 234.9 233 232.4 233.7 237.2 241.8 247.9 254.2 258.9 263.6 272.9 283.2 297.6 311.2 326.6 342.5 358.7
213.7 201.4 189.9 179.5 173.5 168.5 163.9 160.4 156.3 152.2 150.3 149.1 148.2 147.9 147.3 145.6 145.4 145.5 146.9 174.6 204.7 222.8 238.6 249.3 257.7 262.3 260.3 254 247.4 245.1 248.8 256.2 262.9 267.8 272.2 280.2 289.6 300 311 320.9 329.4 338.8 350 361.7 374.3 386.8 399.7 411.4 423 435.7 450 460.8 464 448.4 427.2 408.1 384.4 362.1 343 323.7 302.9 283.2 264.5 249.1 236.9 225.5 216.9 210 204.3 198.1 188 179.7 169.4 167.6 170.6 184.4 205.8 221.2 238.6 258.2 278 298.4 317.8 332 347 362.5 377.8 394.2 409 421.1 430.6 440 451.4 465.2 468.9 463.9 458.1 451.5 436.4 415.2 395.4 376.2 355.9 333.9 309 284.1 262.9 247.8 232.8 218.1 205 196.4 212.7 234.8 256.2 275.3 287.8 294.1 303 315.9 329.2 343.2 358.4 374.9 390.6 403.2 411.3 418.3 426.6 436.6 439.1 436 429.7 418.6 407 395.2 382.1 367.5 353.3 339.1 328.7 327.2 339.2 353.9 355.6 349.9 343 330.8 319.5 308.3 298.5 287 273.5 261.6 249.9 239.2 231.5 228.6 226.5 226.9 224 219.1 209.5 198.6 186.2 174.5 158.8 177.9 205.2 234.4 260.2 282.3 294.9 295.3 291.8 288.7 284.4 276.6 269.4 262.1 254.7 245.7 237.5 231.1 228.2 227.3 227.8 230.3 234.6 239.9 245.1 252.1 262.3 274.5 287.5 301.8 315.3 329.6 345.3 361.8
217.8 204.9 192.8 181.5 172.1 167.5 164.6 161.4 156.8 153 151.4 149.5 148.4 148.2 146.7 145.4 145.4 144.1 146.8 173.7 204.7 224.5 240 250.3 259.3 262.7 258.9 251.5 242 238.5 241.3 248.2 255 260 264.4 271.4 281 290.9 301 309.8 315.6 327.6 340.5 353.1 366 379 391.9 403.5 414.7 424.3 434.7 441.6 441.7 429.6 411.5 393.1 373.9 354.8 335.7 315.4 295.7 276.7 260.5 249.2 236.9 226.8 219.9 213.2 207.9 202.8 194.5 183.8 170.8 167.4 168.2 178.4 198.6 220.5 241.1 261.3 283 304.4 325.6 340.1 354.1 371.4 385.8 398.9 411.9 422.2 431 440.1 450.4 461.2 467.9 466.7 460.3 452 436.3 413 391.1 370.4 348.8 326.9 304 279.8 260.3 245.9 232.2 218.6 206.3 194.3 204 223.5 242.3 258.5 271 277.7 288.6 303.3 315.8 329.6 345.1 360.8 376.1 384.5 391.4 397.9 407.7 420.5 425.8 420.7 412.5 402.7 395.3 386.9 374.6 358.4 344.7 332.4 327.1 332.5 350.4 360.9 356.7 349.1 340.1 328.3 316.6 306 297 285.3 272.7 262.3 251.4 241.9 238 238.5 241.1 242.4 237.3 229 217.6 204.5 191.6 176.1 161 168.9 197.2 226.9 253.6 277.4 291.3 293 289.8 286.9 282.7 277 268.1 259.3 252.2 243.8 234.4 227.5 224.5 222.4 221.9 224.1 229.1 235.3 244 254.3 266.4 278.8 292.8 306.6 321 333.8 349.4 365.5
223.3 208.8 194.7 182.7 172 167 164.5 161.4 157.2 153.6 152 149.9 147.8 147.8 147 145.4 145.5 144.1 146.3 174.5 203.2 224.3 239.7 250 258.7 260.2 256.4 249.6 237.9 231.9 233.4 239.7 246.3 251.2 255.8 263.4 272.8 282.7 291.8 298.5 306.7 319.1 332.8 346.1 359.5 372.4 384.2 395.1 405.9 414.3 420.1 422.1 419.1 409.8 396.7 382.4 365.1 347.1 325.1 305.9 288.2 271 259.1 248.8 235.4 226.7 219.9 213 207 203.1 198.2 189.7 174.2 166.8 167.4 176.8 196.2 219.5 242.2 264.3 286.4 308.7 329.9 343.8 357.6 375 389.7 401.2 413.3 422.2 428.7 437 446.7 455.8 462.6 463 457.7 449.7 435.3 411.7 388 365.8 343.9 321.4 299 277.5 262 251 238.4 223.4 209.8 195.7 193.4 208.6 223.9 239 252.2 261.9 275 289.7 303 316.3 331 345.7 356.4 364.3 371.9 381 394.7 410.5 413.3 405.3 396.3 385.4 376.3 369.2 360.4 345.1 332.6 323 324.1 338.4 356.8 356.8 348.7 340.3 331.2 320.7 310.9 301.4 292.7 281.9 270.3 260.8 251 246.5 246.8 252 256.6 256 248.5 238.5 224.7 210.1 194.5 179 162.5 160.9 191.5 218.9 245.5 267.5 280.5 283.7 283.6 281.6 278.9 275 266.8 258.3 251.6 241.9 231.9 225.3 220.2 217.1 216.9 222 228.3 235.7 245.8 256.9 271.6 285.7 297.7 310.3 324.4 338.7 353.8 367.5
227.2 212.3 197.9 186 175.3 167.8 165 162 158.5 154.9 152.1 149.6 147.2 147 147.4 145.9 145.3 144.1 146.6 173.5 201.5 223.4 237.6 248.6 257.5 259 254.1 246.4 234.1 225.3 226.2 231.1 236.9 241.9 247.2 254 262.6 272.1 281.3 290.3 301.1 312.9 327.2 340.7 353.6 366.2 377.1 387.6 396.4 403 407.6 407.8 404.6 397.5 386.7 373.7 356.8 337.2 316.3 297.7 282.3 268.9 258.6 245.7 233.7 225.2 218 210.9 205.6 200.9 196.5 190.4 175.8 164.3 167.1 179.5 198.7 219.8 242.1 264.4 286.6 308.7 330.5 346.8 362.5 379.6 391.4 402.2 413.7 421.7 427 432.5 439.9 447.8 453.8 454.5 452.6 447.6 435.3 413.8 390.9 369.8 348.8 326.4 304.5 286.2 273.7 263.2 249.6 232.7 215.9 199.2 189.2 196.6 209.9 223 235.4 247.2 261.5 275.5 289.5 302.2 314.7 327.1 336.3 344.9 353 366.3 383.8 400 400.7 391.1 380.8 369.9 357.8 347.9 337.6 325.4 316.9 314.7 322.4 341.6 350.4 345.6 337.2 328 320.7 313.1 304.7 296.5 287.5 278 266.7 258 253.9 253.2 257.6 263.5 267.9 266 258.1 247.1 229.4 214.6 198.4 184.8 166.4 156.9 183.7 209.8 234.7 253.7 267.6 271.1 273.1 271.8 270.9 268.8 263.3 255.5 248.5 239.1 231.6 223 216.8 212.8 217.7 221.1 227.5 236.6 248.7 260.7 275.6 289.9 302 313.7 326.5 340.4 355 369.6
230.5 214.6 200.5 189.4 179.5 171.3 166.4 163 159.2 155 152.3 149.5 146.2 146.7 146.4 145.6 144.5 144.1 148.8 175.1 200.9 219.6 234.2 244.8 252.2 254.4 250.5 241 228.9 219.6 218.7 222.7 227.8 233.3 238.8 245.1 252.9 262.9 273 285 297.3 310.8 325.8 338.9 351.7 363.4 374.1 382.4 389.2 393.4 395.4 395.6 392.2 385.1 376 364.3 349.5 331.8 312.9 294.5 279.4 266.8 256.1 244.4 233.1 223.8 215.3 209.2 203.8 198.7 192.1 184.5 170.8 164.1 167.6 182.4 200.3 220.6 241.6 263.7 285.8 307.9 329.4 348.7 366.7 381.5 392.9 403.2 413.5 419.7 422.8 424.3 428.3 435 440.6 443.4 444 442.1 433.6 415.8 396 376.4 356.3 334.9 316.3 301.8 288.4 274.5 260.1 243.4 224.7 205.9 191.6 188.6 198.8 209.8 220.6 232.8 246.7 260.6 274.5 287.4 299.1 309.2 317.9 326.1 336.9 354.3 373.5 390.6 390.1 378.4 366.3 354.1 341.7 329.9 317.3 307.2 301.7 306.2 322 336.5 340.6 334.2 324.1 315.6 310.6 302.8 294.6 288.1 280.8 270.6 261.3 257.9 258.7 262.1 267.8 273.9 277.3 273 264.5 251.8 236 219 202.9 190 176.9 154.4 171.5 196.8 219.2 239.1 251.6 257.4 259.6 260 259 257.5 253.3 246.1 244 236.3 227.6 219.6 212.8 210.2 215.5 221.8 231 241 252.4 266.3 281.7 294.4 304.8 314.1 326.6 339.7 356.3 370.8
234.9 217.7 203.1 191.1 181.1 172.5 166.8 163.2 159.2 155.1 152.3 149.4 146 145.5 145.6 145.4 144.4 144.1 150.9 177.6 199.9 215.3 229.2 239.3 245.2 246.7 243.2 236.1 225 213.9 212.8 215.4 219.6 225.6 231.8 239.7 249.3 260.1 270.9 283.1 295.9 309 322.9 337.4 350.6 362.3 372.2 379.4 383.9 387 388.2 387.3 383.1 377.7 370.4 359.3 346 330.8 312 293.5 278.3 265.6 253.1 242.4 231.4 222.3 213.8 207.8 202.5 197.2 189.1 179.9 167.4 163.5 169.3 185.3 203.1 221.8 242.1 263.1 285.2 307.2 328.3 348.4 365.9 380.7 393 402.9 410.8 412.2 411.1 408.4 410.5 415.8 422.1 427.8 431.8 432.8 428.8 417.6 402 383.1 364.3 346.5 331.4 317.7 303.9 288 272.2 255.7 236.5 217.2 199.1 187.5 186.5 195 205.1 217.6 231.3 245.2 258.6 271.1 282 291.6 300.6 310.8 326 345.9 365.7 383.4 383.3 369.8 354.4 339.9 326.3 314.2 302 290.3 286.6 297.7 312.1 324.4 327.2 320.9 309.9 301.3 292.8 283.2 278 276.2 270.4 261.1 259 260.8 265.4 270.8 276.6 281.5 283 278.9 269.5 258.6 242.6 224.3 207.5 193.8 178.5 156.1 160.4 183 202.5 220.6 233.2 239.6 242.3 243.2 245.8 244.1 240.1 238.7 237.3 231.5 223 216 209.6 208.1 214 223 234 246.1 258.8 274.4 288.5 298.3 305.7 316.3 328.5 342.5 356.4 370.1
238.3 221.5 205.8 192.6 181.6 172.3 167 163.1 159.3 155.3 152.3 149.4 146.3 145.1 145 145.2 144.4 144.4 154.4 176.7 195.2 208.9 219.4 230.2 237.8 238.6 234.8 229.3 219.7 207.5 206.9 210.1 214.5 220.1 228.6 237.6 247.3 257.8 268.5 281.2 294.1 307.2 321.7 336.4 349.3 361.4 371.8 378.4 382.6 384.4 384.2 382.8 380.1 375.7 368.9 359.8 347 331.8 314.3 295.8 280 267 252.7 239.7 228.4 220.1 212.8 206.5 200.9 195.2 186.8 176.7 165.7 162.8 171.3 188.3 206.3 223.7 243 263.7 285.7 307.2 327.7 347.9 366 380.7 392.7 400.5 401.5 397.6 393.6 389.2 389 394.8 401.2 407.4 413.5 417.8 419.6 417.1 408 392.4 375.6 361.2 347.1 333.5 320.2 303.7 284.4 267.8 249.1 230 211.3 196.3 182.8 182.2 190.5 202.3 215.9 229.5 242.3 253.6 263.7 273.5 284 301 320.3 340.7 361 379.2 377.6 361.7 344.5 327.6 310.4 296.3 284.4 274.9 270 284.2 298.6 310.2 311.2 305.1 294.8 282.6 270.1 260.9 260.4 259.7 255.4 256 261 265.3 270.8 276.4 281.1 284.5 285.1 280.5 273.7 263.8 251.1 231 214 200.2 185.9 168.4 149.9 167.4 187.4 202.5 212.9 221 225.5 230.5 234 233.2 234.1 233.6 230.7 224.8 217.5 211.1 207.4 206.3 213.1 223.4 238.6 251.2 264.8 278.7 289.2 298 308.5 320.4 331.4 343.5 356.1 369.7
238.9 224.1 208.5 194.4 181.4 172.4 167.7 164.7 161.2 157.3 153.4 149.8 147.6 145.8 145 145.2 144.5 143 154.6 170.4 186.3 199.4 210.1 220.5 228.1 228.6 225.6 221.5 213.3 201.7 201.4 205.1 210.3 215.9 224.5 233.4 243.2 253.9 265.9 279.3 293 307.8 322.1 335.5 347.7 359.9 370 376 380 382.1 382.5 381.8 378.9 374.9 368.7 360.9 348.8 333 316.4 297.7 282.3 270.1 254.8 237.9 225.3 216.8 210.3 204.5 199.3 193.7 185.5 173.5 164.3 162.4 172 190.8 208.9 226.3 246.8 269.6 292.2 313.1 332.4 351.6 369.1 382.5 390.9 395 390.1 382.8 376 370.3 368.8 373.7 379.6 385.6 390.8 395 398.8 400.5 400.1 394.8 383.9 372 359.7 347.8 335.9 318.8 297.5 279.5 262.6 243.8 226.6 209.1 193.4 181.4 179.5 187 200.5 213.9 224.8 235.3 245.6 257.7 276.2 298.3 318.2 337.3 357.6 375 368.9 352.2 334.8 317 298.8 281.4 268.3 260.9 257.3 270.9 284.5 296.1 297.6 290.6 280 266.1 251.2 241.2 239.9 238.5 237.6 248 252.8 257.8 264.4 270.9 274.8 278.7 280.6 280.8 277.5 272.2 259.7 240.6 221.3 207.7 194.2 176.9 156.7 152.9 169.2 184.7 194.3 204.5 213.5 219.5 224.7 227.8 229.7 226.4 224.2 219.5 213.7 207.9 204.1 204.8 212.3 226.6 242.9 255.2 266.5 278.3 287.9 297.9 309.3 321.4 333.8 346.5 359.3 369.7
242.9 227.3 211.6 196.5 183.3 174 168.3 166 162.5 158.1 153.9 149.9 148.2 145.3 145.1 145.8 144.9 144.8 155.2 166 177.9 190.9 201.3 211.1 217.3 218.2 215.6 213 206.2 197.1 197.8 201.9 206.6 212 219 227.8 238.5 250.2 263.6 279 293.8 308.3 321.9 334.1 345.2 355.9 365.2 371.6 375.4 377.6 379.2 380.2 377.8 373.8 367.5 359.3 347 331.6 314.9 297.9 282.3 269.1 249.6 233 219.6 210.9 205.4 200.6 195.7 191.1 183.9 169.3 163.7 161.1 172.4 192 211.5 230.9 253.8 277.6 301.4 322.7 342.1 360.2 374.6 384.1 389 387.4 377.5 366.8 357.9 350.7 350.8 354.2 358.8 364.9 371.6 373.3 374.3 376.6 379.2 379.5 373.1 365.3 356.9 348.1 340.4 327.4 308.9 292.1 276.4 259.4 242.1 222.7 204.1 191.1 179.8 176.3 185.3 197.8 207.6 217.9 231.4 250.9 274.3 297.3 315.7 334.3 352.5 368.1 361 343.5 325.2 307 289.4 270.2 255.3 248.1 246.7 256.8 271.2 280.9 280.1 273.6 264.2 250.7 237.3 227 219.8 217.8 219.3 227.9 232.4 238 244.2 250 254.4 260.9 268.1 272.7 273.8 270 263.2 249.5 230.5 215.1 201.6 186.5 170.7 153.9 152.1 167.9 180.3 188.3 197.4 208.9 216.8 220.6 220.9 219.1 217.3 214.6 209.9 204.4 199.6 202.8 210.6 228.3 246.1 257.5 266.6 276.6 286.5 301.4 314.5 329.1 340.6 350.6 359.9 374.3
247.8 234.7 217.4 200.7 186.5 175.4 168.9 166.4 163.6 159.7 155.1 150.6 147.9 145.3 145 145 143 147.2 155.4 163.6 171.1 182.3 191.4 200.3 208.1 207.9 205.4 203.4 199.2 194.3 195.8 199.2 204 209.3 215.3 224.1 234.9 247.9 263 278.9 294.7 309.1 320.4 330.2 340.6 349.4 358.1 364.3 367.9 371.1 374.3 377.4 376.2 371.2 364.2 354.7 341.7 326.4 312.6 297.9 282.4 263.6 243.2 227.1 214.1 205.2 199.9 195 190 186.2 180 164.3 162.4 161.9 173 193.3 214.2 237.5 261.9 286.4 310.4 332.8 351.9 367.9 379.9 387.7 389.4 382.6 369.6 351.2 337.9 331.2 331 334.5 340 345.8 351.8 356.1 358.2 359.4 360.1 359.6 355.9 350.4 344.4 338.4 333.1 326.2 314.5 301.5 287.6 273 255 234.9 216.4 201.4 189.1 178.4 173.7 184 193 206.9 228.5 251.5 274.8 297.4 314.8 331.5 348.8 362.9 353.9 334.6 314.9 297.2 279 259.3 243.5 236.8 236 244.6 259.7 267.1 263.6 257 248.4 235.8 223.8 213.5 203.7 199.7 201.3 204.6 208.6 214.4 220.4 225.6 229.9 238.1 246.6 251.1 252.6 253.2 254.6 251.6 240.9 227.6 210 196.5 181.3 165.8 149.2 149.2 159.8 171.6 181.3 193.8 203.8 208.2 208.7 208.8 208.7 208.4 205.8 201.3 195.4 201.9 212.2 225.9 241.6 253.4 265.2 275.5 288 304.8 319.6 331.9 343.1 355.8 365.5 381
251.2 240.9 223.6 207.2 191.2 177.7 170.1 167.1 165.1 161.4 156.5 151.4 147.4 145.7 145.1 144.7 143 147.4 155.9 161.1 165.8 174.1 180.8 188.9 195.2 196.7 195.7 193.6 192 190.6 192.9 197 202.9 208 213.9 222.6 233.6 246.9 262.7 278.7 294.2 308.6 318 325 333 340.4 348.1 353.8 358.1 363.7 369.9 373.6 373.2 368.2 359.5 348.3 335.1 321.2 307.8 292.5 275.9 256.2 236.5 219.6 208.2 200.1 193.9 188.8 184.2 179.4 171.1 162.3 161.1 161 177.1 197 219.4 244.7 269.7 294.6 318.9 342.5 362.4 375.7 385.3 391.7 390.7 382.7 367.8 349.6 328.9 312.8 310.1 313.5 319.8 325.2 330.9 338 341.4 342.5 342.8 342.5 338.8 334 329.4 324.5 319.8 315.3 309.6 299.9 289.8 278.5 262.7 245.2 228.7 213.7 199.9 189.5 178.4 172.2 184 206.1 228.7 251.8 275.1 297.9 314.4 330.9 347.4 357.6 344.9 325.3 305.5 286.7 271.2 252.4 235.9 227.2 225.6 236 247.7 249.7 246.8 240.5 232.9 220.9 209.7 198.9 189.2 184.4 183.5 184.6 186.6 189.5 194.1 200.1 204.4 211.9 219.5 225 228.7 231.8 233.5 234.3 229.8 223.8 215.8 202.2 190 177.6 165.8 144.7 142.4 153.4 168.3 181 190.7 195.9 197.8 197.9 199 200.5 200.8 199.2 191.2 201.7 212 224.4 238.6 252.4 265.2 278.9 292.6 307.5 321.5 335 351.3 363 371.2 382.2
253.5 243.8 229 212.9 196.9 181.4 171.8 168.2 166.2 163.5 157.8 152.1 147.3 145.4 144.5 143 145 147.2 154.8 158.6 163.6 168.2 173 178 183.1 186.1 186.1 185.9 185.6 185.7 189.6 195.1 200.5 206 212 220.1 232.4 247.8 265.6 279.5 293.3 305.1 312.8 318.4 323.4 329.6 336.2 343.5 349.4 357.2 365 369.8 370.1 364.6 355 340.7 326.2 311.9 298 283.1 266.8 245.6 225.2 212 202.6 194.3 187.4 183 178.7 172.1 162.4 160.6 159.5 166.3 184.3 203.5 224.5 250.2 276.2 301.6 327.1 352.3 371.3 383.3 393.5 395.1 390 380 365.1 346.6 326.5 306.8 292 292.5 297.7 302.6 309.2 319.1 324.4 326.7 325.5 324.3 322.1 318 313.5 309.6 305.7 301.5 297.7 291.4 282.8 273.7 262.5 248.1 234 221 205.7 196.5 187.1 171.7 172.3 201 227.9 251 275.3 298.3 314.3 330.7 346 347.2 332.9 315.4 295.9 278.9 263.3 246.1 229.6 219.3 216.5 226 234.8 235.8 231.2 224.4 217.8 206.6 194.8 184.7 178.5 172.9 168.7 167.4 167.5 168.8 170.6 175.7 180.5 185.6 191.9 197.8 203.5 207 211.5 211.5 210.2 210.8 207.4 199.4 191.4 185.4 171.8 158.8 149.2 142.3 156.3 169.6 180.3 183.9 187.1 189.1 190.3 192.2 194.8 195.6 192.4 203.4 211.8 223 237.1 251.3 264 278.1 293.4 307.6 323.2 340.3 354.4 367.1 373.7 376.6
256.5 245.3 234.5 218.6 203 187.1 175.1 171 168.1 164.9 159.7 153.4 148 145.2 144.8 144.2 144.9 147.3 151.3 154.8 159.1 164.7 167.7 170.4 173.3 176 177.5 178.8 178.2 182.2 185.6 190.4 195.5 200.9 207.3 217 230.3 246.2 263.3 277.7 290.2 299.7 305.5 309.6 314.4 319.7 326.3 335 343.7 352.4 361 366.4 367.4 360.5 348.5 330.8 312.4 297 283.1 267.7 251.3 231.7 215.4 204.8 195.4 187.4 182.2 178.4 173.6 166 160.9 159.1 158.4 173.3 190.8 209.9 231.3 256.2 282.2 308.3 334.5 359.9 377.4 389.6 396.9 396.4 387.1 376.7 362.9 346.6 326.6 306.4 287.2 274.3 275.2 280.6 287 296.5 303.8 307.6 308.6 307.3 305.2 301.3 296.8 293.6 290.6 287.2 284 280 272.5 265.7 257 245.1 234.7 221.9 207.8 198.5 188.8 177.4 167.2 195.5 226.1 249.5 274.5 298.5 314.5 328.8 337 333 319.1 302.2 285.8 269.8 254.2 239.1 224.7 214.1 207.1 214.4 221.7 221.3 215.1 206 198.2 189.7 179.1 172.8 167.5 161.6 157.1 153.7 151.9 151.4 151.3 152.8 157.7 164 170.3 173.9 176.9 180.6 186 189.5 189.6 190.4 190.7 186.4 181.5 178 169.7 160.8 150.5 139.3 150.8 164.3 172.2 176.1 179.5 182.6 184.4 186 188.8 189.6 193.2 202 209.1 219.5 234.9 250.2 262.9 277.2 292.7 310 325.9 338.6 353.3 359.8 361.8 368.4
261.1 250.8 240.4 225.2 209.6 193.7 179.6 173.6 169.6 166 161.8 155.5 147.7 145.2 143 144.3 145 147.5 148.6 150.8 154.6 159.4 164 166 168 169.6 171.5 173.4 175 178.4 181.7 186.2 190.4 196.3 203.4 214.2 228.9 244.7 259.4 273.3 285 292.3 296.8 300.6 305.3 312.3 320.5 329.6 339.9 350.3 358.1 363.8 364.4 356.7 343 321.3 298.9 281.8 265.6 249.6 234.5 221.5 208.1 198.1 188.8 181.9 177.5 173.9 168.6 161.3 159.2 158.8 160.9 179.4 196.8 217 241.8 266.5 290.6 315.7 341.9 364.3 380.4 388.9 390.8 387 378.8 369 357.6 342.1 325.3 305.9 285.9 269 259.4 259.9 264.9 273.6 282.2 284.6 286.3 285.9 283.8 282 278.3 275.8 273.3 270.9 268.1 266.2 261.5 257 250 237.9 227.6 218 205.6 196.2 187.3 176.9 164.6 195.3 226.5 248.5 274 298.3 314.3 323 321.9 316 305.2 288.3 270.9 256.5 242.1 229.9 219.5 208.5 199.1 202.4 206.8 205.9 198.6 188.4 181.4 175.7 167.9 159.9 155 149.6 145.9 142.3 139.8 138.6 136.7 135.6 137.6 142.1 148.5 152.6 153.3 155.6 160.1 163.8 167.2 168.2 169.4 167.9 166.8 166.8 165.6 160 146.3 139.1 150.9 162.7 167.7 170 170.5 174.4 176.5 181 183 183.4 190.3 198.2 205.5 215.4 229.3 242 260.1 276.7 293.9 308.9 323.9 334.7 340.7 342.2 347.7 352.9
266.6 258.3 249 233 217 202.3 188.8 175.2 170.5 167 163.5 157.4 148.9 144.6 143 144.1 145 148.3 147.8 147.9 150.7 154.5 159 162.6 164 165.5 167.3 168.9 172.3 175.5 178.2 181.7 186.4 192.8 200.4 212 227.5 243.3 257.3 269.6 279.2 286 290 293.6 298.6 306.2 315.5 326.1 338.5 349.2 356.6 361.9 361.6 352.5 337.4 316 292.8 271.6 250.4 235 222.4 211.2 201.1 191.9 183.6 177.5 173.4 170 162.4 159.4 158.2 158.1 166.7 185.2 203.8 227.9 254 279.5 304.2 327.1 347.6 365.5 376.5 381 378.8 372 364.2 355.3 343.3 328.8 313.3 295.5 283 270.5 257 246.3 244 250.7 259.1 261.6 263.4 263.9 262.8 261.5 259.8 257.6 256.6 254.9 253.4 252 249.4 246.2 239.9 228.6 218.1 206.6 196.1 189.5 182 172.5 166.8 201.6 229.8 250.8 274.4 297.1 310.4 310.8 305.3 298.2 286.9 270.5 255.8 242 229.7 218.1 209.7 199.9 191.4 190.4 192.3 187.3 179.7 172.7 166.4 162 155.4 147.6 143 139.1 136.3 133.2 131 129 128.4 127.8 127.8 128.1 129.2 130.4 131 132.5 133.2 138.9 142.4 147.1 150.1 151.1 153.4 156.5 159.2 155.4 143.2 137.1 149.4 158.4 159.3 160.9 164.9 167.2 168.6 173.5 176.3 179.7 188.2 194.8 200.9 209.4 216.7 232.8 254.4 273.1 288.2 301.5 311.9 319.7 320.7 322.5 327 332.5
272.7 265 255.3 240.5 227 216.3 202.5 183.6 171.4 167.4 164.2 158.3 150.7 144.7 143 144 145 148.3 147.4 146.6 147.6 150.7 154.4 158.6 160.2 161.6 163.4 165.5 168.8 172.1 175.1 178 183.5 190.3 198 210.8 226.1 241.3 255.4 267.4 275.9 281.2 284.7 287.3 292.2 300.7 312.1 325.1 338.7 348.1 355.9 360.2 357 345.3 328.5 307.7 287.7 265.5 244.1 225.8 213 203.9 195.2 186.9 179 173.3 169.4 162.8 158.8 158.5 157.8 157.5 170.4 191.8 212.1 239.1 267.2 294.6 320.8 344.8 354.3 360.8 368 367.3 360.4 352.6 345.6 336.3 324.3 310.4 295.9 284.1 275.7 267 256 244 234.9 231.7 235.8 239.1 241.2 242.6 242.8 242.2 240.8 240 239.8 240.1 241 239.8 238 233.4 227 218.2 208.3 196.3 189.4 183.6 177.2 165.3 172.6 207.2 232.9 251.7 272.3 293.4 299 293.9 286.8 279.2 269.6 256.1 240.6 227.9 216.8 205.7 198.4 190.3 182.4 177.3 178.4 172 165.8 158.7 154.4 149.1 142.7 138.8 134.4 130.9 128.4 128.4 128.2 128.2 128 127.7 127.8 127.3 126.4 127.9 127.8 127.6 127.9 126.4 126 130 133.9 137.1 144.3 148.5 151.8 150.8 143.3 132.2 142.5 151.4 153 154.4 157.6 160.4 164 167.6 170.9 176.7 182.9 188.5 194.9 200.4 211.8 230.6 247.8 263.8 277.1 285.9 294.5 298.4 301.2 303.5 306.7 313.6
279 271.1 261.3 248.9 239.2 230.5 217.7 199.3 180.9 169.7 165.6 159.8 152.2 145.6 143 143.8 145 148.2 147.2 146.1 146.3 148.7 151.8 155.1 156.9 158.4 160.6 163.6 166.9 169.8 172 176.1 180.8 187.4 195.2 209 224.3 238.9 253.2 266.6 274.4 276.8 278.2 281 286.1 296.1 310.1 324.3 336.7 345.5 353.6 357.8 351.5 335.4 316.9 297 276 255.5 236.8 219.6 207.1 198.3 190.1 182.4 174.4 169 163.6 158.4 158.3 157.8 157.2 156.3 179.3 198.9 221.4 250.3 279.8 309 337.7 352.8 356.1 357.6 358.2 351 338.2 330.6 323.5 313.8 302.6 289.1 277.5 269.7 263.2 256.6 250.6 241.7 232.3 221.9 219.9 222.8 225.4 227.1 226.9 226.4 226.7 225.6 225.4 227 227.6 227.8 227.2 222 214.6 206.1 200.5 191.7 186.6 181.5 175.9 158.9 175.6 209.3 234.3 252 270 283.9 282.1 275.4 268.3 260.6 251.6 239.7 225.2 213.9 202.8 194.2 189.3 182.2 175.1 168.7 164.5 159.2 154 147.7 142.7 137.2 134.2 130 128.4 128.4 128.4 128.5 128.2 128.3 128.2 127.6 126.9 127.6 128.2 128.2 128.1 127.9 127.5 127.5 127.1 125.4 133.4 131.8 138.3 146.9 147.6 147.1 143.1 134.2 134.2 141 146.4 147.4 149.1 151.7 155.1 161.5 167.8 171.8 176.8 181.9 188.3 195.9 209.4 221.8 234.8 250.2 258.4 267.9 275.2 280.1 282.9 285.2 290.3 302.1
285.3 277 267.8 258.9 251.7 243.5 230.1 213 194.7 179.9 169.5 161.4 152 145 143 143.6 144.7 147.7 147.2 145.8 145.7 147.4 150.1 152.1 154.3 156.2 159 161.7 164.4 167.2 169 172.3 178.1 184.7 192.6 204.8 220.4 235.6 251.2 264.1 269.7 270.8 271.2 274.4 279.9 290.7 305.1 319 331.1 341.2 349.2 349.5 340.1 325 305.1 282.5 262.9 244.7 224.6 210.9 201.3 192.7 184.7 177.7 170.4 164.6 158.1 157.7 157.4 156.6 156.1 163.5 185.9 206.7 232.6 261.4 290.7 319.9 341.5 350.3 355 353.3 340.3 329.4 315.1 306.2 300 291.4 280.8 269.4 259.7 252.9 248 243.9 238.1 233.4 227 219.5 210.8 210 214.1 214.8 214.9 215.1 214.8 215.1 214.6 215.2 214.9 216.5 216.5 211.1 204.2 200.3 195.3 189.2 183.4 177.4 172.3 157.1 175.4 208.9 231.4 248 264.5 270.4 264.3 257 249.8 242 232.6 219.7 208.5 200.2 192.4 186.1 179.7 172.3 166.7 160.1 152.7 148.6 142.4 136 131.4 129.7 128.9 128.4 128.4 128.5 128.3 128.1 127.3 127 127 128.4 128.2 128.7 128.7 128.5 128.3 128 127.8 127.8 127.5 127.2 125.1 127.8 132.7 139.7 143.2 143.7 141.6 133.1 130.6 134.6 139.8 141.8 141.7 142.4 145.8 149.9 158.8 164.1 169.4 175.1 180.9 188.2 199.4 211.3 218.7 229.2 242 251.7 258.2 260.5 263.2 267.8 278.2 294.6
291 285.7 277 271.5 265.4 255.9 241.2 223.9 207.6 192.8 180.2 167.5 152.9 144.7 142.8 143.4 144.2 146 146.8 146.3 145.6 146.4 148.3 150.4 152 153.4 155.6 159.3 162.5 164.1 165.6 169 174 180.8 188.8 198.4 212.8 228.7 244.3 257.1 263.8 264.9 264.8 268.2 274.3 283.4 297.9 312 323.9 335.5 340.9 339.9 329.6 313.4 293.1 270.3 252.3 230.3 214.1 203.2 194.5 187 179.1 172.6 167.1 163 157.5 156.7 156.8 155.6 153.9 172.7 192.9 216.7 244.9 273.2 301.8 326 339.1 340.6 339.3 333.8 315.7 293.2 289.5 279 275.2 267.8 260.1 250.7 243.7 240 236.1 231 226.6 222.2 217 216.6 209 198.8 202.8 204.4 205 205.2 204.5 204.2 204.4 205.6 206.4 207.9 207.7 203.4 200.8 199.1 194.1 187.1 180.9 174.2 168.6 156.1 177.4 207.6 227.1 242.6 254.6 253.9 247.4 239.3 231.3 223.7 214.7 203.8 193.7 188.8 182.5 175.2 168.2 162 155.4 148.1 143.5 138.2 132.5 129.8 129 128.5 128.5 128.6 128.5 128.5 127 127 128.7 128.4 128.5 128.9 128.1 128.2 128.1 128.1 127.9 127.8 127.8 127.8 127.5 127.2 127 125 126.7 128.1 129.4 131.9 131.5 128.5 129.3 130.8 133.4 134.6 135.1 135.8 136.9 141.7 146.9 153.2 161.3 168.4 172.3 180.5 188.4 196.2 204.6 212.8 224 232.3 237.1 241.1 246.8 255 270.4 289
295.8 293 288.3 282.3 277.7 269.8 254.8 236 218 204.7 191.6 179.9 161.7 145.4 141.9 143.4 143.8 145.6 147.1 146.1 145.9 145.9 147.4 149 149.8 151 152.9 156.3 160 161.6 162.9 165.9 170 175 182.3 190.8 202.9 219.7 235.9 247.9 256.1 258.2 257 260.1 266.9 276.2 289.3 302.3 313.7 323.4 329.6 327.1 317.5 302.9 283.1 257.7 236.1 217.5 205.9 196.3 187.9 180.6 173.4 167.6 163.5 160.3 156 156.3 156.1 154.6 164.7 180.9 200.7 226.2 254.8 282.7 306.8 323.5 322.3 319.6 311.6 302.5 290.9 263.2 262.2 252.2 247.3 243.6 237.7 230.1 227.3 225.5 219.7 216.3 213 210.8 210.5 207.7 202.3 193.7 191.4 193 194.8 195.4 195.9 195.8 195.6 197.7 199.6 201.7 203.6 202.3 201.3 198.7 194.1 186.4 179.5 173.3 167.4 153.5 176.6 204.1 222.3 236.1 242.8 238.7 231 223.3 214.7 206.9 198.9 191.1 182.5 177.9 171.3 164.7 156.7 148.3 140 133.7 133.1 130.3 128.9 129.2 129.1 128.8 128.9 128.5 127 128.5 128.6 128.9 128.7 128.7 129.5 130.8 129.5 128.8 127.8 127.7 127.6 127.5 127.4 127.4 127.4 127.3 128.4 128.1 125 125 126.2 126.5 126.2 126.7 127.1 128.1 128.1 128 128.9 130.6 132.6 134.8 137.3 140.6 147.3 157.5 163.6 168.1 177.4 183.3 190.3 198.5 205.9 212 218.4 224.3 233.3 248.1 265.5 283.2
298.8 296 294.1 290 287.3 282 265.6 244.6 227.8 213.4 201.5 187.6 170 153.3 141.9 143.1 143.3 145.6 146 145 145.1 145.9 146.9 148.2 148.3 149.1 150.7 152.6 156.5 159 160.5 163 166.3 170.1 175.5 183 193.6 209.8 226 237.6 246.6 249.8 248.2 251 258.4 269 281.8 294.1 305.5 315.1 320.6 316.8 307.3 293.1 271.7 246.6 224 209 198.7 189.9 181.7 174.9 169.4 164.4 161 157.3 155.1 155.3 154.3 153.5 170.3 188.4 209 234.9 262.3 283.6 295.4 299.2 297.5 292.8 280.2 271 260.6 242.1 234.7 227.6 221.7 219.6 214.6 211.4 213 207.7 201.6 201.4 200.2 199 199.4 192.4 191.5 185.8 179.8 181.8 184 184.1 185.1 186 186.3 188.3 191.3 194.7 197.2 197.3 196.8 193.1 190.7 185.5 179.3 174.3 169.2 151.2 173 199 215.8 226.8 230.4 226.3 218.5 209.9 201.7 194.2 185.8 179.2 173.5 167.2 161.8 154.5 144.3 134.7 132.3 130.2 129.7 129.7 129.5 129.3 129.2 129 128.8 127 129.2 129.2 129.3 129.7 129.7 133.3 134 134.3 136 136.7 133.2 133.4 132.1 129.2 128 127.5 127.7 131.2 131.6 131.1 132.1 131.6 128.1 127.1 126.1 124.6 124.5 125.7 126.1 126.5 127.1 127.7 128.5 128.9 129 131.8 135.3 139.2 146.5 156.5 162.9 169.6 175.8 182.6 189.9 198.2 204.2 211.9 226.8 243.6 260.7 277.9
300.9 299.1 298.4 295.3 290.3 284 270.7 251.2 236.9 223.7 212 196.4 180.6 165.2 148.3 141.9 143.2 144.2 145.2 144.6 144.8 145.8 146.9 147.7 147.5 147.6 148.9 150.6 152.5 156.3 158.5 160.7 163 166.3 170.1 176 185.9 200 215.3 227 237 240.4 239.6 242.1 249.6 262.9 277.5 290.8 301.4 309.4 311.3 307.2 296.9 282.3 260.6 235.2 215 201.9 192.5 184.3 177 170.8 165.8 161.5 158.8 155.2 154.2 154.2 153 157.6 177.6 194.3 215.6 244.3 266.6 272.7 265.6 265.2 267.8 260.4 249.5 241.4 234.6 221.7 211.8 202.7 198.7 191.6 190 191.4 189.7 184.5 182.5 180.6 180.9 182.7 181.4 177.1 176.3 172.4 166.4 168.2 168 170.1 171.2 172.1 174.2 174.5 177.3 179.5 181.1 183 180.8 180.4 181.9 180.7 176 172 167.8 148.4 167.4 191.7 207.9 216.5 218.3 214.6 206.5 198.2 190.3 182.9 176.7 172.1 166.9 158.6 152.6 143.3 133.9 131.5 130.2 129.4 129.2 129.1 129.1 129.1 128.9 128.6 127.1 131.8 132.5 131.2 131.1 138.5 140.9 139.7 138.2 137.4 138.2 139 136.6 136 134.2 131.6 130.2 130.9 134.4 137 138.8 140.7 143.8 147 146.2 143.5 139.3 135.8 131.5 127.3 124.3 124.3 124.3 124.3 125.4 125.2 125.9 126.2 126.8 128.2 134.1 141.5 148.9 155.8 162.1 167.9 176.8 186.2 194.5 206.9 222.8 239.3 255.6 272.3
303.3 303.7 303.8 303.7 298.4 289.3 276.6 263.1 249 236.3 224.8 208.8 195.5 178.4 161 145.8 141.9 143.3 144 144.2 144.6 145.7 146.7 147.2 146.4 146.6 147.8 149.4 151.1 153.7 156.5 158.8 160.9 163.1 166.2 170.4 178.7 192.2 205.8 217.4 226.9 229.8 229.3 233.6 243 256 271 283.8 293.1 299.8 302.3 297.4 288.5 274.2 252.9 227.9 208.2 196.5 187.3 180 172.6 167.4 163.2 159.6 157.5 154.1 153.9 153.3 151.4 167.5 184.1 200.7 210.3 236.2 252.8 243.7 232.5 230.2 234.2 225.3 217.5 210.1 203.9 193.7 183.2 179.2 172.1 168.9 168.3 166.7 164.5 161.3 160.7 158.9 158.6 159.6 160.2 160.7 160.3 159.3 155.9 155.8 155.6 157.2 157.4 158.5 160.5 161 163.5 164.6 164.8 165.1 163.6 164 166.7 167.5 166.9 166.5 164.5 151.9 158.5 183.1 198.7 204 205.6 202.2 194.3 186.1 179.2 173 168 163.8 157.6 148.8 141.7 135.7 131.3 130.1 129.4 129.3 129.3 129.3 129.2 128.8 128.8 127.7 134.5 138.3 141.6 139.3 139.9 143.8 143.9 144 143 142.5 142 142.2 143.9 142.8 140.8 139.3 138.6 141.8 145.4 147.7 151.1 155.8 160.1 163.9 163.6 161.7 157.9 153.2 148.1 142.9 138.5 135.1 131.3 129.2 126.8 123.7 123.6 123.3 123.3 125.3 126.9 130.5 135 141.4 147.8 154.3 164.6 175.5 187.3 200.1 216.8 234.2 251.5 268.4
305.6 308.8 310.9 315.6 314.2 303.7 289.8 276 261.9 248 235.2 219 206.9 189.3 171.7 158.5 147.5 141.9 143.3 143.6 144.4 145.2 146.1 146.8 145.7 145.7 147 148.3 150.1 151.4 153.4 156.7 158.8 160.6 163.1 166.7 172.2 183.4 196.6 208.4 216.8 218.6 218.8 227.6 238.1 250.1 263.9 276.9 286.7 292.3 294.3 289.7 280.4 266.8 246.7 222.2 202.9 191.8 183 175.5 169.4 164.6 160.7 158.3 156.6 153.3 153 151.8 159.8 176.9 195.6 218 213.3 217.8 231.8 215.9 202.2 196.7 200.3 192.2 185.9 180 172.4 163.7 159.1 152.2 147.6 145.5 144.5 143.6 140.8 138.2 136.7 135.7 137.3 138.9 137.3 142.4 144.1 144.2 143.6 144 142.5 142.4 142.6 143.9 145.9 147.8 150.1 150.7 149.8 150.7 152.3 152.9 154.7 155.2 155.7 157.3 159.1 156 150.6 173.6 186.2 192.4 194.1 189.5 182.2 175.8 169.5 164.7 159.3 154.7 147.2 138.7 136.4 134.4 130.6 129.8 129.4 129.4 129.4 129.4 129.5 128.9 128.7 135.2 139.7 143.3 147.4 147.4 146.6 146.2 147.8 149.6 148.6 150 149.8 151.8 153.1 154.1 155.8 156.6 159 163.1 167.3 159.5 162.3 172.5 175.1 176.4 175.1 173.4 170.1 167.1 162.6 157.8 152.9 148.6 144.5 140.1 135.3 132 129.3 127.4 126.1 124.7 123.3 123.8 126.1 127.8 133.9 141.5 151.9 165.7 179.5 192.4 209.6 226.9 244.6 262.2
306.7 312.1 317.3 324.4 323.3 315.1 303.6 288.9 272.7 257 242.6 228.2 214.8 199 181.4 170.2 160.5 148.9 141.9 143.4 144.1 144.2 144 144.9 145.1 144.7 145.8 147.7 149.3 150.3 151.5 153.5 156.3 158.5 160.7 162.9 167 174.7 187.3 198.5 206.3 208.1 212.9 223.6 234.2 246 259.4 272.5 284 289.6 288.8 283.2 273.8 260.7 239.7 214.4 196.6 187.1 178.9 171.8 166.6 162.3 159 157.3 153.3 152.4 152.2 151.6 169.5 188.4 211 227.1 214.6 201.5 210.7 200.5 186.5 175.5 174.9 166.3 160.5 152.6 147.1 142.3 139.7 136.9 135.3 135.4 135.2 134.8 134.9 134.5 134.5 134.5 134.5 134.3 134.2 134.4 134.2 134.1 134.3 134.2 134 133.9 133.9 133.7 134.3 135.4 138.2 137.6 136.1 136.4 138.4 140.9 142.2 143.9 145.4 149.7 153.2 150.9 148.2 164.5 172.1 177.3 177.7 173.8 168.7 164.3 159.7 156.6 152.1 147.6 139.2 136.8 136.2 132.6 130.1 129.7 129.5 129.4 129.3 129.1 127.9 130.7 139.1 140.9 141.7 143.6 147.2 151.3 154.4 153.7 153.2 155.4 156.2 157.1 158.2 160 162.1 165 168.7 172.8 175.1 176.3 175.8 166.5 171.6 183.1 187.5 189.3 187 185.4 182.2 179.4 174.9 170.5 166.9 162.1 156.3 150.6 145.8 141.4 138 134.8 131.6 129.3 127.2 125.8 123.3 123.3 125.4 130.9 140 154.5 169.7 184.5 201.7 219.4 238.1 259.5
305.2 311 317.2 322.3 321.8 317.8 310.7 296.3 278.4 262.3 247.1 231.7 218.8 206.3 191.1 182.1 172.9 163.7 152.7 141.9 142.7 143.7 143.7 143.9 143.7 143.7 143.8 145.6 148 149.2 150.2 150.1 151.9 154.8 157.1 159.4 162.9 168.7 177.6 188.6 196.2 200 209.2 220 231.8 243.5 256.1 268.8 280.4 285.4 281.8 275.8 267.1 252.1 228.4 206.1 190.5 183 174.3 168.2 163.7 160.9 158.3 155.6 152.3 151.8 150.8 160.1 179.7 199.4 217.2 218.9 203.6 188.6 184.9 176.2 169.6 165 155.4 146.8 140.5 136.2 135.3 135.5 135.7 135.4 135.4 135.3 135.2 135.2 135 134.6 134.5 134.6 134.5 134.4 134.4 134.4 134.4 134 133.8 133.7 133.7 133.7 133.4 133.3 133.4 133.6 133.5 133.1 133 133.3 133.3 133.7 134.3 135.1 136.9 140.5 143.3 142 149 157.9 162.6 164.5 164.7 161.8 157.7 154.9 151.3 147.6 143.3 139.2 137 136.7 134.2 130.1 130.4 129.9 129.7 128.5 127.9 129.2 129.4 134 139.6 140 141.5 146.6 151.7 156.9 160.7 162.3 162.1 163.6 165.1 166.7 168.3 170.7 173.1 176.2 178.8 180.9 183.9 185.9 182.4 172.8 178.3 190.6 196.1 201 202.2 202.2 200.1 196.4 191.1 185.8 180.7 175.3 169.4 163.5 157.5 152.6 148 143.8 139.8 137.3 133.1 128.8 126.5 125.8 125.3 123.3 126.7 141.3 158.8 175.9 193.8 212.8 232.2 252.7
302.8 308.1 312.5 316.2 317.9 316 309.2 295.3 278.9 263.6 248.8 233.9 220.8 209.4 200.5 194.6 187.2 178.8 169.6 158.1 145.3 141.9 142.9 143.7 143.5 143.3 143.4 143.5 144.6 145.6 146.5 146.4 146.6 148.5 152 155.8 159.6 163.7 171.4 180.3 189.4 197.1 206.6 217.5 229.4 240.8 252.7 264.7 273.5 276.4 274.4 269.2 259.8 240.7 215.7 197.4 186 179.1 171.5 165.4 160.9 158.4 156.6 153.4 151.5 151 148.3 167.8 186.3 201.5 207.9 201.7 188.8 174.6 166.5 157.7 154.6 151 140.6 137.3 136.1 135.6 135.5 135.5 135.5 135.3 135.4 135.2 135 135 134.6 134.7 134.5 134.5 134.4 134.5 134.5 134.5 134.4 134.4 134.2 133.8 133.6 133.5 133.5 133.5 133.2 131.7 131.6 132.8 132.9 132.4 131.3 133 133.3 133.7 134.4 136.1 137.7 141.3 144.3 150.3 153.6 154.5 153.8 151 148.4 146.5 142.2 139.6 136.8 136.5 136.9 133.5 129 129 129 129 129.8 130 129.4 129.2 129.1 132.8 137.6 142.8 150.5 157.8 163.9 168.7 170.3 172.5 173.5 174.6 176.1 177.7 179.4 181.6 183.4 185.2 187.1 189.6 192.5 192.7 188.5 183.3 184.8 196.6 203.1 209.6 214.3 215.2 214.8 212.5 207.7 201.9 196.1 190.2 183.8 177.2 170.9 164.8 158.8 153.7 148.2 143.7 139.2 133.7 130.9 131.6 125.8 125.3 124.6 126.7 145.6 166.4 186.4 207.4 228.2 249.2
300.3 304.8 308.4 310.7 312.7 310.4 303.2 291.3 278.2 265.6 251.2 237.3 224.6 215.6 210.2 206.8 201.5 194.8 185.7 174 161 147.9 141.9 141.9 143.2 143 143.2 143.5 143.3 143.4 143.1 142.8 143.6 143.7 145.8 149.7 153.8 158.9 165.6 174.7 184.1 193 202.7 214.5 227 237.9 248.6 257.1 265.1 266.7 267.2 262.2 250.2 226.2 206.4 191 182 175.1 168.1 161.7 157.8 156.1 155.3 151.6 150.5 150.9 149.8 172.6 188 197.9 191.6 184.7 171.4 162 151.9 143.9 141.1 139.6 136.9 136.1 136 135.8 135.7 135.6 135.4 135.3 135.4 135.1 134.8 134.8 134.8 134.9 134.5 134.4 134.5 134.7 134.6 134.5 134.4 134.2 134 134 133.9 133.8 133.5 133.6 131.9 133.6 133.2 132.9 132.8 132.5 132.4 131.3 132.9 133 133.6 135 137.4 139.7 140.3 141.9 143.6 145 145.5 143.4 142.5 140.6 138.3 135.4 133.5 131.8 129 129.9 130.8 130.5 129.9 129.5 129.5 129.6 129.5 129.4 129.9 134.8 143.7 154.2 164.2 172.7 179.5 182.4 181.8 181.3 183.6 185.5 185.9 187.2 188.5 190.5 192.5 194 195.7 197.3 199 199.3 195 191.4 191.2 200.8 210.7 218.3 223.8 225.3 225.5 223.8 219.6 213.8 208.2 202.7 196.6 190.4 184 176.8 169.8 162.3 156.3 150.1 144.7 138.4 135.7 141.3 135.3 126 125.2 123.2 132.5 154.1 177.8 200.6 222.3 245
303.8 306.1 306.5 306.2 307.2 304.5 297.6 287.6 278.1 267.8 255.8 242.4 230.2 222.7 220.1 219.1 216.8 212.9 205.1 190.8 174.2 160.7 149.8 143.5 141.9 142.5 142.9 143.5 142.8 142.8 142.8 143 142.8 142.7 143 144.1 147.9 152.8 159.9 169.4 178.7 188.8 198.3 206.6 220 233.4 239.9 247 254 260.7 260.3 253.4 236.8 215.5 198.2 186.7 178.9 171.8 164.4 158.8 155.4 153.9 152.7 149.9 150 147.8 161.2 176.1 186.1 185.3 178.7 167.4 158.3 149.3 142 141.2 140.7 138.1 136.2 136.3 136 135.9 135.8 135.7 135.6 135.5 135.5 135.4 135 135.2 135.2 135.1 134.7 134.6 134.8 134.7 134.5 134.3 134 134.3 134 134.1 134.1 133.6 133.3 131.9 133.9 133.5 133 132.8 132.7 132.5 132.4 132.4 131.2 132.7 133.5 133.7 134.8 137.1 138.7 137.9 137.3 136.5 137 136.8 136.2 135.7 134.5 132.4 129 129.7 130.6 130.2 129.8 129.5 129.8 129.7 129.8 129.7 129.6 129.5 134.3 143.6 155.7 168.2 177.5 185.9 193.4 194.9 192.3 191.8 194.3 194 193.4 194.9 196.6 198.5 200.3 201.9 203.5 204.8 206 205.8 201.6 198 197.4 204.9 216.7 226.8 231.4 235 236 234.4 230 224 218.2 212.7 207 201.2 194.7 187.3 179.5 172 164.4 157.2 150.1 142.9 137 138.8 140.2 134.6 125.5 125.2 123.2 141 166.6 190 212 234.4
309.9 310.8 310 307.3 304.4 302.2 297.9 290 281 271.1 260.5 247.7 237.4 234.7 235.4 236.5 234.7 231.4 224.3 209 191.7 176.5 164.4 153.3 144.6 141.9 141.8 142.5 142.6 142.4 142.5 143.2 142.8 142.8 142.7 143.4 144.7 147.7 155.4 163.9 172.3 182.6 192.1 200.7 210.1 220.9 228.9 237.2 246.2 253 253.2 241.9 225.6 209.1 194.7 184.3 175.9 169.4 162 155.9 153.8 151.8 150.1 149.3 148.9 151.5 164.5 177 182.3 175.2 164.8 154.7 146.2 142 141 141.1 139.8 136.5 136.2 136.2 136.2 136.1 136 135.9 135.8 135.8 135.5 135.5 135.6 135.7 135.6 135.4 135 135 134.7 133.3 133.2 133.2 133.2 134.4 134.8 134.7 133.1 132.5 133.6 133.5 133.7 133.3 132.9 132.7 132.5 132.4 132.4 132.3 132.2 131.1 133.1 133.1 132.7 133.1 135.5 134.6 134.5 133.1 132.6 132.1 131.4 131.2 131.1 129 130.8 130.3 129.9 130.3 130 130.2 130.4 130.2 130 129.8 129.7 131.8 141.2 154.2 169.8 182.3 191.8 202.2 208.7 207.1 203.9 202.9 203.2 201.7 201.4 202.8 204.5 206.4 208.1 209.8 211.4 212.6 213.5 212.9 208.6 205.5 203.7 208.7 219.5 229.7 235.6 242.4 246.7 246.5 241.7 235.4 228.8 222.6 216.8 210.6 204 196.5 188.6 180.6 172.6 163.7 155.4 147.2 140.4 136.6 139.1 138.9 126.4 125.3 124.2 130.5 154.7 178.5 200.9 223
317.7 318.2 317.3 314.5 311.4 308.4 303.9 297 287.4 276.3 265.5 254 247.4 249.1 252.4 255.2 253.8 250.6 243.8 227.3 209.2 193.1 178.7 165.4 151.6 144 142.5 142.6 141.1 140.9 140.9 140.9 142.8 143.2 143 143.4 143.8 143.2 148.2 158.8 165.4 174.4 185 194.8 203.3 212.1 220.1 230.6 239.3 245 242.3 230 215.3 203.9 191.9 181.6 172 166.4 159.9 154.9 151.3 149.4 148.6 148.6 148.4 152.7 166.1 174.4 171.9 164.3 153.2 145.1 142 141.7 140.9 140.3 137.3 136.3 136.3 136.3 136.3 136.2 136.1 135.9 135.9 135.9 136.2 136.6 134.8 134.8 134.4 133.8 133.3 134.7 134.6 134.9 134.9 134.9 134.6 133.2 133.2 133.2 134.2 134 133.6 133.6 133.4 133.5 133.5 133.3 133.1 132.5 132.5 132.3 132.1 132 131 132.8 132.7 132.6 132.2 131.1 131.3 131.1 131.1 130.6 130.6 129 131.1 130.2 130.1 130.2 130.1 130.3 132 131.5 130.5 130.2 130.2 131.3 133.9 141.1 152.8 167.3 183.7 198.2 210.3 220.1 222.6 218.9 215 212.2 210.4 209.1 209.7 212 213.4 214.7 216.3 218 219.5 220 219.9 219.4 217 213.5 209.4 211.3 220.6 229.3 237.4 246.2 254.2 257.9 253.6 247.6 240 233 226.2 219.9 213.3 205.9 197 188.7 179.4 170 160.6 151.7 145.3 139.8 134.9 131 127.4 125.7 124.7 122.9 143.3 168.1 190.8 212.3
326.9 327.8 327.2 324.9 321.5 317.2 312 304.8 294.5 283.4 272.1 261.6 259.1 262.5 267.5 271.6 270.6 267.4 260.2 244.5 226.5 209.7 192.8 175.5 158.3 147.8 144 142.7 142.8 142.8 142.9 142.8 142.2 142.3 140.9 143.7 142.6 142.1 142.2 150.8 158.7 167.3 176.2 187.1 197.2 207 217.4 227.7 236.7 234.6 226.8 220.5 210.3 201 188.8 177.9 168.5 161.6 156.6 152.4 148.8 147.8 148.1 148 147.7 150.5 161.7 164.8 161.5 154.5 147 143.4 142.4 142.1 141.3 137.4 136.6 136.4 136.4 136.4 136.3 136.2 136.2 135.9 135.7 136.1 134.8 135.8 135.9 136.1 135.8 135.5 135.2 135 134.7 134.7 134.7 134.7 134.6 134.1 133.5 133.8 133.9 133.8 133.5 133.4 133.4 133.3 133.3 133.1 132.9 132.8 132.6 132.4 132.1 132.3 132.5 131 131.1 131.1 129.7 131.1 130.9 131 130.9 130.9 130.7 131.5 131.1 130.7 130.7 130.6 132.1 134 134.5 134.4 133.2 132.6 134 137.6 145.6 155.4 167.4 182.2 198.9 215.5 227.6 233.8 234 229.6 224.7 219.8 217.1 215.7 217.3 221 222.4 223.6 225.2 226.9 227.9 227.5 226.9 225.8 223.7 219.9 215.3 212.8 219.9 228.5 237.2 246.6 257.4 266 266.2 260.3 252.4 244.7 237.5 230.3 223.3 215.3 205.6 195.6 184.8 174.2 165.3 157.3 151 145.7 141.3 136.8 132.3 127.5 124.7 122.7 133.5 158 182 205.2
335.7 337.3 337.3 335.7 332.2 327.4 321.6 313.6 303.6 292.5 281.3 272.7 273.5 278.8 284.8 288.3 287.5 284.5 273.6 258.2 241.3 223 202.8 183 165.7 152.2 146.7 144.2 142.7 142.7 142.6 142.5 142.6 142.5 142.5 141.9 140.9 142.8 141.8 144.4 152.6 159.6 168.9 178.8 193.3 206.7 218.2 229.5 239.6 242.6 237.7 232.4 222.6 204.6 187.7 174.3 165.1 157.4 152.7 148.8 147.1 147.4 147.5 147.5 147.3 148.4 155.5 155.4 152.3 148.5 146.5 143.8 142.1 142 140.5 137.4 136.8 136.6 136.5 136.5 136.4 136.3 136.2 136.3 136 134.8 135.2 135.8 135.7 135.6 135.6 135.3 135 134.8 134.7 134.6 134.5 134.4 134.2 134 133.8 133.6 133.6 133.7 133.3 133.1 133.2 133.2 133.1 133.1 132.9 132.7 132.4 132.3 132.3 132.5 132.3 132.3 132.1 131.9 131.9 131.7 131.1 131 131.2 131.5 131.1 131.3 131.7 131.6 132.2 133.7 135.2 135.8 136 135.9 137.1 138.4 141.6 147.5 159.2 170.1 182.7 198.4 215.3 232 243.8 246.8 244.9 239.1 233.4 228.2 223.9 221.8 224.1 229.1 230.4 231.6 233.4 235.2 236.3 234.9 233.6 232.4 230.5 226.7 221.7 217.6 220.4 227.9 236.4 247.7 259.5 270.2 276.3 273 265.5 257.3 248.8 240.6 234.3 224.9 213.3 202 189 177.6 169.3 161.9 155.9 150.4 145.7 141.8 139 130.9 125.2 124.1 125.9 144.4 171.9 202.7
344 345.8 346.1 345.7 343 338.1 332.3 324.7 314.5 303.7 294.1 288.9 291.5 296.7 302.5 306.3 305.2 301.5 290.4 271.9 252.5 232.5 211.5 191.1 173.7 157.5 148.7 145.1 143.2 142.7 142.4 142.4 142.4 142.5 142.3 142.1 142.3 140.9 142.1 142.3 147 153.5 161.1 171.1 186.4 202.7 216.8 229.9 242.9 250.7 246.4 236.7 221.4 200.3 183.4 169 159.1 151.2 147.2 145.9 146.1 146.4 146.9 146.9 146.7 146.5 149.3 149.6 149 147.6 146.4 144.5 142.3 141.6 139.3 137.9 137.2 136.8 136.7 136.6 136.5 136.4 136.4 136.5 134.8 136.2 136 135.9 135.6 135.5 135.4 135.2 135.1 134.7 134.6 134.5 134.3 134.5 134.4 133.9 133.8 133.6 133.4 133.5 133.3 133 133.2 133.1 132.6 132.3 132.5 132.6 132.4 132.5 132.4 132.3 132 131.9 131.8 131.8 131.9 132.4 131.6 131.5 131.6 131.5 131.2 131.4 132.6 132.9 133.8 134.9 136.4 137.4 137.6 138.9 145.8 148.6 152.2 159.5 170.9 184.2 198.5 215.8 233.2 251.9 258.7 259.3 255 248.6 242.1 235.6 231 227.7 230.7 236.5 238 239.5 241.2 242.7 243.5 242.4 240.6 239.1 237.1 234.4 230.7 225.5 223.9 229.7 238.5 250.2 262.1 273.2 282.3 283.9 277.3 268.6 259.5 250.5 242.7 232.4 220.2 206.9 193.1 181.6 173.7 167 160 154.3 147.7 142.1 142.1 134.6 127.1 124.8 122.4 132.8 157 181.7
352.8 354.7 355.6 355.7 353.8 349.9 343.8 336.7 326.8 316 307.8 304.9 308.3 313.4 320.3 325.9 324.8 319.1 306.1 285.5 264.6 243.4 222 200.5 182.3 164.8 151.2 146.1 143.6 143.1 142.5 142.2 142.4 142.5 142.4 142.2 141.9 142 140.9 141.9 142.4 148 155.5 164 177.7 195.7 213.9 229.6 246.1 254.6 247.6 234.9 215.3 194.3 176.6 163 152.9 146.7 145 144.9 145.7 146 146.2 146.3 145.8 146.1 147.4 147.4 147.5 146.6 145.8 144 142.2 140.8 139.4 138.4 137.9 137.5 137 136.8 136.7 136.6 136.7 135.7 136.2 136.1 135.8 135.8 135.6 135.4 135.4 135.1 135.7 136.2 137 137.1 137.7 138 137.6 135.4 135.5 135.3 135.5 135.6 135.8 136.3 137.2 138.2 136 133.8 133.9 133.2 131.7 131.6 132.1 131.8 131.6 131.6 131.9 131.8 131.8 131.9 131.5 131.2 131 131 131.1 131.9 133.6 134.1 135.7 136.8 137.6 138.9 139.5 142.6 152 157.2 161.7 170.5 183.7 197.5 214 232.7 252 268.6 272 270.7 265.1 258.3 250.3 242.6 238.8 236.5 238.6 243.4 245.7 247.1 248.6 249.7 250.5 249.8 247.5 245.3 243.4 241.5 239.4 234.2 229.7 233.8 242.4 253.6 264.6 275.4 285.2 289.4 284.5 275.2 265.8 256.5 247.5 237.3 224.9 211.4 197.9 186.6 179.5 172.7 165.8 158.5 151.4 146.1 144.8 138 129.9 125.1 122.4 126.7 144.3 166.4
362.8 365.2 366.7 367 366.4 362.7 356.6 349.1 339.3 328.7 321.2 319.5 322.2 326.5 335.2 343.8 343.5 336.4 322.1 298 276.3 255 232.9 209.9 190 172.5 155.5 147.1 144.5 143.5 142.8 142.2 142.4 142.5 142.6 142.5 142.2 141.9 142.1 140 142.1 143.4 150.4 158.2 170.3 187.8 208.4 227.4 244.2 251.7 245.1 231.1 210.5 190.1 172 158.4 149.6 145.3 144.2 144.7 145.3 145.6 145.7 145.9 145.5 145.3 145.6 145.3 145.3 144.8 144.1 143.3 141.6 140.1 139.3 138.8 137.9 137.4 137.4 137 136.9 136.8 135.7 135.7 136.1 135.9 135.5 135.3 136.6 138.4 140.1 143.3 147.7 148.6 149.1 150.2 150.5 150.6 150.8 150.1 149.2 150.5 151.8 154 155.4 156.8 158.6 159.3 158.6 154.3 149.5 144.3 139.4 136.1 135 133.1 131.8 132.7 133.3 132 131.3 131.4 131.2 131.1 131.1 131.1 131.5 133.3 135.2 136.5 137.5 138.2 140.2 140.1 141.2 145.8 156.9 162.1 169.8 182 196.6 212.7 230.6 249 268.6 283.1 284.1 280.3 274.9 267.5 257 251 248.5 246.4 247.9 251.2 253.4 255.4 256.9 258 258.4 257.2 254.1 251.7 249.7 248.2 246.1 241.3 235.3 238.4 246 256.7 267.1 277.3 286.8 292.8 288.9 279.3 269.9 260.7 251.1 241.3 229.5 216.5 205 195.1 186.9 179.9 171.9 163.4 155.7 149.6 145.9 140.5 133.6 126.7 122.4 125.2 134.9 152.8
372.8 376.3 377.7 378.5 378.4 374.8 368.7 360.9 351.3 341 334.1 332.3 333.5 338.5 348.2 357.8 356.4 347.2 333.5 310.6 287.2 264.4 240.6 216.7 195.5 178.1 159.8 150 146.3 144.2 143 142.6 142.4 142.5 142.6 142.7 142.7 142.4 142 141.6 141.9 142.1 145.5 153.1 165.7 181.1 201.3 222.7 238.6 243.6 239.4 225.1 205.7 186.2 168.7 156.3 148.8 144.8 144.1 144.4 144.9 145 145.2 145.4 145.4 144.7 144.8 144.4 144.2 143.6 142.8 142 141 140.1 139.4 139 137.9 137.4 137.3 137.3 137 136.9 135.7 137.4 137.2 138.1 138.5 140.1 145.4 153.9 159.7 164.7 169.6 169.6 169 169.5 169.4 169.2 168.7 167.8 167.3 169.8 172.3 174.3 176.6 178.5 180.3 180.9 180.4 177.8 173.7 169.4 165.4 161.2 155.8 149.7 142.4 143.5 144.2 142.2 138.4 134.8 131.8 131.5 131.4 131.6 131.9 134.3 136.7 138.7 139.8 142 147.5 148.3 142.1 144.8 156.9 166.1 178.8 197 213.5 230 246.3 262.7 279.7 290.8 290.2 284 277.7 270 262.7 259.6 258.2 258.1 257.9 259.5 261.5 263.7 265.1 265.6 265.9 264.7 261.7 258.7 256.2 254.8 251.8 245.9 240 242.1 248.8 258.4 268.8 279.1 288.3 295.7 292.6 283.5 273.9 264.8 255.6 245.7 234.9 223.8 213.8 204.4 195.7 187.9 179.2 169.8 161 153.7 148.2 143.1 137.1 131.2 125.8 122.5 128.5 141
381.6 386.1 387.9 388.6 388.6 386 380.2 371.9 361.8 352.6 346.6 344.5 345.2 351 360.4 367.3 364.4 353.6 340.4 320.1 295.5 271.3 246.9 221.8 198.3 180 163 152.8 148.3 144.7 143.2 142.7 142.4 142.5 142.6 142.6 142.5 142.3 142.2 141.8 139.9 142 142 148 161.2 175.9 194.6 215.3 230.3 232 226.9 215.3 198.2 180.2 164.8 154.2 148.1 144.4 143.9 144 144.3 144.6 144.9 144.9 144.7 144.6 144.2 144 143.7 143 142.3 141.6 140.9 140.1 139.5 139.1 138.3 137.6 137.5 137.3 137.1 135.7 137.4 139 142.4 145 147.5 152.9 162 175.4 183.5 188.6 192.4 191.5 189.4 189.1 188.5 187.5 184 180.9 185.9 190.9 195.7 197.6 199.8 202.6 204.1 204.4 202.6 200.5 197.1 193.2 190.1 185.9 179.2 173.5 167.5 161.6 157.8 154.9 150.5 145.4 140.6 137.4 137.3 135.8 136.9 139.4 140.2 140.1 143 148.9 153.7 155.2 150.6 144.1 158.7 171.5 185.1 205 223.8 239.9 256.2 271.1 283.8 290.3 288.2 283.1 277.8 273.4 270.5 271.6 271.2 270 269.2 269.6 270.2 272.1 273.4 273.2 273.3 272 269.6 266 262.2 260.1 256.2 249.8 244.3 245.7 251.6 260.9 270.9 281 290.5 297.6 295.8 287.7 279.1 270.6 261.6 251.8 242 232.2 222.7 213.7 204.7 196 187.2 178.3 169.3 161.1 154.2 148.2 142.3 137.1 130.9 122.4 124.5 130.8
387 393.1 396.9 398.2 399.6 397.6 393.2 384.9 374.9 365.2 359.8 358.7 360.8 367.9 373.9 376.6 370.8 358.5 345.2 327.1 303.6 278.7 252.9 226.1 201 182.2 167.1 156.7 150.6 146.8 144.8 143.1 142.6 142.5 142.5 142.4 142.3 142.1 142 141.9 140.5 141.9 141.8 143.7 156.9 171.1 188.4 204.6 215.6 215.9 211.4 202 188.6 172.2 160.2 152 147.3 144.3 143.7 143.7 143.9 144.3 144.5 144.4 144.4 144.1 143.9 143.6 143.4 142.7 142.1 141.4 140.6 139.9 139.2 138.6 138.1 137.5 137 136.6 135.7 137.6 140.1 146.2 148.9 153.1 162.2 168.9 179.7 194.9 206.9 212.5 214.7 212.7 210.4 208.5 206.8 202.8 196.7 197.5 206.5 215.2 220.7 224.5 229 231.6 232.4 232.4 230 224.9 221 216.8 212.8 207.5 199.1 189.9 183.8 181.6 175.7 170.2 164.3 160.2 155.8 150.5 149.9 146.6 147 148.8 147.5 142.5 146.5 154.6 157.4 158.5 158.6 153.5 146.8 166.5 183.8 199.5 217.2 235.5 252.9 266.9 278.6 284.6 285.7 283.7 282.7 283.4 287.1 289.2 286.3 283.5 281.3 279.2 278.8 280.9 282.8 282.2 280.8 279.4 276.5 270.8 266.8 264.1 259.7 253.7 249.2 250.4 255.1 263.7 273.2 282.7 292.2 298.8 299 294.1 287.2 278.6 268.6 258.9 249 240 231.2 221.8 213 204.6 196.8 188.5 180.1 171.2 162.4 155.3 150.3 144.8 136.7 126.2 123.4 125.3
389.7 396.8 403.7 408.8 412.3 411.3 407.8 398.9 388.9 380.1 374.7 374.3 378.9 383.7 385.3 384.1 376.4 363.7 350 331.7 310.4 286.2 259.9 231.6 205.6 187.1 172.2 160.3 152.8 149.3 146.8 144.5 142.8 142.4 142.2 142 141.9 141.8 141.7 141.7 141.9 139.9 141.2 141.5 152.2 166.2 181.5 195.9 202.1 201.2 197.3 189.4 176.7 164.5 154.8 149.7 146.7 144.6 143.8 143.4 143.6 143.8 144 144.1 143.9 143.8 143.7 143.4 141.8 142.5 141.8 141.1 140.4 139.7 139.1 138.4 137.9 137.4 136.7 135.7 137.5 145.3 154.2 159 160.6 158.4 174 184.8 196.6 212.6 226 230.3 231.2 230.2 227.6 224.1 220.5 214.5 211.6 216.9 226 236.5 245.8 251.7 260 266.7 269.3 269.9 265.9 257.5 251.4 243.9 237.9 230.7 224.2 210.2 202 202.3 197.3 190.3 182.9 178 171.7 165.2 162.4 159.7 160.2 156.4 151.4 146 150.5 156.3 160.1 162.1 164.3 164.7 161.5 150.6 165.7 183.6 204.1 223.4 240.4 253.4 263.8 272.5 279.3 284.5 289.1 294.9 305.3 307.8 302.2 295.4 289.7 287.2 288.9 290.6 291.5 289.3 286.8 283.7 279.7 274.5 271 267.6 262.9 258.7 255.4 255.7 259.9 268.2 277.1 286.2 294.8 301.1 303.1 299.8 293.5 285 275.1 265 255.3 246.3 237.8 228.7 220.7 213.1 206 199.2 191.9 183.2 173.8 164.6 157.1 150.4 141.6 135.4 123.1 123.4
389.8 399.2 407.6 416.7 422.6 424.8 420.7 411.5 401.5 394.6 390.3 389.7 393.2 395.6 394 389.6 380.8 368.2 352.8 335.9 316.9 293.7 267.1 240.4 215.4 196.6 179.4 165.1 155.5 150.8 148.1 145.7 142.4 142.4 142.2 142 141.8 141.5 141.5 141.7 141.9 141.9 139.9 141.2 144.7 160.1 175.2 187.3 190.1 188.3 184.1 177.5 166.5 157 150.7 148.6 146.2 144.8 144 143.4 143.2 143.4 143.6 143.7 143.8 143.6 143.5 142.9 142.6 142.4 141.7 140.8 140 139.3 138.8 138.2 137.6 137.4 137 136.9 146.4 162.6 173.5 174.4 173.2 172.4 168.9 190.3 207.5 223.6 235.5 238.7 239.3 240.7 238.9 234.7 230.1 225.8 228.2 234.8 243.9 256.1 268.4 278.1 289.5 301.2 307.2 308.5 302.3 291.3 282.7 272.9 265.1 258.9 252.8 241.2 231.9 227.9 219.7 212.4 203.9 195.7 188.5 179.3 174.3 174 168.2 161.2 153 154.4 156.9 159.3 162.2 165.8 170.9 172.2 171.2 166.6 157.7 165.8 190.4 211.1 223.9 235.3 245.9 255.9 267.1 279.6 291.5 303.4 316.4 316.2 308.3 298.4 294.3 296.8 299.6 299.8 297.9 294.9 291.6 287.1 282.2 278 274.5 271.4 267.7 263.3 260.3 261.7 266.1 274.1 282.9 290.9 299.1 304.3 306.4 305.3 299.5 291.1 281.1 271 260.9 251.6 243.5 235.9 227.9 221 214.5 208.9 203.3 195.2 186.8 177.4 167.5 157.3 147.1 141.3 136.1 122.4
387.5 398.6 408.8 420.1 429.6 434.3 430.3 422.1 413.4 407.8 404.8 404.1 405.1 404.6 400.9 394.1 384.2 369.4 354.2 338.4 320.8 299.9 274.2 249.2 225.9 205.1 186.6 171.4 161.1 153.5 149.7 147.4 143.3 142.4 142.2 142 141.8 141.3 141.3 141.4 141.6 141.7 141.6 139.9 141.7 151.8 166.4 175.3 177.8 177.9 173.5 167.9 159.7 152.4 149.4 147.6 146.1 144.9 144.2 143.5 143 143.1 143.2 143.4 143.6 143.5 143.2 142.5 142.3 141.8 141.5 140.6 139.7 138.9 138.4 137.9 137.4 137.2 135.7 143.4 160.6 179.1 189.3 189.6 187.6 183.8 175.1 185.9 205.9 224.9 240.5 245.4 247 250.1 250 245.3 240.1 238.6 244.7 252.6 261.3 273.8 287.8 301.8 315.4 331.3 341.3 342.9 335.3 323.5 312 300.8 293.2 287.1 282 273.5 265.5 255.7 244.2 235.3 224.8 213.8 202.5 188.9 182.6 176.5 168.1 160.6 154.2 160.8 163.3 166.1 170.2 173.7 178.6 180.5 178.1 175.1 171.3 156 175.2 193.5 204.2 214.1 224.4 235.6 250.1 268.7 286.2 303.9 314.9 314.6 304.9 301.3 306.6 311.2 311.7 309.4 305.5 301.1 295.9 290.8 286.3 282.4 279 275.6 272.5 268.1 264.9 267 272.3 280.4 288.8 296.9 304.1 309.2 311.8 310.5 305.7 297.2 287 276.8 266.7 257.6 249.2 242.1 235 228.3 223 218.5 213.4 207.6 199.9 190.9 180.9 170.2 159.7 151.3 144.9 136.1
385 396.2 407.9 420.6 433 438.8 436.8 430.4 423.8 419.4 417.1 416 414.1 411.7 406.1 397.1 383.4 367.8 352.9 335.2 317.1 298.1 276.7 254.3 231.6 211.2 193.4 180.1 168.1 159.2 153.2 148.7 146.1 143.5 142.2 142.2 141.7 141.1 141 141.2 141.6 141.7 141.6 141.3 139.9 143 155.4 162.7 165.3 166.2 164.3 160.4 154.2 150.2 148.2 146.1 144.8 144.2 143.6 143.3 143 142.7 142.7 142.9 142.8 142.9 143.1 142.4 141.7 141.2 141.6 140.9 139.9 139.1 138 137.6 136.8 135.7 140.8 155.4 175.1 194.5 206.2 206 201.6 196.7 189.1 181.7 203.6 224.5 243.2 252.4 255.3 259.5 260.4 255.4 249.9 251.5 260.3 269.3 278.5 291 304.7 318.8 334.4 350 357.9 357.6 352.9 345.6 334.5 323.1 316.1 310.9 305.2 295.9 285.9 271.8 258 245.8 233.1 217 203.1 187.9 177.5 169.8 162 157.9 162.2 167.1 172 178 183.6 187.9 190.1 189.1 184.7 180 175.8 167.5 161.8 176.2 188.9 199.7 207.7 218.3 233.1 255 278.2 297.5 308 305.7 310.6 320.8 326.8 327.7 324.2 319.7 314.3 309.4 303.8 297.7 292 286.7 282.7 279.2 275.8 272 269.6 271.6 278.4 286.9 294.9 303 309.9 316 318.1 316.1 311.7 302.7 292.5 282.4 272.7 263.6 254.9 247.4 240.9 235.1 231 227.1 222.5 217.9 211.6 203.3 193.9 184 173.9 163.8 154.5 144.8
382.8 394.3 406.4 420.8 433.7 440.8 441.5 438.5 434.9 431 428.3 425.4 421.8 417 408.8 396 379.9 363.9 347.4 330.2 312.9 294.8 276.5 256.1 235.8 216.8 200.7 188.2 176 166.7 160.1 153 149.1 146.3 145.4 143.9 142.3 141.3 141 141.4 141.7 141.6 141.5 141.3 140.9 139.9 143.7 149 153.2 154 154.2 152.9 149.6 147.8 146 144.4 143.9 143.7 143.5 143.4 143.2 142.9 142.5 142.1 142.1 141.9 141.9 141.6 140.9 141.1 140.9 140.8 140 141.1 141.2 138.4 137.2 135.7 150.1 170.2 189.3 207.9 221.6 221 215.5 209.6 202.9 191 196.3 218.5 240.3 255.9 263.1 268.3 268.8 262.4 260.2 263 272.5 283.3 293.5 305.8 318.3 330.6 343.8 356.6 362.6 360.1 355.8 347.4 336.1 325.4 317.8 311.2 304.2 296 284 265.5 250.7 238.8 226.4 210.1 196.9 182.2 172.8 164.8 164.2 168 170.5 175.4 184.9 193.1 198.2 200.7 199.4 195.8 189.6 183.5 178.8 171.4 165.1 178.7 194.6 209.3 218.7 226.6 235.8 248.4 270.4 292.4 305.2 316.9 330 340.7 342.8 340.2 335.5 330.2 325.6 319.9 313.9 307.3 300.5 293 286.3 282.3 279 275.6 274.6 276.9 284.5 293.1 301.5 310 317.5 323.4 323.9 320.6 315.6 306.7 296.9 287.1 278.3 269.1 260.7 252.8 246.8 242.1 238.5 234.6 230.7 226.2 220.2 212.4 203.9 195 185.1 174.1 163.9 154.1
382.2 394.4 406.6 420.9 434.1 442 445.6 445.4 444.5 441.8 437.5 432.5 426.6 419.1 406.9 391 374.6 357.9 340.8 323.9 307 290.3 273.4 256.1 238.2 221.8 208.9 197.7 185.6 173.9 166.5 159 153.6 150 149.1 147.4 145.8 142.1 141 141.4 141.5 141.3 141.2 141.2 140.9 140.6 139.5 141.2 143.6 145.7 146.6 146.5 145.1 144.6 144.3 143.9 143.8 143.6 143.4 143.2 143.1 142.9 142.5 141.7 141.4 141.2 141 140.7 140.5 140.5 140.5 140 140.6 141.5 143.8 141.7 135.7 143.6 167.3 189.5 206.9 223.7 236.4 238.2 231.7 223.8 217.1 205.2 192.3 211 234.1 252.5 266.3 274.6 273.4 272.1 272 273.8 283.3 293.6 304.6 316.5 327.3 338.8 351.1 362.8 366.4 363.2 357.4 345.6 332.4 321.3 311.8 303.2 293.4 284.5 273.6 256.8 241.1 229.1 217.3 202.8 190 180.7 173.1 164.4 172.5 179.1 185.1 192.1 198.8 204.7 210.1 209.6 205.5 199.2 192.1 185.6 179.9 172.9 167.9 184.7 202.5 221.3 235.9 244.6 252.6 260.9 270.1 289.6 307 325.5 343.7 352.5 353.9 350.4 343.7 341.1 337.2 331.4 324.8 317.5 308.8 300.1 291.3 285.4 282 279.3 279.2 283.2 291.3 299.9 308.4 316.8 325 330.7 329.4 324.4 318.2 311 301.4 292.4 283.8 274.8 266.9 259 252.7 248.7 244.9 241.3 237.8 234.2 228 218.4 207.9 198.8 192 182.8 173.2 164.8
383.6 395.3 407.9 422.1 435 444 448.5 450.7 451.5 449.7 444.9 438.1 428.7 416.4 400.7 383.9 368.1 351.4 334 316.8 300.1 284 269.9 255.6 241 227.2 216.3 205.6 192.4 178.6 171 163.7 157.5 153 152.1 151.1 154.5 145.6 141.8 141.2 141.2 141.2 141.1 141.1 140.8 140.7 140.5 139.7 140.8 141.5 143.2 142.9 142.8 142.8 143.9 143.6 143.5 143.5 143.3 143.1 143 142.9 142.7 141.9 141.2 140.9 140.6 140.3 140 140 139.7 139.6 139.2 139.4 141.3 139.3 137.5 157 184.9 210.3 229.1 245 255 256.4 247.6 238 228.9 218.5 205.9 202.1 225.8 245.9 265.5 277 281 282.5 283.3 285.2 293.3 303.7 314.8 325.4 335.2 346.2 358.3 368.6 370 366.3 358.6 344.1 329.4 317.3 305.5 292.4 278.3 268.1 258.1 246.3 231.7 220 208.1 197.3 189.1 183.2 176.5 169.5 189.7 197.8 203.3 207.6 210.4 214.3 218.7 216.2 207.1 200.2 194.1 187.8 181.7 171.8 170.5 189.7 209.3 229.1 248.5 262 271 279.2 286.5 297 312.7 330.8 347.8 357.1 359.9 358.2 355.9 351.6 346.3 340.2 333.4 324.1 314.2 305 295.6 288.9 284.9 282.5 284.6 290 298.2 306.9 315.4 324 332 337.5 334.6 328 321.1 314.2 306.7 297.9 289.3 280.7 272.6 264.8 258.6 255.1 251.3 247.7 244.5 241.9 235.6 224.5 211 198.4 192.6 186.4 178.4 170.3
386.5 398.3 410.8 425.1 437.4 445.9 451.2 454.4 455.9 454.3 449 439.2 424.3 408.4 391.8 375 360.4 343.9 327.1 309.7 293 278.2 266.1 253.8 242.8 233.2 220.7 210.1 195.9 182.2 174.6 167.6 163 157.5 156 155.1 153.2 150.4 145.2 141.5 141 141 141 140.9 140.8 140.7 140.5 140.2 141 140.7 140.7 142.3 143.9 143.4 143.2 143.4 143.6 143.7 143.6 143.5 143.4 143.1 142.8 142.3 141.8 141.2 140.7 140 139.7 139.4 139.4 139.1 139.3 139.1 138.1 137.1 144.2 171.4 201.1 228 251 265.6 272.6 270.7 261.6 251.1 240.9 229.7 217.3 205.2 219 241.3 263.6 279.7 288.4 292.3 294.4 297.8 306.1 316.5 326.6 335.2 344 353.3 364.4 373.3 373.8 370 360.2 344.4 328 313.4 299 283.8 268.8 256.4 244.7 233.2 223 213 204.4 197.7 191.8 186 178.4 178.6 204.3 215.7 219.7 220.8 222.1 223.7 224.8 219.7 209.6 200.6 195.1 189.7 184 171.9 170.8 192.6 213.5 235.1 257.6 277.5 289.6 298.3 304.7 311.3 321.9 335 350 360.4 364.4 363.7 364.5 360.1 353.5 347 338.5 328.5 318 308.4 299.1 293.1 289.6 287.4 290.5 297.4 305.5 313.9 322.4 330.9 339.2 343.6 339.1 332 324.7 317.5 310.4 302.8 294.7 286.5 278.2 269.9 264.1 260.8 257.4 254 251.1 247.9 242.9 231.4 216 204.3 196 188.8 181.2 174.1
390.8 402.6 415.7 429.7 441.5 449.1 454.8 458 457.6 454.4 446.7 431.9 414.3 397 380.7 365.7 351.3 335.4 318.8 301.9 286.1 273 261.7 250.6 243.4 237.7 226.6 211.5 196.4 184.3 176.5 170.2 165.7 158.5 157.7 157.7 157.1 154.8 150.1 143.8 141.2 140.8 140.9 140.7 140.6 140.5 140.6 140.3 139.4 140.4 140.3 140.3 140.9 143.2 143.9 144 143.9 143.9 143.8 143.7 143.4 143.1 142.9 142.5 142 142.1 141.4 140.4 139.4 138.6 139.1 139.1 139 138 137.6 136.4 152 183.8 215.5 245 269.4 283.5 288.4 283.9 275.2 264.5 252.7 240.1 227.2 215.4 216.8 241.2 264 281.4 292.8 298.5 302.7 309.3 319.1 328.9 338.6 346.7 354.3 362.1 371.1 377.8 378.7 375 363 346 328.4 311.2 294.2 278.5 265 252.3 240.5 230.7 222.2 214.1 206.4 200 194 187.6 180.6 186.6 216.3 232.6 236.8 238.4 234.7 230.9 226.6 221.3 211.8 202.6 195.7 190.6 184.1 171.3 173.4 196.8 220 243.6 267.4 289.8 304.3 312.2 318.4 324.3 331.8 341.3 352.4 362.5 369.3 374 375.1 369.2 362 353.4 343.4 333.2 322.3 311.6 302 296.8 293.8 293.1 297.6 304.8 312.7 321 329.5 337.9 345.5 349 343.3 336.2 328 320.1 313.4 305.8 297.8 289.5 281.6 273.8 268.8 265.4 262.2 258.8 255.7 251.9 246.9 236.8 220.8 207.4 199 191.3 183.9 178.2
396.7 408.8 422.4 435.5 445.4 453 457.9 459.4 456.6 449.6 436.5 419.3 401.5 383.8 368.1 354.5 340.8 325.5 309.6 293.1 279.6 268.6 258.2 249.8 243.2 235.6 223.5 209.9 197.9 188.1 178.3 170.7 165.5 163.3 162.7 162.1 162.2 159.9 154.3 148.5 142.7 140.8 140.7 140.5 140.6 140.8 140.8 140.7 139.5 140.4 140.5 140.5 140.3 140 140.7 142.4 143.6 143.7 143.8 143.7 143.4 142.8 141.4 141.4 142 141.9 141.9 140.4 138.3 139 137.8 137.5 137.4 137.4 137.4 138.8 162.4 194.8 228.4 259.7 282.3 295.2 301.3 295.7 286.9 275.9 264.1 251.6 239.2 226.7 218.1 241.2 264.9 279.8 292.9 301.2 308 317.7 328.5 339.8 350 358.3 365.9 373.3 379 379.8 378.6 375.9 366.1 348.9 330.3 312 293.4 279 267 254.8 244 235.4 227.4 219.2 210.1 202.7 195.8 189.7 179.8 198.5 229.6 247.2 252.4 250.5 246.1 237.6 229.4 222.2 213.3 204.9 196.6 191.3 185.9 173.6 175.4 201.5 227.2 252.8 277.6 300.1 312.9 320.2 327.2 333.5 340.6 349.7 359.4 368.6 377.5 384.1 382.1 378.1 370.3 359.5 348.3 337.6 326.3 313.9 304.4 300 297.4 299 305.1 312 319.9 328.2 336.4 344.3 351.6 354.1 347.9 340.6 332.3 323.6 315.3 307.6 299.7 291.7 284.4 277.6 273.6 269.9 265.8 262 258 254.2 249 238.1 223.9 211.5 201.6 193.4 186.2 183.7
404.1 415.8 428.6 440.2 449.3 456.2 458.9 457.2 452.3 439.9 423.8 405.6 387.5 370.6 355.9 342.8 329 314.8 299.6 285.1 274.2 264.3 255.7 248.6 239.8 228.5 217 208 198.5 190.8 176.4 174.8 168.9 165.4 165.6 165.3 165 163.5 159.6 155.2 148.2 142.5 141 140.9 141 140.9 140.8 140.7 140.6 139.4 140.6 140.5 140.3 140.2 139.9 139.8 141.4 142.8 143.7 143.6 142.7 140.5 139.3 139.6 140.4 140.7 140.4 138.3 138.8 139.1 138.9 138.8 138.4 138.6 138.1 146.2 174.9 207.1 240.3 270.6 290.6 303.9 312.3 307.3 297.7 287.6 275.9 263.1 251.2 238.5 226.9 240.5 263.8 276.6 290.7 302.8 313.4 324.7 336.4 348.7 359.8 368.9 377 386.2 390.2 387.2 382.7 378.1 370.9 354.4 335.5 318.7 302.6 288.8 276.9 266.7 256.1 248 239.9 230.2 216.9 207.9 199.7 192.2 183.9 212.9 249.4 258.5 259.4 255.8 250.2 241.4 232.1 224.2 216.5 207.9 202.3 195.6 188.7 175 177.2 203.1 229.3 255.4 281.4 304.9 317.2 326.4 334.8 342.1 349.1 358.6 368.7 377.7 386.6 392.5 392.3 386.7 376.7 365.7 353.5 341.7 329.6 316.5 307.8 305.3 303.9 307 312.9 319.4 326.8 334.9 342.8 350.7 357.2 358.6 352.9 345.1 336.4 327 317.4 309.1 300.9 292.9 287.2 281.9 277 272.6 268.1 263.5 259.6 255.6 249.4 238.4 226.5 215.9 205.6 196.6 191.3 192.9
409.7 421.2 434 445.1 453.3 457.7 457 452.5 441.7 426.2 409.4 390.5 372.5 357.8 344.6 331.3 317.3 302.9 288.9 277.2 267.3 258.8 251.3 243.5 231.5 219.9 211.5 202.4 197.3 185.6 186.4 176.3 170 167.7 168.4 167.3 166.8 165.5 163.2 159.8 154.5 147.4 142.2 141 141 140.8 140.7 140.6 140.5 140.7 139.3 140.5 140.2 140.4 140.1 139.7 140.2 141.7 141.3 142.1 140.8 139.2 139.1 139.1 138.9 139.2 139.4 138.3 138.6 138.6 138.5 138.4 138.2 138.2 139.5 158.1 188.3 219.2 249.5 278.3 296.9 310.4 320.9 318 309.2 300.3 287.6 273.9 263.2 251.3 239.7 238.3 260.7 276 291.4 306 319.3 332.3 345.1 357.4 369.1 378.5 388.2 396.9 398.4 396.9 392.6 385.3 377.3 365.6 348.7 332.9 319.3 305.6 292.9 281.9 272.6 262.8 252.4 238.1 223.4 212.5 203.7 195.4 189.9 224.3 258.7 271 266.3 262 254.3 244.5 234.8 227.5 221.4 215.3 208.3 199.7 191.9 179.5 180.1 203.7 229 254.9 280.5 304.8 319.3 329.5 339 348.4 357.4 367.9 378.6 387.7 395 400.8 400.8 395.5 384.9 371.6 359 346.7 333.7 321 314.7 314.5 316.7 320.4 324.4 327.7 333.5 341.3 349.1 356.4 361.6 362.3 357.5 349.5 339.8 330.2 320.4 310.9 302.8 295.9 291.3 287 281.8 276.6 271.1 265.7 261.7 255.8 248.5 238.4 228.3 220.2 211.3 202.9 199.7 204
413.2 426 439.2 449.3 454.5 455 451.4 442 426.8 410.7 393.8 375.1 358.7 345 331 317.4 306.1 292.3 279 268 258.5 250.6 243.1 233.5 221.2 210.7 205.2 195.3 193.5 192.5 182.1 175.4 171.9 171.9 172.3 170.9 169.1 167.6 164.8 162.3 158.5 152.5 146.8 141.9 141 140.8 140.5 140.5 140.5 140.5 140.2 140.7 139.2 140.3 140.1 139.8 140.1 141.2 140.8 140.1 139.4 139.2 139.2 139.2 139.1 139.1 138.3 139 138.6 138.4 138.3 138.1 138.1 138.3 143.6 168 198.1 227.2 256.2 284.1 301 313.7 325.4 327.2 320.7 312.8 300.1 286.5 275 264.5 253 241.7 259.4 276.4 293.5 310.2 325.1 339.4 353.3 366.3 378.5 388.4 395.4 400.9 404.7 406 403.7 395.6 386.9 377.6 366.4 352.4 338.1 324.1 311.5 300.1 291.3 277.4 261.7 245.1 229.4 217.9 208.3 199.7 190.6 222.5 257.7 280.7 275 265.6 256.6 248.1 238.5 231.7 227.5 222 213 203.1 194.9 184.6 178.8 201.8 227.1 252.6 278.1 301.8 317.2 328.5 339.4 350.5 362.4 374.3 386.7 395.6 403.2 409.8 409.8 403 391.3 377.5 364.5 352.3 339.2 328.9 326 326.7 328.7 331.4 334.4 337.6 340.8 347.1 354.5 361.1 364.7 364.4 360.6 352.4 343 333.4 323.6 314.1 306.6 300.8 296.7 292.8 288.4 283.1 277 270.2 264 256.1 247.1 238.6 230.1 224.6 216.4 209.7 206.5 212.5
