ncols 200
nrows 82
xllcorner 290000
yllcorner 741250
cellsize 50
442.4 436.2 428.7 425 420.8 419.8 422.5 426.5 428.5 428.5 430.4 431.4 431.4 432.8 433.5 437.4 437.7 437.4 436.9 439 442.5 449.5 459.7 469 481.6 499.8 507.5 499.9 485.4 482.7 481.6 480 480.4 484.6 490.4 485 478 466.1 443.1 404.4 387.9 379.8 374.8 372.1 369.3 366.9 366.3 361.1 360.7 361.4 364.5 368.2 371.3 373.1 376.4 380.6 385.6 389.3 394.6 399.7 405.2 411.6 418.7 425.5 433.7 446.3 449.9 451.3 452.7 454.3 456.1 460.6 466.3 465.6 464.6 464.2 458.1 456.9 452.1 444.9 437.7 440.3 435.2 437.1 440.5 448.3 455.8 464.4 462.1 464.1 461 456 437.4 420.4 413.3 407.4 406.8 405.2 405.5 405.6 403 400.8 396.5 391.2 388.6 385 381.6 377.8 377.6 379.1 380.9 382.1 383.7 384.9 386 389.4 390.9 392.6 394.6 397.3 398.4 400.7 404 407.2 411.2 414.5 417 419.1 421.1 423.4 426 427.5 430.8 433.8 437.4 442.5 446.8 446.3 444.6 444.4 447.2 449.9 451.7 457.6 467.7 476.4 481.8 487.7 489.9 489.3 487.3 476.5 465.7 450.3 443.6 438 424.3 410.9 406 397.5 392.1 383.7 376.5 371 366.9 358.1 345.9 338.9 335.9 333.2 338.3 338.8 334.7 328.6 322.2 314.2 306.9 300.7 292.7 271.4 255.4 246.6 238 227.7 215.3 204.1 194.2 177.9 165.5 146.9 130.6 115.4 105.4 98.6 95 94.7 88.6 74.1 61.1 54.4
441.6 435.5 429.2 424.1 419 419.1 422 424 425.1 427.9 430.6 431.4 432.2 433.9 435.3 436.3 442.6 436 435.8 437.7 442 450.5 456.5 465.1 477.4 494.2 495.6 487.8 483.4 482.6 483.4 485.7 489.8 491.1 496.6 490.7 482.8 473.4 457.5 419.2 391.7 381.1 375.1 372.2 368.3 365.5 364.8 361.6 358.1 359.5 362.9 366.1 369.3 371.7 373.1 377.4 381.2 386.3 389.9 395.2 400.5 406.8 413.4 419.7 425.7 437.1 441.3 445.4 447.8 447.7 450.2 455.3 464.6 466.3 462.4 458.4 454.1 451.2 449.4 444.5 434.9 429.1 429.9 433.8 439.8 444.8 458.5 465.2 466.4 463.8 459.1 453.1 437.2 416 408 407.2 407.5 407.2 408.3 404.8 401.6 398.9 394.5 390.8 388.4 386 382.6 378.9 375.1 378.9 381.1 380.6 382.1 383.2 386.1 387.1 389.7 391.5 393.5 396.3 397.4 399.5 401.9 404.9 409 412.4 414.7 417.3 419.7 422.2 424.8 426.6 430 433 435 438.9 441.2 441.2 443.8 445.8 448 450.4 454.5 460.5 472.7 477.6 483.8 488.3 489.2 491.3 494.8 483.7 468.3 450.2 445 440.6 429.9 415.3 406.9 400 392.7 385.2 374.3 367.7 358.1 350.4 342.3 333.8 331.7 333.4 337.4 340.8 340.5 331.3 323.1 309.7 300.8 301.7 292.4 277.7 252.4 240.5 234.3 226 213.7 202.5 194.5 183.7 166.1 147.6 131.1 117.9 109.9 103.3 99.8 97.6 92.4 81.5 66.9 53.6
444.3 435.5 427.6 421.6 416.2 415.3 418.5 422.4 423.2 425.2 427.7 430.5 431.3 434.4 436.2 436.6 436.6 435.2 435 436.7 442.2 452.6 458.2 464.6 472 480.6 483.2 482.3 483.6 483.8 488.4 495.2 497.7 506.5 505.9 500.6 487.4 478.3 465.9 442.6 398.8 383 375.5 371.8 368.5 366 365.1 363.3 357.4 357 359.8 362.1 366 369.2 370.8 373.9 377.1 381.3 385.9 390.4 395.6 401.6 407.5 415 420.4 422.3 424.1 440.3 442.1 441.7 443.3 448.1 462.4 466.3 461.4 452.8 449.9 447.8 445.7 443.3 433 426.1 425.9 429.5 444.1 445.8 449.6 462.1 464.4 460 458.6 455.8 434 411.7 408.2 407.7 409.6 408.6 408.7 402.9 401.7 398.2 394.9 390.6 388.1 386 384.7 380 375.5 375 380 380.1 380 382 383.5 385.6 388.9 391.6 393 395.2 397.1 398.5 401.1 403 406.4 409.7 411.9 415.9 418.1 420.8 423.8 425.9 430.1 434.3 434.5 436.5 439.1 440.9 443.6 448 451 451.4 457.3 465.8 474.2 480 484.4 489.4 491.4 493.3 492.6 482.5 469 452.8 445.4 442 435.4 422.2 408.3 404.1 396.9 385.5 372.3 363.5 353.2 345 338 332.6 330.7 332.4 333.6 331.6 335.6 331.5 325.3 310.2 301.1 299 289.4 269.7 249.9 239.2 230.7 222.2 210.8 201.1 193.7 185.5 168.9 149.5 133.4 120.3 111.1 105.2 102.2 98.2 90.3 80.3 69.6 59.5
444.8 433.8 425.7 419.8 413.2 411.8 411.9 414.7 416.2 419.6 423.7 427.6 430.7 435.4 435.9 435.8 435.2 434.7 434.5 435.7 442.7 451.2 459.4 462.3 466.2 471 474.8 479.7 480.8 484.5 496.7 501.3 513.1 517.2 516.2 509.1 503.1 479.9 471.3 435.1 406.7 385.3 377.2 371.6 369.3 367.3 364 359.6 356.2 354.4 357 358.9 362.8 366.3 369.2 371.1 373.6 377.4 382.6 386.6 391.1 395.4 401.1 408.5 416.1 422.9 422.8 432.2 435.4 435.4 436.4 443.2 453 461.4 458.5 450 446.1 444.3 441.9 439 432.6 425.1 421.9 425.2 434.8 442.4 450.6 455.7 463.1 459.2 457.2 449 427.2 412.9 409.7 410.3 412.7 411.2 412.3 404.2 401.6 398.2 395 391.7 389.1 385.1 384.8 381.3 377.3 373.4 375.6 379 377.9 379.5 382 385 387.5 390.3 392.8 393.7 395.1 398.7 400 401.3 403.8 406.6 412 414.9 417.7 420.4 423.6 424.8 427.7 432.3 434.8 436.8 438.3 441 443.7 448.6 451.6 454.3 458.4 469.5 478.2 482.3 484.1 485.7 489.6 490.4 488.9 477.9 468.3 455.7 447.6 444.3 436.9 428.7 416.2 405.7 395.2 384.1 371 359.5 349.1 342.9 336.7 331.8 330.7 327.8 326.7 326.8 328.5 327.2 324.6 313.2 308.2 299.3 283.3 264.2 245.2 236.6 226.9 217.6 207.9 198.9 193 183.6 169.5 151.9 137.1 122.2 111.5 104.4 101 95.7 89.3 78.8 71.8 62
445.9 436.9 423.5 416.9 411.2 409.4 409.1 409.7 412.7 416.6 420.5 424.9 428.8 433.1 435.5 435 434.6 433.9 434.5 436.2 444.1 449.5 456.9 458.8 463 467.8 472.1 477.3 481 489.2 499.9 519.9 526.1 523.6 522.6 517.4 509 495.3 470.7 433.5 412.8 392.2 377.7 371.5 366.5 363.4 360.8 357.5 354.3 353.6 353.4 355.9 358.4 362 366 368.3 370.4 374.1 378.2 381.1 385.2 390.5 393.9 402.6 410.9 414.7 418.1 421.1 428.1 428.3 431.3 439.2 442.3 447 451.3 447.8 442.9 438.4 437.9 431.7 431.2 424.8 421.4 421.1 431.9 437.3 447.9 450.1 453.9 458.5 454.6 441.9 422.7 417 411.6 410.2 414.6 418.5 414 407.9 402 399.5 396.1 392.7 391.1 383.8 383.6 381.4 379.6 373.8 372.1 375.9 375.5 378.2 380.2 383.5 386.2 389.4 391.3 392.2 393.4 396.3 398.1 399.9 402.6 406.7 411.8 415.6 417.9 422.4 427 427.2 428.6 430.7 434.5 437.7 438.9 441.6 445.4 449.3 453 457.2 463.4 480.7 483.7 488.2 483.4 489.1 491.3 487.7 483 475.3 465.5 457.2 450.6 445 441.8 433.6 423.5 405 393.6 384.6 368.5 357.5 348 341.4 337.9 333.6 327.8 325 328 328.2 324.2 322.9 321.7 314.3 304.7 300.3 272.9 255.6 240.9 231.2 222.7 211.3 201.1 196.3 189.5 180.7 168.7 153.7 140.7 124.9 113.9 106 101.7 100.2 97.9 87.1 74.3 63.6
446.8 437.4 422.6 414.6 409.2 407.2 407 408 410.5 414.1 418 422.1 426.4 430.8 435 435.5 434.7 434.2 434.9 437.8 445.4 448.1 451.3 455.5 459.9 465.2 470.9 477.3 483.8 499.8 509.5 522.4 527 526.6 527.6 520.1 511.4 495.7 469.6 435 414 397.2 380.3 371.4 365.4 362 360.6 357.5 354.2 353.1 351.4 352.9 355 357.4 360.9 365.1 367.6 370.6 373.6 376.4 380.7 384.1 389 394 401.8 409.1 411.9 415.6 418.8 422 424.8 429.2 432.9 435.4 442.1 444.9 439.4 433.7 431.2 429 427.8 422.9 419.6 419.5 428.1 431 438.7 444.9 447.4 449.9 448.8 430.1 424.7 424.1 417.8 415 412.7 415 406.8 405.5 402.4 403 399 393.6 393.1 383 380.9 381.6 379.5 374.9 371.4 371.6 373.4 375.9 377.9 382.2 385.3 386.7 388.9 391.3 392.3 396.2 401 401.9 403.4 406.6 410.6 414 417.8 423.1 427 428.8 429.4 430.9 434.2 437.8 439.4 442.9 446.4 449.4 453.6 459.7 465.4 476.2 484.6 485 485.7 484.5 488.9 485.8 476.1 471.1 465.1 457.9 452.4 444.4 439.4 431.9 422.2 406 392 378.8 367.5 354.3 346.4 340.2 336.3 334 326.8 324.4 329.2 329.1 321.3 313.9 311.3 303.4 294 282.5 262.9 250.8 237.8 227.8 217.7 205.4 196.8 193.3 187 178 167.9 154.9 142.1 127.1 115.7 108 104.9 103.5 101.4 88.7 75.9 65.4
445.8 435.4 423.4 412.6 407.6 405.8 404.4 406.4 408.9 412.2 416.4 419.1 422.9 426.9 431.9 433.7 434.2 434.6 436.5 441.4 446.3 448.5 451.8 455.1 458.1 463.7 470.6 478.3 488.8 505.5 514.1 520.9 523.6 528.4 526.5 521.3 516.2 505.3 491.3 440.5 413.7 398.8 385 375.3 368 363.1 361.8 358.4 355.6 354 351.2 351.1 353.2 355 356.8 360.2 364.2 366.2 368.4 372 375.4 378.8 383.5 389.1 395.6 402.2 405.8 408.9 411.4 417.8 421.2 423.7 425.9 430 434.7 438.6 437.4 432 427.4 427.5 421.7 419.8 418.2 418.4 420.5 426.6 429.5 438.2 446.7 449.8 446 426.3 425.8 429.9 421.8 420.3 417.2 410.1 405 403.9 404.8 405 403.2 395.9 393 387.4 377.6 379.6 377.6 375.1 372.1 368 371.4 373.6 377 380.4 382 384.5 387.9 388.6 391.6 395.6 399.5 402.6 404.2 406.6 409.5 413.5 416.8 421.7 425.7 428.4 429.1 431.3 434.2 437.2 439.5 442.5 446.3 450.9 455.8 462 469.1 471.1 477.2 481 484.6 481.2 481.5 481 475.2 474.7 466.8 458.7 452.4 444.9 436.3 426.7 415.5 402.4 388 376.8 367 352.9 345.1 339.1 336.9 333.1 325.1 325 327 329.1 316.2 308.8 302.4 292.5 283.7 274.4 256.3 241.5 229.6 224.7 212.5 200.1 194 190.1 184.9 179 166.6 156.3 145.4 129.6 117 110.5 107.7 105.5 100.1 86 74.9 65.5
443.9 434.4 422.4 412.7 407 402.4 401.3 403.5 406.8 411.8 413.3 417.7 420.9 424.8 428.8 432 433.7 436.5 439.9 442.7 446.5 449.8 453.6 456.1 457.9 462.4 468.1 476.7 497.1 504.9 506.9 517.5 518.2 524.5 521.5 517.6 513.6 512.3 488.4 443.8 413.2 398.2 388.5 378.3 370.7 365.1 362.8 360.6 358.6 355.4 352.4 350.2 352.3 352.9 354.4 356.5 358.8 361.8 364.1 367.1 371 374.1 378.1 383.3 388.7 394.4 398.9 402.3 408 412.6 416.6 417.8 419.6 424.3 428 429.5 431.2 429.6 421.5 419.9 418.7 417.9 416.3 418.5 419.9 422.8 429.4 436.4 439.8 456.1 441.9 425.6 425.6 425.7 424.7 423.9 423.2 413.8 406.9 403.4 404.1 402.8 401.1 400.8 393.9 387.7 377.6 375.3 375.6 373.5 370.7 368.6 368.8 372.5 376.7 378.8 380.5 382.9 387 389.2 392.5 395 398.9 402.3 405.5 407.1 409.6 413.9 416.9 421.6 424.8 426.9 428.8 431.7 434.5 437.7 439.3 441.7 447.4 454.4 458 465.1 473.4 477.8 474.6 475.3 477.3 478.1 479.8 479.8 479.6 475.7 472.4 461.8 454 445.4 437.2 425.3 411.1 396.4 386.3 376.1 366.9 357.3 348.5 344.2 340 332.3 325.2 324.1 323.7 325.5 315 312.5 298.4 293.8 282.8 266.1 257.1 247.5 235 214.9 196.7 185.4 186.1 183.5 181.8 178.9 167.9 159.3 150 136.2 119 111.2 106.9 103.7 97.6 84.5 73.9 66.3
443.5 433.3 421.5 413 408.2 402.4 399.8 400.5 402.7 408.9 410.5 417 421.4 424.9 428.3 431.6 434.6 438.6 442.7 444.4 448.1 451.7 455.5 457.9 459.5 461.3 466.5 475.6 494.7 501.7 504.5 508 513 511 515.1 512.8 507.3 501.8 481.8 446.1 416.3 398.3 389.9 381.9 373.4 368 364 362 361.5 359 350.6 349.1 351.7 350.4 352.2 354.5 356.1 357.2 360.7 362.5 364.7 369.4 373.3 377.7 383 386.9 390.1 395.7 401.1 405 411.4 414.9 414.5 416.4 421.8 423.7 423.8 425 422 417.8 416.3 415.1 414.4 417.7 419.7 423.3 429.1 433 437 440.7 436.4 425.8 425 427.2 435.4 433.2 425.2 414.2 409 404.3 401.1 397.9 397.1 398.4 394.7 387 380 373.9 372.8 371.9 370.4 367.1 368.4 371.1 373.8 375.4 377.8 381.2 383.4 388.7 393.2 395.3 399.1 401.9 403.8 406.7 408.5 412.5 416.2 419.9 423.9 425.4 428.5 431.9 435.1 438.2 439.3 443.5 450.5 456.3 460.3 466.5 471.8 476.2 475.3 475 475.1 476.7 478 478.9 480.1 480.5 472.9 474.7 464.4 454.3 433.9 422.4 402.2 393.9 385.2 375.7 368.6 363.1 358.1 348 341.3 333.5 326.1 325 323.9 320 319.6 311.8 299.7 294.2 282.4 267.8 255.2 246.3 235.3 222.4 204.9 194.3 175.5 168.1 179.9 179.7 173.6 155.7 153.2 142.7 124.4 112 105.5 101.6 94.8 84.7 77.7 69.4
442.5 432.4 422.3 412.4 407.8 403.1 399.5 399.1 401.5 405.8 409.1 414.7 420.3 423.9 427.3 429.6 433.6 438.6 441.8 444.5 450.1 453.7 458.3 460.5 461.7 463.4 466.3 472.8 493.6 498.8 500.4 499.7 502.4 507 507.5 505.8 499.1 501.4 474.8 448.8 420.6 400 390.3 382.4 376.6 370.4 365.7 363.5 363.6 361.5 353.5 346.6 348.8 346 350.1 352.5 353.7 354.6 356 358.9 360.1 363.6 366.6 370.8 376.1 378.7 382 389 394 402.6 405.8 409.7 413 411.6 415.7 416.7 417.6 420.5 418.8 414.6 412.9 412.2 411.7 415 419.3 425.4 427.4 426.1 428.3 430.4 429.8 421.9 425 430.7 433 435 421.1 413.5 410.5 406.6 402.6 397.8 393 391 389 383.6 378.4 373.4 370.6 369.9 368.8 365.6 366.8 371.1 372.6 373 375.8 379.3 382.9 387.6 391.6 393.9 396.7 400.3 402.2 404.8 406.9 410.6 415.3 420.2 422.3 424.3 428.2 432 436.1 439.5 442.4 445.9 453.2 458.3 462.6 466.7 470.2 472.3 473.7 474.8 478.6 479.8 475.3 477.6 477.5 480 480.1 475.6 470.1 453.9 432.7 414.8 398.6 392 383.2 374.9 368.8 364.8 359.2 349.4 341 334.3 327.8 325.7 325.2 323.3 319.2 308.3 300.9 297.4 286.5 264.2 250.1 240.4 235.2 219.2 202.4 191.4 182.1 164.7 160.8 171.2 172.6 152.7 151.5 143.9 128.5 113.8 105.3 99.1 93 87.8 82.9 73
440.9 431.9 422.4 411.3 407.2 403.4 398.6 397.9 400.6 406.2 409.7 413 418.1 421.1 424.3 427.1 431.5 436.4 440.9 445 451.6 456.7 461.7 463.6 463.5 465 466.9 469.5 480.8 491.5 489.5 493.3 501.5 504 499 493.8 494.5 487.5 471.6 451.4 428.2 405 390 383.5 379.4 372.6 367.6 365.2 364.8 361.1 354.5 349 346.5 344.4 346.9 351.1 351.9 352.7 353.1 354.5 356.1 359.5 362 364.2 368.1 372.9 377.3 382.7 386.9 392.4 398.4 405.8 407.4 409.4 408.3 409.4 412 414.2 413.7 410.8 409.2 410.3 410.6 410.3 414.8 421.7 425.3 425.5 419.6 418.5 420.3 420.5 420.1 423.8 424.8 424 422 415 413.7 410.4 404.7 399.3 394.4 390.6 389.4 383.2 376.8 373.5 370.4 368.3 367.2 362.7 366.8 370.9 371.1 371.4 373.2 375.9 380.7 385.4 389.2 392.8 395.5 397.6 401.2 402.6 405.5 408.4 411.6 416.2 419 422.7 427.2 432.6 437.3 440.9 443.7 447.5 456.2 461.4 463.2 465.6 469.6 471.1 473.1 475.2 479 479.6 475.5 473.2 473 473.7 478.4 474.9 457.9 444.7 425.9 411.3 400.1 389 384.4 376.3 371 366.5 361.8 351 343.5 337.2 333 327.5 324.9 321 314.9 304.1 296.4 291.8 280.2 260.2 247.5 237.6 232.6 221.4 205 188.8 175.1 165.5 150.9 146.7 157.9 147 148.9 138.4 126.2 113.1 103.3 101.1 104.7 103.1 97 77.1
440.9 431.5 421.3 409.7 405 402 398.7 397 399.3 404.1 408.8 412.4 415 417.5 421.7 425.2 429.8 435.3 441.9 448.1 452.3 459.9 468 470 466.8 466.6 466 467.2 472.3 476 484.4 488.2 489.6 491.5 488.8 488.4 486.1 481.4 467.5 451.8 432 410.1 392.4 383.4 379.3 372.9 369.1 366.1 365.9 363.3 356.1 350.1 348.7 344.7 342.6 348.6 350.2 350.8 350.9 351.9 352.7 355.5 359 361.1 364.9 368.9 374.8 378.1 380.9 386 390.1 398 402.3 406 405.5 405.9 408.7 410.8 410.2 407.6 407.1 408.8 409.2 409.5 411.3 417.8 420.8 425.2 416.2 411.7 413.9 413.6 417.5 419.6 422.6 420.1 419.3 417.3 415.6 414.8 406.7 400.5 398.1 389.5 388.3 381.9 374.4 371.1 369.8 366.4 365 360.8 365.9 367.2 368.3 370.6 371.9 373.2 377.6 382.6 386.8 392.8 393.6 395.4 398.9 401.2 404.2 406.7 408.8 412.1 415.1 419.3 426.8 433.7 438.7 441.5 442.3 445.8 453.5 463.6 463.1 462.2 465.6 470 473.2 475.4 476.9 478.5 478 474.5 471.9 472.6 473.6 470.4 453 430.8 418.9 408.6 393.5 391.5 388.6 382.2 376.4 370.3 365.7 358.2 349.8 341.2 336.2 331.1 325.2 319.9 312.7 306.7 298 282.4 272.1 258.5 246.7 236.6 231.1 220.1 207.5 189.6 169.8 155.3 147.8 137.2 141.2 143.6 139.6 131.6 122.4 110.2 102.3 102 106.2 103 91 73.3
440.9 431.3 421.5 410.2 404.1 401.1 398.1 397.1 397.5 401.6 406.5 410.1 412.7 415.4 420.2 425.3 429.8 432.9 443.2 445.5 453.2 464.4 471.4 471.9 468.8 467.5 466.6 465.9 467.8 469.1 471.4 483.5 486.9 481 482.9 483.3 476.3 471.1 456.3 448.3 432.7 412.1 395.4 383.3 377.5 372.9 371.1 367.9 367.9 364.9 357.4 352.8 351 344.4 342.7 343.9 348.2 349 349.1 348.7 349.3 351.9 356.5 359.4 362.4 366.6 370.8 374.8 377.7 379.9 383.3 386.2 394 398.5 401.8 404.4 406.4 406.4 406.3 404.2 404.7 406.8 407.8 407.4 408.3 410.3 417.3 417.6 415.2 408.3 409.6 412.1 417.9 419.9 420.3 420.2 419.5 418.7 417.3 415.3 406.9 400.2 392.8 391.1 384.5 378.6 371 367.6 366.7 364.6 363.7 362.8 363.6 364 367.4 368.8 369 371.7 376.4 381.5 384.5 390.3 392 394.1 396.7 399.1 401.7 403.8 406 410.6 412.8 416.6 424.4 432.2 438.2 441.9 442.7 444.3 448.9 457.1 462.8 459.8 460 466.1 471.8 474.7 476.9 478 473.6 475.8 472.9 471.5 469.6 462.7 442.9 425.7 415 407 398.8 398.4 394.2 391.1 384.2 377.2 371.7 365.1 356.5 342.8 337.5 332.5 325 319.8 315.1 309.1 299.8 283 273.4 260.8 248.2 237.9 230.1 220.6 207.2 193.4 173.3 160.1 151.9 143.4 129.8 114.6 125.3 123.2 116.8 108.8 100.5 100.7 96.3 87 73 64.3
439.9 432.8 424.1 412.8 405.8 401.2 397.7 396.6 397.8 399.4 402.4 408.2 413.5 417.1 421.7 427 430.2 432.2 439 443.7 452.6 462.4 469.7 471.6 469 467.5 466.5 465.3 465.2 466 467.4 469.3 477.2 475.6 477.7 475.9 472.5 468.1 450.1 441.8 429.2 410.9 397.9 387.4 378.1 372.9 371 369.6 368.2 365.3 359.8 356.1 352.4 342 340.2 341.1 344.2 347.5 347.3 346.6 346.8 349.3 354.4 357.7 360.2 363.6 368 371.4 374.4 376.3 378.2 380.1 383.5 391.9 398.8 398 402.6 403.6 404.3 402 401.4 403.7 404.2 405.6 407 406.2 409.6 410.6 407.8 407.2 409.5 411.4 417 420.3 420.6 420.5 419.6 416.6 413.5 410.7 404.1 393.2 388.6 383.8 382.8 374.8 369.3 365.4 361.8 361.7 363.2 363.4 357.7 361.5 365.3 367.1 367.3 371.1 374.3 380.8 383.3 385.3 389.7 391.6 393.6 397.6 400.1 401.1 404.6 408.8 410.9 414.4 421 429.6 436.3 441.8 442.6 443.2 446 453 456 453.4 454.3 458.6 466.8 473.1 474.1 476.7 471.4 469.6 472.7 461.7 457.1 442.9 432.3 423.8 417.1 412.1 408.8 410.9 404.4 394.7 391.9 385 378.2 370.9 362.2 349.8 340.1 331.6 325.5 322.1 318.1 312.7 303.6 291.4 279.4 268.5 254.8 242.8 234 222.9 210.6 200 184.8 171.5 162.1 151.2 140.3 127 112.5 100.7 97.2 99.1 97.3 86.4 78.5 69.6 67.1 64.9
442.1 433.8 425.5 415.4 406.9 400.7 397.2 396.3 397 397.1 400.8 406.8 413.6 417.2 421.1 425.6 428.4 432.6 439.7 443.9 449.4 457.9 462.6 468 467 466.7 466.5 465.8 464 464.2 464.5 466.1 468.5 469.5 472.1 468.3 468.8 462.4 445.3 434.5 422.3 409.5 397.3 388.9 379.6 373.6 371.3 370.1 368 366.7 361.8 356.8 351 344.6 340.3 337.5 339.7 343.4 344.4 343.3 343.7 347.2 352.3 356.6 357.9 360.4 363.9 367.7 370.3 374 376.6 377.2 380.8 387.6 394.2 397.6 399 400.7 400.6 400.6 399.4 400 402.3 404.9 405.5 404.6 404.1 404.8 405.6 407.3 408.8 412.1 419.9 420 420.6 420.5 419.2 416 409.5 406.7 398.9 390.5 384.8 376.1 373.3 371.7 365.2 359.2 358.6 360 361.9 360.1 358.6 354.7 361.2 362.8 365.7 368.4 372.5 379.6 382.3 383.1 386.6 389.4 392.3 396 398.4 400.2 403.4 407.1 409.4 412.6 417 426.2 434.2 440.6 441.9 442.7 441.9 445.9 447.8 445.8 453.1 455.5 465.3 470.8 472.6 473.1 471.2 462 457.9 448.5 435 430.6 425.9 422.7 419.9 418.2 416.3 417 413.6 403.8 400.2 391.5 383 374.8 364.9 356.5 347.5 336.9 328.5 323.8 320 314.7 308 297 286.3 276.9 262.3 247.7 240.9 229.2 217.5 206.2 196.6 183.9 171 158 146.7 133.5 118.5 106.7 96.7 85.1 84 78.1 73.6 70 67.1 64.7
447 436 426.8 415.9 408 401.5 397.6 396.8 396.2 396.3 399.5 407.8 413.7 417.7 421.2 423.8 428.1 433.2 439.2 444.1 446.8 454.7 459.3 460.9 462.4 466.2 464.6 468.6 466.3 462.4 460.6 460.1 465.9 462.5 462.7 462.8 460.6 446.9 436 424.7 414.4 405.9 394.4 386.7 380 374.5 370.9 370.9 368.2 366.9 363.8 358.5 352.4 346.2 342.8 339.9 336.8 337.3 340.6 340.3 339.9 344 348.2 352.5 355.3 359 360.5 364.6 367 369.7 371.3 373.2 376.2 380.3 389.5 393.8 395.8 397 397.7 399.1 398.8 396.5 399 402.5 403.7 403.1 402.2 403.7 405.2 406.6 407.9 417.7 421.7 420.9 421 420.7 420.5 419.3 410.9 401.6 397.7 386.1 383.6 373.8 365.5 364 360.3 355.5 357.1 357.5 358.1 356.2 356.4 349.4 356.1 361.2 364.1 366.7 371.7 375.8 380.8 381.6 383.6 387.6 390.6 394.3 396.8 399.8 402.8 405.8 408.9 411.6 414.7 422.6 432.6 438.8 439.8 438.4 437.7 437.5 439 440.3 446 453.2 461.3 468.2 468.6 466.7 464.8 455.5 445.1 434.6 429.3 425.6 422.8 423.3 424.2 424.1 423.6 422.8 418.7 412.4 407.2 396.7 387.9 380.7 369.3 360.4 353.8 344 332.1 326.3 321.8 316.9 311.5 304.2 291.1 282.8 271.7 256.7 246.7 235.4 225.5 213.1 203.1 191.1 178 163.9 149.9 137.8 122.1 111 100 89 79 78 73.2 68.6 66.5 63.5
445.6 437.4 428.5 419 411.1 404.1 397 396.7 398 398 399.3 408.1 413.1 416.9 420.1 423.9 427.7 431.5 437.8 443.1 447.3 452.1 456.6 460.1 462.3 463 463 464.5 467.5 464.1 459.4 457.2 456.8 459.5 451.9 453.3 446.7 437.4 428.1 416.4 404.9 398.1 390.6 385.9 380.3 375.4 371.7 371.5 369.7 367.4 365.6 359.9 353.5 348.1 345.1 341.6 338.3 334.9 334.4 334.9 337.8 339.8 343.1 347 350.9 355.6 360 361.5 362.9 364 365.5 369.3 373.2 376.4 383.7 389.2 394.6 393.9 395.3 397.5 397.5 395.4 395.2 399.3 400.9 401.6 400.2 402.7 404.5 406 407.6 411.6 419.1 421.2 421.5 422.7 424.7 415.6 413.6 401 389.1 383.6 377.4 371.4 363.2 359.5 356.3 352.3 354 355.7 354.2 352.7 352 347.6 353.9 359.5 362.3 364.5 369.4 373.6 376.7 380.3 381.5 385.5 389.3 392.7 395.6 398.6 401.6 404.6 409.3 411 413.1 416.5 428.2 434 433.5 432.6 431.1 429.2 429.8 434.3 442 447.1 457.2 461.1 462.9 460.2 455 440.5 429.6 423.5 424.4 425.4 424.9 427.8 431.1 435.2 438.4 434.8 427 419.7 414.7 407.7 395.2 382.5 372.8 366.4 358.6 350.2 338.1 329.7 324.4 319.8 315.3 308.5 299.2 288.8 278.3 266.5 252.9 242 233.5 222.4 211.1 197.9 184.7 169.6 153.8 140.2 127.6 115.5 104.2 92.9 81.9 73.5 68.4 65.2 64.8 63.2
443.3 438.7 432.8 423.6 415.1 407.1 397.1 398 398 398 398.1 405.7 411.1 415.8 420.8 423.1 426.3 430.5 435.9 440.6 445.3 449.5 453.9 458.2 460.2 461.9 461.1 463.7 465.4 467.6 460.5 458.7 455.4 450.6 446.9 447.2 436.1 426.4 414.9 406 397.3 390 386.9 384.5 381.4 377 371.9 371.4 370.5 367 366.7 364.7 358.1 350.4 347 342.5 339.7 336.7 334.8 333.7 333.3 335.4 338.4 342.4 347.9 351.2 356.9 360.1 360.2 359.1 362.8 366.8 370.6 374.4 378.2 384.7 389.2 390.4 392 395.5 395.6 394.8 393.3 394.7 397.6 403.6 398.7 400.6 403.5 405.6 407.8 410.7 415.2 420.8 423.2 433.1 430.8 415.6 409.3 399 387.1 379.5 370.8 365.3 360.1 357.1 351.9 348.9 347.9 350.2 350.6 348 346.3 344.5 350.7 356.5 361.5 363 367.1 372.5 373.5 377.3 380 383.5 387.7 391.2 393.8 396.3 398.8 403.8 407.9 409.2 411.6 412.4 421.2 426.4 427.5 426.8 425.1 422.8 420 427 433.7 439.2 445.2 452 450.7 445.4 435.2 428.2 423.4 421.8 421.6 424.6 427.4 434.3 444 450.7 452.8 449 443.2 435.7 426.1 419.9 407.8 396.3 380.3 373.4 362.6 355.2 344 334.3 330.5 323.1 319.8 314.8 305.6 296.6 286.4 277 262.7 251.5 241.9 232.5 220.8 205.8 191.9 174.8 160.5 146 132.7 122.9 108.9 96.1 85.5 80.1 74.1 86 87.4 74.8
440.3 438.1 437.3 432.1 418.7 408.3 397.7 398 398 398 397.7 404.6 409.8 414.3 419.3 422.1 425.3 429.4 434.4 438.2 442.6 447.3 450.2 454.5 453.2 458.5 461.1 466.3 464.7 468.4 465.5 458.6 455.8 448.2 444.5 437.5 429.9 420.9 411.4 406.4 404 401.8 396.3 384.6 381.4 377.2 372.8 371.7 370.8 367.9 366 367.1 361.8 354.2 347.7 342.7 340.2 338.4 336.4 333.8 331.8 330.5 333.7 338.5 343.7 347.5 352.5 356.2 356.1 355.7 361.2 365.2 369.2 373.1 373.4 378.4 384.9 387.9 386.5 391.7 392 391.7 391.9 390.5 393 400 397.8 397.7 400.9 405.6 408.5 412.5 416.1 420 428.6 430.7 425.3 417 409.5 401.3 385.7 377.3 369.3 357.5 354.6 352.4 346.7 343 341.7 342.1 344 342.2 340.2 338.1 349 353.9 358.7 361.2 364 369.3 374 375.2 378.8 382.7 385 388.4 392.2 394.9 396.9 401.5 406.5 409 408.8 409.5 413.3 418.4 419.9 419.2 418.3 417.4 416.5 423.8 432.3 433.1 435.3 441.8 441.5 430.9 421.3 419 419.3 419 420.2 424.5 435 446.4 451.4 459 461.3 457.9 455 451.3 440.9 433.8 423.2 406.5 392.7 380.4 369 359.7 351 341.8 336.2 330.1 324.1 320.7 314.8 303.5 294.4 284.7 269 259.6 250.3 240.1 229.4 214.6 197.9 181.9 167.6 153.8 138.7 126.9 115.6 102.2 94 94.7 92 81.2 80.7 73.7
436.1 434.4 434.8 429.8 418.7 408.3 397.7 398 398 398 398 402.9 407.1 411.9 416.3 420.8 424.8 429.6 433.2 436.4 440.1 443.7 446.6 447.7 452.4 455.5 461.7 466.8 468.3 462.8 463 462.6 454.7 450.7 444.4 439 432.3 425.4 422.2 419.6 414.9 414.4 406.4 395.8 385.2 378.8 373.3 368.3 367.2 365.7 362.9 361.8 362.1 357 348.5 348.4 343.8 339.3 336.7 334.7 331.7 330.6 330.4 333.2 337.5 343.7 347.7 350.7 350.8 354.1 358.5 362.8 368.5 369.6 370.4 372.7 378.7 383.3 385.6 384.5 388.1 388.8 390 388.2 390 394.4 394.3 395.3 400 407.8 412.5 412.9 417.3 419.1 425.5 425.3 421.3 416 410.1 403.3 385.4 374.4 368 359.1 349.4 345 343.2 339.1 338.2 338.3 337.8 337.8 335.2 332.7 345 351.1 355.5 357.8 362.5 365.4 370.4 374.9 376.8 380.1 384.6 386.7 390.3 393.7 395.8 398.9 403.6 405.9 407.2 407.1 407.6 410.3 412.2 412.2 411.8 411.4 411.9 420 427.7 430.6 430.4 432.7 432.9 419.3 412.2 413.2 416.8 417.8 419.4 430.2 443.9 451.3 454.2 458.1 460.6 455.5 457.7 458.8 455.4 447.8 436.9 419 401.8 390.9 378.1 363.8 354.9 346.9 342.9 336.1 330.9 324.7 319.5 310.8 301.4 291.9 279.1 268.3 258.2 247.4 236.9 221.8 205.8 189.8 175.5 161.4 146.4 132.3 120.7 106.5 95.2 89.9 85.4 86.6 87.2 80.8
431.4 430 428.9 426 416.9 406.6 398.4 398 398 398 399.6 403.6 406.6 410 413.9 420.1 424.5 428.7 431.8 434.7 438 441.7 441.7 446.2 448.4 452.8 457.9 463.8 466.8 465.2 461.4 460.2 456.8 449.4 444.4 439.2 438 437.3 432.6 429.7 428.6 428.3 425.6 409.4 398.6 387.9 378.4 371.7 369.1 366.4 365 363.8 360.1 358 353.2 351.8 346.4 340.4 337.5 335.2 331.8 330.8 329.1 328.6 332.5 338.4 343.6 345.3 346.1 350.8 356.9 361.4 366.6 366.9 367.4 368.2 371.3 377.2 382.3 383.4 384.1 386.2 385 386.9 388 389.8 391.7 394.1 399.4 407.8 411.9 414.1 417.7 418.3 420.8 418.1 415.4 412.7 405.7 396.5 384.1 375.4 369.8 363.5 355.3 346.3 335.5 335.2 336.3 335.5 334.7 333 330.4 332.9 342.8 349.5 352.2 354.7 362.5 364.6 368.9 374.6 376.5 378.6 382.7 385.6 388.7 390.2 394.1 395.9 399.4 403.5 405.5 405.7 404.8 404.5 404.3 404.2 404.6 404.1 407.9 414.4 420.9 425 429.7 421.2 415.3 407.6 406.8 409.1 412.3 417.1 419.8 433.5 444.9 450.6 456.4 455.6 455.7 457.6 464.8 469.8 467.3 461.4 448.4 432.5 410.9 397.6 382.7 369.4 359.2 354.3 349.3 341.6 335.1 328.4 323.5 317.7 308.3 297.9 285.6 274.3 263.7 250.9 242.3 229.4 214.6 198.6 182.6 168.7 153.8 139.4 125.4 112.3 101.3 94.5 89.3 88.4 94.8 96.2
425.5 424 428.2 424.5 418.3 406.9 397.3 398 398 398 400.7 404.4 406.4 408.8 411.8 417.2 422.9 426.8 430.2 433.5 435.7 442.2 442.1 444.6 445.9 450.2 454 458.1 460.4 465.9 469.1 458.6 456.3 449.2 444.8 440.8 440.7 442.4 442 441.2 440.8 440.6 438.4 433 411.6 400 388.5 378.6 373.7 369.2 366.5 365.7 365 364.6 357.9 354 348.5 341.9 338.1 335.7 332.4 330.6 329.1 328.8 329.8 335 339 340.9 344 348 352.1 358 363.2 364.4 365 365.3 367.8 370.4 376.1 379.3 381.3 380.7 387 387.2 388 390.1 392.4 394.3 396.7 404.4 408.2 413.6 421 424.4 415 414.8 411.3 410.3 403 394 382.9 377.7 373.9 369.3 361 351.9 337 330 332.6 332.2 331 328.3 329.1 332.6 341.7 346.6 347.9 350.2 359.5 363.9 365.6 371.7 375.9 377.8 380.4 384 387.1 390.5 392.3 393.5 397.2 399.8 403.4 401.5 400.6 397.7 396.9 397.7 397.7 397.3 398.9 404.2 411 415.6 419.5 412.4 403.5 402.1 402.3 404.1 408.9 415.5 420.8 435.3 442.3 449.6 456.8 457.2 455.1 460.1 472.3 476.1 474.2 465.3 458.4 441.8 422.8 403.7 387.6 373.8 365.1 362.6 359.5 347.4 339.6 331.6 326.9 323.5 314.2 303.4 291.5 280.4 267.1 258.4 249.2 239.2 223.6 207.4 190.9 174.2 162 147.4 132.2 119.4 107.3 101.7 98.6 93.4 97.2 83.9
422.2 421.3 421.5 421.2 416 406.6 397.9 397.1 398 398 397.5 400.5 404 407.1 408.7 413.1 419.7 424.3 428.3 431.2 433.9 437.4 440.2 441.8 443.8 447.2 451.8 456.1 459.8 470.3 473.8 473.1 457.6 451.9 447.2 443.7 445.6 445.9 448.6 449.9 451.2 455.2 461.2 455.9 438.6 406.4 395.8 386 379.1 373.8 370 367.9 367 366 361.2 356.4 351.3 344.9 338.7 336.5 333.6 330.3 328.8 326.8 329.6 332 334.5 338 342.5 346.1 348.7 353.6 358.7 361.1 361.8 363.8 363.8 365.4 367.5 373.5 377.2 382.8 386.7 388.8 389.2 391.5 393.3 394.8 395.9 398.2 405.6 406.5 414.4 419.3 416.6 409.8 408.5 410.5 404.1 396.6 390 383.7 382.3 377.1 366.5 356.8 346.2 329 325.8 327.4 327.3 325.3 327.6 330.9 336.7 342 344.1 348.9 357.8 362.5 364.1 367.9 373.7 376.3 378.8 381.2 383.1 388.6 389.8 390.2 393.4 397.5 399.8 399.2 397 393.6 392.2 392.2 391.7 392 392.4 396.3 397.8 399.8 402.9 397.3 393.8 395.9 397.3 402 408.4 414.4 423.3 431.6 438.6 444 451.7 451.5 452.4 460.9 469.6 473.1 473.2 468.6 459.7 448.7 434.1 410.3 393 379.7 373.6 370.9 366.5 356.3 343.1 334.1 329.5 324.5 318.8 308.1 297.3 286.7 273 267.4 257.3 246.2 232.4 216.4 199 180.3 170.8 156.6 143.2 129.6 116 105.6 104.8 98.8 97.1 84.4
420.6 418.9 416.3 415.2 413.4 406.9 400.2 395.5 396.1 396.6 397.1 397.9 399.3 402.1 406.1 409.9 416.7 421.6 425.3 428.8 431.2 434.3 436.9 440.6 442.5 445.2 451.9 456.3 462 468.4 475 472.6 469.1 456.3 453.3 448.1 447 448.5 456.3 459.6 462.8 466.4 466.7 460.8 439.4 421.1 405 394 385.5 380 373.9 369.9 369.2 367.3 363.2 358.8 354.1 348.2 341.6 338.5 334.6 330.7 327.8 327 328.7 329.9 332.3 335.9 339.4 342.2 346.2 349.4 353.9 357.5 357.7 359.4 360.8 362.1 364.1 365.6 373.3 379.8 384.6 386.4 390.4 392 393.1 394.6 396.3 397.3 402.6 406.9 410.9 413.5 414.7 411.7 406.8 405.1 404 398.4 393.9 389.6 387.2 386.5 375.1 364.5 352.3 335.3 323 327.2 324.8 322 326.3 329.7 331.5 336.2 340 345.3 351.3 351.1 361.3 364.5 370.4 373.8 374.1 380.3 382 384.5 386.9 386 389.7 392.4 394.6 396.2 393.5 390 387.6 387.3 387 388.8 387.1 388.5 390.3 391.3 390.5 389.7 390.5 391.8 401.2 405.5 409.5 416.4 424.7 429.3 436.3 443.9 444.2 447.3 451.1 459.1 465.8 467.5 466.4 465.7 459.2 450.8 436 410.7 396.6 390.5 385.5 375.9 371.7 363.6 349.3 338.4 332.1 324.4 319.9 313 301.1 287.2 284.8 274.5 263.3 252 240.6 225.6 208.1 189 176.8 166.4 154.4 142.5 127.1 113.6 106.3 106.1 98.2 86.2
419.5 417.6 414.4 412.9 408.5 406.2 400.2 395.8 395.9 396.7 397 397.5 398.6 401.3 405.9 407.6 412.6 418.1 422.3 425.7 428.7 431.4 434.4 437.5 440.6 449.3 451 458.6 461.5 466.2 469.1 471.1 469.5 464.2 462.4 454 449.9 449.6 459.7 466.6 469.9 475 469.5 466.6 458.1 436.6 420.4 404.6 394.5 386.5 378.5 372 371.2 368.4 365 361.3 356.9 351.1 345.2 340 335.6 332.5 328.8 326.1 327 328.8 331.6 333.6 337 339 342.9 346.1 349.5 353.2 354.7 356.1 357.5 358.9 360.1 362.4 366.8 373.3 380.1 385.1 390.6 392.6 393.6 395.4 396.3 398 400.9 406.5 407.5 410.1 411.1 411.3 407.6 404.7 403.5 400.5 397.5 396.1 398.3 397.3 383.3 373.6 357.3 338.3 323.4 321.1 319.4 322 324.8 327.3 329 330.8 335.3 342.1 344.8 345.4 352.4 362 364.4 370.7 374.4 379.3 380.7 381.9 382.7 382.2 386.5 387.4 390 390.6 389.3 387.5 384.6 384.3 383.7 383.3 382.5 385.7 386.8 387.1 386.9 389 391.2 399.8 404.5 407.8 410.9 417 424.1 430.1 435.7 441.4 443.7 445.2 451.4 457.3 462.4 464.8 463.5 461.4 455.2 448.3 432.7 413.1 400.7 395.5 386.4 377.1 373.9 368.3 353.5 341.9 332.7 324.8 320.1 314.2 308.5 301 291.9 281.3 270.6 259.2 245.5 233 216.1 199.7 183.1 171.8 163 153.1 141 123.9 112.2 105.5 91.1 83.7
418.8 416.9 416.1 415.9 411 404.8 399.8 396.7 396.4 397 397.3 397.3 399.4 402.8 405.8 406.2 408.1 414.7 418.8 421.9 424.5 428.8 432.7 436.2 439.7 442.9 453.6 459.7 463.4 465.7 467.8 467.4 465.2 463.3 461.6 458.4 454.6 452.5 456 471.6 475.5 475.8 475.8 469.8 462.1 445.4 438.1 426.4 402.5 391.4 383.5 375.9 373.3 370.7 367.2 363.7 359.3 354.2 348.2 342.1 337.2 334.8 331.5 327 325.7 327.8 329.1 332.1 334.6 335.3 338.9 342.8 345.9 349.9 350.6 352.1 353.4 354.9 354.1 359 362.6 369.7 377 381.5 388.5 394.2 395.6 397.1 399 399.6 404.4 409.1 407.5 406.4 410.1 408.4 407.1 404.4 404.3 403.1 400.9 401.6 405.2 401.4 393.4 379.7 362.8 341.8 323.9 315.2 318 321.1 322 323 324.3 326.8 331.4 337.1 339.5 343.3 348 355.6 360.6 366.1 372.9 376.6 378.6 380.4 379.5 379.3 380.3 382.9 385 386.1 385.4 385 381.5 381.4 380.7 380.8 381.2 381.6 382.8 385.4 385.5 389.4 395.4 404.6 409.9 410.7 413.9 417.5 423.6 430.5 437.1 438.9 441.6 447 449.5 456.4 459.6 460.6 460.9 456.5 452.4 443.3 428.6 412.3 402.4 395 387.1 379.8 374.4 369.2 356.2 346.1 337.1 327.7 321.2 319.3 312.5 307.1 299.1 288.3 275.4 265.4 252.6 240.2 223.3 208.8 193 176.7 167.9 161.9 156 138.4 125.1 109.4 94.4 86.3
418.9 417.3 417.3 416.9 414.5 408.2 402.5 399 396.5 395.6 396.4 397 397.6 400.6 405.8 405.4 405.6 413.6 415.8 417.9 421.4 426.3 430.7 434.9 439.6 444 451.3 458 465.4 465.7 466 466.9 468.8 463.3 460.1 458.3 459.4 453.7 452.2 466.4 475 478 478.6 472.9 465.3 454 442.6 431.6 412.1 396 387.9 380.5 376.1 373 370.3 366 361.7 357.2 351 344.9 339.2 334.6 331.9 327.9 325.5 325 327.2 329.5 333.2 333.4 336.7 340.4 343.2 345.5 346.5 348.3 349.7 349 353.2 356.5 359.5 364.6 370.1 378.7 387.5 393.2 396.5 399.1 400.5 402.3 404.5 407.8 409.1 405.8 403.9 406.2 404.3 403.3 405 406.2 402.2 405.4 406 401.3 394.3 386.1 368.5 345.3 323 313.2 316.4 317.4 319.2 318.9 320.2 321.8 326.8 330.8 337 339.6 345.2 350.9 355.8 361.8 371.1 378.2 376.8 376.1 376.7 375.9 376.8 377.8 379.7 380.7 381.7 377.5 378 377.8 378.6 378.5 378.3 379.3 383.9 387.8 390.2 395.3 400.7 408.7 413.4 413.6 414.4 418.8 424.1 431 436.6 439.5 441 443.2 446.4 451.3 453.9 454.4 456.5 452.2 450 437.8 420.1 407.4 399 392.7 386.3 379.6 374.5 369.1 357.5 348.7 338.1 327.7 322.9 322.6 316.3 310.6 305.5 294.1 281.8 269.5 258.8 247.4 232.3 216.4 200.7 183.8 172 166.2 160.9 153 137 126.7 107.1 95.6
418.6 418 416.7 416 415.6 412.7 406.3 400.7 397.1 396.2 396.1 396.1 396.5 398.3 405.5 405.6 403.5 408.6 410.6 414.6 417.3 422.6 428.5 433.8 438.8 444.2 449.9 457.3 462.8 464 466.6 471.8 476 478 463.5 459.3 457.5 455 450.9 455.4 467.9 476.3 477.7 474.5 467 458.5 448.2 438.5 418.1 401.1 391.5 384.4 379.2 376 373.1 368.2 364 359.9 354.1 346.7 341.8 335.2 331.7 328.9 326.5 324.6 324.4 325.9 329.8 331.5 334.1 337.4 339.4 342.7 344.1 345.2 346.2 347.6 351.1 354 357.2 362 368.1 375.7 384.4 392.1 394.2 398.9 400.7 401.4 403.2 404.7 405.9 405.1 403 402.7 402.6 403.1 404.9 403 402.2 404.7 402.4 398.9 395 384.8 367.6 347 327.2 312 312.9 314.1 316.3 319.2 318.2 319 322.6 328.2 334.4 334.7 339.8 345.6 351.3 355.3 355.9 365 375.4 374.5 374.6 373.4 373.3 375.6 375.6 376.1 376.4 376.3 375.7 374.1 374.6 373.4 376.6 378 384.6 388.8 392.3 397.1 403.3 409.3 411.9 412.9 413.8 419.6 424.9 429.8 435.5 439.5 441.6 442.3 446.2 449.5 450.3 453.9 452.6 450.5 448.9 436.6 415.1 406.5 400.8 396.5 388.1 380.7 372.9 368.5 356.4 346.8 338.4 328.4 327.6 324.8 321.1 318.3 311.9 303.7 288.6 274.4 262.7 252.2 238 221.2 204.4 188.2 174.4 168.2 163.6 154.5 144.6 138 122.4 109.3
416.9 416.7 416.1 415.3 414.3 412.7 408.3 402.8 397.4 396.8 396.2 395.9 395.9 396.6 402.6 401.7 401.6 403 405.8 409.5 414 418.8 425.5 431.8 437.6 443.1 447.6 452.4 457.7 463.2 465.8 472.9 479.3 479 476 463.9 457.2 453.6 449.9 448.7 452.3 469.1 472.9 470.3 466.5 460.4 448.8 435.5 424 407.1 395.6 387.9 383.7 379.7 375.8 370.6 366.8 362.6 357.5 349 343.5 338.8 333.4 330.4 328.5 329.2 324.7 323.3 327.9 330 332 334.3 335.4 338.1 341.6 342.1 340 344.7 348.3 351.5 355.5 360.5 366.2 373 380.4 387.2 391.5 397.6 400.6 401.5 401.7 402 403 402.8 400.9 401 401.5 402.3 403.4 402.9 403.3 400.3 398.2 394.5 391.5 384.1 367.6 350.4 335.7 313.4 311.8 312.3 315.1 318.9 316.3 316.3 318.5 322.7 326.7 329.6 334.6 338.7 345.9 352.6 361.9 363.4 374.7 373.8 372.9 371.5 370.8 372.2 372.5 372.6 372.7 374.3 374.9 371.7 371.2 372.6 373.7 377.5 382.4 387.4 393.2 396.8 402.5 406.8 408 411.4 414.5 419.4 424.2 429.8 435.3 439.2 442.1 443.4 447.4 448.9 450.9 452.6 450.9 450.4 447.9 435.2 412.1 405.9 403.8 403.2 392.1 386.6 374.3 364.4 354.5 347.9 342.1 335.9 332.7 329.1 325.7 324 320.7 314.1 299.7 281.9 269 256.4 243.9 226.5 208.9 193.1 177.7 168.2 165.7 160.5 152.6 145.8 137.4 127.3
414.6 413.8 414.9 414.5 412.8 411.2 406.5 402.5 398.3 395.4 396.2 397.1 395.8 395.8 397.5 399.1 400.3 401.6 404 406.7 408.1 414.6 421.5 428.5 435.4 440.5 445.3 449 452 459.5 469.4 473.1 472.6 483 481.7 469.4 460.6 453.9 450.2 447.6 447.2 458.5 460.7 465.2 465.3 461.1 451.7 440.1 426.5 412.4 399.3 392.1 385.7 381.8 378 374.5 370.7 366.1 358.9 350.3 346 341.4 335 332.1 329.2 329.1 322.4 322.8 325.3 326.9 328.9 330.2 332.3 335 338 338.7 336.7 342.6 345.8 349.5 354 358.5 364.4 370.7 377.1 381.2 386.5 394.2 399.7 401 401.1 400.7 400.2 400.2 399.3 400 400.3 399.8 399.7 399.6 399.1 396.7 393.9 390.9 387.7 381.7 373 357 335.6 317.8 311.8 314.5 314.9 317.6 317.3 314 314.4 315.7 321.4 325 330 335.8 340.4 343.3 349.6 362.2 368.9 371.5 370.5 368.7 368 368 368.9 369.9 370.2 370.1 370 369.9 367.9 369.3 371.5 375.4 380.5 387.3 392.3 396.4 400.1 404 405.6 409.8 414.3 417.8 422.4 429.1 433.8 439 442.9 443.1 447.2 448.6 449.8 450.6 450.9 451.2 445.9 431.6 413.2 405.8 405.4 402.8 396.7 385.8 375.2 362.3 353.6 346.1 345 345.2 339.9 335.3 333.5 328.9 325.3 321 310.2 294.7 278.5 262.7 249.9 233.2 215.8 199.9 183.4 169.5 166.9 163.2 158.5 154.2 148.8 142
412.6 412.6 413.2 411.5 410 407.5 404.7 402.6 399.2 396.3 395.2 395.9 396.3 395.7 396.9 398.1 399.2 400.3 401.9 403.6 406.4 411.1 416.3 424.1 431.2 436.6 441.8 445.3 449 456.9 468.5 472.5 482 489.3 490.3 480.8 461.2 454.4 451.6 446.7 445.8 446.2 453.2 458.3 459.7 444.8 450.1 440.5 423.6 415.1 403.2 393.5 388 383.9 381.3 378.2 374.3 368.5 362.4 355.4 349.7 344.1 337.3 333.1 329.5 328.5 324.3 319.7 320.7 324.1 325.7 327.2 329.6 332.4 334.2 334.1 334.6 340 343.9 348.1 352.4 355.8 361.6 366.7 372.6 376.6 381.4 390.3 394.4 398.9 400.1 399.5 398.8 398.3 397.2 397.7 398.3 396.6 395.5 396.3 395.5 392.9 388.8 385.7 381.9 377.4 372.2 360.6 339.3 321.1 310.9 311 316 317.8 315.1 311.1 311.7 312.8 315.5 319.4 323.5 331.1 336.8 338.6 344.5 350.8 360.7 365.6 369.1 367.1 365.6 364.1 364.7 366.8 366.2 366.3 367.4 367 364.1 365.8 368.8 370.4 376.2 383.6 389.8 394 398.4 402 402.8 407.6 412.8 417.5 423.2 429.4 432.2 438 442.8 444.2 446 448.8 450.6 453.4 449.9 450.2 443.2 423.5 420.1 413.1 400.8 399.6 394.3 386.8 375.7 363 357.4 349.7 346.5 349.1 345.2 340.7 337.6 334 330.6 326 316.9 305.9 290 270.9 256.2 240.9 222.6 207.5 188.3 170.8 165.8 162.6 159.6 154.4 154 150.6
409.4 410.9 410.6 409.2 405.6 404.4 404.5 402.6 399.2 396.7 395.5 394.8 395.1 396.4 397.1 398.4 398.9 399.2 401.4 403.2 404.6 406.7 414.2 418.8 426.4 432.9 437.5 442.1 446.9 453.7 465.3 473 481.6 489.1 488.6 481.5 469.5 455.1 450.1 445.7 442 439.5 443.7 445.2 452.7 444.4 445.5 429 423 416.9 406.8 397 388.9 385.8 383.8 380.7 377.9 372.7 364 359 354.3 346.3 340.2 334 329.6 328.6 326.4 323.3 319.6 321.3 323.4 324.1 326.8 329.5 330.9 331.9 332.2 338 342.1 346.2 349.6 353 357.8 362 370.9 374.7 374.6 386.2 389.9 395.4 397.8 398.3 397.4 396.3 395.3 394.3 395.1 392.4 391.7 394.1 394.4 392.2 387.9 383.6 380.4 376 370.9 358.9 339 321.2 309.5 308.5 316.1 317.3 314.2 311.5 311.7 311.4 312.4 315.8 319.9 324.9 330.8 335.1 339 345.1 350.1 357.8 361.6 365.1 364 360.7 360.8 361.9 362.7 362.7 363.6 363.8 360.7 363.7 365.8 369.2 373.6 380.8 384.7 388.9 396.2 401 403.4 406.1 412.4 419.4 424.7 430.6 434.2 439.7 442.9 444.9 446 448 449.4 451.7 449.8 447.2 440.2 422.5 421.1 414.6 399.7 397.1 390.7 386.5 374.4 365.9 362.1 353.3 348.8 349.6 350.4 348.3 342.3 338.8 335.7 329.6 321.6 311.2 298.9 279 261.8 247.8 228.4 210.2 191.7 174.8 164.3 159.4 154.3 151.9 150.8 148.5
405.5 408.2 408.1 407.8 404.7 404.8 404.1 402.5 399.7 396.6 394.8 395.4 396.3 397.1 397.3 399.3 398.6 398.2 400.7 402.6 404.8 407.1 409.6 415.6 422.3 428.6 434.2 440.5 445.5 445.8 456.3 463.1 477.7 482.9 481.4 479.1 466.5 453.6 450.2 447 440.6 436.6 434.8 436.4 441.3 442 430.1 425.9 419.8 415.2 406.2 400.5 392.4 387.9 385.6 382.5 378.8 373.8 367.6 361.3 356.5 349 342.2 335.2 330.4 328.9 327.1 323.3 320.1 318.6 321.7 320.7 323.1 324.8 326.7 327.1 332.1 335.5 338.9 343 346.1 348.9 353.2 357.9 365 369.4 375.7 380.6 385.2 390.6 394.5 396.1 396.3 394.9 393.6 391.2 390.2 389.7 390.9 391.4 392.7 390.5 387.2 382.8 376.4 373.4 366.3 354.1 340.2 321.6 312.6 308.4 312.4 316.2 313.7 311.6 310.7 310.3 310.5 312.7 317.3 322.5 326.5 330.3 335.6 339 343.1 347.6 354.8 359.6 362.1 357.9 357.4 357.9 359.5 359.9 360.1 361 358.9 361 362.6 365.8 370.7 377.1 381.1 385.1 393.9 399.7 402.9 403.3 412.6 420 426.2 430.5 435.9 440.5 442.3 442.2 447.9 449.5 450.1 448.3 445.7 443.1 432.3 421.7 421.2 420 406.2 389.9 386.4 380.3 373 367.1 363 356.2 352.6 351.8 352.8 352.4 349.8 345.1 341.1 333.5 326.2 317.2 304.2 288.8 269.7 252.6 231.7 213.6 195.4 178.2 164.1 155.2 148.7 145.7 138.2 127.6
401.1 402.7 404.7 404.4 404.6 403.7 403.4 402.6 400.4 396.5 394.6 394.7 396.8 396.8 397.2 398.7 396.9 397 398.6 401.9 404.1 407.1 409.1 413.2 417.4 424.6 430.2 435 436.9 439.8 442.4 447.9 461.4 473.1 476.6 470.2 458.2 450 444.2 444.4 439.9 435.3 431.4 432.4 428.6 424.6 425.1 420 414.9 409.3 404.5 400.9 395.7 390.7 387.2 384.1 380.6 375.2 369.3 364.1 357.5 348.7 342.1 337.3 331.8 328.8 326.8 323.9 321.4 318.3 318.1 316.2 320.1 321.9 322.1 326.4 330.3 332.1 335.1 338.1 343.1 345.9 349.2 354.5 360.5 366.3 370.3 376.6 379.8 384.7 389.5 392.3 393.6 393.7 392.4 389.6 387.5 387.8 386.2 387 388 386.6 386 381.3 375.6 372.3 366 352 337.1 326.2 319.2 308.3 308.3 310.6 311.8 311.2 310.4 309.5 309.1 310.6 315.6 318.1 322.4 325.1 329.2 334.5 337.1 341.5 347.3 353 356.5 357.7 353.7 353.8 354.6 355.8 357 356.8 356.6 359.4 361.8 365.5 369.4 374.5 378.5 384.8 393.1 397.8 402.1 403.4 411.9 420.7 427.5 428.6 435.6 439.1 440 443.9 453.1 456.3 452.5 446.2 438.9 433.1 426.1 417.8 415.3 416.1 405.3 390.4 382.9 374.8 373.4 371 367.1 359.5 355 353.8 354 357 357.4 351.3 347 338.6 331 321.5 305.4 297 278.5 259.1 239.3 218.5 201.6 183.8 165.5 153.3 138.1 127.5 121.1 114
394.4 399 401.4 402.4 402.6 402.7 403.7 403.3 400.1 396.3 395.2 394.3 395.2 395.9 396.9 397.8 397.5 395.9 396.7 399.6 403.3 405.8 409.2 413.6 413.1 418.1 424.9 429.2 432.8 433.5 435.8 436.7 446.7 460 467.5 458.7 448.4 446.8 442 436.1 436 434.7 425.2 425.5 423.2 421.3 419.9 418.5 417.3 414.3 406.6 403 400.3 395.6 389.8 385.8 382.1 376.3 371.2 366 360.2 351.8 344.2 338 333 330 329.5 327.9 322.8 319.6 318.6 314.4 317.3 319.1 319 323.3 325.8 328.4 331.4 334 338.9 342.8 345.1 350.8 356.8 363.3 366.5 369.3 374 378.9 383.9 387.8 389.9 390.6 390.7 388.1 385.8 384.4 384.4 384.2 384.5 385.1 384.1 380 375.1 369.1 363.9 350.6 337.7 326.2 323.4 315.4 307.1 308 310.2 310.3 308.6 308.2 308.7 309.6 314.9 314.7 316.1 318.4 324.6 329 333.6 336.1 340.3 344.7 347.7 353.7 351.2 350.3 350.4 351.6 353.9 353.5 353.9 359.3 360.3 362.8 367.1 371.7 375.8 382.1 389.1 396 401.1 403.6 409.8 420.6 425.8 427.5 433 437.6 439.5 449.8 455.5 456.3 453.1 442.8 432.1 421.6 416.1 412.6 408 404.5 400.6 391.6 384.9 384.2 379.6 373.9 372.7 369.5 358.8 355.4 355.2 359.8 360.8 357.8 351.9 345.2 336.3 328.1 313.3 297.9 284.1 267.5 248.2 228.1 208 187.9 168.6 153 134.2 121.7 117.4 114
390 396.1 399.2 400.5 401.5 402.5 403.8 402.6 398.9 395.7 394 394.1 394.8 395.2 396 395.8 395.5 394.4 394.9 397.1 401.1 404.8 405.8 411.2 410.9 414 418 424.7 429.7 431.3 431.6 429 431.9 437.5 449 445.2 444 439.9 439.1 434.2 432.1 429.8 423.9 419.9 420.1 421 421.8 420.1 422.4 418.7 413.6 406.3 403.3 399.2 393.2 387.3 382.9 378.1 373.1 368 362.7 356.1 349.6 342.6 334.5 329.5 330.3 329.6 324 320.9 319.4 317.2 312.4 313.8 315.3 319.7 322.3 324.9 328 330.7 334.7 338.6 340.8 345.5 352.5 358.6 361.9 365.6 370.4 373.1 377.6 382.1 385.2 386.4 387.3 386.4 385.1 383.9 383.6 381.2 380.9 381.9 382.7 378.3 373.9 365.4 356 346.6 337.5 329 323.2 321.1 309.5 305.4 307.8 307.2 307.5 307 306.2 308.1 311.1 310.6 312.9 315.7 322.3 325.3 331.1 332.5 335.5 338.9 339.8 343.5 347 346.7 346.5 346.8 347.8 347.6 351.2 355.5 356.3 360.4 364.6 368.9 373.1 379.4 386.1 393.1 399 403.2 407.9 417.9 422.5 426.1 430 436.4 441.7 450.8 453.8 453.5 448.5 438.2 423.6 415.7 408.8 404.1 400.7 399.3 396 393.7 393.2 384.5 380.2 381.8 383.8 383.2 371.8 358.9 359 361.4 362.4 361.8 357.1 350.2 340.5 332.7 321.2 301.9 290.2 272.2 255.5 235.2 215.9 197.1 177.1 155.2 135.3 124 117.7 112.8
382.6 391 395.1 398.3 400.5 400.2 400.7 401.1 398.6 396.3 394.4 394.1 393.5 394.1 394.9 394.7 394.1 392.2 392.6 394.6 397.5 401.7 401.8 402.8 406.5 411.1 414.9 417.6 425 427.6 427.1 421.7 420.2 428.1 424.6 432.2 432.2 433 433.2 430.1 425.3 423.1 419.3 417.4 419.1 420.8 423.1 425.5 430.5 434.9 428 415 407.4 402.4 397.2 391.3 385.1 381.2 375.3 370.7 365.3 358.9 353.5 346 338.5 330.8 328 328.4 330.3 323 320 318.6 316 313.1 306.8 314.5 317.4 321.4 325.5 327 330.3 334.8 337 341.1 348.2 352.3 357.6 360.4 365.5 369.9 370 375.4 379.3 381.9 381.9 382.8 384.3 382.7 384.7 384.4 378 375.1 373.3 370.6 365.8 358.8 350.1 342.6 335.8 329.9 323.8 320.9 316.6 306.8 305.3 306.3 306.1 305.7 307.1 304.2 304.6 306.5 308.6 310.8 315.4 321.5 327.1 329.7 330.4 333.6 336.6 337.7 338.3 342.6 342.8 342.9 343.2 342.8 348.8 351 352.5 358.1 361.9 366.9 370.7 377.2 384.4 391.1 396.3 401.5 408.1 411.2 420.2 424.2 430.4 435.8 438.4 447.8 451.1 450 443.5 432.2 416.4 411.6 408.1 402.7 401.2 401.4 399.6 399.9 392.5 390.6 388.9 391.1 387.9 395.3 378.7 365 364 362.8 362.3 362.6 359.8 354.6 343.7 332.9 325 308 292 274.1 255.6 241.4 225.8 208.2 187.7 161 141.4 125.8 117.1 111.8
376 385.3 390.2 394.9 396.6 398.4 399 400.1 397.2 397 394.9 394.5 393.8 393.4 393.5 393.3 392.5 390.6 390.3 391.4 394.3 396.9 398.9 397.8 402 407.5 411.4 415.1 417 420.6 417.2 414.9 413.5 414.4 416.2 422.5 426.1 429.1 432.6 428.1 421.8 417.7 415 414.3 416.9 420.6 423.1 423.4 430.3 440.3 441.1 425.1 416.3 407.3 400 396 387.1 382 377 371.3 365 360.6 356.1 349.5 341 332.6 327.1 326.7 328.1 323.4 319.5 317.9 315.6 314.2 313.9 306.1 310.5 316.1 322.6 323.6 326.7 330.9 333.1 336 342.8 346.1 352.3 356.2 360.8 365 368.2 369.6 372.5 375.3 376.6 378.5 380.7 380.5 380 379.2 377.5 372.2 367.4 362.5 356 349.9 346.5 342.1 336.1 332.6 326.7 322.7 317.6 312 306.3 303.8 303.3 304 304.1 303.4 301.8 302.6 305 306.9 311.4 316.5 322.2 324.8 325.7 326.9 329.6 332 332.3 336.8 338.5 339.2 339.7 340.8 343.1 346.6 351.3 355.8 359.8 363.4 367.9 375.7 383.1 389.8 394 398.5 405.5 407.9 413.7 423.5 431 432.6 440.2 445.1 444.7 441.8 434.6 419.6 409.6 406.2 404.5 403.9 404.2 403.1 405.5 408.3 400.7 396.3 391.6 390.1 388.5 388.7 383.8 370.5 364.7 362.5 362.4 362.8 360.3 354.8 348.4 336.8 326.5 311.5 291.9 275.9 260.7 247.2 236.4 221 203.9 174.7 147 129.6 116.1 109.6
370.7 377 385.1 390 394.2 396.5 398.3 397 397.2 398 395.2 394.9 394.5 394 391.5 391.2 389.7 388.3 387.6 388.8 390.9 393.2 393.9 396.5 397.7 401.1 404.5 408.1 408.3 412.9 410.5 411.2 412.6 413.3 414.4 420.8 428.3 426.6 428.2 428.9 424.9 417 410.3 410 414.1 416.7 420.7 424.6 427 430.8 439.8 429.3 421.9 416.9 405.9 399.3 393 386.3 378.9 372.4 366.2 362.2 357.3 352.5 347 340.1 329.9 324.4 323.3 321.7 319.1 317.3 315.9 313.1 312 308.3 306.2 313 316.6 319.6 322.9 326.5 329 329.4 336.4 339.2 346.2 350.2 355.8 359.6 362.7 365.1 367.5 367.5 370.9 373.5 375.3 376.4 375.2 373.8 373.5 371.5 365.4 356.1 348.4 345.4 344.3 342.1 338.4 334.2 329.5 324 319.7 315.1 310.6 305.5 303.9 303 302 302.2 300 298.5 296.6 301.8 307 310.8 315.7 317.9 321 321.8 324.3 326.3 330 332.3 334.6 335.4 336 339.5 340.9 343.6 348.8 353.4 358 361.7 365.3 372.7 381 388.7 393.2 397.7 404.6 406.4 409 419.9 426.6 432.6 437.9 440.7 432.5 426.5 417.5 408.7 405 401.5 400.3 403.3 404.7 403.6 409.7 411.3 405.5 400.8 392.8 390.4 388.4 389 389.1 374.4 368.8 364.1 362.4 362.4 360.3 353 347.7 338.5 328.9 314.3 295.5 278.4 264.4 255.4 247.7 235.2 223.5 189.2 151.6 131.3 117.4 108.7
364.9 371.9 378.3 384.6 391.1 394.1 395.6 394.8 396.1 396.1 395.9 395.3 395.7 394.9 393.7 392.5 391.7 389.5 386.6 386.8 387.5 389.9 390.2 392.5 394.1 395.1 400.8 402.1 402.4 402.7 405.7 407.9 410 412.3 412.4 420.5 425.4 426.2 425.5 426 424.3 422.8 410.1 405.1 408.3 412.8 415.9 422.1 423.9 426.6 428.6 428.6 426.2 424.5 418.2 403.4 396.1 390.2 383.4 376.2 369.5 362.4 357.7 353.5 349 343.4 338.3 325.3 322.6 321.5 319.5 318.7 317.5 312.7 311.4 307.6 304.1 309.5 311.1 314.2 317.8 321.8 323.4 324.9 330.8 334.1 339.3 344.7 349.3 354.3 357.2 359.3 362.5 364.1 364.1 369.4 370.7 371.4 370.2 368.2 368.4 366 358.9 352.5 342.9 341.4 342 340.5 338.8 335.9 328.7 328.7 322.7 317.5 313.3 308.9 305.5 302.1 303.1 300.1 302.3 302 300.1 294.4 299.3 304.2 305 309.5 315.6 318.3 320.5 320.5 323.3 326.7 330 331.7 332.1 335.6 340.1 342.9 347.4 352.1 356.2 360.3 363.7 369.2 378.1 386.2 391.4 395.2 402.6 403.4 406.3 412.8 419.8 428.3 431.2 429.3 422.8 414 406.7 403.1 400.5 400 397.5 401.1 405 407.4 410.7 413 407.1 402.9 402.4 393.8 394 392.8 385.5 376.1 373.8 365.4 363.6 363.7 362.4 353 348.5 337.7 328 315.3 297.7 281.5 268 258.4 252.6 248.3 230.2 191.2 156.3 128.6 117.3 107.2
357.1 363.3 369.1 376.2 384.5 388.9 392.1 393.4 394.2 394.6 395.1 395.6 395.6 394.8 393.6 392.6 391.4 389.8 388.8 386.7 386.1 387.5 388.7 390.6 391.7 393.2 394.1 395.2 396.5 399.5 402.8 405.1 407.6 410.7 410.9 416.7 419.5 427.1 424 423.9 423.6 424.9 422.6 405.3 400.9 406.3 411.1 414.1 418.9 421 422 423.1 427.3 430.8 419 417.5 400.8 393.9 387.6 380.4 374.5 365.3 357.6 352.3 348.3 343.8 338.4 328.7 323 321.7 324.4 322.7 318.5 313.3 310.1 306.5 301.4 304.3 307.4 309.4 311.9 315.6 318.9 318.6 325.6 328.1 331.7 337.2 343 346.4 351.1 354.3 358.1 360 361.6 360.4 365.1 366.2 365.4 363.7 361.2 359.4 354.4 348 340.7 337.2 337.3 337.6 336.1 334.7 332.9 331.6 327.3 321.2 316 311.9 307.9 306.2 306.9 308.9 305.8 303.4 300.5 297.9 293.1 297.4 298.8 302.1 308.8 311.8 315.2 316.2 319 321.2 322.7 329.3 331.9 333.7 335.5 341.1 346 350.3 354.2 358.2 362.1 367.1 374.1 383.3 390 393.6 398.7 400.9 402.8 407.3 413.3 416.7 421.4 414.3 410.1 403.6 399.5 396.4 394 395.7 395.9 397.8 402.3 406.7 410.1 406.5 404.6 403.8 404.6 400.4 401.4 396.3 388 375.8 371.4 367 366.4 364.2 365 359 347.9 336.8 324 312.9 301.1 283.9 271.6 260.4 250.2 249.7 219.3 184.7 150 123.6 112.1 103.8
348.3 354.7 360.8 365.6 375.3 382.9 386.1 389.6 391.7 392.2 395.2 395 394.9 394.2 393.8 392.9 391.4 390.2 390.8 388.5 386.2 386.5 387.2 388.3 389.7 391.5 392.2 392.9 394.4 396.5 400.4 402.2 403.8 406.7 407.8 410.2 413.1 418.6 422.1 421.9 425.5 431.2 431.8 421.2 402 398.4 404.7 408.3 412.7 417.3 418.4 415.9 423.6 431.2 431.8 423.4 407 397.3 389.9 383.6 378 371.1 361.9 354.4 348.3 344.1 341.3 336 325.2 320 323.6 321.8 318 315.2 311.3 304.1 299.7 300 301.8 305.1 306.5 308.6 312.8 313.5 319.1 323.7 324.1 329.7 334.9 339 343.6 347.9 351.1 353.6 354.6 355.6 355.4 355.9 356.9 357.1 356.1 353.6 349.5 343.1 336.7 334.2 333.5 333.5 333.1 331.7 333.7 334.7 335.8 327 319.9 315.5 310.7 307.5 307.7 309.3 308.2 305.9 303.3 299 294.6 290.8 294.6 297.8 302.4 308.1 308.7 311.7 313.7 314.9 318.3 322.3 329.9 332.3 333.9 337.7 343.7 348.2 352 356.6 359.4 365.8 372.4 380.4 387.5 390.9 395.3 400 398.8 400.7 403.5 404.1 403.7 402 397.5 394.8 393.1 391.9 390.6 391.5 392.5 394.8 400 403.5 405 403.7 403.8 405.2 404.4 401.2 396.5 398 389 374.4 368.5 369.7 370.3 366.3 360 353.6 344.1 334.3 321.8 308.8 297.3 284 272.7 260.2 246.6 226.3 202.7 176 147.8 122.1 110.8 102.9
344.8 347.6 353 357.1 364.9 374.8 380.5 383.8 387.6 390.4 392.6 395 396.2 395.2 394.4 393.5 393.9 392.1 390.3 389.2 387.5 385.2 385.8 386.6 388.2 388.9 390.5 391 392.3 394 397.2 399.7 401.5 402.4 399.8 401.7 409.3 412.2 416.8 418.3 425.1 433.3 429.7 422.7 415.3 400.1 394.5 401.6 405.6 409.8 412.3 411.1 411 420.5 428.6 424.1 414.7 403.3 392.3 384.2 379.1 373.4 364.8 356.4 350.9 344.6 341.2 338.1 328.2 321 317.8 318.4 319.7 314.9 311.2 306.8 296.3 296.3 295.3 298.9 302.8 303.8 304.3 309.2 312.5 317.1 316.6 322.1 327 331.7 336.5 339.4 343.6 346.9 348.9 348 349.2 350.6 351.1 351.7 350 348.7 345.6 338.8 332.5 332.3 331.3 330.4 329.5 329.9 333 335.8 337.2 333.3 324.3 319 315.3 309.6 307 307.3 308.4 307 303.4 300.3 295.7 292 288.3 290.8 296 300.6 305.6 306.7 308.1 310.1 310.7 320.3 325.2 329.4 331.7 334.6 341.1 345.6 349.2 353.1 357.7 363.1 368.5 379.1 384.6 388.3 393.2 394.7 393.4 394.3 395.2 393.1 390.1 386.6 387.5 387.9 391.2 395 389.1 389.1 390.1 392.5 397.5 400 402.5 404.5 407.2 405.4 404.9 405.4 399.6 394.3 390.9 375.2 367.8 371 371.2 367.9 358.2 349.6 340.7 330.9 321.4 306.1 293.5 281.1 270.9 256 241.8 219.8 195.6 170.9 148.5 128 109.8 102.1
340 340.5 345.2 346.2 356.1 368.6 376.8 380.1 383.7 385.2 389.3 392.6 395.5 396.3 395.5 394.9 394.2 392.5 390.4 389.5 388.6 385.6 384.9 385.4 386.2 386.9 388.3 388.8 389.6 391.3 393.5 396.8 397.5 396.6 399.7 401.6 404.3 406.9 410 413.5 419.4 422.5 426.9 422.7 415.6 408.2 398.9 390.7 397.1 400 405.8 405 402.6 402.7 407.6 418.8 413.2 406.6 395.9 383.8 378 370.9 366.1 359 353 346 338.8 335.4 330.6 321 318 314.6 317 315.7 310.6 307.8 306.2 303.5 301.1 292.9 296.8 296.9 297.7 302.8 304.6 309.5 310.4 313.8 318.2 323.3 326.3 333 336.2 339 341.3 343.3 343.3 344.3 343.8 343.2 343.1 342.6 340.8 335.4 328.2 328.4 328.6 326.1 326.7 329 332.3 335.3 337.4 337.4 330.3 322.7 320.7 316.4 308.1 306.3 307.4 306 303.8 301 298.6 293.3 288.2 286.8 289.2 292.1 298.9 301.2 298.5 303.2 309.6 315.1 319.7 324.5 329.1 332.5 336.3 341.3 346.1 349.7 353.8 360.8 364.6 378.2 385.3 386.5 390.9 394.7 389.4 386.1 385 382.6 380.8 383.4 385.5 385.8 385.5 388.9 390.4 387 389.3 393.2 395.7 399.5 406 411.4 410.7 410.6 410.3 408.3 407.7 394.5 387.1 373.1 367 369.7 371.6 369.2 359.3 349 336.4 327.8 318 308.2 294.8 281.4 269.8 255.4 243.1 220.2 194.1 172.1 153.5 132.5 112 99.1
336.6 337.6 341.4 340.1 348.8 359.6 367.3 376.1 379 382.7 385.5 389.9 394.6 396 396.2 395.1 394.4 393.6 392 390.2 388.6 387.1 385.1 383.5 384.5 385.5 386.6 387.2 387.6 389.1 390.5 392 391.3 395.6 400.6 402.7 399.9 401.7 405.1 406.5 410 413.4 417.3 418 414.8 408 398.5 391.3 384.9 392.7 396 396.6 394.9 392.9 394.7 402.7 403.8 398.9 393.3 384.7 375.7 370 365.9 359.3 353 345.7 339.3 335 330.3 325.4 316.6 312.5 315.4 316.2 312.3 308.3 306.5 304.5 300.1 296.9 292.5 288.9 291.4 297.7 298.8 302.3 305.6 305.5 308.7 314.6 318.2 321.9 327.2 332.6 334.5 337.7 338.1 336.6 335.7 335.5 335.7 335.6 334.8 329.5 323.5 323.8 322.7 322.7 326 328.7 331.5 333.8 336.7 338.1 335.8 325.4 323.3 321.2 316.4 306 304.7 303.8 303.3 302.3 298.3 294.4 289.4 286.1 288.9 288.4 288.9 293.8 293.8 300.6 304.7 311.2 315.4 319.9 324.4 328.2 331.3 337.4 343.2 349.3 351.2 361.1 364.4 375.8 386.2 387.2 382.7 385.1 386.3 380.7 378.1 376.5 376 380.7 385.4 385.7 383.6 380.4 380.7 383.3 388.7 391.5 393.2 402.3 408.2 417.6 416.5 416 412.2 410.9 412.9 400.3 392.9 383.7 366.8 368 369 366.7 359.9 350 338.1 329.3 321 311.5 300.1 286.4 272.5 258.4 243.4 220.3 197.5 177.8 159.8 139.3 116 101.1
334 335.8 336.8 338.5 340.3 348.9 358.5 366.1 374.6 379.6 382.5 386.4 390 394.6 395.5 394.2 394.3 394.6 393 391.3 389 386.7 386.4 384.2 382.8 384.1 385.2 385.7 386.2 386.5 387.6 389.4 389.2 393.2 399 397.6 395.5 395.3 398.6 401.6 401.8 403.7 406.3 407 408 405.6 400.2 396.4 385.6 381.6 386.1 388.3 387.9 386.7 386.9 388 391 390.9 386.9 377.9 374.2 369 364.9 359.6 352.9 345.3 339.9 335.9 330 325.6 318.2 313.8 310.3 311.7 311.1 308.4 305.4 303.8 299.7 296.8 296.7 293.1 284.9 296.8 295.5 295.6 297.4 296.8 299.4 305.8 310.6 313.5 316.7 323.2 330.8 328.4 330 329.7 329 329.1 329.1 328.3 326.9 322.6 318.5 318.2 317.5 322.1 324.8 328.3 331.6 333.8 336.5 337.2 337 335.1 324.1 322.9 322.1 310.5 303.3 302.2 302 300.7 297.3 295 291.4 288.1 285 284.8 283.3 288.1 293.2 298.1 301.8 306.7 312.7 317.2 321.2 324.9 327.3 333.7 338.9 343.8 347.5 360.4 364.8 369.6 379.3 381.8 379 375.5 376.9 377.2 373.3 373.2 375.4 377.7 383.3 384.6 382 376.8 374.6 381.2 387.2 392.1 397 404.7 410.6 417.3 417.6 417.5 418.6 415.5 413.2 411.1 400.6 395.1 381.7 365.5 367.8 365.5 361.9 353.5 347.8 335.6 324.3 314.4 305 293.9 279.9 262.8 245.5 221.7 199.8 181.7 164.2 145.3 123.4 106.7
332.2 332.8 334.8 335.3 337.8 339.8 346.9 351.6 365.3 373.8 379.7 383.8 386.8 389.5 394.6 395.6 393.9 394 392.9 391.2 389.5 387.3 386.7 385.5 383.2 380.8 383.5 384.3 384.8 384.7 385.2 384.7 384.1 387.1 391.2 390.2 391.2 391.9 392 395.2 396.3 396.2 397.7 399.6 399.7 400.9 398.8 394.7 391 380 377.6 381.7 382 382.2 384 384.6 382 380.7 379.1 372.2 372.4 368.6 363.4 358.7 352.5 346 340.9 336.3 331.8 327 322.1 315.9 308.6 306.8 307.9 308 304.4 302.3 299.5 297.8 295.2 292.9 285.3 290.8 292.9 290.3 290.8 290.6 291.5 296.1 301.9 305.3 306.9 311.6 316.5 321 321 322.1 321.8 323 322.9 321.8 317.5 314.8 313.5 311.4 318.1 320.9 322 327.9 332 334.3 335.7 336.1 337.6 336.1 328.6 322.8 321.4 317.1 306.4 300.7 300 298.8 296.9 294.8 294 289.7 284.9 280.1 284.4 289.2 291.8 296.1 299.5 303 309 315.1 319.2 323.4 326.9 329.3 335.1 341.1 347.8 358.7 365.7 363.9 367.2 373.1 373.8 373.9 369.2 368.8 370.8 369.2 371.8 377.1 381.3 380.4 377.1 374.6 374.2 376.2 385.4 395.2 398.6 403.5 411.5 416.2 417.4 417.5 421.6 425.7 418.2 416.3 406.8 399.1 383.8 367.2 367.8 367.1 362.8 358.5 352.5 343.3 330.5 318.4 308.2 299 288.1 270.1 250.1 225.1 205 186.6 171.9 152.8 134.1 113.7
330.9 331 333 334.2 335.9 336.9 339.2 351.6 355.7 365.7 375.5 381.8 385.9 389.1 392.3 394 394 393 392.1 390.2 389.1 388 387 386.1 384.7 381.7 380.6 382.4 383.3 382.8 383 382.6 382.6 382.1 382.9 385.4 381.9 386.2 387.6 386.7 389.5 391.1 390.1 390.1 391.7 393.9 395.3 393.5 390 383.6 376.2 371.9 375.6 377.7 382.3 383.9 385.3 379.4 376.4 372.7 369.7 365.5 360.5 355.9 351.1 346.4 341.3 336.5 332.6 327.7 322.9 317.2 311 305.7 303.3 304.3 304.3 301.7 300.8 297.9 294.3 291.4 290.4 280.7 284.8 285.2 287.6 288 286.6 288.5 293.2 298.3 301.4 302.9 305.7 309.2 314.5 315.1 314.9 316.2 316.4 315.6 311.2 308.1 307.4 310.6 315.4 318.6 318.8 323.8 329.3 334.1 335.5 336 336.9 336.6 334.9 327.6 320.4 316.5 310.3 302.7 298.2 296.6 295.1 293.4 292.9 291.5 284.8 279.3 284.9 287.2 290.2 294 297.4 300.9 306.7 311.7 316.7 320.2 328.2 329.6 333.9 339.8 345.2 355.7 358.9 362.6 362 362.8 368.6 369.3 366.7 363.8 364.3 369.5 369.1 375.6 378.8 373.5 375.1 375 374.7 376.7 384.7 394.7 398.5 405.1 409.6 411.7 416.8 417.9 420.8 431.2 428.5 415.3 410.5 398.1 384.8 372.3 369.3 367.6 363.4 358.4 352.7 346.7 334.7 324 314.1 303.9 291.9 279.7 268.9 254.7 237.1 220 200.2 177.1 153.1 129.2
332.4 330.6 331.3 332.1 334 334.9 336.1 346.6 349.4 357.1 367.9 377.2 381.7 384.3 387.8 391.4 391.6 392.3 391.3 390.4 389.4 388.7 387.7 387 385.7 383 379.5 380.8 381 380.9 380.6 379.8 379.9 380 380.1 380.1 380.5 382.1 381.4 381.6 381.5 382.8 383 382.6 384.5 385 387.9 390 388.7 385.2 379.4 370.5 369.6 373.5 379.5 381.3 381.3 380.3 376.7 373.2 369.7 364 358.6 353.4 348.9 344.8 340.8 336.4 332.2 328.2 324.3 317.7 312.2 307 302.6 300.8 301.1 300.2 300 296.9 294.2 290.7 288.2 286.2 277.4 278.3 280.7 283 282.3 283.2 286.9 291.7 295.7 296.8 298 299.2 304 306.3 307.7 308.4 309.2 307.4 302.2 300.7 308.9 311.9 313.5 313.8 314.1 318.5 325.4 331.5 334.5 335.9 335.8 335 334.3 330.2 323 317.4 312.2 305.2 298.1 295 293.9 291.6 290.6 289.7 284.4 279.7 283.8 285.6 288.3 291.5 294.8 298.2 302.3 306.7 310.6 316.9 325.6 329.4 330 337.1 342 347.6 355.6 357.2 358.6 359.5 361 360.5 360.5 360.5 360.7 363.5 368.9 367.2 369.2 369.2 371.6 374.9 375.8 378.1 385.7 391 400.8 406.3 410.4 411.6 410.5 413.1 413.3 424.9 426 415.8 401.1 394.6 378.2 372.3 373 366.6 361.2 359.3 354.6 347 339.4 330.4 321.1 311.5 300.1 289.2 278.2 264.6 248.5 231.2 211.8 188.6 164.4 140.6
334.3 332.7 330.2 330.4 333.8 332.6 333.8 340.4 349.5 348.9 359.5 369.5 375.3 379.3 381.5 386.9 390.1 391.5 391 390.2 389.9 389.1 388.4 387.6 386.6 383 381.5 377.5 378.2 378.9 379.6 378.4 377.4 377.3 376.8 376.4 376.7 376.7 374.9 375 374.3 374.7 375.3 377.2 377.3 378.3 379.4 382.9 385 384.3 379.8 370.9 367.9 369.8 375.8 377.8 380.2 380.2 379.2 376.7 372.5 366.1 358.6 353 347.5 343.8 339.3 335.1 331.7 327.7 323.3 319.6 312.8 307.8 303.1 300.1 297.9 297.2 296.2 296.7 292.6 291.7 289.1 288 282.9 278.9 275 271.6 276.5 277.5 280.8 284.1 287.6 290.4 290.8 292 291.6 295.3 299.3 301 302.1 303.6 295.2 297.4 305.5 308.7 309.5 308.4 307.1 313.5 320.6 325.8 331.3 335.1 335.5 333.9 331.4 329.8 327.8 321.7 312.4 306.8 299.2 294.2 290.7 288.8 286.1 286.3 283.1 279.4 279.9 283.3 285.8 288.9 292.2 295.4 299.4 303.9 307.5 314.7 322.7 326.8 326.7 334.5 340.2 347.8 351.3 356.8 358.2 359.6 359.4 361.2 361.4 360.4 361.3 361.3 361.3 363.2 364.1 365 368.1 371.6 380.1 382.1 391 402.1 404 406.9 412.7 412.5 409.6 408.7 408.1 409.7 411.7 412.1 401.1 387.6 381.1 374.5 372.5 373.3 367.2 362.2 356.3 349.7 343.6 338 330.1 320 310.4 300.6 285.3 274.8 260.4 244 223.2 199.2 175.6 153.7
336.3 333.2 330.9 328.7 329.4 330.5 330.9 334.8 342.4 345.1 352 359.4 365.7 370.6 377.8 382.6 385.7 387.9 389.9 390.5 391 389.8 388.9 388.4 386.5 383.6 381.2 379.2 375.6 376.5 377.1 376.9 375.8 374.9 373.4 372.6 372.7 371.6 370.6 370.3 369.7 368.7 369.1 370.6 373.4 372.4 373.2 375 377.7 379.4 378 371.6 367 367.8 371.5 376 381.1 381.8 382.6 381.8 378.6 371.9 361.7 353.3 348.6 346.8 337.5 333.2 329.9 326.4 322.2 318.3 313.4 308.8 304.3 299.9 298.1 295.4 293.7 292.5 291.8 289.2 286.7 284.7 282.3 280.4 279.4 271.8 269.6 271.7 274.5 277 277.7 281.5 285.1 284.7 284.4 287.4 289.4 294.1 295.9 294.4 293.4 288.8 297.6 302.3 303.6 301.4 299 306.3 314.8 319.5 324.6 331 335.1 335.4 331.6 328.1 325.1 323.3 316.9 306.7 299.2 293.2 288.9 287 284 282.2 280.2 280.8 275.8 279.2 282.8 286 289.2 292.4 296 300.7 307 313.2 317.7 321.5 325.8 333 339.6 346.5 350.4 352.8 355.2 358.7 358.3 358.9 359.6 359.2 359.3 361.8 359.7 358.2 360 361.5 364.7 371.4 377.3 382.8 392.3 403.7 404.4 406.8 414.6 417.8 412.9 405.4 407 404.5 400.9 397.7 394.7 384.6 379.6 378.8 373.9 371.5 368.1 363.8 358.5 353.4 348.2 343.4 338 329.5 320.8 311.5 298 280.7 268.2 249.6 233.1 210.7 188.4 166.2
337.7 334 332.1 330.5 329.5 329.5 329.8 331.1 335.4 341.6 345.3 349.7 357.4 364.4 371.9 378.5 382.7 386.6 389.2 390.7 391.6 391.5 388.7 388.3 386.6 384.1 381.8 378.5 377.1 374.6 374.3 374.6 374.6 373.7 371.2 369.6 369 368.1 368.2 367.4 365.1 364.4 363.2 363 363.8 366.3 367.3 368.2 371.9 374.2 374.3 374.3 367.3 366.9 371.8 377.9 385.6 389.2 388.6 381.9 378.2 373.4 365.9 356.1 351 346.7 338.9 332.2 328.3 324.7 320.8 316.7 312 307.9 305.5 301 296.7 294.4 291.9 290.3 288.5 285.8 284.4 282.7 281.6 281.7 279.3 278.4 273.8 267.5 267.9 269.5 271.5 271.4 276.1 278.2 278.6 279.3 280.7 286 288.8 290.8 290.2 282.6 286.9 294.5 296.5 293.7 290.8 298.5 306.2 313.5 318.2 322.6 326.9 330.6 330.1 327.2 322.7 319.5 316.3 309.2 300.2 295.2 289.1 285.1 282.9 280.6 278.8 278.3 275.2 276.7 279.7 282.5 285.6 288.9 292.3 296.9 302.6 309.8 315.3 321.6 327.1 332.2 339.9 346.2 351 350.9 354.1 355.4 356.3 356.5 356.6 355.5 355.3 353.4 353.2 356 354.5 361 363.9 372.1 376.1 376.4 386.8 396 402.2 410.2 414.9 416.7 421.3 409.1 403.4 399 391.2 389.2 387.1 384.9 380.3 379.6 375.7 370.5 367.5 365.4 362.5 357.5 352.6 348.3 343.9 335.9 327.2 317.2 305.6 289.3 269.4 255.1 241.6 219.8 199.2 178
340.1 336.4 332.9 330.8 330.1 329.1 329 329.9 332.5 335.6 342.5 344.5 356.4 355.5 364.8 374 379.8 384.1 387.4 387.7 388.4 390.3 389.3 388.7 388 384.8 382 378.1 377.3 375.8 371.8 372.3 372.3 372.2 370.8 368.7 366.4 365.3 364.4 364.2 363.6 363.4 363 360.1 360.8 362.1 364.2 367.8 368.3 368.3 369.4 366.8 364.6 373.7 374 381.1 386.2 388.2 389.2 386 378.3 372.5 367.6 359 356.2 346.7 342.2 335.1 329 323.7 319.7 315.8 310.8 307.9 304.9 301.8 298.3 293.9 291.4 289.1 287 286.3 284.4 284.5 286.4 285.6 286.8 285.2 278.2 274.8 261.6 263.2 262.4 258.2 267 269.4 272.3 271.7 273.1 275.4 279.5 283.5 287.3 285.7 277.9 283.7 289 288.4 285.5 290.4 297.4 303.7 311.2 315.9 318.8 318.6 322.9 324.7 320 315.4 312.7 308.4 301.2 296.7 290.5 286 283.6 279.3 277.2 276 274.5 276.9 277.9 279.1 281.5 285.1 288.4 293.6 300.2 307.2 312 320 326.2 331.9 337.8 343.8 349.5 349.6 352.8 355 355.3 355 355.5 355.7 355.9 352.4 353.2 356.8 355.8 355.7 362.2 368.1 372.1 374 383.9 393.8 404.5 413.4 417.3 411.7 408.5 404.7 401.4 396.3 392.6 387.5 387.3 385.9 384.1 381 376.8 371.3 369.3 365.7 364.1 362.1 358 352.1 346.2 340.5 333.9 323.4 313.6 295.7 273.9 259.5 248.1 230.7 206.8 188.9
344.2 339.2 335.8 331.2 330.1 329.2 327.7 329.4 332.2 334.5 337.6 339.6 349.8 348 357.9 368 376.5 381.4 385.5 387.7 388.2 388.3 388.3 389.5 387.3 386 382.9 381 377.4 375.9 374 369.8 370.1 369.9 369.8 368.2 365.7 363 361.8 361.5 360.8 360.5 359.8 359.2 359.6 361.8 364.2 367.9 368.6 364.2 363.7 363.1 363.5 366.7 376.3 381.1 383.9 384.8 389.4 387.5 382.1 375.2 366.7 359.5 352.4 348.7 343 337.6 331.9 325.1 319.1 314.7 310.9 307.7 304.5 300.2 298 295.1 291.3 288.9 287.3 286.1 285.8 286.7 288.3 289.1 289 286.3 281.2 276.5 265.8 260.6 254.9 253.6 253.7 259.5 263.4 266.2 267.4 268.3 271.1 273.9 277.1 280.2 276.5 274.3 279.2 282 280.9 282.4 289.5 294.9 301 308.6 310.8 311.3 312.2 314.7 315.8 313.6 307.8 303.2 299.5 295.9 290.8 286.4 285.1 281.1 276.8 274.1 272.9 276.7 276.8 278.5 280.8 283.8 287.3 290.5 296.6 304.7 309 317.5 324.2 330.6 336.8 342.8 348.1 349.2 351.5 353.4 354.8 354.7 354.6 354.9 355.2 352.9 352.2 353.2 354.4 353.6 361.2 364.3 365.8 371.9 380.3 387 401.6 409.5 408.2 409.8 403.8 399.4 400.1 396.1 393.1 386.7 382.4 383.4 383.7 380.9 377.4 371.6 370.7 367.7 364.1 363.6 362.8 356.2 350.4 344.9 338.3 328.4 316.5 304.3 284.8 264.7 253.3 238.8 216.7 198.4
346.5 341.2 338.5 332.6 330.8 330.8 328.6 328.9 331.4 333.9 335.4 337.5 344.1 344.9 351.2 361.3 370.3 377.9 381.9 384.9 386.7 387.3 387.9 388.1 386.9 385.2 382.3 381.4 376.9 376 374.1 369.7 365.3 367.2 368.1 367.5 366.4 363.7 360.8 358.3 357.9 357.9 357.8 357.6 358.3 359.8 361.7 363.3 367 366 363.5 362.8 362.3 371.5 377.9 380.7 381.4 382.3 382.7 382.2 380.8 378 367.3 360.7 353.6 349.8 345.2 339.3 334.2 326.8 324.6 315.8 311 307.3 302.2 298.3 296.5 294.7 292 289.9 288.3 287.2 287.2 289.6 291.7 293 292.8 290.8 284.1 280 274.2 263.3 260 262 251.8 250.6 252.8 258.7 260.3 261.1 262.1 264.4 269 271.9 274.1 265 270.4 273.7 273.9 273.7 278.7 286.3 292.3 298.2 303 305.3 305.3 305.7 306.9 306.4 304.2 299.8 296.2 293.4 289.1 284.3 282.8 282.6 278.1 274.9 270.8 273.9 275.9 277.1 279.8 282.9 285.8 288.8 292.5 299.6 305.9 314.4 321.8 328.7 335.2 341.6 346.4 349.7 349.8 352 353.8 354.6 354.5 354.4 353.2 353 353 353.6 352.4 350.6 354.3 357.4 361.7 365.9 374.2 380.1 388.1 394.1 398 398.7 397.6 395 394.6 394.3 393.7 389.3 384.7 381.1 381.3 381.3 376.2 372 371.5 369.2 365.5 361.6 362.3 363.1 357.5 350.6 342.5 334.2 322.4 311.2 296.4 274.8 256.6 243.1 229.6 210.3
349.7 344.7 338.9 337.4 332.9 330.9 328.9 328.6 329.4 331.5 332.8 335.1 338.3 339.6 346.2 355.9 365.2 373.6 379 381.9 384.6 385.2 385.9 387.2 386.7 385.7 383 381.7 378.9 376.2 374.2 371.9 368.4 365.9 363.9 366.3 365.7 363.7 361.4 357.6 355.3 354.9 354.9 354.7 354.6 356.8 358.8 359.2 358.3 363.1 363.1 362.7 361.8 370.7 379.7 380.1 378.9 378 375.3 375.8 376.6 374.6 370.6 364.2 356.9 353.8 347.8 343.3 336.3 331.2 327 320.7 312.6 306.6 301.5 297.8 296.6 296.8 295.3 293 290.8 289 289.2 290.3 293.3 293.5 292.2 291.6 287.1 281.9 274.5 271.6 270.4 268 263.3 253.2 242.2 246.4 249.7 255.8 257.5 257.2 261.2 263.5 263.9 265.6 266.7 264.9 265.2 266.9 268.5 273.5 283.6 291.3 295.1 299.4 301.3 298.9 299.2 299.3 298.1 296.3 292.7 289.5 286.8 283.8 280.1 277 276.7 272.9 274.5 270.1 274.5 275.4 277 279.9 283.1 285 288.3 293.8 302.6 311.3 319.5 326 330.6 335.2 343.9 348.9 350.4 351.9 353 354.4 354.1 353.7 353.6 353.7 353.2 352 350.3 350 350.8 352.1 354.5 357.5 366.6 375.1 378.9 384.8 386.7 388.4 388.1 391.5 390.8 391.1 391.5 390.4 387.1 381.1 379.2 378.6 376.4 372.3 372.1 370 366.3 359.4 360.6 362.4 362.8 356.2 347.9 339.5 330.5 319.6 305.7 287.3 264.7 247.1 234.7 225.7
350.6 343.8 342.2 339.4 335.2 331.6 329.8 328.8 328.1 328 330.2 333 334.9 335.8 343.3 350.7 359.8 367.6 374.9 380.1 382.1 383.3 383.6 385.3 387.4 386.6 384.8 382 379.7 377 374.4 372.1 368.7 365.9 359.5 362.9 362.7 361.8 360 357.8 353.8 352.2 351.5 350.9 354.8 356.6 356.2 358.4 359.5 365.5 363.5 361.7 361.2 364.9 374.6 377.2 376 373.6 372 370.9 371.3 371.6 372.4 371.5 359.1 354.2 351.1 344.1 338.9 334.2 327 324.4 316.2 306.9 301.2 301.2 304.4 302.7 302.6 298.1 296.2 294.9 293.7 292.1 293 292.2 291.1 286 283.1 285 281.3 278.5 275 271.7 267.5 262.9 257.8 250.5 244 240.2 241.5 250.9 253.4 255 246.4 261.3 262.1 259.2 258.7 260.8 263.1 266.9 275.5 283.2 286.7 290.7 293.9 294 295.3 293.8 291.8 291.3 289.3 286.1 283.2 281.3 278.7 275 273.9 273.5 269.2 267.9 271.4 273.3 274 276.6 279.4 282.5 286.1 290.3 299.6 308.9 316.7 321.7 330.5 338.9 345.6 349.2 350.6 352.9 353.5 353.5 353.7 353.3 353.1 352.8 352 350.1 348.7 348.8 349.9 351.2 352.8 355.8 358.6 369.8 374.9 377.4 379.4 380.2 382.2 385.7 388.4 389.9 390.6 388.2 384.9 385.5 378.4 377.4 375.2 371.8 372.2 368.8 365.1 359.4 356.9 356.9 362.9 361.2 353.4 344.6 337.3 327.3 314.3 300.9 278.2 255.1 238.6 233.2
354.1 349.1 344.6 340.9 338.3 332.4 330.6 329.8 328.7 327.9 328.4 329.7 331.8 333.8 338.3 345.4 354.3 362.5 370.5 376.4 379.9 381.6 382.1 383.7 386.9 387.8 385.6 383.4 381.3 378 374.9 372.2 368.3 364.8 361.8 356.4 358.8 360.2 357.1 356.3 354.1 351.2 349.4 348.5 352.2 353.1 351.5 352.3 354.1 361.4 363.1 361.2 360.3 362.1 365.4 370.5 372.3 370.4 368.6 369 370.8 371.3 371.6 370.9 366.3 355.1 351.2 346.5 341.6 338.7 332.9 324.4 317.5 310.5 306.5 305.7 305.8 306.6 308 301.6 300.1 299.3 297.9 294.1 293.4 292.4 292.1 292.8 291.3 288.7 285.7 283.3 278.7 275.3 271.2 267.2 262.5 257.7 252.7 246.3 238.3 239.7 235.6 248.3 237.8 249.4 252.7 253.3 252.6 252.6 255.8 261.8 266.6 277.7 279.3 280.3 282.9 287.7 291.4 288.9 286.1 285.3 284.6 283.1 281 278.5 276 273.5 273.4 272.2 270.1 262.6 266.5 269.2 270.5 273.1 275.4 278.3 281.9 287.6 296.7 303.3 309.7 321.1 330.7 340.4 346.6 349.8 351.6 353.4 353.6 351.8 352.2 353.3 352.4 351.6 350 347.8 346.9 346.7 348.3 349.3 351.3 356.1 363.4 363.7 369.7 373.6 376.3 379.1 380 382.2 383.9 385.5 385.6 384.3 384.9 385.9 382.2 375.5 374.3 368.5 370.8 366.1 363.1 358.6 355.9 353 357.9 362.8 356.1 347.8 340.3 333.1 323.1 311.8 293.2 270.6 248 240.6
360.8 354.1 347.9 343.1 340.5 337.2 331.5 330 329.4 328.1 327.7 328.4 330 332.1 334.7 339 348.4 356.8 364.9 371.9 377.6 379.1 381.1 383.9 386.7 388.8 387.3 385.3 383 379.4 375.8 372.7 368.9 364.5 361.2 356.8 354.3 355.4 355.1 355.1 353.3 350.9 348.4 346.2 346.3 346.8 347.9 351 353.9 359.1 357.5 359.5 358.7 361.6 364.2 365.8 368.1 370 368 367.9 369.8 371.8 371.3 371.1 367.1 361.5 352 348.4 342.7 337.8 333.8 327 320 313.7 312.1 308.8 307.4 309.7 311.9 308 307.4 305.6 299.2 297.9 295.9 292.9 293.4 294.5 293.3 290.4 288.5 286.4 282.3 278.9 274.9 270.8 267.5 263.1 258.4 253.5 248.3 239.2 233.3 228 231.6 234 246.1 246.1 247.1 245.8 246.9 252.4 258.5 265.4 270.6 272.5 276.2 277.6 280.8 282.4 281.6 279.6 278.9 278 278.8 277.4 273.4 271.4 272.1 272.1 268.1 259.7 263 265.9 267.9 269.5 271.6 273.7 278.8 284.9 291.5 303.1 311.8 321.1 331.1 341.2 347.8 351 354.2 354.6 354.5 352.4 350.9 351.1 351.1 346.7 346.6 346.5 346.7 346.8 347.2 348.8 349.9 353.7 357.9 361.8 366.5 369.2 371.5 375.9 377.6 379.4 381 382.2 382.5 382.7 382.6 382.4 381.2 375.7 376.3 371.5 366.2 363.7 359.5 354.7 352.6 353.1 354.5 356.8 355.5 348.1 341 336.4 331.2 318.9 304.1 281.8 261.6 241.5
361.8 357.2 351 346.7 343.4 338.9 334.2 331.6 330.1 328.9 327.5 327.8 327.9 329.4 333 335.8 342.8 350.5 358.2 365.7 372.1 376.9 380.6 383.5 387 388.7 390.2 388.4 385.6 382.4 377.8 373.2 369.6 365.3 361 358.1 354.4 353.1 352.9 352.5 351.5 349.8 347.9 345.8 344.7 344.7 345.7 348.6 350.6 353.2 353.5 358.8 355.8 361.3 363.4 364.8 367.9 367.9 367 370.9 368.8 370.5 370.4 370.2 366.1 360.7 355.8 348.5 343.3 339 334.9 326.6 321.2 316.7 312.6 311.1 308.6 310.7 311.9 309.4 309 307.8 303.2 298.4 296.4 293.3 293.5 294.2 293.8 292.7 290.9 288.2 286.6 284.3 280.4 274.5 271.5 266 263 259.9 256.3 250.5 243.3 235.9 228.1 224.4 231.4 240.5 243.3 240.5 239.7 240.8 249 257.9 262 265.9 268 269.7 271.5 273.4 275 274.7 273.7 273.4 273.9 274.9 272.4 270 270.8 270.3 266.1 261.9 259.6 261.9 263.6 265.8 268.4 271.1 278.4 283.9 291 303.5 313.9 322.3 331.4 340.8 347.7 351.7 354 356.4 359.4 355.5 351.5 349.3 347.3 344.5 344.6 344.9 344.9 344.9 345.5 345.6 347.4 351 353.7 357.7 361.8 365.3 368.7 371.4 375.3 377.1 378.4 379.4 380.4 380.2 378.6 378.1 378.1 375.5 376.3 372.8 369.4 364.6 358.8 350 345.5 346.4 350.2 351.8 353.7 347.9 341 335.2 330.2 320.5 306.8 293.2 273.3 242.2
363.9 360 356.1 348.9 343.5 340.1 336.8 332.1 330.5 329.8 328.7 326.8 327 328.8 331.5 334.1 338.8 344.2 352.6 360.7 368.1 373.9 378.7 383.3 386.9 390.2 392.7 392.3 390.9 387.6 382.4 375.1 370.3 366.3 362.1 358.5 355.3 350.1 349 349.5 348.8 346.8 346.6 344.8 343.6 343.3 344.2 345.8 348.5 350.9 353.2 352.6 354.7 360 361.5 363.9 365.2 365.9 368.2 370.1 369.1 369 368.6 367.1 362.5 359.5 358.5 353.6 345.4 339.8 333.8 330.9 324.1 322.9 319.8 312.5 310 310.5 309.8 309.2 308.4 308.1 304.6 301 296.4 293.9 294 294.6 294.6 294.8 293.2 291.2 290 288.6 285.2 281.5 276.2 271.3 267.9 263.2 257.5 252.7 248.7 243.2 237.3 229 223.9 230.7 239.4 238.9 235.9 234.5 237.5 243.5 251.5 257 258.9 262.4 261.6 263.8 266.2 268.3 268.3 268.4 269 269.7 270 268.2 268.4 268 264.1 260.4 256.4 256.9 259.7 262.9 265.2 269.6 275.2 282.6 293.1 305.6 314.9 323.6 331.9 340.4 347 351.6 353.2 357.4 358.9 356.5 353.6 351.5 349.7 345.8 344.6 344.4 344.8 344.5 344.5 344.3 344.9 346.9 349.6 352.9 356.9 360.5 364.2 368.5 373.1 374.6 375.5 376.5 377.1 376.4 374.6 372.3 374 374.1 372.6 371.5 370.3 367 361.2 350.4 340.1 337.8 341.9 345.3 350.2 350.2 342.5 334.6 327 316.7 308.8 300.3 266.1 237.9
367 363.4 357.3 352.5 348.7 343.5 337.7 335 332.2 332.4 330.7 328.9 326.6 327.5 330.5 333 336.2 341.1 349.2 356.9 364.3 371.2 376.2 381.2 386.1 391.2 393.2 395.4 395.6 393.8 389.1 381.3 372.2 367.5 363.2 359 354.2 352.1 347 344.5 344.7 344.6 344 343.5 342.3 342.4 342.3 341.7 346.6 347.6 350 351.7 350.5 355.1 358.3 361.3 364 367 368.8 370.1 370.2 368.8 365.7 362.2 361.1 360.4 359.1 357.4 352.4 344.5 335.4 330.5 329.2 326.2 325.4 320 316.2 312.8 310.5 310.9 310.6 308.4 305.4 302.2 299.2 295.3 294.5 295.4 296.2 296 295.5 293.1 292 290.4 288.6 285.9 279.5 277.3 273.8 269.4 263.9 260.2 254.2 248 242.8 238.3 225.5 224.6 226.8 235.2 233.6 227.8 231.8 232.2 238.8 247.1 253.9 255.2 252.7 255.3 256.8 259.8 262.3 263.6 264.1 264.4 265.1 265.7 265 263 262.4 260.3 255.7 252.9 255.7 260.1 262.4 266.1 271.9 279 292.7 303.2 313 322.4 331.6 339.5 345.7 350.4 351.5 354.6 354.8 354.5 352.2 349.7 348 346.3 343.8 342.8 342.8 342.3 342.4 341.4 341.8 342.9 344.5 348 351.8 356.5 360.8 365.6 369.1 371.8 372.9 373.8 373.5 371.1 371.2 369.3 368.1 368.4 368.3 367.4 368.2 365 360.6 352.4 340.9 335 334.3 335.9 339.2 346.1 340.7 334.3 328 322.5 306.7 288.1 259.8 233.2
368.9 363.2 359 354.1 350.3 345.2 339.5 336.4 334.9 333.3 332.6 331 327.4 326.7 329.3 332.5 334.2 338.1 344.1 353.1 360.4 367.2 373.8 379.4 384.7 389.9 393.3 395.7 397 397.9 394.9 386.9 377.2 369.2 364.6 358.2 353.3 351.7 348.3 344.5 342.6 342.7 341.1 341.3 340.7 342.2 341 340.9 341.6 345 344.3 348 349.7 352.5 354.6 357.4 361.9 367.8 369 369.2 367.8 365.8 366.5 362.2 361 360.6 359 358.7 353.3 347 339.7 330.7 326.6 325.3 324 322.1 321 316.7 311.1 310.2 309.3 308.4 304.7 303.5 302.2 298 295.7 295.5 297.9 298.3 297.8 296.2 294.6 293.6 289.4 286.2 286.8 283.5 278.7 275 271 265.9 260.7 256.9 252.8 245.8 241 227.2 218.2 219 224.2 223.1 223.3 223.4 227 230.5 239 243.5 246.3 248.5 249.4 252 254.6 257.8 260.7 260.4 261.4 262 261.9 260.2 258.3 257.4 253.9 248.1 255 258.7 259 262.2 267.3 275.6 288.4 298.8 309.2 319.7 329.4 337.6 344 348.3 350.5 351.8 351.9 351.7 350.2 348.2 346.4 344.6 342.7 340.8 336.8 336 338.9 340.3 341.8 341.4 338.4 342.7 347.2 351.8 356.5 361 364.6 367.8 369.5 369.7 370.2 369.8 368.6 366.6 365.7 364.8 364.5 363.2 363.2 360.5 357.6 349.4 341.8 335.6 328.6 326.2 325.4 332.9 331.2 333.1 331.2 326.3 318.4 282 249.9 222.4
371.3 365.1 361.1 355.9 351.1 343.8 340.8 338 336.2 334.2 333.4 331 329.4 325.6 327.6 330.9 332.4 334.4 340.8 350.2 356.5 362.1 371.4 377.6 383 388.3 392.7 394.4 397.1 404.8 400.5 392.5 383.3 372.9 364.5 358.2 353.9 351.9 348.9 345.6 343.3 340.8 339.2 339.1 340 340.6 339 339.8 340 341.4 343.2 346.2 348 351.4 352 354 361.2 366.2 368.4 367.7 370.1 367.3 362 362 360.9 360.7 358.9 356.8 353.3 350.2 346.6 342 331.5 325.6 322.5 321.5 321.4 321 316.9 310.2 308.7 306.3 305 303.4 302 299.9 297.4 296.6 297.6 299.9 300.2 299.1 297.7 297.1 295.7 293.3 291.3 287.9 284.9 281.1 276.4 267.5 263.3 261.3 258.1 252.1 247.6 240 227.6 221.7 215.2 216.4 214.5 213.4 215.7 215.9 223.3 231.3 239.6 239.8 242.8 244.3 246.8 250.5 253.9 256 257.4 258.5 258.8 258.7 256.5 254.3 234.6 244.6 251 254 253 257.1 261.3 269.8 286.8 297.3 307.4 317.4 327.4 336.5 342.3 346 348.3 350.4 350.7 349.8 348.3 346.7 344.8 342.9 340.9 338.7 332 330.9 335.3 337.2 339.5 340.2 335 338.2 342.6 347.1 351.5 356 360.8 363 364.2 365.6 367.3 367.1 366.2 364.6 363 361.4 356.6 356 354.2 354.1 352.4 347.2 340 335 330.8 323 317.2 312 315.6 329.3 337.7 325.5 320.2 282.6 242 220.2
368.1 366 362 360.1 355 350.1 343.2 338.7 336.5 334.6 333.7 332.7 330.4 327.2 326.1 327 330.6 332.6 336.2 344.2 355.1 361.4 369.4 376.4 381.9 387.2 390.3 391.8 394.3 405.3 408.3 398.3 391.8 379.4 369.8 362.4 355.6 352.1 349.3 346.7 344.1 341.7 339.4 337.3 337.8 337.4 336.7 337.6 338.9 341.6 341.5 344.3 345.6 348.1 349.6 350.3 357.6 364 366.3 367.9 367.9 365.5 362.1 362.1 361.8 361 359.5 358.4 356.8 355.8 353.5 348.8 339.7 329.8 323.9 321.6 320.8 320.5 319.8 315.8 310.3 309 308 305.9 304.2 301.8 300.2 298.7 298.8 300.2 301.9 301.9 300.7 299.7 299 298.3 296.7 293.2 289 284.1 277.7 274.4 269.1 262.4 260.5 257.6 252.6 247.1 241.4 234.9 223.7 215 213.4 210 209 207.7 207.8 216.2 225.4 230.5 234.7 237.6 239.8 242.9 246.4 249.7 252.8 255.3 255.9 255.8 255 253.5 233.3 235.5 242.6 249.4 247.7 253.4 259.6 270 284.4 295.2 305.8 314.7 325.2 334.3 339.9 343.6 346.5 348.7 349 347.8 346.5 344.9 343.1 341.1 339.2 337.3 333.2 328.6 332.1 334 335.4 336.7 335.5 337 337.9 342.1 346.5 350.8 353.9 359.3 361.7 363.2 365.1 364.6 363.8 362.4 360.7 358.5 354.4 350.8 349.4 348 345.5 342.1 338.4 334.3 329.7 322.4 314.6 306.6 299.1 307.2 306.9 286.1 261.6 242.7 233.4 216.3
369.5 368.9 366.8 363.1 360 354.5 346.7 341.1 339.2 335.9 334.4 333 330.7 329.8 326.3 325.7 329.6 331.5 334.2 342 352.1 360.1 367.3 374.5 381.1 385.9 387.8 389.2 392.2 401 406.8 406.4 398 390.3 377.8 370.7 360 353.5 350.6 347.8 345.3 342.6 339.5 336.2 335.3 335.7 335.8 336.9 338 338.8 338.6 340.7 343.2 345.8 345 349.2 352.9 358.8 361.9 365.7 368.6 367.2 362.6 365.5 365.7 365.7 362.1 361.4 361.1 360.2 357.2 352.2 347.3 336.4 328.4 324.2 325.2 319.8 317.9 314.6 314.6 312.5 311.4 308.9 306.8 305 303.4 302 302 303 304.6 305.3 305.4 304 302.1 300.1 297.8 297.2 291.9 288.5 286.7 280.6 274.6 270.4 263.4 259.6 253.9 250.4 248 243.6 238.3 232 220.8 222.7 221.6 216.1 208.3 206.6 213.8 220.2 224.8 230.6 234 236.3 238.7 243 247.4 251.1 253.2 253.4 252.9 252 244.5 231.9 230.7 243.4 246.9 251 256.5 267.3 279.3 289.6 299.6 310.2 320.7 330.4 336.2 340.1 344.3 346.4 347.2 346.2 344.9 343.4 342.1 339.9 338 336.1 331.7 328.3 328.7 329.9 331.1 332.7 333.7 328.7 331.4 337.2 341.9 345.7 349 352.6 356.4 359.7 362 362.2 361.4 360.3 358.6 357 354 348.7 343.8 341.4 338.4 335.4 333 331.7 326.6 320 311.4 301 283.4 281.3 272 255.2 236.3 239.1 223.1 211.8
368.6 367.6 366.1 365.6 360.5 352.5 349.1 344.8 340.8 337.3 336.5 334.1 333.9 328.5 326.8 325.4 328.1 331.2 334.3 342.1 350 357.8 365.2 372.2 379.2 383.7 386.5 388.8 391.1 393.4 404.8 406.5 403.4 396.5 384.9 375.6 364.7 356.7 351.9 349 346.1 342.8 339.8 336.6 335.2 334.9 336.1 336.1 335.6 335.4 336 338.1 340.1 343.1 344 347.8 350.3 353.9 358.6 365.3 367.1 365.2 367.1 367.8 368.1 369.2 369.1 366.3 365 366.1 361.4 355.6 352.5 345.4 332.1 324.3 321.9 320.2 319.1 319.1 317.9 316.9 314.1 312.2 310.6 308.7 307.4 306.6 307.4 308.2 308.8 309.5 308.7 308.1 306.4 304.7 303.3 302 299.6 294.7 292.4 288.7 284.9 277.5 272.1 268.2 263.4 258.2 251.1 244.5 240.2 234.9 234.3 231.5 226.6 222.5 215.3 205.7 206.7 209.9 215.9 222.7 227 229.4 233.8 237 240.8 245.7 249.3 251.4 251.1 249.9 248.7 247.2 232.5 233 241.8 248.4 255 263 273.6 284 294.5 305.2 314.8 324.8 331.6 336.5 341.8 344.9 346.6 345.4 343.9 342.2 341 339.2 336.9 334.9 330.7 328 324.3 324.9 326.4 328.2 330 329.1 326.1 331.2 336 340.1 342.4 345.8 349.3 352.8 356.3 358.8 359 358 357 355.3 352.3 346.6 341.2 336.9 332.2 330 327.9 325.4 323.1 317.5 309.9 299.4 279.4 259.1 252 239.1 227.5 232.3 214.1 207.2
368.4 367.8 367.9 365.6 359.9 354.6 350.7 345.7 342.9 336.8 336.3 333.1 331 329.5 326.3 324.9 327.5 331.1 337.3 338.8 347.5 355.5 363.3 369.6 376.5 380.8 384.7 387.8 390.9 391.4 397 403.3 403 397.5 388.6 378.7 368.6 360.5 353.9 350.8 346.6 343 340 336.7 333.4 335.5 334.5 332.5 332.4 333.1 335.8 335.5 337.6 340.7 342.5 345 347.6 352.2 361.9 361.2 358 369.4 369.3 366.4 368.9 371.9 374.1 373.5 370.7 367.1 362.8 360.6 355.8 346.5 339.4 330.1 321.9 322 322.5 322.2 321.3 320 317.6 315.1 313.5 312 311.5 311.7 312 312.6 313.4 313.5 312.8 312.1 311.1 309.6 307.9 305.6 303.6 301.1 297.9 294.3 289.8 284.2 281.1 275.9 269.4 263.7 257.4 250.5 248.2 241.9 238.9 233.6 230.8 227.8 222.1 204.9 205.2 205.1 207.4 213.7 220.2 222.9 226.3 230.3 233.4 238.7 243 247.2 249.3 248.2 247.1 246.6 243.5 225 231.7 242 251.7 260.2 268.8 278.3 288.7 299.8 310.3 320.2 327.5 333.4 338.1 342.3 344.3 344.1 342.8 341.1 339.8 338.5 336.2 333.7 330.6 325.5 320.1 319 319.9 321.4 323.2 326.4 325.6 324 326.9 332 334.8 338.7 341.7 345.5 349.3 352.2 353.6 353.9 354.4 352.7 348.4 343 338.6 334.4 330.4 325.1 320.5 319 316.2 313.9 303.9 298.4 275.8 254.3 233.8 220.5 217.4 213.7 206.7 203.4
367 365.2 367.9 363.3 356.9 355.9 352.5 349.5 345.9 341 336.7 333.3 332.5 332.5 327.7 324.8 325 329.9 334.3 338.7 343.1 351.8 360.6 367 372.7 378.3 382.4 386.2 389 391.4 391.7 396.2 399.8 391.6 387.4 381.3 372.9 365.2 358.2 352.3 347.6 343.3 341.2 339.6 333.6 332 330.3 329.4 329.8 331.7 332.3 333.4 335 336.9 338.8 342 344.8 348.3 354.2 356.9 356.5 362.5 362.6 364.4 369.1 374.3 377.7 378.9 375.5 371.3 370.2 365 360.8 355.1 342.9 334.6 327.1 326.9 326.3 325 323.7 322.3 321.1 318.8 316.7 315.7 315.2 315.5 316.1 316.7 317.5 317.6 317.2 316.6 315.5 314.4 312.9 310.7 309.1 306 303.8 301.1 296 284.1 282.8 277.8 269.5 266.3 260.6 255.2 248.5 245.6 243.5 239.7 234.6 229.4 224.1 217.1 202.4 202.6 203.4 203.9 209.8 216.3 221.5 223.5 227.4 231.1 235.6 239.4 245.6 246.9 245.5 244.6 243.8 228.1 224.4 231.3 243.6 257.4 266.7 276.3 285.9 296.6 307.7 316.6 323.4 329.3 334.2 338 340.9 342.2 341.5 340 338.5 336.7 334.3 331.9 328.4 325.3 317.5 314.4 310.8 312.6 315.8 319.1 317.8 320.5 321.7 324.1 327.4 330.7 334.2 338 341.9 344.1 345.4 346.5 347.7 347.6 344.2 340 336.2 332.7 329.2 323.4 312.1 306.6 299.3 303.6 296.6 281.1 261.2 250.5 237.5 218.8 209.6 205.9 195.3 194.9
372.4 366.8 360.9 363 362.1 357.5 355.7 349.2 345.8 341.3 336.1 334.6 334.1 333.5 330.6 327.5 324 328 331.6 338.6 340.6 345.4 357.7 363.1 368.6 374.2 379.7 384.3 387 389 389 390.7 392 390.6 390.8 384.2 376.8 369.5 362.2 355.4 348.2 343.6 341 339.7 334.4 331.8 330.9 329.2 327.4 329.1 329.9 331.3 332.4 334 336.5 339.8 342.2 345.3 347.7 350.5 351.9 357.8 357.1 363.8 368.2 374.5 378.1 378.6 376.7 377.7 374 371 366.4 360 351 336.5 333.8 331 328.8 327.4 326.1 324.7 322.7 322.9 321.1 319.4 318.9 318.8 319.8 320.9 321.2 321.5 321.3 321 319.9 318.1 315.6 313.9 311.8 310 306.4 303.9 299.9 294.2 287.3 284.1 280.4 273.7 269.8 264.4 259.2 254.2 249.2 243.4 236.4 229.5 224 222.2 214.1 200.3 199.4 198.2 202.6 207.7 214.8 217.5 222.4 225.3 230 233.5 238.7 239.9 242 242.5 242.1 239 229.5 222 238 253 263.1 273.4 285.9 295.5 305.2 312.8 319.4 325.4 329.9 333.4 336.6 339 339.1 338 336.8 334.3 331.8 329.4 326.2 323.6 320.5 315.7 307.5 304.9 310.6 310.8 308.7 313.9 315 316.4 319.8 323.1 326.4 330.1 333.7 334.8 336 337.4 339.4 341.3 339.9 336.7 333.8 330.9 327.3 324.1 316.1 307 297.5 287.6 278.2 259.2 251.5 245.4 228.6 213.3 203.2 199.7 189.1 185.9
370.9 365.3 360.4 362.1 362.8 357.3 355.7 351 345.6 342.9 340.3 337.7 335.2 334 332 329 322.2 324.7 328.9 334.1 337.7 345.1 353.3 359.3 365 370.6 376.1 381.5 386.1 387.4 388.2 389.4 389.6 393 393.5 389.3 380.6 373.2 364.7 357.3 349.4 342.3 340.2 337.8 335.4 332.5 331.3 329.6 327.2 326.3 328.2 329.4 329.6 330.9 333.2 336.5 339.9 343.1 346 349.1 350.4 353.8 355.4 359.5 364 371.5 374.9 376.4 376.3 377.4 378.2 374.6 372.3 365.4 358.4 345.7 339.9 333.7 330.9 329.6 328.5 327.3 326.2 325.2 324.1 323.4 323 321.7 322.6 323.6 324.8 325.4 325.2 325.2 324.5 323.6 321.6 319.2 318.4 315.5 312.7 309.8 306.8 303.4 299.3 292.3 285.1 280.9 275.9 271.5 266.6 261.3 255.8 250 243.8 235.6 228.3 221.6 217.7 213.4 200.8 199.1 195.8 201.5 207.3 209.3 215.6 220 222.3 226.9 229.5 233.5 238.1 239 238.5 237.7 234.1 218.8 232.7 249.5 260.2 271.4 283 292.8 300.8 308.2 315.2 321.1 325.6 328.8 331.9 335 336.5 335.6 334.1 331.7 329.9 326.6 323.7 321.7 317.2 313.5 309.5 307.8 302.3 306.1 299.5 306.6 309.2 308.6 311.7 315.5 318.4 322.1 325.2 325.6 327 329.2 331.2 332.9 332.9 332.6 330.2 329.7 329.1 328 324.8 306.2 293.2 269.8 259.1 249.5 239.2 232.7 222.5 211.6 200.8 192.2 186.9 178.1
372.2 363.9 358.9 357.2 360.5 359.5 354.6 352.3 348 343.4 340.9 337 338.7 335 332.9 329.6 326.6 320.9 326.2 331.1 338.1 344.5 351.2 355.8 361.3 366.9 372.5 378 381.7 383.6 386.3 387.8 388.6 396 397.9 392.8 385.5 376.6 367 358.8 351.8 344.6 339.4 336.6 334.1 331.7 330.6 328.4 327.5 325.7 323.6 325.9 327.1 328.4 331.5 334.6 337.3 339.5 340.9 342.7 347.1 350.4 352.2 354.5 357.3 364 369.7 372.9 375.3 374.6 379.1 380.4 374.7 369.8 359.9 348.1 344.1 341.4 333.2 332.3 331 329.2 328.2 326.4 326.5 326.8 326.6 325.9 325.6 326.2 327.8 328.8 329.5 329.5 329 328 326.4 325 323.7 320.3 318.2 315.4 311.6 306.5 302.7 298.8 293.1 288.1 282.4 277 270.8 267 261.8 255.9 250.3 242.5 236.6 227.4 222.8 215.1 209.3 205.1 196.2 198.6 199.6 202.9 206.5 212.9 217.3 220.2 224.1 227.5 231 233.1 234.2 234.6 233.6 217.7 229.8 246.2 257.1 267.5 279.5 290 297.3 302.7 310.1 316.2 321.1 324.5 327.8 330.4 332.6 333.2 330.9 330.9 327.1 324.4 321.6 318.6 315.5 312.1 308.5 302.4 296.4 301.8 297 299.6 300.2 303.2 304.6 308.5 308.3 314.1 316.2 315.8 318.2 320.7 321.5 322.7 323.8 325.4 326.7 327.8 330.9 327.3 317.9 300.7 291 262.3 251.5 240 228.1 223.9 213.9 205.4 195.1 182.2 179 169.5
379.2 366.3 362.1 355.9 355.7 356.2 355.3 354.7 350.8 346.2 340.9 338.1 339.1 335.8 334.9 330.9 326.4 324.8 323.8 329.2 336.3 343 349.2 354 358.2 363.4 368.6 374.5 378.4 381.3 384.9 385.8 386.3 393.9 400.2 398.1 387.9 379.4 369.6 360.7 353.8 347.4 340.5 335.8 332.9 331.4 329.7 327.5 326.9 325.7 324.4 324.4 325.3 327.1 328.6 332.1 334.2 336.3 336.5 340.1 342.5 345.7 349 351.3 352.8 356.8 364.3 367.9 371 373.2 375.8 375.8 376.7 367.8 354.4 348.3 346.4 345.3 342.1 333.4 331.9 331.2 329.3 327.9 328.1 328.7 329.3 329.9 329.6 329.4 329.5 331.7 332.8 333.8 333.3 332.5 331.5 330.3 328.6 326.5 323.7 320.9 317.4 313.4 309.9 306.7 301.9 296.8 291.5 283.8 275.9 268.1 264.2 260.2 255.7 250.4 240.8 234.2 226.9 220.7 212.1 206.8 201.3 194.8 197 197.6 200 202.5 209.9 214.8 217.9 222.2 224.6 226 228.5 230.4 229 214.4 227.8 243.1 255.6 267.2 276.8 286.4 295.1 300.4 305.1 311.4 315.1 320.3 323.3 325.8 327.1 329.1 329.4 327.9 324.6 322.2 319.8 317.5 314.4 310.8 311.4 302.1 291.6 292.9 293.8 292.2 295.6 294.7 296.5 296.2 299.4 304.5 306.1 304.8 310.6 312.4 312.9 312.5 315.2 315.6 317.1 318.6 324.6 311.9 304.3 305.3 297.9 258.5 237.9 220.4 221.9 212.7 203.8 198.6 189.1 175.6 163.2 163
376.2 368.3 360.3 355.8 351.7 352.7 354.6 354.5 350.2 345 339.4 339.1 338.9 335.9 333.1 328.6 325.8 324.4 322.5 329.8 337 342.1 347.2 352 356.4 359.9 364.9 370.1 375.5 379.1 383 385.8 385.1 388.4 392.8 391.7 385.6 380 373.1 363.1 357.2 351 344.2 336.6 331.9 329.8 327 325.8 325.3 324.8 321.9 322.6 322.9 324 325.8 328.6 330.5 332.3 333.9 336.5 338.7 341 344.3 347.7 348.4 350.7 355 361.1 366.1 369.8 370.5 373.2 370.4 364.5 357.4 348 347.1 346.3 346.5 338.7 334.2 331.1 330 329.1 329.5 329.9 330.4 331.6 332.5 333.4 333.1 333.4 335.3 336.9 337.4 336.9 335.8 334.6 332.9 330.8 328.3 325.6 322.6 319.4 315.9 312 307.9 303.4 298.4 292.4 285.5 277.7 272.5 266.9 260.4 253.2 248.4 240.2 232.7 225.4 216.4 210 205.7 195 190.4 193.8 194.9 197.5 202.8 208.8 212.8 217.6 220.4 223.2 222 224.2 224.3 216.8 227.4 242.2 256.6 265.9 274.3 278.8 290 298.5 301.2 305.6 310.8 312.7 317.7 320.5 321.8 322.8 324.5 323.7 321.7 319.4 317.6 315.6 312.8 309.9 309.4 307.4 299.7 283.4 281.9 281.7 288 290.4 287.2 293.1 290.2 292.2 295.5 299.1 298.5 301.8 303.8 304.2 304.2 306.8 305 309.9 311.3 302 305.2 304.8 281.1 241.7 235.5 223.1 201.9 204.5 194.4 188.9 178.6 171.6 160.2 153.3
372.8 366.7 361.2 357.4 352.2 349.4 350.2 353.5 350.8 348.6 339.1 338.9 338.2 337.3 332.5 329 324.8 321 319.1 329.2 335.1 340 344.6 349.2 353.8 358 362.2 366.1 370.9 375.1 380.3 383.4 384.3 384.7 383.7 383.8 379.8 377.3 374.4 368.1 361.1 354.5 347.7 339.2 331.2 327.1 325.7 324.3 322.8 321.2 319.3 317.9 320.5 322.9 323.8 324.8 326.6 328 330.5 332.6 334.8 336.9 339.5 342.1 344.5 347.3 349.1 354.8 359.9 362.8 365.9 368 368 370.8 370.2 362.6 347.8 346.3 346.4 342.3 335.3 330.8 330.8 330.3 330.2 330.6 331.4 332.7 334 335.8 336.7 337.2 337.5 339.1 340.5 340.5 339.6 338.4 336.9 335 332.9 330.2 327.5 324.6 321.4 317.4 313.3 309.2 304.6 299.4 293.3 287.1 279.7 273 267.4 261.7 254.6 245 237.2 229.9 222.6 217.2 213 211.1 197.7 192.3 191.5 194.3 196.5 200.9 206.9 211.9 215.3 220.9 220.6 219.2 218.8 211.6 226 240.1 253.9 264.2 272.8 274.3 283.5 293.2 296.6 300.1 304 305.8 311 314.8 316.5 317.5 318.6 319.4 317.5 315.8 314.5 313 310.9 308.5 305.5 303.7 298.3 289.8 278.1 275.2 279.4 282.1 282.6 282.5 286.6 280 287.4 287.6 291.1 289.1 291.6 293.2 293.6 293.7 294.7 296 295.3 295.2 293.4 273.3 235.8 232.6 231 219.8 204.5 188.3 187.2 181.8 168.2 162 153.2 149.7
380.3 370.6 363.3 361.6 352.3 349 346.3 347.3 346 344.8 338.8 338.5 338.5 336.4 332.8 327.5 323.7 319.3 323.8 329 332.1 337 341.6 346.2 350.7 355.1 359.2 363.1 365.8 370.6 375.7 381.8 386.4 383 379.1 377.2 375.7 374.7 373.6 370.3 364.2 357.8 350.2 341 332.5 325.4 322.3 319.9 318.7 317.3 316.5 317.6 319.3 320 321.5 322.7 322.9 323.5 326.5 328.8 330.8 332.9 335.3 339.2 340.5 341.3 342.6 344.7 350 357.9 361.3 357.1 365 372.1 378.9 376.5 361.6 349.4 346 340.5 334.4 337.3 331.6 331.3 331.1 331.3 332.4 333.6 334.9 336.7 338.6 340.3 340.6 341.5 342.6 343 342.8 342.3 340.7 338.9 337 334.8 332.2 329.2 326.1 322.6 318.7 314.8 310.3 305.7 300 294.2 287.7 281.9 275.6 268.3 259.5 253.9 244.5 234.6 227.9 223.3 221.9 216.5 204.5 187.5 188.8 188.3 190.7 195.6 198.4 205.4 209.2 213.2 219.1 217.4 213.3 207.3 215.3 235.5 250.2 260.6 268.4 271.4 275.7 285 293.5 296.1 300.5 299.1 304.6 307.8 308.8 312.9 314.2 314.4 312.3 311.4 310.4 309.2 308.1 305.6 300.9 296.3 293.4 289 283.5 266.9 270.2 273.3 273.6 274.1 273.8 272.2 274 274.8 278.4 278.7 280.9 281.3 281.4 279.2 273.9 274.3 274.7 284.8 261.4 245.2 215.1 221.2 218.6 210.4 197.1 183.8 179.8 175.8 164.5 153.9 151.1 148.3
383.2 370.5 362.6 357.6 352.3 348.7 346.4 344.1 343.5 341.4 338 338.7 338.8 335.6 332.6 327.2 325.2 318.6 324.3 327.6 330.1 334.2 338.6 343.1 347.6 352.1 356 359.7 362.2 366.4 370.7 375.5 386.9 386.5 377.9 374.4 371.7 370.8 369.5 366 361.8 357.7 351.4 342.3 333.3 324.7 318.6 315.6 314.4 314.3 313.1 312.6 315.3 316.6 317.7 318 318.4 319.5 321.5 324.5 326.5 329.2 331.8 333.1 333.5 335.4 338.8 340.7 343.2 349.1 350 354.2 362.4 368.9 377.2 379.7 374.8 359.1 349.4 341.2 335.6 332.9 331.1 330.9 331 331.5 332.9 334.1 335.7 337.7 339.6 341.8 343.5 344.4 344.5 344.6 345.5 345.2 344.2 342.6 340.6 338.9 336.8 333.9 330.9 327.9 324.2 320.2 316 311.7 306.6 300.7 294.8 289 282.5 274.4 269.5 262 252.9 242.8 231.6 225 222 216.8 207.4 198.9 189 185.1 184.4 186.6 192.9 197.9 202.1 206.2 209.6 215.2 196.2 200.3 217.4 231.9 243.9 254.9 263.1 267.9 268.3 277.7 286.4 290.2 295.4 298.4 298.7 302 304.1 306.3 306.7 306.6 306.8 306.2 305.5 304.6 304.6 305 301.4 294 286.3 284 282 274.7 267.5 264.1 262.2 264.2 263.3 261.7 264.2 265.1 266.5 265.9 267.6 266 266.5 264.4 265 260.3 263.8 255 236.3 218.2 200.2 205 208.8 198.2 184.3 172.1 168.9 167.9 158.2 150.6 147 141
384.9 378.1 369.8 362.4 351.7 348.1 348.5 346.1 338.5 337.4 340.3 335.6 335.8 333.8 330.9 328.2 324.5 317.6 326 328.7 329.5 331.8 335.5 340 344.5 348.9 352.5 356 358.4 360.7 365.6 370.1 377.7 381.2 377.2 372.6 369.8 365.8 363.2 360.3 356.7 354.2 350.2 342.3 333.4 324.9 318.5 313.6 310.4 310.5 309.4 306.6 309.9 311.9 313 312.9 312.8 315.4 317.5 318.3 322.6 323.2 323.7 324.2 327.3 329.6 330.9 331.5 337.5 341.7 344.4 350 354.7 364.3 376.9 377.6 373.8 362.6 353.3 342.8 335.4 331.6 331 331.6 331.9 330.9 332.7 334.5 336.2 338.1 339.9 343.7 346.1 347.1 346.9 347.2 347.3 347.9 347.1 346 344.5 342.9 341 338.5 335.9 332.9 329.6 325.7 321.8 317.3 312.7 307.5 301.9 295.9 288.8 282.8 276.2 269.7 260.4 250.2 240.5 231.9 225.7 217.8 211.5 202.7 194.9 186.7 185.9 184 184.9 197.7 197 201.1 203.8 204.4 193.6 198.4 215.5 227.3 237.5 248.8 256.9 263.7 265 270.6 278.1 284.4 288.6 292.8 292.7 294.9 297.4 299.9 300.2 300.3 300.5 300.6 300.5 299.4 299.1 299.9 299.4 297.9 286.8 279.7 279 275.1 270.2 260.8 247.6 253.8 256.3 255.7 255.2 254.1 255.9 254.6 254.6 250.9 252.8 250.1 248.9 252.3 251.1 235.2 217.1 200.9 190.6 193.5 196.3 187.8 176.9 164.9 156.6 162.7 152.3 148 143.3 139.6
377 374.1 371 365.8 357.5 346.8 343.8 342.8 335.7 336.3 339.1 335.9 333.8 331.9 331.1 328.2 324.4 316.1 323.2 327.4 329.4 331.2 333.2 337 341.3 345.5 349 351.9 353.6 355.6 361.3 366.4 367.5 370.5 370.9 369.5 365.4 363.5 359.3 354 350.3 348.8 346.3 341 332.4 325.2 319 313.3 307.5 305.6 302 302.6 304.6 306.5 308.3 308 307.6 308.6 311.7 314.4 317.2 318.4 316.3 315.9 319.9 325 321 328.5 333.4 335.9 339.3 345 352 355.4 366 370.4 367 357.8 350 342.5 334.8 329.1 329 329.7 331.3 331.2 331.8 334.3 336.2 338.3 340.9 345 347.3 350.1 349.5 349.7 349.8 350.1 349.7 349.5 348.4 346.8 345 343 340.4 337.6 334.4 331.2 327.3 323.3 318.9 314.3 309.1 303.2 296.1 289.7 283.7 276.8 269 259.3 247.6 237.4 230.4 223.5 215.5 208.1 199.5 193.3 187.8 184.4 181.6 183.4 195.9 197.3 197 201.3 197.1 189.3 210.7 220.9 231.1 241.8 250.3 256.9 260.3 265.6 271.8 275.8 280.5 285 288.2 288.2 290.7 291.5 291.9 293.6 294.9 293.7 294.6 293.7 292.4 292.8 292.5 291.6 289.9 282.2 272.7 269.9 262.2 258.7 252.8 242.2 247.3 249.6 247.9 246.9 241.9 242.6 238.7 235.6 234.3 234.3 240 242.5 233 223.2 202.4 188.5 187.6 186.3 187.1 183.1 172.7 159.8 153.6 153.9 149 144.9 140 132
380 371.2 364 360.9 350.6 342 341.1 337.7 333.6 331.8 333.2 331.6 330.2 331.1 330.6 326.7 322.8 316.5 320.2 326.3 329.2 330.8 331.6 334.6 338.5 342.1 345.4 348 350.3 351.3 356 362.1 361.5 361.6 363.5 364.9 365 360.6 354.5 349.7 347 344.2 341.7 337.8 332 325.4 319.9 314.2 307.4 302.4 298.4 298 299.1 302.1 303 303.2 301.5 301.4 303.9 306.6 308.9 310.5 310 313.7 319.7 321.2 316.8 322.2 326.3 330 333.5 338.7 344.3 347.9 350.2 359.8 354 347.6 341.6 336.2 332.8 328.9 327.3 326.4 326.5 327.5 328.3 332 335.5 338.2 342.1 346 348.1 351.3 352.2 351.4 351.5 351.7 351.7 351.7 351.4 350.1 348.8 347.1 344.9 342.2 339.1 336 332.7 328.8 324.8 320.7 315.5 310.1 304.2 297.6 290.4 283.8 276.1 266.7 257.8 245.8 238.6 228.8 220.2 210.7 202.5 198 194.5 186 180.2 179 188.4 196.3 195.9 196 193.5 191.6 208.5 213.6 224.6 234.8 242.3 248.3 255 258.9 265.4 270.4 272 278.2 280.7 281.1 283 285.4 287.7 286.6 288.2 287.8 286.2 286.1 285.4 283.3 283.7 283.8 285.3 286 271.8 268.8 262.1 254.8 252.3 242 235.2 234 231.3 228.5 230 230.8 227.1 222.8 222.6 222.4 232.6 232.4 222 213.2 194.4 187.3 188.8 187.6 180.3 176.1 165.9 157.6 150.5 145.1 141.3 135.5 118.2 104.8
385.8 373.7 365.3 359 350.3 342.6 339.2 337.5 332.3 329.2 328.9 328.8 327.9 328.6 329.1 324.9 321.5 322.1 317.1 327 329 330.5 330.9 332.3 335.6 339.1 342.2 344.6 346.7 347.5 351 353.9 355.2 354.8 356 358 358.4 355.6 354.4 352.4 350 347.5 343.3 338.1 330.5 325.4 319.8 314.6 307.4 300.7 296.2 295.3 296.7 297.4 297.4 297.1 296.8 296.1 296.7 298.7 302.5 303.8 306.7 311.7 313.4 311.9 310.7 314.2 317.2 321.7 327.1 332.1 336.1 339.4 342.6 342.2 341.2 338 334.2 332.1 329.9 327.9 327.2 325.9 323.6 321.6 324.1 327.6 330.7 338.6 340.7 344.4 346.9 349.7 351.4 352.6 352.5 352.5 353.6 353.5 353.4 353.2 352.1 350.8 348.8 346.7 343.9 340.9 337.6 334.3 330.5 326.7 321.9 316.7 311.6 305.4 298.9 291.3 283.9 275.3 267.1 257.3 246.3 236.5 228 217.5 206.9 201.7 197 194.8 183 179.5 182.7 188.3 193.4 182.8 182.9 195.5 208.3 210.6 219.1 228.1 235.6 240.9 247.2 252.5 257.1 263.4 266.3 270 273.2 273.8 276 277.9 280.3 280.2 280.4 281.4 280.3 277.8 278.5 277.3 276.6 273.4 273.9 274 270.6 265.3 259.1 250 247.6 241.3 231.9 216 218.6 212.3 211.4 212.4 209.3 210.4 209.1 210.7 211.3 217.3 212.4 205.5 196.6 183.3 179.7 182.2 177.5 170.7 164.7 157.4 150.2 143.9 131 117 121.1 139.4
389.8 376.3 361.3 361.8 355 340.9 338 335 333.1 328.9 327.1 326.7 326.1 324.1 321.8 321.6 320.6 319.6 315.7 324.8 329 329.4 330.3 331.5 334.3 337.1 339.1 342 343.7 344 346.2 348.3 349.6 350.9 351.8 353.9 354.6 354.6 354.9 355.1 354.4 352 348.5 343.9 335 326.5 319.8 315.3 310.5 304.1 298.7 294.8 293.2 293.8 292.7 292.9 292.7 292.3 293.4 295.1 297.4 300.4 301.4 304.8 305.4 303.6 304.2 307 310.3 313.8 319 323.4 326.4 329.4 332 332.1 331.8 330.6 328.5 326.9 325.1 324.4 324.9 324.8 321.2 318.6 320.2 322.4 325.4 330.7 336.3 339.5 343.7 346.7 348.9 350.5 352.3 353 353 354.6 355.4 355.2 354.4 353.8 352.2 350.3 348.1 345.5 342.2 339.1 335.9 332.4 328.3 323.7 318.6 312.8 306.3 298.6 291.1 283.5 275 266.8 257.7 245.5 234.8 224.3 214 205.4 199.9 197.1 188.8 179.1 178.3 178.8 185.6 178.7 186.4 193.1 206.8 209.3 213 220.6 228.4 234.7 240.1 244.7 249.4 254.5 259.3 263.4 263.8 267.8 267.4 271 271.9 273.2 274.2 273.1 273.6 272.5 271.4 270.5 268.8 268 265.1 261.8 257.8 257 252.5 244.3 242 236.7 225.9 222.9 215.3 204.9 207.7 203.8 202.4 205.2 204.3 203.5 202 200.9 198.6 195.2 189.5 178.9 173.9 175.2 170.1 165.7 149.6 144.8 142.3 136.5 106 121.6 137.7 141.4
