ncols 200
nrows 82
xllcorner 210000
yllcorner 870050
cellsize 50
595.9 594.9 591.3 594.5 599 607.4 612.3 613.6 615.5 615.2 613 609 607 601.9 594.1 587.7 580.7 575.1 563.5 555.4 545.7 531.3 517.4 510.4 501.8 492.7 483.5 474.4 462.8 451.8 441 429.6 422.2 414 404.6 399.2 392.2 381.6 374.6 365.1 356.7 346.4 340.3 333.6 324.3 318.9 314.7 308.8 304.1 295.1 296.3 288.1 283.3 275.6 270.9 265.1 256.5 246.8 246.6 246.6 246.6 246.6 246.6 246.6 246.6 246.6 246.6 246.6 246.6 249 252.4 255.5 258.8 259.6 261 262.4 266.2 269.4 266.1 266.4 268.3 271.4 275.3 279.4 284.2 286.1 292.8 299.7 303.8 317.2 330.6 341.3 356 364.9 379.1 399.1 410.7 416.4 421.5 428.6 450.8 465.8 467.1 471.2 472.8 468.7 472.1 478.1 487.8 489.6 481.8 472.6 441.5 407.4 377.8 354.9 341.4 326.4 309.4 296.1 286.5 284.9 278 276.9 278.4 288.1 293.9 297.3 297.5 298.4 308.2 313.7 323.7 335.4 353.6 357.8 368.9 384.6 404.9 427.4 440.2 453.3 465.2 482.5 490.2 497.4 508 514.7 524.7 534.5 548.1 567.7 576.7 579.3 580.6 585.3 579.8 577 575.8 579.4 578.9 586.1 596.8 598.3 597.6 601.8 598.9 572.3 553.5 541.6 538.4 541.1 543 543.2 553.3 551.2 546.7 548 550.3 552 559.5 566.1 566.2 562.5 566.4 568.8 571.3 580 587.5 595.6 600 607.2 618.9 628.3 630.2 630.3 633.4 634.7 628.9 620.3
578 577.1 574.5 577.6 588.1 596 601.8 603.5 602.9 601.9 599.3 595.3 592.6 586.7 581.7 576 569.6 563.6 549.1 538.7 527.3 514.9 506.1 496.6 485.2 475.7 466.7 459.1 447.2 435 424.1 418.6 408.1 401.8 394.6 389.8 382 372.9 361.2 354.2 347 336.5 332.3 327.9 316 308.7 305.3 302.6 295.9 289.5 282.6 280 273.1 267.8 262.5 256.3 247.5 246.6 246.6 246.6 246.6 246.6 246.6 246.6 246.6 246.6 246.6 246.6 250.9 253.5 255.8 258.7 261.6 263.6 265.5 268.6 270.9 270.8 269.4 270.6 273.1 277.6 285 289.7 290.9 295.1 304.8 311.3 318.8 331.3 345.9 359 376.9 396.3 420.1 433.5 437.9 443.4 451.7 457 485.5 509.3 521.9 520.5 514.7 508.8 507.3 510.2 512.5 517.3 508 486.3 461.1 430.5 388.7 361.9 340.2 325.6 312.6 295.1 290 285.5 280 277.4 279.1 283.7 294.2 299.7 300.3 303.6 315.2 320.7 328.4 336.9 354.3 365.6 376.5 391.9 412.2 432.8 449.2 460.4 474.3 489.9 497 506.2 517.8 526.4 539.7 548.2 566.2 581.4 591.9 598 602.6 603.7 603.6 610.5 610.2 615.3 618.4 621.2 629.4 632.7 628.9 627.5 617.6 599 582.1 563.8 569.8 574 565.7 560.8 555.5 554.6 552 554.8 559.9 557.9 564.8 567.8 566.4 567.5 571.5 569.5 571.3 587.7 598.8 600.4 606.4 612 625.2 629.7 630.7 630.5 627.9 626.7 623.2 616.4
559.6 559.4 554.7 564.1 578.8 586.7 592 592.5 591.2 587.6 584.7 582.3 578.4 572.9 567.2 561.1 554.7 543.8 533.8 520.4 511 500.4 492 482.9 473.3 459.4 448.3 439.6 432.6 419.1 409.7 403.3 398.7 387.2 387.7 376.3 368.4 359 349 341.5 335.5 327.4 323.1 317.1 307.7 300.8 300.1 294.2 288.7 285 277.7 271.5 266.9 261.9 256.9 249.9 246.6 246.6 246.6 246.6 246.6 246.6 246.6 246.6 246.6 246.6 246.6 246.6 255.9 257.2 259.7 264.1 267.7 267.8 270 272.3 273.5 275 275.6 275.3 277.7 283 289.5 297.2 301.6 305.3 314.7 324.2 334.7 348.2 364.8 384.3 407.3 425.9 445.6 451.7 455.7 474.6 484.2 491.9 516 536.4 545.2 552.3 555.2 560 551.9 553.1 557.4 543.7 515.8 491.8 468.8 433 393 366.2 344.9 326.2 311.5 297.1 291.6 290 281.8 277 280.7 289 294.2 301.9 305.1 308.2 317.3 322.6 333 338.3 356.5 369.2 383.1 399.8 416.8 436.4 455.6 466.4 480.2 494.1 506.3 520.2 536.2 549.8 565.3 574.7 587.3 601.3 617.6 634.9 638.3 637.8 633.3 635.2 635.9 641.7 647.3 650.2 648.6 650.5 650.3 642.5 639.6 633.1 607.9 601.9 595.5 588.8 586 578.9 570.3 559 555.8 559.8 561.5 565.9 568.9 570.9 570.2 572.8 578.4 579.7 579.6 594.8 617 629.5 626.6 623.4 626.3 629.5 628.7 624.9 621.7 618.8 615.1 610.8
543.8 543.9 536 549.2 567.5 576.7 581.7 581.9 579.4 576.2 572.8 570.5 565.9 560.1 553.6 546.6 538.7 528.8 519.1 510.1 495.9 486.6 476.8 468.3 458.7 447.3 439.3 425.5 415.2 405.9 397.6 389.8 381.6 375.4 374.5 365.7 359.3 349.1 339.5 332.8 325 319.1 311.6 304.1 300.1 295.8 289.2 286.4 281.4 277.6 273.8 264.4 261.6 256.7 251.2 246.6 246.6 246.6 246.6 246.6 246.6 246.6 246.6 246.6 246.6 246.6 246.6 253.1 259.3 262.3 264.4 271.1 272.3 272.3 274.9 275.7 279.3 281 281.8 278.1 286.3 291.2 297.3 304.2 311.4 316 328.8 341.4 356.2 373.4 392.8 412.2 430.3 444.5 455.9 463.1 478.3 497.2 506.8 517.3 535.2 552 565.8 572.9 581.3 584.4 590.2 590.8 594.9 571.1 527 491.7 466 427.1 392.3 366.6 347.6 325.9 311 300 294.2 290.7 282.6 279.4 282.1 291.5 292.5 301.1 307.1 311.8 320 329.2 335.1 344.5 358 370.9 387.9 402.3 421.6 443.8 460.9 473.7 491.3 504.6 522 541.2 557.3 584.3 600.1 606.1 630.7 645.5 660.9 675 673.5 676.8 684.6 683 674.1 682.8 682.7 680 678 670.3 669.7 667.4 659.4 651.6 636.1 619.9 612.9 606.6 599.2 587.2 575.3 566.3 561.7 562 566.7 573.4 578.7 576.3 571.8 572.9 577.9 586 596.4 616.6 623.9 636.5 641.4 639.1 629.8 628.4 624 619.1 613.2 609.7 607.9 605.6
524.1 523.4 515.1 537.7 557.8 565.6 569.3 570.4 567.9 564.5 561.6 558 553.3 546.7 539.2 530.5 522.6 513 502.2 492.7 481.9 473.2 464.4 455.3 441.9 431.1 422.2 409 398.2 392.6 386.1 377.9 373.5 366.2 363.2 354.7 344.6 338.3 331.3 322.6 313.5 308.4 303.1 299.6 293.6 287.8 285.2 279.7 273.6 269.5 263.9 260.4 255.6 251.8 246.6 246.6 246.6 246.6 246.6 246.6 246.6 246.6 246.6 246.6 246.6 246.6 251.2 256.5 261.6 267.6 269.1 274.4 277 280 280.7 281 286.4 287.7 289.5 291.7 295.4 299.8 306.1 313.3 321.7 330.9 341.8 357.9 374.2 392.3 409.6 426.7 439.8 451.7 464 474.2 490.8 508.8 527.6 539.2 549.9 565.3 574.5 580.3 585.5 591.2 596.6 600.1 603.5 584.3 538.5 492 463.6 419.4 390.8 370.8 347 326.5 315 307.2 298.5 293.8 286.4 282.2 285.7 290.6 295.6 299.6 306.3 313.6 322.3 331.4 339.6 346.7 359.3 372.3 387.7 412.4 426.4 450 467.3 482.6 502.9 517.5 541.5 564.4 587.2 613.3 626.3 650.7 665.7 680.3 691 698.5 706.1 712.7 716.9 718.1 714 714.3 712 708.1 700.4 692.8 692.9 687.7 677.8 660.6 653.5 638.9 628.6 616.6 602.4 593.1 584.8 573.8 568.6 573 582 592.6 585.5 582.6 578.8 588 589.3 595.8 608.2 620.5 631.3 644.6 651.7 649.4 639.3 626.9 615.4 608.7 603.6 601.2 599.9 599.2
501 496.3 499.7 532.8 547.5 553.5 556.4 557.7 556.3 553 548.6 543.7 537.8 531.9 524.6 517 508.5 499.9 491.1 481.1 471.1 461.6 451.5 442.8 427.2 417 406.7 395 386.4 378 374.5 367.9 359.3 354.2 344.4 340.7 333.2 327.1 321.8 313.7 305.5 300.1 297.8 292.2 286.6 281.1 276.9 272 265 260.7 257.9 253.1 250.5 248.2 246.6 246.6 246.6 246.6 246.6 246.6 246.6 246.6 246.6 246.6 246.6 248.8 255 259.2 267.9 272.6 274.2 279.2 284.8 286.9 284.7 286.7 291.1 294.7 294.3 301.3 306.7 308.2 316.2 324.2 335.4 347.4 358.4 375.7 393.3 409.5 423.5 436.1 448.7 462.8 475.6 489 508.9 527.4 539.9 551.4 564.4 575 584.2 589.2 595 598.7 602.7 604.8 599.5 566.7 528.5 487 453.9 418.7 389.4 371.3 348.3 327.2 320.7 312.2 301.7 295.4 288.4 281.5 287.2 297.6 298.7 299 306.1 314.4 322.2 333.6 341.6 350.7 364.1 376.9 394.8 417 432.6 457.8 476 492.2 512.5 534.3 559.3 591.3 612.8 636.2 650.5 672.5 689.8 711.3 715.1 719.8 727.7 738.9 745 744.7 739.9 737.7 733.8 730.6 724.5 713.9 707 700.4 688.5 675.5 666.7 661.2 650.6 643.6 643.3 626.2 613.4 618.2 618.2 604.3 606.9 610.4 616 599.7 602.9 620.5 635.1 643.4 644.7 638 650.8 657.4 657.4 647.1 636.2 620.8 609 600.8 595.9 594 594 592.6
472 466.6 504 528.9 538.7 542.5 545.3 545.3 543.9 540.4 535.5 530.7 525.3 518 510.6 504.3 495.7 486.8 478.7 469.3 459.8 450.2 437.9 425 413 402.7 391.2 384 377.9 371.8 362.8 355 352 342.1 334.4 329 321.1 315.3 312.6 305.1 297.3 293 288.8 284.9 279.1 273.9 268.1 264.9 260 253.4 249.3 246.6 246.6 246.6 246.6 246.6 246.6 246.6 246.6 246.6 246.6 246.6 246.6 246.6 248.7 254.4 259.2 262.7 272.4 274.9 279 284.7 288.6 290 290.5 293.5 297.2 301 301.4 304.4 312.5 316.5 325.9 338.4 348.5 360.8 373.2 391.2 407.7 422.5 438.8 453.7 465.9 484.6 491.8 504.7 522.1 539.2 551.1 563.5 576.9 586.6 595.3 601 606.1 608.4 608.8 607.9 599.3 557.3 517.6 485.8 455.6 421.6 391.8 372.6 350.3 330 321.1 309.6 302.8 295.9 289 283.2 290.8 301.1 301.2 301.2 307.5 315.4 323.2 333.5 342.4 352.2 366.7 380.5 405.3 418.3 439.1 467.1 485.3 502.2 528.9 550 580.4 605.7 631.7 651.4 664.2 681.5 704.1 716.3 722.2 730.8 738.4 755.6 765.5 766 761.9 758.4 755.2 752 749.4 746.1 741.8 729.4 711.7 699.8 692.4 682.7 687.3 668.8 657.2 659.3 644.7 646.1 643.8 638.6 640.4 630.1 625 617.5 625.6 637.1 647.3 656.9 658.7 661.1 658 655.2 649.1 637.7 626.2 611.3 600.3 595 589.8 587.2 582.9 585
473.7 496 512.8 524.7 530.2 533.1 533.9 533.1 530.4 526.6 521.3 517.3 512.9 506.2 498.9 492 483.7 475.1 466.5 455.2 444.9 432.9 422.6 411.1 400.9 385.9 379 372 364.3 357.8 350.5 343.5 337.6 332.8 325.9 317.9 310.1 306.2 301.5 297 289.3 284.4 279 276.5 269.5 265.4 258.9 251.5 246.6 246.6 246.6 246.6 246.6 246.6 246.6 246.6 246.6 246.6 246.6 246.6 246.6 246.6 246.6 251.1 254.6 259.3 263.6 268.7 273.1 278 282.6 288.2 292.4 294.2 296.6 300.4 301.6 306 307.4 311.2 318.2 326.5 336.1 350.8 361.1 372.6 385.9 402.8 419.3 433.8 456.8 471.4 484.2 496.8 510.8 527.7 541.8 554.6 566.4 577 587.2 596.5 604.2 611.2 614.9 616.8 614.4 611.6 593.5 550.5 520 484.2 460.5 436.3 401.5 377.7 355.9 335 319.9 310.5 302.8 296.1 289.8 284.8 292 301.8 303.3 301.8 309.4 315.2 326.7 335.1 344.3 352.7 369.7 385.2 401.5 419.6 445 475.7 491 509.2 543.1 564.3 592.9 624.3 648.8 663.4 671.2 688 706.4 715.3 731.5 740.5 743.6 760.3 771.8 776.2 776.8 775.7 776.2 775.4 774.5 776.2 774.3 762 746.8 732.1 716.4 709.4 693.2 690 672 670.8 669.1 660.6 656.9 653 650.1 646 635.7 633.3 640.5 646.4 652.1 656.5 660.6 658.8 649.5 644.8 636.9 626.5 615.1 602.8 594.8 589.6 585.7 579.1 579.2 578.9
489.3 501.1 509.4 517.2 521.2 522.6 523.1 521.2 518 514.7 509.9 506 501.3 494 487.1 479.3 470.3 461.2 451.6 439.6 430.7 423 408.9 398.3 388.5 375.6 366.6 360.9 352.4 343.6 339.2 332.2 327.9 322.7 315.6 305.1 301.1 295.3 291.6 287 283 278.9 274.8 269.8 263.2 255.7 249.6 246.6 246.6 246.6 246.6 246.6 246.6 246.6 246.6 246.6 246.6 246.6 246.6 246.6 246.6 247.1 252.3 254.5 258.5 263.9 268.8 274.7 278.5 283 287.6 292.1 296.2 299.8 301.7 304.4 306.8 311.7 316.2 319.2 323 335 347.7 357.8 370.5 383.4 396.9 413.5 431 448.9 468.4 482.5 496.1 506.7 523.4 539.8 555.9 571.2 579.4 588.3 596.4 603.9 610.5 615.9 621.4 621.8 618.3 613.6 595.7 572.2 522.2 487 458.2 428.9 403.3 384.2 361.3 340.7 323.9 312.7 304 297.7 293.8 293.6 294.9 304.3 306.3 305.4 310.6 316.9 326.3 336.2 347.2 361 371.2 384.4 397.2 420.3 448.1 478.8 498.4 520.9 549.7 576.1 603.8 631.4 650.8 661.5 671.5 702 720.5 728 739.9 751.3 759.2 772.9 777.6 783.4 788 790.8 794.4 798.7 802.9 806.6 804 799.5 789.7 770.4 756.7 738.3 723.5 719.6 719.9 690 682.2 670.3 663.4 659.1 649.9 654.4 651.4 652.2 651.7 653.4 650 650.8 651.6 644.9 637.6 630.3 624.6 617.4 607.2 596.7 588.6 585.8 579.1 576.1 571 572.5
485.7 496.3 503.6 509.6 512.2 513.4 512.9 510.6 507.1 503.6 498.7 494.8 489.5 481.8 474.2 465.2 457.7 448.9 439 427 416.4 404.3 392.1 380.1 372.3 361.7 353.3 344.7 339.7 332 327.2 319.8 314.6 308.1 302.1 295.8 294.3 286.8 282.1 278.6 274.3 271.6 267.4 260.3 255.2 249.3 246.6 246.6 246.6 246.6 246.6 246.6 246.6 246.6 246.6 246.6 246.6 246.6 246.6 246.6 250.6 252.1 256.2 258 262.2 269.2 274.8 280.1 284.7 288.9 292.1 295.3 300.9 304 306.3 309.3 312 317.6 324.5 327.3 336 337.3 354.5 367.9 380 392.4 406.6 423.4 441.5 459.9 477.3 492.6 504.9 516.8 530.1 546.9 564.5 579 587.7 596.6 603.3 609.8 615.6 620.3 623.6 623.7 622 617.9 610.6 590.8 535.2 498 466.4 436.4 408.5 391.2 368.2 345.2 327.6 316.1 305.2 300.6 300 296.2 296.8 304.7 307 307.6 313.3 319.1 328.7 338.8 349.6 362.2 373.7 386.6 401.1 424.3 453.3 486.3 504.3 527 556.9 582.8 611.2 633 645.5 659.4 681.8 709.5 727.1 731.1 741.8 756.9 770 781.2 787.2 791.6 795.3 801.6 807.5 814.7 824.3 832.2 835.7 833.2 828.5 820.9 805.2 779.7 756.5 747.5 736.3 704.7 695.3 685.2 677.9 669.2 659 658.7 661.1 659.2 657.2 653.5 647.1 642.5 636.1 630.1 622.1 620.4 614.6 605.5 598.6 592.3 585.5 577 575.6 570.7 569.6 566.9
479.9 490.3 495.2 500 502 503.7 502.8 499.7 496.3 492.4 487 483.5 476.7 470.7 461.7 452.8 444.8 434.9 422.2 412 399.4 386.6 375.9 366.6 357.5 349.8 342.9 337.6 330 321.7 313.8 310.8 301.9 297.1 291.8 286.2 283.3 278.4 276 273.5 267.1 264.6 256.6 251.8 248.6 246.6 246.6 246.6 246.6 246.6 246.6 246.6 246.6 246.6 246.6 246.6 246.6 246.6 250.6 253.2 257.2 256.5 261.8 263.3 268.3 276.7 280.7 285.8 290.1 293 297.2 299.4 304.9 309.1 310.9 313.4 318.5 324.8 331 335.7 346 355.6 363.5 375.1 387.9 401.1 414.1 430.6 447.9 465.2 479.8 491.5 505.2 520.6 534.7 552 569.4 583.5 597.3 606.1 612.9 619.8 622.8 624.6 625.2 625.1 622.2 620.7 614.3 599.6 546.5 506.5 476.7 448.6 421.6 399.6 378.2 360.2 333.1 317.9 308.9 302.8 301.8 294.7 301.3 305.5 308.1 310.4 314.8 320 328.9 341 351.9 363.9 376.2 388.5 403.7 424.4 452.1 481.8 505.9 534.8 562.8 588.9 612.3 632.9 646.6 667.4 691.2 706.5 714.8 722 736.9 750.3 762.1 776.1 787.2 796.9 807.8 817.9 822.4 827.2 835.1 846.8 857 862.7 857.7 850.9 838.4 817.2 795.3 777.1 744.5 729.1 701.6 695.3 693.3 681.2 675.8 663.8 660.6 659.6 657.4 647.6 640 631.4 622.3 618.3 613.9 606 605.5 598.9 590.8 583.9 576.3 574.1 570.4 568.7 565.2 563.2
470.7 480.3 484.8 488.7 491.7 492.2 491.5 488.9 486.3 480.6 475.1 471.3 465.1 457.8 449.1 440 429.2 418.3 405.4 393.7 382.4 373.2 361.1 353.2 346.5 340.1 334.4 328.8 322.3 314.6 311.2 298.8 295.4 291 285.9 282.4 276.1 271.3 268.4 264.3 259.1 253.5 246.8 246.6 246.6 246.6 246.6 246.6 246.6 246.6 246.6 246.6 246.6 246.6 246.6 246.6 246.6 248.4 254.2 256.8 260.8 260.6 266.5 267.9 274.2 281 286.2 293.1 297 299.8 303.9 306.2 310.5 314.4 316.9 319.9 323.2 328.3 336.9 346.2 353.9 367.6 377.6 382.5 396 407.6 421 434.9 450.2 468.6 483.4 494 509.5 527.5 542.4 560.5 579.1 596.8 613.3 620.6 629.4 631.5 628.4 628 626.4 624.5 621.1 619 613.3 600.5 578.2 545.8 498.3 467.9 438.8 420.1 404.8 394.7 369.8 325.9 313 304.4 302.4 297.1 303.6 306 309.1 312.6 316.6 321.7 330.8 341.4 352.1 361.3 377.1 388.5 406.1 424.2 455.2 481.2 507.3 536 563.5 592.4 614.5 634.4 648.8 673.3 685.3 694.7 700.4 711.5 727.3 740.8 753.7 766.9 780.5 794.3 808 820.3 827.9 835.1 843.2 852.2 863.7 871.5 874.1 870.2 859 841.8 819.7 788.6 762 745.2 715.7 706.6 708.5 700.6 701.6 688.2 675 658.9 648 639.1 629.7 623.2 615.9 612.7 604 606.8 599.1 592 583.2 577.3 576.5 572.3 566.5 564.7 562.5 559.7
461.1 470.5 475.9 478.8 480.7 480.4 478.8 476.1 472.5 468.3 462.6 458.3 451.9 444 435.7 423.3 413.4 402.4 390.7 380.1 369.1 359.8 349.2 342.7 335.8 331.5 325.6 316.3 311.9 306 298 293.3 286.3 283.8 280.3 278.7 273.5 267.9 263.1 258 255.1 251.5 246.6 246.6 246.6 246.6 246.6 246.6 246.6 246.6 246.6 246.6 246.6 246.6 246.6 246.6 249.7 253.5 258.6 259.5 264.4 265.7 269.5 273.9 280.8 285.3 290.3 298.4 303.1 305.5 310.7 314.7 318.4 322.5 327.6 332.5 331.8 335.8 344.6 356.3 366.4 376.2 390.5 396.2 402.3 411.2 423.2 438.4 454.1 468.7 485.2 499.9 517 536.5 554.4 574.3 595.7 616.7 632.7 640.1 644.6 641.5 633 631.9 628.8 626 621.1 616.3 612.5 606.4 596.7 585.9 561.3 497.3 471.9 452.7 423.6 405.7 387.1 341.5 321.3 309.3 303.4 300.2 301.1 303.6 308.2 311.1 315.5 322.4 330.5 341.6 352.2 363 376.4 388.1 403.9 424.7 453.3 475.3 505.2 537.3 565.2 588.2 611.5 634.3 646.5 668.3 676.4 681.6 686.7 701 714.4 729.8 743 756 772.2 786.8 799.8 813.5 825.3 836 846.6 856.5 866.6 875.8 881.5 885.3 877.6 866 846.8 820.5 793.7 769.3 740.3 724.1 722.3 727.6 715.9 698.6 682.9 660.2 637.9 629.7 624.2 618.7 613 603.9 603.5 598.9 586.6 581.2 582.7 586.2 580 566.3 560.7 559.2 559.7 559.7
449.6 458.7 463.1 466.2 466.6 466.5 464.9 461.7 458.4 453.8 448.3 443.4 435.1 426.9 417.9 405.1 397.4 388.5 377 366.9 355.5 346.8 339.1 330.1 325.1 318.2 314.4 307.5 301.1 296.1 291.3 286.2 283.6 276.8 274.1 270.3 265.5 263.6 260.6 256.6 252.5 250 246.6 246.6 246.6 246.6 246.6 246.6 246.6 246.6 246.6 246.6 246.6 246.6 246.6 249.2 252.9 258.7 260.4 263.1 267.2 270.5 273.8 281 287 291.5 295.2 302.3 308.7 311.6 316.6 323.2 326.3 332.7 340.6 346.3 347.3 350 358.4 369.5 380.9 392.8 402.8 407 411.5 414.6 428.2 441.1 454.6 468.6 484 501.3 520.8 542.3 564.3 588.1 613.5 637.9 649.2 655.5 656.5 651.4 642.1 635.9 630.6 628.4 623.5 615.7 611.4 604.9 596.8 588.4 575.7 521.6 516.8 499.1 448.2 410.8 388.4 357.1 330.2 316 306.9 304 300.3 300.6 307.3 314.3 318.1 321.2 329.5 338.5 350.4 359.6 371.1 386.3 401.2 422.1 442.5 468.8 498.3 533.3 561.3 583.8 605.6 627.6 638.8 654.1 662.2 669.1 673.3 687.2 701 715.9 732 748 763.4 779.3 792.6 806 819.3 832 846.2 858.3 870.3 880.7 893.2 901.4 898.8 886.2 866 841.2 809.2 777.2 765.3 740 733.9 734.8 720.1 697.5 671 648.7 632.6 622.5 618.9 615.2 608.1 598.5 594.8 587.4 581.6 579 573.1 578.2 576.9 565.4 559.1 559.1 559.7 560
436.2 444.8 449 451.8 451.2 449.1 446.7 444 440.8 436.1 430.9 424.7 415.8 409.4 398.1 388.4 376.5 367.8 357.9 349.4 339.8 331.9 326.1 317 315 307.2 302.6 298.8 293.2 288.4 282.6 280 280.5 272.2 266.5 263.9 260.2 261.3 255.4 251 249.1 246.6 246.6 246.6 246.6 246.6 246.6 246.6 246.6 246.6 246.6 246.6 248.8 249.7 250.2 253.8 256.6 261.3 265.2 266.4 270.9 274.2 279.7 286.4 291.6 295.7 302 308.7 314.4 320 324.2 330.1 337.1 342.6 351.7 358 360.7 367.3 376 386.5 397.9 406.9 410.7 417.9 421.4 426.3 426.5 444.8 457.4 471.4 484.4 499.3 524.4 548.3 574.2 604.3 631.2 651.1 661.8 666.9 669 663.4 651.9 641.3 634.4 631.8 626 616.4 608.9 601.5 593.3 585 571.5 548 531.5 512.2 477.9 432.7 392.7 372 340.4 328.9 316.6 312.6 304.6 302.1 304.1 310.8 318.5 325.9 328.4 339 349.3 360.1 371.7 385.8 399.6 416.2 438.7 467.3 496.7 527.1 554.3 578.1 595.4 615.8 630.6 640.8 650.4 656.4 662.1 675.2 688.2 705 720.6 737 753.9 769.3 783.8 797.4 813.5 829.3 844.7 858.8 871.4 884.2 897.1 911.4 915.9 907.5 888.6 869.1 831.9 800 778.4 765.8 743 739.3 712.6 684 659.8 643.5 632.2 620.6 611.3 608.8 604.8 597.9 593.4 585.6 582 570.5 571.7 564.6 565.9 563.8 559.1 559.7 559.7 559.7
421.4 428.9 432.6 434.6 433.1 430.5 428 424.4 421.2 417.4 412.5 404.9 395.2 388.5 381.2 369.2 358.9 351.3 347.1 336.7 325.4 321.9 314.4 304.8 301.4 297.1 292.6 288.4 284.8 280 275.8 274 274.1 266.2 261.9 258 255 252.7 250.1 249 246.6 246.6 246.6 246.6 246.6 246.6 246.6 246.6 246.6 246.6 248.4 250 252.1 253.4 256.1 260 261.3 264.2 267.6 272 274.9 281.4 287.8 292.3 298.8 305.2 309.7 316.6 323.7 328.6 333 341.6 349.1 355.6 361.9 370.2 378.3 387.5 395.1 406.1 413.3 417.5 419.6 426.9 433.1 435.8 433.3 452.3 463.5 473.3 487 497.8 523.7 551.6 582.6 616.5 640.2 659.3 673.4 677.8 678.3 673.2 666.4 651.7 640.9 637.6 627.9 615.8 605.5 596.8 589.4 581.4 573.3 558.8 544.4 521.8 501.2 457.3 423.2 382.4 363.6 351.1 335.8 320.1 313.8 309.4 303.8 308.8 317.2 325.8 330.5 338.8 349.1 362.3 373.4 385.3 403.2 416.1 436.4 457.3 487.3 519 547.7 569 585 603.7 619.8 630.2 638.8 646.6 653.3 666.5 680.5 695.9 711 728.3 744.3 762.6 777.8 792.9 808.8 826.7 842.5 857.2 870 883.4 896.4 912.4 923.9 923.7 906.8 884 853.7 820.6 792.8 777.3 757 735.7 695.6 670.6 651 640.2 632.4 619.1 608.8 604 602.8 596.1 589.1 579.3 573.2 563.5 559.6 559.7 559.7 559.7 559.7 559.7 559.7 559.7
406.8 412.4 415.8 414.7 413.3 411.5 408.1 405.9 402.6 397.6 392.5 384.7 374.8 367.9 357.2 348 339.3 331.6 324.5 316.6 311.2 309.3 300.7 296.4 290.1 286.9 285.8 281 276.8 273.5 270 268.5 264.6 261.5 256 255.3 252.9 251.3 249.8 248.8 248.3 248.3 247.4 246.6 246.6 246.6 246.6 246.6 246.6 246.6 250.4 252.6 254.6 257.5 261.1 263.9 266.7 271.7 272.5 275.9 281.8 288.7 296.3 300.2 306.7 312.6 318.3 324.5 335.9 338.8 346.8 354.8 363.1 372 380.6 390.1 397.4 404.9 414.8 424.2 430.1 429.6 432.2 435.7 440.7 445.2 447.4 455.6 466.9 480.2 489 498.7 520 553.1 589.6 623.2 646.4 666.9 681.2 688.4 686.8 682.1 675.1 657.9 647.7 639.4 627.1 614 603.2 593.7 586.6 581.2 572.9 558.8 548.6 531.4 507.5 485.6 443.4 412 385.1 369.1 353.1 333.3 320.4 319.9 307.6 304.6 313.3 322 328.7 338.7 347.4 358.5 373.8 384.9 399.5 414.5 434.3 454.5 482.7 512.6 539.1 557.5 573.7 593.7 609.7 619.9 627.2 637.2 646.2 660.6 674.4 688.9 701.6 718.6 735.6 754.6 771 787.5 804.9 820.4 837.6 853.2 867.8 880.3 892.6 908.1 923.7 933.6 924.5 907.9 885.7 843.6 811.2 774.9 751.6 732.1 687 655.3 644.2 635.5 625.7 615.9 606.1 598.6 596.1 593.7 584.2 572.4 562 559.7 559.7 559.7 559.7 559.7 559.7 559.7 559.7 559.7
391.3 394.3 394 392.5 391.9 390.6 389.6 384.9 383.3 378.7 374.4 366.9 356.9 349.5 340.9 331.4 322.5 314.5 309.7 302.5 297.1 298.4 292 287.7 282.6 280.2 274.7 275.2 269.6 266.1 263.9 262 258.9 252.8 251.8 251.4 251.1 249.9 249 248 248.6 248.4 246.6 246.6 246.6 246.6 246.6 246.6 246.6 249.5 253.3 256.8 258.7 261.2 266.4 270.3 272.7 276.6 278.6 284.6 289.8 294.6 302.3 308.3 314.6 321.2 328.4 336.1 344.3 353.2 361.2 371.5 383.1 392.7 403.7 408.5 415.4 424.1 436.4 442.2 443.4 442.1 442.2 443.9 447.9 453.4 458.3 458.3 472 482.5 491.7 500.8 519.4 555.6 597.3 627.7 650.2 672.2 691.1 697.4 695.3 690.9 681.2 668.1 657.1 643.6 628 612.7 602.2 595.1 587.3 580.9 570.8 556 544.5 530.2 509.9 489.2 462.7 438.6 403 376.6 357.8 343.6 329.6 326.8 324.1 313.5 309.8 313.7 325.1 337.8 346.9 357.2 369 381 394.2 408.3 427.4 448.6 475.3 504.9 532.5 549.5 566.8 587.7 603.7 613 619.9 631.5 643.1 655.2 667.6 679.4 692.8 707.7 729.1 750.7 766.1 781.2 798.3 815.4 832.6 848.3 862.7 874.8 887.8 901.5 918.8 930.4 929.6 917.4 889 838.3 802.4 754.5 739.3 728.7 676.5 646.9 639 632.1 624.4 612.2 601.6 594.4 592 589.4 580.5 567.9 559.7 559.7 559.7 559.7 559.7 559.7 559.7 559.7 559.7 559.7
373.6 374.5 373.5 370.8 369.5 369 367.5 365.8 362.4 361.9 353 346.7 339.5 330.3 325.1 316.5 309.2 302 296 290 285.1 284.3 283.1 278.2 272.5 271 265.1 264.9 262.2 259.2 256.7 254.5 251.4 250.5 250.5 250.3 248.9 249.6 248.4 249.4 248.6 248.3 246.6 246.6 246.6 246.6 247.8 248.7 251.1 254.3 258.6 262.4 264.3 268.2 271.9 277.4 277.5 282.4 286.2 293.7 298.8 303.3 309.6 317.8 324.6 332.7 340.6 347.9 358 367.4 378.1 390.9 402 413 419.7 427.4 433.1 441.5 449.9 454.8 453.6 453.5 455.5 454.3 458.5 462 467.1 472.6 473.2 488.8 494.9 504.7 519.5 550 598.8 628.6 651.2 675.8 698.6 701.3 699.5 696.1 687.8 676 661.1 648.2 629.8 614.1 603.9 599.6 589 580.6 570 556.4 546.7 536.2 527.1 505.9 487.1 461.2 417.4 390.1 370.9 360.9 357.3 341.4 328 329.6 323.4 321.7 312.1 333.6 346.5 357.3 369.8 381.3 393.6 406.3 421.7 448.2 471.7 497.3 524.4 542.1 559.1 581.5 597.4 606.9 614.5 625.4 637.8 646.2 657.4 673.1 690 705.2 727 745.9 762.1 776.3 792.7 809.6 826.3 842.5 856.2 868.7 880.8 893.6 912.3 925.7 929 913.2 878.4 836.5 797.9 759.1 742.5 718.4 670.6 651.2 640.4 632.7 621.4 620.5 609.3 594.3 588.3 589.1 580.3 569.5 559.4 559.7 559.7 559.7 559.7 559.7 559.7 559.7 559.7 559.7
354.5 355.5 352.8 352.6 350.6 349.1 348.5 346.6 343 339.9 333.2 327.5 322.9 316 308.8 302.6 294.9 289.7 284.2 280 276 274.3 272.9 270.7 266.5 262.4 259.7 259.5 258.2 254.9 253 252.4 252.4 252.2 251.6 250.9 250.7 250.2 249 249.6 248.9 248.7 247.4 246.6 246.6 249.3 250.7 251.1 257.8 260.6 264 267.2 270.3 274.6 278 282.2 284.8 289.3 294.7 303.3 307.9 311.7 320.5 331.4 338.9 344.5 350.1 361 373.2 384.5 396.2 410.9 421.2 429.4 436 445.3 452.7 459.7 464.9 465.3 464.7 463 464.4 465.5 467.3 470.7 476.9 481.5 485 493.4 502.5 511 523.5 551.7 599.2 628.7 653.2 678.6 699.3 707.2 704.7 699 691.4 680.3 664.3 648.9 634.1 620.4 609.3 600.9 590.6 582.6 571.1 558.8 552.3 544.1 537.8 518.2 495.5 470.6 441.3 403 384.6 370.8 371 352.7 338.5 336.2 335 335.9 331.8 332.3 340.6 356.1 369.2 381.3 390.9 403.8 417.1 444.4 465.2 491.6 515.4 534.9 555.7 575.2 590.2 600.4 607.4 617 626.5 638.3 651 665.9 682.8 701.5 721.9 740 755.3 770 785.4 801.8 818.1 834.5 848 860.7 872.7 885.8 902.8 915.6 919.9 902 866.2 834.9 800.4 769 755.4 704.2 670.8 652.2 641.4 631.7 625.7 622.3 612.2 599.3 587.4 584.4 582.3 575.7 564.4 559.7 559.7 559.7 559.7 559.7 559.7 559.7 559.7 559.7
334.7 335.7 334.7 336.2 337.3 332.6 330.7 329.6 328.5 321.4 318.4 312.6 310.1 305.6 297.4 294.2 286.6 282.4 275.9 271.6 268.8 270 271.1 269.7 267.9 261.7 258.5 256.8 255.6 254.1 253.5 253.4 253.1 252.5 252 251.5 250.6 250.7 249.2 249.3 250.8 251 249.7 250.6 253.4 255 253.7 256.4 263.9 265.3 269 274.2 277.2 281.7 285.9 289 293 297.4 305.7 313 318.9 322.5 335.1 343.7 347.9 353.9 362.2 376.4 390.1 402.9 416.8 427.9 436.9 445.8 453.5 463.2 472.8 476.6 477.6 477.4 474.5 472.3 473.9 478.1 480 482.9 486.5 492.8 497.8 497 512.4 520.8 535.6 562.5 601.6 626.6 652.9 679 701 711.4 708.5 703.6 695.5 683.7 667.5 652 640.1 627.9 614.7 602.1 592.2 583.2 572.4 560.7 552.3 545.5 535.3 522.3 516.6 496.6 469.1 425.9 396.6 380 370.1 358.5 344 343.4 340 340.4 330.3 341.5 346.9 353.3 364.4 378.2 389.7 402.4 418.7 439.4 461.6 486.4 509.7 528.6 554.6 569 582.7 593.5 601.6 610.9 622.6 635.9 648.1 659.4 676.4 695.2 715 732.1 747 761.5 777 792.6 808.2 824.5 839.2 851.6 863.8 875.8 893 904.1 907.9 899.5 851.4 820.8 795 774.2 746.7 697.1 670.1 655.5 647.8 636.8 633.4 626.3 616 607.7 593.6 586.9 589.6 586.1 579 565 559.7 559.7 559.7 559.7 559.7 559.7 559.7 559.7
319.1 321 321.6 320.2 321.8 318.7 315.8 314.2 315.1 312 305.3 299.4 295.2 291.6 288.8 284.9 280.1 276.3 272.5 268.3 267.3 270.4 262.8 268.1 269.7 259.3 258.1 256.7 255.5 254.4 254.2 253.8 253 252.2 251.7 251.5 251.4 250.7 250.8 251.3 253.1 253.4 252.4 253.3 258.3 261.4 257.1 261.6 271.5 271.9 276.3 279.8 283.8 289 292.9 297.9 302.3 308.4 316.7 322.4 326.7 333.6 343.3 353.5 359.6 367.6 380.7 393.9 410.1 424.3 438.7 449.4 456.8 464.8 472.8 484 491.2 494.5 495.9 494.7 487.1 486.1 486.9 489.6 492.3 495.5 499.4 505.8 509.2 516.6 517.5 533.4 557.8 580.8 607.1 629 650.8 680.1 704.8 714.9 712.6 707.6 698.5 687.3 670.8 657 644.8 632.2 620.3 606.9 593.8 585.5 573.9 563.8 555.2 546.6 536.9 527 519.4 504.7 485.1 443.8 405.7 386 372.6 358.3 348 343.6 340.2 334.2 336.7 343.5 349.2 354.2 364.4 372.6 388.3 399.6 413.4 429.7 451.3 478.8 502.6 524.8 549.3 563.4 574 586.1 597.7 610.8 619 632.6 642.7 656.6 668.2 685.2 705.9 723.9 738.1 752.1 766.9 781.6 797.2 813.9 829.6 843.3 854.6 866.9 883 893.7 898 893.9 865.6 830.6 789.7 759.4 733.2 716.3 692 672.9 663.6 664.8 653.8 649.6 641.1 633.2 616.5 603.6 605.9 609.3 603.2 587.8 566.1 559.7 559.7 559.7 559.7 559.7 559.7 559.7
307.1 308 307.7 308 308.2 306.4 304.6 301.8 299.6 302.2 297.2 291.4 286.2 283 281.8 276.6 275.5 272.7 265.9 263.6 261.5 260 259.7 259 258.2 257.6 257.3 256.3 254.8 254.7 254.7 253.9 253.2 252.7 252.5 252.3 251.3 251.8 251.7 253 255 255.4 255.6 256.5 264 261.2 263.2 266.6 277.9 279.6 284.2 287.1 290.4 296.6 301.1 305.4 310.3 317.9 323.6 330.8 337.4 344 353.7 364.7 373.3 382.9 397.8 413 430 450.5 463.5 470.7 481.6 489 497.7 509 513.1 515.4 516.9 512.3 505.9 501.2 500.5 504 507.2 510.4 516.5 521.5 525.5 535.2 544.1 549.5 575 593 614 634.9 653.8 681.2 708.6 717.1 716.8 713.1 703.7 691.6 677.1 662 648.2 634.4 624.2 612.6 596 586.3 576.6 567.3 558.5 548.2 540.2 530.4 523.7 518.8 506.5 472.4 417.9 388 371.7 358.8 348.3 344.9 339.9 336.5 340.8 345 354.6 357.6 364.2 372.1 385.4 398.1 414.8 427.4 452.8 472.7 493.8 520.1 537.7 555.4 569.2 581.2 594.7 606.4 615.8 627.4 638 650.9 663 678.7 696.6 714.1 728.1 741.8 755.9 769.8 787.2 803.7 820.5 834.3 848.2 859.8 873.8 885.3 889.9 890.8 872.8 844.1 798.4 759.1 739.4 726.1 705.2 685.7 677.7 677.3 677.6 679.4 678.2 675.9 671.1 661.2 650.1 644.3 648.8 655.5 644.8 578 563.9 559.7 559.7 559.7 559.7 559.7
300.8 295.8 296.3 301 297.8 297.1 295.7 294.1 293.6 289.4 286.3 282 278.3 276 275 271.2 266.1 263.8 263.6 262.4 261.9 261.7 260.5 259.4 258.9 257.5 255.8 256 255.6 254.8 254.8 254.4 253.4 253.4 253.1 252.6 253.7 253 252.9 255 260.9 258 260.2 267.9 266.3 266.1 269.7 272.6 285.5 286.1 288.7 294.3 297.2 302.1 307.5 314 319.7 325 333.9 341.7 349.2 356.8 365.5 378.3 389.1 400.8 417.2 435.7 452.4 475.5 487.9 494.5 502.3 513.9 525 533.7 537.5 538.6 540.9 538.2 533.4 528.6 524.3 525.1 527.8 531.1 541.7 548.8 556.5 573.4 567.7 574.2 585.9 598.9 615.6 638.7 663 686.4 713.5 720 721.7 718.2 709.7 697.8 683.9 666.6 651.8 636.5 626 614.9 598.5 588.5 579.5 571 564.1 554.7 548.4 538.1 524.6 517.2 498.7 463.5 427.1 402.3 374.2 362.3 354 349.7 340.3 340.3 346.6 350.2 355.6 360.9 366.4 377.8 383.7 396.3 411 432.2 451.8 465.8 488.2 512.8 532.1 547.5 562.9 576.7 588.1 599.9 611.4 621.8 632.4 644 657.4 672.1 688.8 703.7 717 731.1 745.1 759.7 777.4 795.2 813 829 841.8 853.2 865.9 875.9 880.6 877.1 860.6 832.8 800.4 781.1 758.8 739.9 705.3 684.5 680.8 685.2 685 685.9 690.1 696.1 692.7 690.9 694.4 693.7 697.5 696.6 693.2 691.7 637.8 584 559.7 559.7 559.7 559.7
290.5 288.6 290.2 291.6 292.6 288.7 287 288 287.1 285.9 283.8 278.8 275 274.3 268.6 266.7 264.5 266.3 266.5 264.3 263 264.7 261.3 262.1 260.5 260.8 259.5 256.6 256.6 255.8 257.9 257 256.1 255.8 254.6 254.1 254.3 254.3 256.1 261.4 264.3 262.4 265.1 272.1 271.1 273.2 277.4 281 290.2 293.1 296 300.1 306 310.1 315.5 320.9 327.9 336.3 343.5 353.8 361.6 367.8 379.4 393.1 408.1 423 439.5 455.9 475.7 495.8 507.8 519.2 530.2 541 554.3 562.2 569.8 579.8 582.9 572.8 570.9 569 566 556.1 558 561.8 573.6 580.6 584.5 588.4 583.6 587.5 596.7 603.7 618.3 643 674.6 693.3 717.9 725.3 726.4 723.6 714 701.7 688.7 671.5 655.4 640.5 624.6 611.7 601.7 591.3 582 575.4 571.4 562.2 552.2 541.1 528.7 516.8 494.8 471.8 432 411 387 369.4 359 352.6 339.2 344.4 342.5 351.8 352 357.9 363 374.4 386.4 395.6 408.4 424.7 445.3 465.4 486.3 504.6 523.1 540.2 556.5 570.7 583 595.2 606.1 616.6 628.3 638.6 650.8 664.8 679.1 693.7 707.2 719.3 733.9 751.9 769.9 788.3 806.4 822.7 835.3 845.4 855.5 865.5 867.7 862.3 848.9 830.6 813.8 796.5 776.7 756.4 738.6 708.4 687.7 686.1 695.6 708.1 719.2 725.6 732.3 731.3 736.5 743.2 745.6 746 742.7 746.3 712.3 638.9 589.4 568.8 559.7 559.7
292.2 288.4 287.2 286 283.9 286 281.9 279.8 281.3 281.6 278 272.3 269.7 268.3 267.6 266.7 268.8 273.2 269.5 268.7 268 264.8 264.7 265.1 265 264.5 262 257 257.1 259.5 262.3 261.7 259.8 259 256.2 255.1 255.5 260.5 266.9 269 267.6 267 269.4 269.6 274.8 276.7 284.7 286.4 296 301.9 303 306.6 312.4 319.3 324.5 333 341.5 346.8 355.6 366.3 374.2 385.4 392.7 408.9 424.1 442.6 456.8 476.9 497.9 515.7 532.3 545.8 560.3 578 593.6 607.4 611.9 621.7 625.5 610.7 610.6 610 608.8 603.4 600.6 606.7 610.2 615 606.7 601.1 593.9 587.8 601.5 608.5 626.7 651.6 677 699.4 721.3 730.6 732.3 729.1 718.9 705.7 694.7 677.6 661.9 647.9 624.6 612 605.6 595.8 585.4 578.8 572.8 568.5 556.5 542.9 535.2 519.6 499.6 470.4 442.7 412.4 391.9 375 363.1 351.9 347.7 348.4 346.2 348.8 348.7 360.6 366.8 373.1 377 387.2 401.5 415.1 434.9 460.9 482.3 500.1 516.3 535.5 550.1 564.9 577.1 589.4 601.6 613.6 623.7 634.3 645.3 656.5 669.1 682.2 696.4 709.1 725.5 743.8 761.5 780.3 798.2 813.9 826.9 835.6 843.7 851.6 852 847.2 838 826.4 818 812.2 801.3 779.9 764.3 746.1 727.8 709 712 723.2 734 746.7 756.3 763.4 773.6 783.2 790.3 796.7 804.6 807.7 793.2 718.5 629 597.3 582 578.3
292.6 290.6 284.2 284 281.7 277.8 277.1 276.3 274.6 271.8 272.6 269.4 269.5 269.2 269.1 269.7 273.9 271.3 269.6 270 267.9 267.9 267.8 267.1 266 265.6 263.7 262.8 262.7 265.6 266.4 265.3 263.2 260.9 258.2 256.5 256.5 263.1 271.8 272.4 271.2 274.1 278.1 277.6 277.8 280.5 291.8 292.9 302.8 309.3 312.5 316.7 322.4 329.6 336.9 342.1 353.1 358.9 370.1 381.7 391.4 401.5 414.3 427.6 447.2 461.8 476 498.4 517.7 539.2 559.8 577.8 612.6 632.9 640.9 641.2 646.7 653.2 650.1 648.5 646.4 646.9 635.4 637.7 632.5 628.2 627.4 625.5 620.2 611 601.5 598.7 604.8 612.2 627.4 649.2 677.4 702.4 723.2 734.7 736.1 733 723.6 708.4 695.9 678.6 664.3 653.6 627.8 619.2 608.3 598.2 588.6 582.5 579.5 573.9 558 547.5 534.3 525.8 516.1 483.7 468.3 427.4 400.5 385.8 372.3 357.9 348.3 353.3 353.5 352.2 354.9 361.1 365.6 375.8 383.9 392.6 397.1 413.2 431.3 456.5 478.5 499.7 517.3 533.6 548.1 560.4 572 584.2 596.7 608.2 619 629.2 639.2 649.3 660.4 672.9 686.8 702 718.1 733.8 751.9 770 787.2 802.4 814.8 823.3 831 835.2 836.6 834.2 829 822.9 819 816.6 814.8 807.7 788.9 777.6 771.5 761.5 751.5 751 759.3 769.4 775.4 788.7 801 812.7 823.7 833.2 841.1 850 854.1 783.4 719.6 635.9 610.3 602.9
286.6 284.8 284.3 283.1 282.2 282.1 280.2 275.6 273.6 272.7 270.5 271.6 271.8 271.1 271.1 270 272.3 271.4 270.4 270.1 272 270.2 268.6 268.5 267.7 269 269.9 268.3 267.4 268.9 268.6 267.9 266.3 262 259.2 257.9 264.2 267.5 275.2 277.4 276.3 281.6 283.2 284.4 284.5 291.9 297.8 304.7 308.7 317.7 319.8 326.2 332.4 341.4 346.8 358 366.5 373.9 386 395.4 407.1 417.5 434.8 450.1 464.6 483.3 496.9 519.3 538.5 560.6 585.3 617.4 653.2 673.9 686.1 689.8 684.8 684.6 689.2 691.6 688.4 693.1 682.8 660.9 650.8 641.6 636.9 631.6 629.7 620.6 608.7 605.1 608.7 620.3 629.8 644.2 675.7 700.1 723.1 736 738.6 736 724.5 710.6 700.1 681.9 663.6 645.2 630.3 619.4 610.3 602.7 593.2 589.3 585.9 582.2 567 547.7 535.8 527.8 520.4 514 487.1 456.6 414.6 394.6 375 359.1 356.4 359.3 358.4 357 359.3 362 367.9 376.5 383.4 390.9 403.6 424.2 439 455.6 473.7 496.9 520.4 535.1 548.5 561 569.5 579.2 590.3 602.3 612.7 623.3 634.1 643.7 653.9 666.1 678.8 693.5 708.5 724.7 740.4 757.8 774.4 788.7 799.7 808 815.6 820 822.4 822 821.4 819.7 818.7 819.2 820.9 820.1 808.7 799 797.6 795.3 790.8 789.7 792.6 796.1 806.1 814.3 826.5 838.1 848.5 858.7 863.2 868.7 873.6 858.6 795.5 715 641 621.7
289.2 286.8 284.6 282.2 282.3 282.4 280.7 274.6 276.5 275.1 274.2 274.1 273.8 272.2 272.6 271 272.1 272.1 271.7 276.3 279.5 275.7 274.9 273.5 275.4 276 273.6 273.6 272.4 275.7 271.8 271.5 266.4 261.7 261.1 267.2 268.9 271.9 279.5 281.8 284.4 287.5 289.8 293.2 292.8 302.1 305.2 312.6 320 324.5 331.1 338.1 344 352.4 362.4 368.6 378.2 387.7 401.2 410.2 424.1 436.8 451.1 467.2 487.4 502.7 516.4 538.6 560.6 589 623.7 659.2 685.5 712.8 724.9 729.8 725.6 734.8 739.3 749.2 737.2 728.5 708.5 682.1 658.2 650.5 646.5 640.1 633.1 624.6 616.7 610 611.5 626.5 632.9 646.3 666.9 693.3 723.3 737.6 743.3 736.9 727 713.9 698.9 685.2 661.1 648.5 633.9 624.3 615.9 608.1 597.4 594.3 588.5 584 577.2 563.4 545.5 530.6 525.8 516.6 483.4 451.2 423.1 397.8 376.7 362.1 354.1 356.2 357.4 357.9 363.2 364.1 366.2 375.5 384.6 392.7 408.3 424.6 441.6 461.1 478.6 502 522.8 538.3 551.1 561.9 570.8 579.1 586.3 596.6 606.9 618.4 629 637.3 646.5 658.1 671.2 684.1 698.7 713.4 728.5 743.9 758.7 773.3 784.1 792.9 800.2 804.3 809.5 812.3 813.9 816.6 818.9 821 826.5 831.6 832.9 827 823.4 820.6 816 815.1 819 823.4 832 841.5 852.1 862.9 872.5 881.9 887.9 889.2 884.6 865.6 827.7 769.8 705.2 649.3
291.7 286.9 286.1 283.1 281.5 279 277.6 285.3 281.3 279.4 279 278.6 275.9 275.4 275.7 274.3 272.8 276.3 280.7 282.7 283.2 281.1 280.7 281.3 282.2 280.4 278 278.6 276.3 276 273.6 271.3 266.3 264.1 267.8 271.4 273.9 276.5 284.9 290.4 290.7 292.7 298 306.6 304.1 305.4 316.1 315 328 334.8 340.5 351.3 353.8 365.6 374.8 381.8 391.5 404 414.9 424.8 438.3 455.3 469.2 487.1 510.3 520.5 535.4 556.9 585 614.7 650.6 681.4 708.5 736.4 758.4 773.5 783.3 793.6 797.3 779.5 764.2 747.6 719.7 699.8 672.1 664.9 656.8 656.4 638 631.6 624.4 616.1 615.6 625.1 633.9 647.5 672.8 698.6 722.9 739.8 745.4 739.5 730.9 719 699 682.7 661 651.7 638.9 628.1 620.1 610.6 602 597.8 589.7 587 586.1 575.4 554.2 542.3 539.2 526.4 498.3 477.5 434 409.1 386.5 372.2 358.9 354.2 356.5 357.6 363.3 365.9 368.9 374.5 383.9 390.3 403.7 415.3 441.7 464.8 481.7 501.3 519.9 538 551.4 563.9 573.2 580.8 589.9 597.6 606 613.4 624.5 631.5 641.3 651.3 663.7 675.9 689.1 703.3 717.7 731.6 745.2 758.6 768.7 776.3 783.6 790.5 798.9 806.1 810.3 814.7 818.7 823.5 831.5 839.8 847.1 848.4 844.8 845 840.7 841.8 842.9 845.4 856.7 868 876.5 885.3 896.7 907.1 915.2 915.9 897.4 862.4 831.9 797.4 744.5 676.3
294.3 289.6 294 287.9 282.3 281.2 287.8 287.4 286.4 285.1 284 282.1 280 281.3 280.9 277.9 277 286.4 286.3 287.3 285.3 287.5 288 289.5 288.9 286.8 283.6 282 280 278.7 275.4 270.7 269.1 269.3 274.5 277.5 280.5 284.6 289 296.7 297.7 301.1 305.2 312.2 317.9 317.7 324 325.5 337.9 343.8 355.2 359.6 366.7 378.5 387.2 398 407.6 419.5 430.9 443 456.9 470.4 487.6 507.1 523.1 533.9 552.1 574.5 602.2 628.4 657.9 693.8 721.3 746.8 772.7 794.5 821.2 828.6 815.9 803.9 793 781.7 758 718.6 683.1 668.5 666.7 672.2 662.9 648.1 632.5 623.2 620.3 626.8 636 652.5 677.1 707 729.7 745.1 750.2 745.1 735.6 725.1 704.2 682.5 665.1 653.6 641.6 630.9 621.2 611.9 603.5 598.3 592.4 589.7 587.8 582.4 574.9 556.1 538.6 521.6 496.9 475.8 451.8 421.9 404.8 381.1 365.6 358.3 355.1 357.4 361.5 366.1 370.2 375.5 382.6 392 400.8 413.5 433.4 455.9 473.9 494.5 514.8 533.6 548 562 572.8 582.3 590.4 598.4 606.4 615.9 622.3 629.6 638.2 648 657.1 667.5 681 694.1 707.7 720.4 732.8 744.5 752.5 761.9 772.4 781.9 792.2 802.8 808.8 814.8 819.8 826.3 835.5 846.5 855 860 861.9 859.8 858.7 860.8 862.4 867.4 875.2 887.2 897.4 909.1 922.1 929.3 935.9 938.9 903.1 867.9 834 807 771.9 720.4
295.1 294.4 298.4 295 288 291.7 290.6 291.5 290.8 289.5 287.3 287.2 286.2 288 287.4 286.3 285.2 292.2 292.6 290.9 292.2 296 296.8 292.8 291.5 289.5 287 285.2 284.1 282.3 276.8 269 273.2 276.6 278.5 281.9 286.1 294.2 295.5 302.2 304.1 307.5 311.3 319.4 325 331.3 331.5 338.3 350.5 358.2 362.3 370.8 381.4 389.7 402.1 412.2 422.7 435.5 445.6 459.6 472.4 489.3 505.8 523.2 533.6 544.4 564.7 588.8 612.4 638.9 666 697.8 724.3 751.3 776.8 801.6 822.6 838.9 844.1 828.2 811.2 791.7 772.9 739.3 703.8 681.1 679.3 686.2 672.2 663.4 648.3 632.4 626.4 628.3 638.5 666.1 684 710.3 732.6 749 754.8 749.6 741 731 708 681.4 667.7 658.8 643.1 633.5 621.7 612.9 606.1 598.4 598.3 593.6 589.8 588.2 588 571.7 544.8 523.3 497.8 474.9 455.6 428.3 400.2 382.4 368.2 360.6 356.4 356.9 359.8 363.4 367.1 372.2 378.7 386.4 396.6 409.3 422.3 445.4 468.8 495 515.3 535.8 550.2 561.8 571.5 580.4 591.2 599.1 604.9 612.1 620.8 631.8 637.3 648.2 655.6 661.8 671.5 685.5 697.8 709.1 718.9 728.4 735.3 746.6 764.3 779.2 791.6 800.6 808.4 815.4 821.8 831.1 841.1 852.2 861.1 868 872.5 872.8 874.2 877 881.3 886.8 895.3 906.2 916.4 927.9 942.1 950.1 952.8 952.3 910.4 875 842.5 810.2 782.9 747.4
300.9 297.9 302.1 299.2 296.5 296 297.5 297.8 296.4 295.3 292.1 293.7 293 293.4 295.1 293.1 293.7 296.1 299.5 297.1 300.8 301.7 300.9 297.7 295.1 293.2 290.8 289.5 288.5 286.5 278.9 278 280 284.1 285.5 285.2 292.3 302.5 304 310.1 314.6 318.7 320.3 324.8 336 334.4 342.3 348.2 361.3 371.2 375 384 398 405.1 417.3 425.7 438.1 447.7 461.3 473.8 488.7 505.4 520.8 533.3 544.4 557.1 577.1 603.6 622.8 645.4 672.2 700.5 727.5 755.6 782.1 805.4 827.4 847.8 859.4 844.3 822.3 797.9 780.9 761.1 730.6 702.7 696.5 695 680.9 666.9 654.5 640.6 634.1 631.1 643.8 670.4 687.7 708.8 731.7 747.2 757.2 758 749.9 733.7 706.9 684.3 673.1 659.9 645.8 640.6 627.7 617.4 609.9 603.2 604 600.2 597.8 596 592.1 579.6 559.4 529.3 505.3 478.3 461.5 436 409.1 387.4 371.6 361.7 359.7 359.2 358.9 361.7 364.5 369.2 374.9 380.2 388.6 399.7 422.1 444.2 466.6 490.1 509.5 532.5 556.1 565.6 572.8 582.8 592.1 602.6 611.7 618.6 624.6 630.1 637.2 636 647.9 659.4 668.1 673.6 685.5 692.6 704.1 715.5 726.9 743.5 762.3 777.7 789.9 800.6 810.3 818.8 827.2 839.5 847.5 856.8 867.7 874.3 878.2 882.1 886.3 891 897.5 902.4 910.3 920.8 928.5 944.3 955.3 956.7 960.2 954.8 922.6 887.9 852 818.3 789.8 766.5
306.4 306 304.6 304 303.4 301.4 302.2 303.3 303.9 300.9 297.6 298.6 300.8 299.7 298.8 302.9 303 304 306.1 304.2 308 308.6 307.2 304.6 302.4 298.6 295.1 292.9 291.3 285.3 280.3 280.4 285 290.2 292.4 293 300.1 311.7 310.9 317.4 323 328.9 329.4 339.8 342.8 349.1 356.4 361.8 373.7 382.9 389.6 401.8 409.4 419.9 430.3 441 450.9 461.9 473.6 489.9 505.4 520.7 534.1 542.7 554.1 568.1 589.1 611.1 631.5 653.3 675.8 702.4 731.3 760.1 785.4 809.3 831.5 852.3 863.9 853.6 826.8 805.5 786.1 773.7 749.3 724.6 715.2 705.9 687.6 671.8 658.4 645.9 640.2 634.9 649.5 670 684.4 706.7 730.8 747.2 762.3 770.5 763.1 736.3 710.5 693.7 680.3 663.5 650.8 648.4 634.4 622 613.6 609 606.3 602.8 605.1 599.9 598.3 584 567.8 557.1 523.3 495.3 461.9 440.8 417.3 395.1 380.3 366.7 364.5 361.5 360.1 363 366.2 370 373.9 380.1 390.3 403.5 428.3 450.1 474.6 505.9 521.6 529.9 551 565.6 574.4 583.9 593.3 607 615.4 622.4 630.3 636.3 642.3 647.3 652 655.4 668.8 675.8 686.3 698.7 710.9 721.7 734.1 747.2 761.7 777 790.7 803.6 812.9 824.7 833.4 844.4 852.6 860.9 871.7 879 883.3 886.7 892.7 899.4 902.5 910.1 917.8 921.6 928.6 924.7 924.1 942.6 954.7 947.6 932 904.8 871.6 836.3 811.4 786.4
313.1 312.3 310.6 313.6 310.8 309.7 306.5 307.5 310.5 304 308.2 305 307.2 307.1 305.4 312.9 311.4 310.7 310.7 310.3 312 311 310.4 307.8 305.5 304.3 299.8 296.9 291.9 286.2 278.5 285 286.3 292.8 297.3 302.2 305.2 319.1 321.1 324.4 330.8 338.9 343.1 351.3 358.6 363.6 370 375.1 383.3 396.4 404.5 415.7 423 435.4 443.3 455.7 464.8 476 489.9 504.3 518.6 531.8 542.8 552.2 564.1 577.6 598.4 619.7 640.3 660.7 680.3 707.1 735 763 788.2 812.2 835.8 857 868.5 857.2 831 808.3 789.3 778 758.1 728.6 713.6 707.8 695.5 673 659.5 649.5 643.4 641.5 650.3 665.3 684.4 711.5 735.8 753.8 768 780 775.8 743.8 718.2 700.5 683.8 665.4 656.1 648.8 634.4 625.6 621.7 616.9 607.6 606.3 602.6 602.3 598.6 588.6 578.1 568.8 546.3 511.9 473.7 444.3 420.8 402.5 384.2 374.2 371.2 366.6 361.8 363.2 366.5 369.1 374.2 381.9 392.5 409.5 437.2 466.1 496.5 519.8 531.2 541.5 549.2 561.4 572.5 581.6 594.1 607.5 614.3 625.7 631.9 638.5 645.5 652.8 659.8 666.3 671.3 677.5 688.8 701.8 711.8 725.2 739.3 749.9 764.5 783 796.7 801.3 819.1 827.6 839.7 848.8 857.3 864.9 874 880.6 886.6 890.2 893.3 897.4 900.7 905.2 908.6 906.8 902.6 888.3 900.4 919.3 932.8 942.2 929.1 918.4 891.3 860.7 832.4 807.6
324.8 323.2 319 320.7 319.2 319.8 318.4 315.2 313.2 312.1 311.1 314.5 316.6 317.8 318.2 319.6 320.9 319.5 318.7 317.9 320.1 318.5 316.8 314.6 311.6 311.5 305 298.2 292.6 288.2 288 289.8 291.5 298.8 303.7 308.3 316 323.6 328.9 333.7 340.4 347.4 357 363.7 370.1 378.3 381.8 387.5 398.4 408.1 419.5 430.6 437.6 448 459.8 467.5 477.6 488.8 503.3 518.2 529.8 542 552.4 560.6 574.1 589.1 612.5 630.9 648.2 666 685.7 713.3 740.9 766.9 791.8 815.9 839.8 861.8 874.1 864.7 835.1 809.3 787.5 774.9 753.1 723.2 711.1 707.2 688.5 672.5 660.2 651.2 644.9 648.7 657.3 668.5 690 720.8 741.4 760 772.3 789.5 783.9 752.5 728.2 707.6 684.2 670.3 657.3 647.2 639.9 626.9 623.2 618.6 609 606.6 603.3 603.5 597.9 589.8 587.5 571 556.4 519.4 476.9 447.3 422.3 400.5 385.5 375.6 373 368.3 362 363.2 365.7 370 376.3 384 395.6 415.3 434.4 463.3 498.5 515.9 532.4 544.9 555.4 569.5 574.7 584.8 593.5 607.4 615.7 626.6 641.1 646.2 653.9 659.7 665.8 676.1 682.3 686.9 688.1 702 711.7 723.7 739.4 753.1 766.3 785.4 803.2 816 822.8 834.1 843.9 852 859 866.9 874 880.6 887.4 892.7 890.7 891.8 889 883.1 881.3 874.1 869.2 857.4 876 895.4 912.9 924.1 929.8 918.8 902.8 871.3 848.2 832
336.3 331.8 330.2 331.9 329.1 329.2 330.1 325.4 324.3 324.3 326.4 326.9 327.2 328.1 329.6 332 332.4 330.3 327 327.1 327.8 327.4 327 322.5 320.1 316.2 311.5 301.9 295.5 282.2 293.5 295.3 300.1 306.2 311.8 317.7 328.8 330.6 335.8 342 351.8 359.3 367.6 375.9 380 392.5 398.9 403.7 410.6 421 430.9 443.6 453.7 459.9 472.6 480.3 489.5 502.1 514.9 527.4 538.7 549.5 560.5 571.7 583.2 600.7 622 640.7 656.6 672.7 696.1 722 746.9 773.2 797.9 821.5 844.7 865.5 880.2 868.5 838 806.4 778.7 762.5 738.8 714.9 707.1 699.2 682.2 668.3 659.8 654.2 646.1 657.5 661.1 678.3 697.6 725.2 749.1 766 777.5 795.1 792.1 762.8 735.7 712.5 688.6 672.7 660 649.2 638 627.7 625.9 616.5 609.2 606.5 603.5 604.1 599 595.9 595.4 579 560.2 536.1 484.8 448.9 425.1 405.6 388.5 378.6 375.1 368.1 365.3 366.8 371.1 376.7 377.9 387.1 401.7 417.7 434.9 463.8 491.8 509.2 528.6 543.8 556 573.3 580 588.5 599.9 609 620.3 635.7 644.3 653.5 658.9 665.4 670.7 683.3 691.6 698.6 699.3 702.5 712.4 726 739.2 754 767.8 785.3 805.3 821.6 832.4 836.7 847.4 854.2 860.7 868.1 876.3 881.9 887.7 893.9 891 873.9 849.7 837.7 825.1 818.3 820.4 831.8 851.7 866.1 886.7 901.5 910.9 913 910 885.6 857.8 842.6
345 343.3 338.6 339.8 340.9 339.9 339.9 337.4 329.8 332.4 335.6 335.3 334.7 336.3 341.4 342.4 342.9 341.3 338.3 335.2 335.3 336.2 336 331.9 324 322.3 315.1 304.3 295 298.4 300.7 302.2 307.6 315.3 321.2 327.8 334.2 338.1 345.4 352 365.3 371.6 381.7 390.3 396.4 404.9 410.7 419.6 423.7 434.9 445.9 455.9 465 474.7 483.5 491.8 501.3 513 523.1 534.3 546.2 555.8 567.4 579.5 593.1 610.1 629.4 649 666 684.9 707.6 730.3 754.6 779.3 803.1 826.5 848.2 868.6 885.3 864.5 836.3 804.4 776.3 748 723.6 708.4 696.1 686.3 673.4 663.4 659.5 655 652.4 660.6 669.7 694.5 706.3 729.5 753.9 767.3 781.9 800.3 800.1 774.8 750 724.5 703.5 677.7 662.1 650.5 639.1 631.2 623.9 618.1 609.7 607.8 604.2 603.2 601 597.6 592.6 580.6 563.5 539.9 495.1 449.7 425.5 408.6 391.8 382 376.5 375.8 369.3 373.1 373.9 379.7 384.4 392 407 425.8 439.6 466 487.8 503.6 528.7 546.6 557.4 575 591.2 607.8 609.4 618.2 625.7 644.2 653.4 657.9 665 674.3 683.2 691.2 700 708.3 714.8 714.2 716.5 727.5 740.4 754.2 770.4 782.9 800.9 820.4 832.6 843.1 850.4 856.4 862.9 870.8 876.6 883.5 886.1 884.7 862.9 836.2 816.7 794.3 783.3 781.6 784 798.4 811.7 833.2 847.8 861.9 870.8 893 910.3 897.3 882.7 861.3
350 348.4 346.4 345.2 346.5 346.1 345.3 344.8 340.8 342.6 342.1 344.7 344.8 350 353.2 353 351 349.5 348.2 344.7 343 344.1 341.6 334.3 328.3 322.6 313.6 303.7 296.9 305.7 308.5 310.4 315.2 322.9 329.7 340.3 343.9 351.2 358.3 365.8 376.3 383.8 396.6 403.9 410.5 418.9 424.5 432.7 437.6 452 456.6 467.6 477.7 485 494.1 503.1 513.5 521.1 530 541.6 552 562.9 575.1 588.5 602.6 619.6 637.3 657.3 674.4 697.6 719.3 741.8 765 787.4 809.2 830.9 850.7 871.8 884.2 851.6 824.9 794.6 762.8 730 710.1 697.6 685.3 675.3 665.9 659.6 657.2 656.9 664 673.5 677.2 699.9 713.2 730.1 754.6 770 786.2 804.8 806.5 788.3 768.2 740.5 712.2 683.3 665.1 652.2 642 641.4 630.4 626.1 614.5 609.8 606 603.6 601.1 597.1 589 580.7 563.6 542.6 506 456.6 426 410.6 391.9 383.8 378 377.3 374.8 377.7 377.7 384.4 392.2 398.8 411.9 435.6 456.8 476.8 487.4 504.8 532 556.3 562.5 581.9 598.9 612.1 624.2 633 641.3 655.1 659.9 663.7 672.9 682.5 695.7 701.6 713.2 720.4 728.8 729.9 730 734.5 742 755.7 772.5 790.1 808.8 827 839.2 848.8 855.4 860.1 863.4 869.7 874.8 877.5 880 853.9 830.6 809.4 785.8 767.2 752.3 753.2 756.2 765.6 775.4 795.5 813.8 825.6 838.8 863.6 894.9 896.9 892.2 888.7
358 357.9 357.2 354.7 354.5 353.4 352 351.5 352.8 350.5 351.4 356.8 362.8 366.7 369 363.7 360.3 359.1 356.5 352.4 350.3 349.4 347.7 338.5 332 323 312.7 291.6 311.3 311.7 314.8 320.3 325.7 332.2 339.4 349.3 354.4 368 372.1 381.4 389.6 397.3 408.2 418.2 425 434.9 440.7 447.8 456.4 461.2 472.8 476.9 488.8 495.7 504.3 512.3 521.9 528.8 537.3 549.6 558.8 570 582.3 595.4 611.7 628.2 647.6 666.4 685.8 710.9 731.1 752.9 773.9 795.3 815.4 835.1 854.5 873.7 878.1 841.6 806.7 779.2 748.5 717.9 700.3 684.1 674.8 664.5 658.7 658.5 658.7 660.4 668.7 679.9 689.8 700.4 714.2 733.9 759 774.9 793.2 808.5 809.8 799.5 783.8 751.8 720.3 689 672.3 656.6 651.2 650 638.3 631 619.1 613 609.2 603.7 599.6 595.8 586.5 578.1 566 550.8 528.7 468.7 432 407.3 394.4 386.5 380.9 382.4 380.7 381.7 384.2 387.5 394.1 406.4 420.4 445 456.8 472.2 487 508.8 532.7 557.4 568.3 587.2 604.9 621.7 638.5 646.9 655.1 668.7 674.9 674.8 683.7 688.9 701.2 709.6 720.4 732.1 741.5 747.5 745.5 748.2 754.9 763.4 777.4 792.9 812.1 832.8 847.2 857.9 863.7 867.4 864.4 865.1 868.2 869.7 869.3 839.1 804.9 780.7 759.3 741.4 727.9 727.5 735.2 743.7 750.3 769 792.4 808.3 816.3 844.6 870.6 884.5 886 899.3
370.1 368.5 367.9 368.1 367.2 362.7 363.6 364 363.8 366.7 366 374.6 380.7 381.6 379 376.5 371.9 369.8 365.4 361.7 360 356.2 350.3 342.5 333.8 323.6 305.4 311.1 314.7 317.1 321.9 328.6 335.1 341.3 349.5 358.7 367 378 386.8 396.5 403.8 412.7 424.8 435.9 440.6 448.8 455.3 463.4 469 475.9 482.5 490.9 497 503.3 512 521.4 529.3 537.1 546.7 556.4 565.6 577.3 590.1 605.9 620.6 638.3 658.2 676.8 698.9 721.2 745 764.7 783.2 802.5 821.9 840 857.7 874.5 860.2 829 797.3 765.9 736.7 708.7 687.6 674.9 664.5 658.5 658.5 658.5 660 662.7 669.5 684.6 695.4 704.8 715 736.6 761.4 785 801.6 812.1 813.3 799.4 780.9 754.8 720.4 691.8 677.1 665.9 658.9 654.1 643.5 638.5 623.3 616.1 610.1 600.2 594.5 590.3 586.2 581.4 571 554.6 530 493 439.8 408.4 394.5 387.9 385.3 388.9 386.6 388.2 392 395.7 402.2 412.5 430 445.4 455.4 473.4 496.9 518.3 545.2 570.4 583.4 594.8 607 623.3 644.7 667 676.5 679.3 690.1 689.4 694.7 699.4 706.6 716.2 726.9 741.1 754.3 763.8 764.4 764.5 767.2 774.7 785.6 800.2 818.2 840.9 856.3 867.3 874.1 876.5 872.4 863.8 866.5 865.6 857.2 824.7 792.8 756.6 735.5 717.4 716.6 720.2 724.1 730.3 736.1 748.7 763.5 778.9 789 813.2 841.8 864.7 879.7 902.2
381.4 379.7 379.2 379 377.8 374.9 375.5 372.5 374.7 381.5 381.7 391.1 392.9 394.2 391.2 387.2 379.9 377.1 374.8 372.2 366.1 362 356 351.5 337.7 325.9 308.3 315 318.2 324.2 328.6 336 344.2 350.5 359.6 369.3 380.4 391.9 398.7 408.6 417.1 429.4 441.8 448.7 455.8 466.5 473.7 472.8 482 486.6 489.6 498.9 505.5 512.3 520.7 529 536.1 544.7 554.4 563.5 573.5 583.4 596.9 615 629.1 647.3 667.8 688.4 712.6 737.6 759.3 775.6 792.9 811 828 843.7 860 873.5 852.9 814 782.2 750.1 721.2 700.3 680.4 668.2 659.4 658.5 658.5 658.5 659.3 663.8 672.4 683.7 698.9 710.1 723 745.2 769.4 791.8 807 816.7 806.1 777 755 735.3 710 691.8 681.9 668.6 660.7 655.2 643.5 634.7 625.9 616.1 608.8 598.9 589.3 586.1 581.3 579.8 570.4 555.4 534.2 494.3 468.4 419.1 400.8 394.2 392.8 394.7 392.9 392.1 395.5 400.1 407 413.2 431.5 446.9 461.3 483.7 509.5 537.5 556 574.5 588.6 600.1 615.1 625.7 654.5 677.9 688.8 699 700.9 703.8 705 709.6 714.7 719.9 731.9 747.1 766.1 778.3 783.6 783.3 782.4 787 796.2 810.8 827.3 848.9 866.1 878.5 885.4 887.8 884.4 871.6 870.4 867.9 845.1 809 778.5 741.5 717.4 707.6 709.4 711.6 709.8 714.6 722.3 730.9 740.7 751.6 765.3 788.1 818.6 849.8 876.7 902.5
396.5 392.1 392.5 391.4 389.6 388.8 382.6 386.8 389.1 392.9 402.4 403.8 403.6 405 402.4 397.9 394.1 387.4 382.4 377 371.9 369 361.4 348 334.4 322.7 313.5 319.7 325.4 332.3 339.5 348.4 354.4 363.3 371 381.8 394 403.9 410.6 421.4 431.3 444.7 457.3 465 473.5 481.3 486 490.4 493 496.8 503.4 505.8 515.7 519.8 528 536.2 543.3 552.4 559.9 568.8 580.3 591.4 605.9 621.7 636.7 656.6 676.5 702.7 728.5 752.5 769.2 785.5 803.2 819.5 834.6 848.5 861.8 873.4 841 800.8 764.2 733.7 708.6 691.6 671.8 664 658.2 658.5 658.5 658.5 658.8 665.7 677.2 689.1 703.1 714.2 736.1 761.8 780.5 799.3 813.1 820.6 787.1 758.1 736.9 722.2 702.8 687.2 678.6 667.4 659.3 653.3 641.6 631.9 623.2 614.2 603.9 593.7 585.9 580.2 579.1 577 578.9 561.1 530.3 494.4 472.1 437.9 415.3 402.9 399.8 398.5 396 396.6 399.8 405.1 409.2 414.8 433.1 452.3 481.8 497.5 522.1 543.7 557.6 576.7 600.5 611.7 620.4 635.2 658.4 677.9 697.6 714.4 715.4 718.6 720.4 721.2 726.6 735 744.1 757.6 780.3 790.8 798.9 800 799.9 801.9 811.3 823.6 841.1 856.3 876 890 897.5 900.4 896.9 886.7 880.8 871.1 836.3 798.3 763.6 718.9 703 698.5 694.9 694.6 693.9 697.4 703.8 715.1 722.2 734.5 751.6 776.9 809.3 843.5 874.4 906.5
409.3 407.8 405.7 405.8 407.8 402 398.2 404.5 408.2 412.6 416.6 415.4 416.7 417.4 412 406.9 404.1 398.5 391.2 385.6 378.8 370.8 358.1 344.2 331.9 323.6 320.4 325.3 331.1 341.1 349.7 357.7 367.9 375.7 386 392.7 405.8 415.6 425 435 447.9 459.8 469.4 479.2 486.3 492.6 497 500.2 500.8 506.1 512.5 516.3 523.8 526.7 535.5 541.5 549.2 558.6 566.1 575.2 586.9 600.2 614.3 631.1 648.8 666.9 688.7 715.1 743.4 764.9 779.5 796.2 812.9 826.8 842.6 855.2 865.6 875 834.7 789.7 752 721.8 698.7 684.2 669.9 661.3 658.5 658.5 658.5 658.5 658.9 668.2 680.5 693 705.5 727.3 754.2 775.2 791.6 808 820.5 822.6 778.2 748.3 726.9 711.3 693.9 684.7 677.2 666.7 659.6 654.1 640.2 626.8 615.3 605.4 594.6 585.3 581.1 576.6 574.2 574.2 578.8 567.8 542 510.1 479.1 451.1 429.7 411.6 403.8 402.9 401 398.9 402.6 405.8 412.3 419.1 434.3 460.1 493.3 501.4 525.7 544.9 559.8 585.7 601.4 612.5 627.4 640.6 655.6 676.7 702.8 726 726.5 733.1 734.7 737.6 741.8 753.3 766.3 780.8 795.2 804 811.5 815.8 818.2 824.2 824.7 840.1 855.2 870.4 885.7 901.9 910.3 912.9 909.6 899.2 890.4 874.2 839.6 788.4 748.8 708.8 693.6 685.2 678.2 678.6 680.5 685.4 692 702.6 707.2 717 740.9 769.5 803.9 843.7 881.1 913
423.9 423.2 421.5 422.1 419.2 415.8 417.7 419.7 425.4 427.9 429.2 430.1 431.3 431.9 426.9 415.5 410.3 408.9 403.1 392.7 382.1 370.2 356 343.4 330 319.5 328.3 332.1 337.7 346.1 359.3 368.1 377.1 387.6 396.8 404.9 416.9 427.8 437.9 448.4 459.8 471.5 482.9 489.8 496.9 502.7 506.6 506.7 509.1 514.2 521.2 525.1 529.1 533.1 541.4 546.8 555.6 564.8 572.1 582.4 594.9 608.1 622.8 639.5 660.3 681.8 706 731.8 754.5 775.1 791.2 808.7 823.5 838.1 849.9 861.1 871.2 878.2 827.2 778.3 743.2 717 697.8 674.9 666 658.5 658.5 658.5 658.5 658.5 659.2 670.4 685.9 696.3 708.9 730.4 764 784.4 800.6 816.9 828.8 820.3 775.4 741.7 719.9 703.7 689.8 681.5 674.8 667.7 660.4 650.8 639 623.9 608.2 601 588.3 581.2 580.1 574.7 574.1 571.6 565.8 547 536.9 514.3 474.1 452.6 434.6 418.2 410.1 409.4 407.6 401.5 406.1 409 416.4 426.5 443.3 462.8 484.6 499.1 521.5 542.7 563.7 585.5 592.8 606 616.7 634.1 658.9 681.7 718.1 738.6 744.1 748.6 758.3 753 755.5 765.7 783 798.7 815.2 822.2 824.8 830.4 839 845.5 853.7 857.9 874.5 893.9 904.6 914.8 921.8 924.7 920.6 911.5 897.3 858.4 812.3 773.3 739.4 696.9 680.4 668.6 665.7 665.5 667.4 673.7 683.4 688.4 695.2 708.2 729.6 763.5 799.4 837.9 877.6 912.6
439.5 439.7 438.2 433.9 432.9 434.4 434 436.1 440.6 443.4 441.7 443.4 442.1 439.5 432.1 424.4 419.1 411.7 405.6 395.7 383.8 369.6 354.6 340.3 332 326.7 331.4 338.2 344.3 354.5 364.4 374.8 386 398.3 404.7 417 426.2 439.6 450.8 461.5 473.7 483.4 493.7 500.5 505.8 511 514.2 516.4 515.5 522.6 529.4 533.1 534 538.4 545.7 551.6 561.9 570.8 578.2 589.5 603.2 617.4 632.1 651.8 676.5 698.7 723.9 746.6 765.1 785 803.9 823.8 837.7 849.3 858.5 868.7 877 879.3 836.3 773.7 737.9 717.1 696.5 676.7 663.5 658.5 658.5 658.5 658.5 658.5 659.7 673.5 691.6 701.7 711.9 741.4 779.1 793.9 810.6 825.3 837.9 820.7 775.4 743.7 718.2 697.9 689.1 679.9 672.4 666.5 658.4 646.9 633.4 617.4 607.2 597.3 589.1 581.9 580.9 578.8 577.8 574 562.9 545.4 526.9 507.1 486.9 464.4 443.7 425.5 418.1 414.8 413 408.9 406.1 415.3 421.9 429.5 447.5 460.5 479.5 499.6 530.5 549.2 568.1 583.2 589.9 599.9 613.2 628.9 656.6 689.4 718.9 746.4 756.8 769.1 770.9 770.6 773.7 784.6 797.6 813.4 829.5 840.1 847.2 851 859.9 868.9 878.7 888.5 897.4 913.1 923.1 931.6 936.6 938.5 936.5 927.1 910.3 868.9 826.5 769.6 726.5 688 669.1 655.1 652.1 652.3 653.3 660.5 672.1 682 688.1 703.2 721.1 754.6 793.2 832.1 870.1 908.1
457.1 456.7 455 450.7 449.8 451.5 451.6 454.1 456.7 455.8 457.8 455.3 452.2 449.1 439.7 433.4 422.8 414.8 407.3 398.6 383.3 370.7 356.8 342.3 334.6 328.5 336.2 343.1 353.2 363.2 371.6 382 393.9 405.1 414.4 425.7 439 450.2 462.2 473.4 485.5 495.8 505.6 511.4 517.1 520.3 522.9 521.1 522.2 530.7 535.2 537.4 538.9 544.3 549.9 557.1 567.1 575.2 583 595.4 609.5 624.1 644 673.7 695.7 720.3 742.4 760.7 778.2 796.3 815.9 837.2 850 860.7 869.1 877.6 885.1 880.4 834.1 778.2 735.1 716.9 691.4 679.4 666.2 658.5 658.5 658.5 658.5 658.6 665 680.4 698.3 711.4 727 754.8 790.3 807.5 825.7 837.7 852.9 834.5 790.1 750.2 718.1 698.1 689.8 677.6 671.6 664.7 656.9 644.9 631.7 620 609.8 595.7 588 586 589 587.5 585.1 578.5 566.5 548.6 530.6 509.9 490.2 469.5 446.8 432.3 425.2 419.4 418.3 415.6 412.3 415.8 423 432.4 443.8 458.8 476.2 497.3 520.9 546.5 564.4 576.7 586.2 594.5 604 619.5 645.3 685.5 721.1 751.6 769.6 783.9 790.8 794.3 800.9 812.9 823.7 828 841.4 852.3 864.9 874 887.7 896.8 903.5 910.8 922.3 931.2 945.3 953 957.2 955.6 953.9 949.4 937.7 891.5 806 768.6 729.1 676 655.7 641.7 639.8 642.5 643.2 651.8 664.7 679.7 686.5 695.7 712.3 746 783.9 825.1 861.6 898.1
475.2 476.3 470.2 466.5 470.2 470.5 469.8 471.4 473 471 472.2 468 463.9 458.5 446.9 436.5 428 423 413.5 401.7 387.2 373.2 360.5 346.6 342.4 340.9 344 350.6 364.3 373.5 379.6 393 403.6 414.9 425.6 438.6 448.1 460.4 472.1 483.4 496.7 507.3 516.2 522.5 524.6 528.7 529.4 531.6 529.4 537.1 542.1 541.9 543.7 549.3 554.4 562.4 572 580 589 600.6 614.9 637.1 661.2 695.9 716.4 741.1 760.6 781 794.3 812.3 832.8 851.8 861.8 872.1 881.2 888.3 893.1 866.7 827.4 783.3 745.5 722.5 703.4 685.8 671 658.5 658.5 658.5 657.5 662.7 676.8 686 705.6 726.7 746.3 780.3 798.3 821.6 839.6 852.4 869 852.7 813.4 757.7 721.7 702.5 692 677 670.4 662.7 655 644.6 633.2 624.5 612.6 597.4 590.5 594.6 602.7 605.8 607 592.1 581.5 563.6 540.7 526.3 508.3 481 450.5 436.5 427.1 425.4 420.7 420.7 416.7 418.5 424.2 432.9 443.2 455.2 471.8 494.4 527.7 547.9 561.3 571.3 578.6 591.1 596.7 615.9 647.6 679.9 714.6 748.5 780 793.5 807.4 816.7 825.8 840.3 844.7 856 864.3 871.7 880.6 893.4 909.7 921.6 929.9 936.9 945.9 955.3 969 980.2 982.5 978 972.6 967 955.1 903.1 797.9 745.7 710.4 662.8 637.9 628.3 630.2 630.9 635.3 644.9 658.5 674.5 687 697 711.1 733.8 774.6 815.9 852 888.8
493.1 489.8 485 485.9 487.2 487.3 488.4 487.9 485.7 484.9 483.5 480.1 473.3 466.3 454.1 442.5 433.8 427.6 417.2 405.3 390.3 375.1 359.8 349.7 340.9 348.2 352.4 357.6 370.1 381.7 389.9 404.5 413.5 425 436 446.7 459.1 470.5 481.5 493.3 506.9 518.6 526.6 531.1 534.1 537.3 538.5 537.9 535.7 541.8 544.5 544.9 546.6 553 559.8 567.6 577.8 585.5 595.5 606.7 624.7 649.1 676.9 711.1 737.5 764.3 778.3 795.1 812.2 833.1 849.6 862.1 873.4 886.4 894.1 899.4 877.6 844.5 811 780 759.2 751.9 720.8 695 671.2 664.8 663 658.4 664.2 671.3 682 694.3 719.6 741.4 761.9 791.9 810.2 832.8 850.5 865.1 872.4 840.7 800.7 761.8 729.1 703.4 694.6 677.5 670.3 660.7 652.4 647.3 635.8 627 618.7 611.1 608.9 608.2 611.1 617.5 621.3 634.2 643.8 635.7 595.5 556.3 529.3 508.5 478 448.1 434.9 430.3 423.5 424.1 423.5 422.4 424.5 433.8 442.1 452.9 474.3 496.4 522.7 541.2 556.1 560.3 574.4 584.7 595.4 607.9 636.5 668.2 703 746.6 788.5 805.1 821.2 834.7 847.5 864.3 877.5 888.5 894.3 900.2 910.8 922.5 934.6 948.7 957.2 964.6 972.9 981.8 993.2 1007.7 975.7 951.7 945.2 957 916 865.2 767.6 723.5 673.6 640.7 624.8 621.5 618.8 620.4 628.2 638.7 655.5 669.7 683.1 696.3 713.2 733.6 764.4 804.9 843.9 881.9
509.4 505.3 505 509.5 510.1 509.8 509 506.1 503.4 499.5 495.9 490.4 484.5 476.4 463 451 442.5 432.5 421.6 407 393 377.4 359.8 351.2 339.9 353.2 358.2 364.7 379.1 390.5 398.9 414.2 422.2 432.2 443.8 455 469.3 479.6 490.1 502.2 516.1 527 533.1 538 541.4 544.8 544.5 540.1 545.3 547.9 550.2 551 551.9 556.3 564.7 574.6 585.5 591.9 601.3 614 630.6 656.9 694.4 726.8 755.3 780.2 796.3 811.1 832.2 850.5 864.3 876.2 891.2 900.3 906 912.8 889.5 844.3 812.9 792.6 785.8 778.2 752.1 721 679.7 672.6 669 666.4 670.7 679.5 686.1 707.5 729.3 757.7 778.9 804.5 825.4 848.5 864.4 876.6 865.3 827.2 790 757.4 727.7 700.5 689.8 678.1 667.9 658.7 652.8 646.3 641.1 639.8 639.6 632.7 632.1 621.1 623.8 643.9 648.5 662.4 681.8 696.5 658.9 598.2 550.1 528.9 505 485.1 454.9 436.4 431.4 426.5 425.4 426 425.2 432.9 440.2 453.4 473.5 489.8 510.9 528.6 544.4 551.6 564.4 573.7 584.6 604.4 626.5 659.8 702.6 752.2 795.2 812.5 833.1 853.2 868.2 888.9 905.1 917.5 927.6 933.7 943 955.5 964.5 975.3 984.6 993.8 1003.4 1011.1 1020 981.9 938.1 913.8 914.1 918.5 891.1 831.2 745.9 704 656.1 632.9 620.4 615.8 612.2 615 620.1 632.4 648.7 665.5 680.1 693.2 713.1 735.4 764.2 801.3 840.6 879.1
527.3 526.2 528.9 530.5 530.4 528.1 523.4 522.5 517.8 512.2 507.8 500.9 493.2 482.8 472 460 447 435.8 424.9 409.1 391.8 375.1 362.3 352.6 354.4 359.3 365.1 375.6 388.9 403.1 410.6 423.4 432.5 442 454.9 466.3 477.1 488.6 498 509.9 523.2 533.1 539.1 543.2 546.4 549.7 548.1 545.9 550.9 554.7 552.2 555.2 556.6 560.8 572.4 583.2 593 598.6 608.7 622.2 643.5 672.7 710.5 742.7 774.4 797 816.7 832.4 850.1 864.1 880.1 894.3 908.9 916.8 924.1 930.5 906.5 870.8 836.7 812 793.7 779.8 763.9 727.5 699 683.3 677 674.5 679.6 685.6 694.5 713.1 744.6 763.1 789.6 823.1 846.7 865.5 878.9 885.5 845.8 813 774.5 752.5 734.3 711 684.8 676.4 670.1 661.5 662.6 654.4 649.9 645.6 636.6 634 639.6 640.2 648.3 661.4 682.8 705.9 724.7 726.6 683.6 628.3 580.5 539.7 513.7 502.7 483.7 453.5 441.1 433.6 430.3 429.5 427.1 433.3 441.2 452.9 467.6 482.8 500.6 518.4 530.5 543.7 554.6 563.9 576 600.9 623.4 664 707.2 756.3 793.7 823.2 846.2 868 884 906.9 926.9 943.9 953.7 961.6 971.1 983.4 993.8 1002.8 1012.7 1024.4 1033.2 1038.3 1021.4 944.7 911 888.9 892.4 874.8 852.1 823.4 734.3 680.1 645.5 623.4 615 609 601.7 606.3 615.8 628.2 647.6 663.2 678.2 692.2 707.6 726 760.9 800.1 839 876.5
554.2 556.4 553.4 546.5 543 540.8 538.8 534.9 529.3 525.9 521.8 513.2 500.6 491.3 476.7 466.4 453.4 440 426.2 410.4 392.6 376.1 366.1 356.2 359.5 365.2 371.8 384.3 393.7 406.4 420.4 431.3 440.8 451.7 464.8 475.4 485.7 495.4 506 518.7 530.3 538.6 544.4 548.6 551.7 553.3 552 552.1 556.2 558.6 555.9 561.7 562.8 568.5 580 591.1 599.6 607.6 619.7 633.7 663.3 691.6 723.6 760.5 790 812.2 836.2 857.1 875.1 887.4 900.1 914.6 926.1 935.8 950.2 956.5 932.8 894 875.4 844.4 821.1 806.1 782.4 755.4 734.9 715.1 696.6 695.5 695.4 707.7 711.1 727.4 754.2 775.4 815.7 850.1 867.2 879 888.7 874.9 829.5 795.3 769.8 753.1 749.2 724 690 678.4 676.3 671.2 667.4 661.9 653.6 654.1 651 652 651.4 660 683.4 694 714.8 736.5 756.4 761.4 718.4 696.4 649 589.5 532.9 511.3 491.5 470.4 458.4 444.2 434.2 433.8 431.5 433.5 440.7 450.2 462 474.4 488.5 509.1 519.9 535.5 546.6 557.3 571 593.4 629.3 673.6 720.3 759.6 796.4 830.2 854.8 881.2 899.5 922 944.5 961.1 971.2 983.7 995.9 1009 1023.3 1036.6 1048.3 1058.8 1055.6 1024.1 969 925.4 887.7 865.5 858.6 848.7 823.7 784 731.5 678.1 637.5 615.4 603.5 598 593.3 598.7 611.6 627.7 645.4 661.3 675.6 691 703.9 724.3 753.7 795.8 837 874.3
581.6 584.4 582 571.5 559.8 555.6 549.2 544.9 543.9 539 528.3 519.2 511.4 501.6 482.4 471.9 458.9 442.8 428.4 412.1 395.4 379.3 367.1 352.8 365.7 372.3 380.4 394.4 402.7 417.5 428.9 441.4 450.7 460.5 472.7 483.6 492.4 501.4 512.9 526.6 538.5 545.4 550.5 554 557 557.9 557.6 558.2 560 562.4 560.9 562.3 569 573.2 583 596 604.9 615 630.2 647.5 680.2 713.8 742.7 777.2 807.4 831.8 856.4 882.2 900.2 912.7 925.2 940.1 954.2 964.9 972.8 968.6 962.7 949.7 925.3 886.9 851.7 834.3 810.6 790.6 762.3 732.4 715.8 713.1 710.9 728.6 727.6 744.6 766.7 801.1 839.6 868.8 882.1 894.7 899.3 857.3 814.3 784.9 762.6 750.7 744 729.5 699.1 687.5 684.4 681.9 682.6 665.5 663.9 663.8 666.3 671.6 681.7 708.4 720.3 729 751 767 789.7 802.9 790.7 739.8 694 634.1 586.1 547 502.2 482.4 472.8 454 441 436.9 436.5 434.3 438.5 446 455.9 467 479.5 497.1 510 525.6 539.7 550.7 563.3 597.8 631.6 670.3 724.1 767 799 833 861.9 887.4 908.3 928.6 953.6 973.6 992.4 1008.9 1023.4 1036.7 1050.1 1063.7 1076.7 1068.4 1023.6 988.5 956.2 913.9 878.9 856 840.6 834.4 804.4 767.4 725.3 682.6 636.5 609.3 596.1 589.2 588.8 597.4 607.4 622.8 643.1 659.5 673.4 688.7 704.2 723 752.9 792.7 832.2 868.1
618.6 615.3 603.9 593.8 578.6 571.2 563.6 559.1 554 542.7 531.6 522 516.1 510 491.8 474.1 461.4 447.2 429.2 411.1 394 380.3 370.6 359 371.1 377.8 386.9 402.1 412.1 428.9 440.1 450.2 458.4 470 479.8 489.6 498.3 507.8 521.2 534 543.6 550.4 555.4 559 561.4 562.3 561.1 562.1 566.1 564.8 563.2 566.4 576.2 580.4 589.1 602.4 610.9 623.6 637.4 660.2 696.6 728 763 793.9 825 848.3 876.7 908.3 927.9 941.3 956.9 971.7 981.2 986.3 973.8 966.4 956.3 949.1 938.2 911.2 895.1 869.9 843.7 814.1 787.4 768.3 740.3 731.5 730.8 738.4 744.9 763.3 785.5 819.7 857.4 883.8 899.7 912.1 906.4 850.4 810.9 777.8 755.7 742.2 735.8 720 704 693.1 688.3 683.1 676.7 670.6 674.9 682.6 694.4 701.7 716.5 740.8 758.8 768.2 783 802.1 822.6 840.9 799.7 747.5 693.5 659 622.1 579.6 526.2 504.2 486.2 468.6 454.8 440 437.9 438.6 440.9 442.5 449.3 459.2 473.2 490.2 503.9 517.7 533.6 544.1 566.1 592.4 627.4 675.4 718.1 764.8 796.9 827.1 863.4 890.6 910.6 935.4 959 984.5 1004.6 1022.1 1037.5 1049.8 1062.1 1077.2 1086.2 1052.3 1018.6 982.8 950 915.1 878.3 851.2 834.6 821.2 782.8 750.4 711.4 671.1 633.1 605.6 589.2 584.9 587.6 594.2 601.7 619.6 639.2 658.4 673.1 686.5 701.3 716.5 746.1 786.8 824 857.7
638.3 629.6 621.1 604.7 598.2 586.7 579.8 573.6 562.9 549.6 540.4 530.2 520.5 511.1 496.8 480.3 465.1 448.8 428.9 411.2 397.6 384.9 369.4 369.9 377.8 384 395.1 410.2 423.8 437.5 446.2 455.6 465.8 477 485.1 494.9 503.9 514.3 527.7 539.1 548.1 554.4 559 563.4 565.4 566.6 564.3 566.3 570.1 568.1 566.8 571.2 580 590.4 595.8 608.5 618.9 630.4 648.2 674.3 712.6 743 778.3 810.9 838.9 861.1 902.6 936 957.7 970.6 984.2 991.2 995.1 981.3 970.8 954.3 943.1 936.1 929.1 920.9 923.7 907.2 877 868.6 835.8 812.3 778.4 756.8 753.8 757.7 782.3 790.7 818.3 847.3 874.6 899.1 918.4 927.4 905.3 853.3 814.7 778.8 751.7 735.1 723.8 718.3 712.7 699.9 689.8 682.6 678.8 683.1 696.6 705.7 717.2 733 763.3 781 794.4 812 831.5 847.2 864.7 864.3 810.1 744.5 701.3 667.5 636.7 609.9 572.7 531.2 517 483 466.1 452 441.1 443.1 444.7 447.2 445.7 452.9 466.3 485.3 500.1 514.1 525.1 538 563.7 591 623.6 662.7 706.4 748.7 776.5 809.1 855.3 894.9 917.1 940.6 963.6 984.2 1002.3 1017.4 1032 1044.2 1058 1073.6 1086.1 1065.1 1040.9 996.3 953.1 918.2 883.3 852.2 828.3 800.9 768.2 735.8 705.6 676.6 635.7 598.3 585.7 584.3 587.3 591.1 598.9 615.1 633.3 652.3 667.4 680.7 694.4 710.2 737.2 772.3 816.9 853.6
647.1 637.5 626.2 621.5 611.9 606.4 600.7 586.8 573.8 564.9 549.1 536.4 525.1 513 500.2 482.7 463.8 450.2 431.5 414.5 398.2 383.1 375.4 377.9 382.5 392.8 403.9 421.9 434.2 446.9 453.4 461.2 473.2 483.6 491.6 500.9 508.1 519 530.1 543.7 551.7 557.3 562.4 565.9 568.5 568.7 568.2 570.4 573.6 571.1 571.4 575.8 583.5 592.6 602.5 613.9 627.7 638.2 657.1 690.7 723.7 755.8 794.8 828.8 853.7 880.3 924.9 960.5 975.3 977 978.5 982.7 981.4 964.7 949.3 937.9 930 923 915.9 909.1 902.2 898.6 899.7 891 869.1 841.4 813.4 789.7 799.8 784.3 810 828.3 847.5 872.1 892.2 914.1 929.9 935.1 906.6 867.6 830.4 791.5 761.6 735.8 723.5 720.8 714.1 705.3 698.7 697 698.5 704.9 714.3 736.4 744.2 771.8 809 816.6 835.4 850.1 877.3 892.7 899.3 873.1 816 759.9 720.6 679.4 656.1 630.2 603.3 572.1 548.1 506.7 484.8 464.9 452.2 455 456.3 451.7 450.6 450.6 460.4 479.6 498.8 511.4 520.7 531.6 559.3 577.1 603.1 638 678.9 715.4 772.6 811.2 860.6 896.4 912.5 932.2 951.6 970.3 989.1 1003.1 1016.7 1029.1 1044.4 1058.9 1071.3 1079.7 1070.6 1044.8 999.6 942.9 875.3 835.3 801.3 776.3 752.6 739.2 706 675.5 637.3 595.6 584.3 584.1 586.7 587.3 595.3 611.2 628.8 646.3 663.1 672.1 685 700.9 724.4 762.7 804.2 840.9
653.1 641.3 640.5 631.3 620.6 621.6 608.5 594 583 571.6 553.2 542.3 527.2 516.7 500.3 484.4 471.9 449.8 434.3 414.6 401.1 386 377 382.1 388.2 398.9 411.3 426.8 441.4 455.3 464.8 471.9 478.4 487.9 495.7 503.6 510.9 521.7 532.5 546.2 554.6 558.7 564 567.7 569.8 568.5 570.2 572.8 577.9 577.6 579.1 579.3 588.6 596.7 609.4 620.9 630.6 645.4 666 701.1 738.6 775.1 819.7 844 864.1 900.2 939.4 974.4 973.4 968.4 956.2 953.5 950.7 940.6 929.5 918.6 915.4 912.2 907 899.3 891.1 879.5 875 874.8 868.3 854.2 838.9 816.3 811.3 806.1 825.5 852.9 867 885.1 902 917.4 924.9 927.5 919 895.1 854.9 814 778.4 747.8 735.3 732.2 724.7 724.8 726.1 727.4 731 740.8 760.8 773.7 807.7 827.1 840 851.8 870.5 895.7 914.1 929.3 895.8 859.1 816.1 783.1 751 726.2 701.9 677.6 645.3 608.6 577.1 547.3 513.4 483.6 476.9 489.8 485.3 465 457.7 454.5 457.8 473.3 493.6 505.6 518.5 529.5 548.3 572.9 596.6 630.1 679.9 718.3 781.8 827.4 866.8 893.6 905.7 922.5 937.5 954.7 971.5 985.8 998 1010.8 1025.8 1040 1053.2 1065.8 1076.3 1070.8 1029.8 946.2 872.5 835.7 798.9 769.1 748.4 736.9 707.1 675.1 631.5 591.7 582.6 583.5 584.7 586 592.7 608.5 623.6 641.1 656.3 671 679 695.5 714.2 749.3 793.9 828.6
657.1 651.1 642.5 632.7 630.2 628.9 617.7 602.1 583.7 569.7 559.2 548.1 532.1 519.6 499.8 482.1 469 454.7 433.1 416.8 401.6 389.2 379.7 386.3 395.4 404.7 417 434.6 448.2 462.3 472.7 480.8 488.4 494.8 501.8 509.1 513.9 524.8 535.4 547.9 556.1 560.4 565.9 569.6 570.2 570.4 572.4 574.9 583.2 588.5 587.4 595.4 597.4 603.4 615.3 627.6 637.7 655.5 678.4 713.7 759.2 807 837.3 855 874.4 907.6 943.7 966.2 959.2 951.4 942.8 939 924.1 908.4 902.8 901.7 899.8 897.1 894.1 887.9 878.5 867.9 859.1 853 848.3 843.9 835.8 822.5 814.3 821.7 846.1 862.2 878.1 891.5 903.1 914 921.5 918.6 908.9 896.7 872 832.9 794.5 767.1 761.2 766.9 762.2 767.1 763.3 764.4 792.5 798.3 801.9 825.8 865.4 867.4 881.1 899.8 914.6 932.6 944.5 932.9 888.1 849.2 827 798.3 777.2 761.3 757.5 746.4 705.1 659.7 627.1 587.3 561 557.7 541.5 534.2 521.3 493.7 482.3 466.8 462.1 477.3 489.3 499.1 513.2 520.2 535.9 559 587.3 623.9 674.7 722.3 789.3 828.9 860.2 885.8 895.4 908 921.1 937.2 953 966.7 979.9 992.6 1006.8 1020.1 1035 1048 1057.8 1034.9 999.8 965.2 880.2 830 796 769.3 746.9 732.2 702.7 655.8 613.2 585.9 580.4 581.4 581.7 584.5 592.2 607.3 623.7 639.7 652.7 668.2 675.7 686.2 703.4 732.4 781.4 816.7
669.9 661.5 653.7 645.2 643 631.8 615.8 604.4 589.4 570.9 557.6 548 536.4 522.3 503.3 487.2 471.9 453.4 436.9 418.9 403 393.2 386.5 391.6 400.2 413 431 443.7 459.2 470.8 481.9 486.4 494.6 499.3 506 512 518.2 528.4 538.7 549.8 557.1 562.2 567.8 570.7 571.3 576.2 583.8 583.1 590.2 595.2 594.9 605.4 610.3 611.6 622.4 636 646.6 668 691.5 726.6 783.8 825.5 849.6 864.6 885.3 914.4 945.2 950 937.2 931.3 922.7 919.3 907.4 890 878.5 880.1 880.5 878.5 876.9 871.4 864.7 855.2 844.7 834.2 826.3 820.5 815.9 816.6 815.9 832.1 850.5 866.8 882.7 889.9 897.6 906.9 910.2 908.6 900 892.6 880.3 861.7 832.2 803.7 798.6 806.9 810.5 812.9 820.4 840.7 837.2 834 853.7 887.4 900.2 908.9 925.4 950.3 961.8 960.2 953.5 933.1 883 852.1 829.1 814.2 805.3 810.3 824.7 806.3 765.9 727.6 691.3 642.5 626.2 614.2 583.1 568.4 541.7 513.2 500.7 483.8 473.8 479.6 486 495.7 506.9 511.4 525.3 550 576.5 638.9 676.2 726.7 771.2 809.5 843.8 872.3 882.8 891.3 903.1 919.9 936.5 950.3 962.7 975.6 988.9 1002.3 1016.3 1029.2 1037.9 1014.9 980.8 959.6 886.6 848.8 803 771.2 744.1 720.8 675.1 640 614.7 582 575.6 577.3 579.6 580.7 590.4 606.6 619.3 636 650.3 664.2 671.1 680.4 695.7 724.3 764.5 800.5
674.6 669.9 666.7 660.9 647.2 634.1 623.6 607.7 593.7 577.5 563.1 554.4 541.4 523.2 505.5 488.1 470.7 455.6 440.3 420.5 406.9 396.2 390.6 397.5 408.5 420.9 437.3 439.4 441 466.1 488.8 493.2 498.7 504.3 509.4 514.6 522.3 532.3 540.4 550.8 558.1 564.2 569.9 572.9 573.2 587.5 590.2 587.2 591.4 602.4 602.9 608.7 612.7 622.2 633.3 641.4 654.7 678.5 704.6 746.3 803.2 840.9 863.7 875.7 891.4 924.8 943.2 934.1 918.8 913 904.5 901.5 891.2 870.6 855.3 856.2 852.9 855.3 853.5 844.1 842.6 840.8 832.2 821.9 809.6 800.1 798.3 802.7 806.9 821.9 841.6 859 872.1 881.6 894.8 896.7 893.5 893 888.4 882 875.2 864.5 859.9 843.5 839.8 842.5 847.5 868.4 879.1 888.1 880.6 878.1 899.5 922.2 941.6 956.2 973.5 986.6 980.1 969.3 957.1 936.4 916.8 877.2 856 857.6 855.1 865.9 861.9 848.9 820.6 783.2 741.5 700.1 683.1 660.2 618.5 588.1 556.3 527.3 509.1 497.4 485 479.2 486.7 492.8 503.4 508.2 515.8 540.3 576 628.1 670.2 714.6 751.1 787.2 824.7 853.2 864.6 875.2 887.9 904.1 920.5 935.7 948.3 960.7 973.8 985.6 998.7 1009.9 1019.5 1007.7 972.4 946.8 883.8 869.3 824.9 783.5 753.1 720.5 694.3 627.2 595.6 572.8 569.7 572.9 575.2 576.3 587.1 603.4 617.4 632.6 645.8 658.5 667.7 675 689 721.3 762.7 799.6
695.6 690.4 681.7 670 659.2 644.2 626.5 613 599.8 584.4 572.6 560.5 542.8 525.1 511.5 488.1 472.3 453.8 435.5 420.4 407.8 400.9 397.3 408.2 419.2 433.7 442.7 458 474.3 480.5 495.1 498.2 503.8 506.8 511.1 518.4 525.1 535.1 543.2 551.3 559.6 565.1 570.6 573 578.7 587.6 591.8 593.1 595.1 605.5 607.7 614.3 621.7 635.3 643.2 655.9 666.8 690.3 712.9 765.1 817.4 856.6 874.9 882 897.7 924.8 927.1 918.3 908.3 897.8 887.5 880 871.3 859.3 847.1 840.3 836.8 836.8 831 823.2 824.5 826.8 818.4 807.9 794.2 785 780.7 788 797.7 810.3 828.5 844.6 859.1 871.8 881 881.6 879.3 876.1 872.7 868.7 861.2 853.7 861.9 863.1 869.9 878.4 890.7 915.6 930 936.2 919.9 947.8 956.3 967.2 983.8 991.4 998.6 993.2 981.9 967.7 949.8 933.3 920.1 908.2 899.9 886.7 872.6 862.5 857 853.4 844.7 823.2 799 765 728.6 697.7 646.3 605.6 572.8 547.6 522.8 507.7 495 483.8 485.3 491.5 499.1 503.7 508.3 531.8 567.7 618.9 655.2 690.2 728.7 779.2 805.7 828.4 844.5 858.1 869.9 886.7 903.9 919.8 933.4 946.4 960.3 971.7 982.3 992.6 1002.1 1004.9 967.5 934.3 886.7 854.6 821 793.3 757.4 708.6 667 615.6 582.6 566.8 564.3 567.2 569.8 574 585.5 599.8 613.1 628.3 641.2 657.5 664.6 670 683.6 722 762.4 789.9
719.3 717.3 705.5 690.9 668.8 651.5 629.9 616.4 604.8 591.2 579.6 562.5 543.7 524.7 510.3 491.6 471.7 453.8 436.7 421.7 408.9 401.8 408.8 416.7 429.2 442.1 450.9 466.5 482.3 484.5 492.4 503.7 507.4 512.4 512.7 519.7 527.5 535.8 545.6 551.7 559.1 566.2 571.3 573.4 584.3 594.3 599.3 599.4 597.8 610.3 614.5 620.6 631.6 646.1 651.5 675.6 679.3 700.4 728.9 784 830.3 862.8 882.3 889.2 901.8 916.7 908.6 900.2 892.1 882.7 867.7 863.3 853.8 841 832.5 824.8 818.6 808.7 802.2 805.8 805.4 795.9 791.6 775.6 768.5 767.2 771.5 775.3 787.5 797 810.5 824.2 837.5 852.9 863 865.2 861.7 859.1 856.7 855.2 847.8 842.9 846.6 856.9 873.7 893.9 916.3 936.5 955.7 967.1 963.6 980.7 990.2 986.1 990.1 994.7 993.2 988.6 974.4 959 941.1 925.7 912.7 898.5 889.4 876.7 863.3 853.3 845.2 839.6 836.4 838.8 822.3 789.6 754.8 716.4 671.2 630 597.6 570.7 536.8 518.9 506.2 495.8 488.5 488.8 495.3 500.2 503.3 525 559.7 607.6 638.9 671 717.9 760.6 785 806.7 825.4 839.4 852.4 868.8 885.5 901.9 917.5 932.1 945.3 957.6 968.3 977.6 984.7 986.1 931.4 895.2 844.9 820.5 788.6 769.3 741.8 697.7 657.2 606.3 578.5 564 561.7 565.5 565.2 571.1 582.2 595.2 607.8 624.4 637.4 653.4 660 665.5 674.3 713.3 749.4 779.5
737.5 731.6 720.6 706 678.1 650.1 631.7 619.1 607.9 596.8 582.1 562.7 544.1 526.2 511.6 490 472 456.4 436.9 421.2 413.6 408.4 414.2 423.2 435.6 450.8 461.9 475.7 489.1 497.7 504.2 506.7 512.8 516.3 514.9 519.6 528.4 538.4 546.7 553.3 559.6 567.8 573.2 574.8 583.3 596.9 600.5 598.6 602.5 617.7 624.6 629.3 639.2 655.5 662.7 686 684.9 711 746 788.2 840.7 871 885 898 896.3 900.7 892.5 885.6 878.5 867.4 853.4 844.4 839 828.1 819.8 811.3 800.6 790.4 787.5 788.8 787.1 775.5 760.8 751.9 749.5 748.8 752.7 759.4 765.1 777.5 790.5 803.7 814 824.5 838 841.8 839.8 838.6 838.2 837.2 832.7 829.8 834.7 852.2 871.6 890.1 907.9 926.5 943.4 958.8 969.6 979.5 984.9 983.6 987.8 985.2 980.7 972.6 959.3 946 928.2 915.2 900.9 886 878.8 866.9 852.7 839.7 834.1 824.2 820.8 821.3 818.3 804 777 731.1 689.5 651.9 621.9 591.2 549.1 528 514.1 506.3 495.6 489 492.3 500.3 505.3 523.3 557.8 601.7 636.3 656.5 696.5 740.6 765.3 785.5 805.4 820.3 832.4 849.6 868.3 885 901.5 917.6 932.3 944.3 954.7 962.2 966.9 955.2 901.7 849.8 802.6 771 741.2 726.4 722.7 661.6 615.4 585.3 563.8 556.9 557.6 560 562.2 567.4 579.1 591.6 602.5 617.4 630 645.3 652.8 659 670.7 697.8 743.5 773
744.6 737.9 726.9 713 691.5 658.8 637.2 618.6 606.2 595.2 581.2 562.4 544.6 529 511.9 490.9 475.4 454.1 438 423.2 413.6 413.9 420.1 430.7 448.4 464.8 474 487.7 495.2 504.1 509 513.6 514.2 516 518.8 521.4 528.7 537.1 546.2 553.8 558.9 570.4 575.4 578.4 582.8 599 601.3 604.9 610.3 628.8 631.7 634.8 649.7 664 673.7 683.5 698.3 719.6 760.4 805.8 847.4 877.6 894 902.6 888.2 883.5 878.6 872.7 862.6 849.2 832 826.1 822.6 814.7 805 791.7 782.3 773.9 769.6 765.7 757.9 745 737.8 730.5 728.1 728.3 733.6 737.6 745.3 753.2 760.7 772.6 784.7 794.9 801.4 807.6 810.6 813.6 812 809.3 819.9 820.3 830 845.7 862.3 879.7 895.5 912.8 927.7 942.2 953.7 963.7 970.1 971.6 974.1 972.9 966.1 958.2 946.3 931.6 914.3 899.8 892 877 867.4 856.4 839.5 825.1 816.8 810 796.8 794.5 794 793.7 781.5 755.8 717 680.1 655 620.1 591.4 555.1 522.5 508.3 497.1 493.2 490.2 498.3 506.7 524.6 554.4 591.6 620.8 645.6 683.4 721.6 744.7 766.8 787.7 802.4 815 829 850 869.2 886.9 902.7 919 932 941 946.6 949.4 913.8 855.3 819.7 776.2 732 708.9 682.5 657.9 621.3 595.2 569.4 555 547.9 552.7 555.9 558.5 566.7 577.3 587.1 597.9 612.1 625.3 636.7 646.2 652.6 659.9 685.6 735.1 762.6
744.8 739.6 729.3 713.4 697.7 669.1 644.8 624.5 602.6 591.2 575 557.8 542.6 528.5 511.1 489.1 470.7 453.3 438.2 425.6 418 418.8 425.7 441.2 460.3 477.9 488 495.6 499.5 510.1 514.5 516.6 517.7 518.1 521.2 523.4 529 537 544.6 551.7 558.6 567.8 571.8 578.4 587.7 605.1 605.4 609.3 616.8 633.9 641.6 643.6 659.5 671.2 676.6 693.2 708.5 734.2 783.8 816.6 855.4 884.6 904.1 897 884 876.7 868.2 857.6 845.6 831.9 815 805.6 797.6 785.5 774.8 765.5 764.2 755.9 748.5 744.1 735.8 725.4 710.4 704.9 704.7 711.1 714.5 719.9 726.2 731.6 736.8 741.7 754.8 766.5 776.9 784.3 789.1 794.1 797.1 795.5 793.9 804.1 820.2 836 851.9 866.7 882.2 897.5 911 923.6 933.2 943.6 952 955.6 957.9 957.8 953.1 944.2 931.1 916.6 902 890.6 881.4 863.4 855.4 846.6 828.3 810.2 798.7 787.7 768 765 764.6 766.8 766.3 755.8 738.9 718.5 690.6 647.5 623.7 591.9 540.9 519 505.5 500.9 497.3 497 512.2 543.7 562.9 590.7 607.4 634.7 664.8 695.5 726.3 751.3 767.9 783.6 796 812 831.7 852.9 871.4 887.7 903.7 917.3 925.4 929.6 925 884.7 819.4 785.7 760 706.5 677.2 654.5 622.3 592.2 577 555.7 550.4 543.9 546.2 546.8 553.4 561.7 572.7 583.6 591.3 608.6 614.5 630.3 641.1 646.1 647.6 675.3 726.8 752.7
747.1 739.7 727.1 712.4 697.5 673.4 646.5 622.8 598.3 583.1 569.1 552.6 538.5 524.1 504.1 486.7 468.2 451.5 438.3 427 421.9 423.6 430.9 447.6 466.4 495.9 497.3 500.4 510.6 515.9 519.2 520.4 519.7 519 520.7 522.9 529.5 537.5 543.5 552.1 558.5 564.7 571 582.1 598.3 611.1 608.5 611.7 621.9 636 645 654.2 669.3 670 678.8 698.3 719.4 758.8 803 834.3 870.3 891.7 898.6 886.7 875.3 866.7 855.5 842 825.2 813.9 794.7 781.8 767.9 755.5 744.8 746.5 745 729.2 718.8 716 705.2 698.8 684.7 682.4 685 690.7 695 700.3 707.1 716 719.1 724.3 731.6 746.6 759 765.7 773.1 779.3 781.9 783.1 784.4 788.6 797.9 817.7 835.7 850.4 863.2 878.6 891.8 903.5 912.6 921.8 930.6 937.9 941.3 941.1 938 929.6 914.2 903.1 890.5 879.1 866.5 848.9 836 822.6 817.5 795.9 778.8 774.4 749.8 733.1 728.5 733.7 734.7 739.4 731.8 725.5 699.8 668.2 639.4 606.9 572.7 534.8 526.5 520 509.2 500 519.8 546 563.6 589.5 605 626.3 656.9 682 710.6 731.5 747.5 763.7 778.5 796.1 815.1 835.2 855.3 872.8 886.6 899.2 908.2 904.3 900.3 842.2 800.1 754.6 722 672.9 643.7 625 603.4 581.5 563.5 549.6 541.5 540.7 536.8 540 549.5 558.1 567.8 579.3 585.7 597.5 611.8 618.9 629.1 630.2 636.8 662.9 711 733
742.5 734.3 722.6 709.1 680.8 661.4 633.7 609.5 589.5 572.4 557.1 544.3 534 521.2 500.8 483.1 467 453.4 441.4 429.9 426.2 428.8 436.2 452.7 479.5 499.8 500.5 508 514.6 517.5 521.6 520.5 519.6 519.2 521.3 522.5 530.5 540.7 547.9 553 561.8 567.9 574.5 591.9 604.5 608.8 612.5 620.2 630.3 639.8 652.1 660.5 671.9 672.4 684 703.6 728.9 772.2 825.6 847.3 876.7 894.3 892.9 879.6 860 847.3 824.7 803.8 793.2 781.9 769.3 747 739 730.2 718.3 714.3 712.6 702.7 691.1 676.8 670.6 666.2 660.7 656.2 660.5 667.2 674.7 680.7 687.8 692.4 697.4 700.6 713 725 737.5 748.8 757.7 764.9 768.4 770.7 772.3 776.8 787.4 799.1 818.9 830.5 842.2 850.1 863.8 879.8 889.4 901.9 910.6 918.1 923 924.6 922 914.1 901.7 890.5 878.8 868.9 856.6 842.7 825.4 812.4 799.5 783.8 764.8 761 740.2 722.8 697.6 694 698.9 716.6 713.5 710.9 707.2 684.8 657.3 632.1 604.2 564.7 546.2 535.3 523.2 514.8 516.1 538.7 562.4 589.7 608.3 629.2 649.8 669.3 693.8 713.1 727.3 741.2 760 780.1 800.1 820 840.7 857.2 871.1 881.9 888.6 870.2 860.3 808 777.5 721.3 688 645.7 618.3 603.7 584.8 567.9 555 544.3 534.1 533.2 530.1 536.1 542.5 552.3 561.8 575.1 584 589.2 606 615.4 622.1 623.7 632.7 648.5 685.4 718.2
729.6 723.5 707.3 679.2 654.2 631.6 609.8 591.6 572.2 558.2 548.3 536.9 526.3 513.1 496.3 482.1 467.1 451.7 440.2 430 428.2 432.5 442.2 459.6 488.3 500.4 512.8 516 517.3 520.7 521 519.8 519.5 519.4 520.2 522.6 530.2 538.9 547.3 555 565.6 572.1 579.9 593.7 606.4 611.5 618.8 624.4 631 644.7 653.5 664.8 668.7 677.1 689 708.2 738.3 785.7 837.1 854.4 880.9 890.6 879.3 855.8 833.2 809.4 785.8 767.7 753.1 738.8 724.5 711.5 703.2 702.1 684.9 675.9 671.9 674 669.6 651.7 639.5 635.1 631.5 633.5 638.1 642 649.5 660.5 670.9 675.5 673.8 677.2 688.3 702.4 711 722.8 736.3 744.8 751.9 757.7 760.5 764.2 771.2 785.3 796.1 813.8 823.2 830 839.2 848.4 859.5 880.1 892 899.7 905 908 906.3 900.7 891.6 879.3 867.5 856.8 847 830.7 818.8 804 786.9 769.9 755.2 747.5 728.6 704.9 678.7 670.6 678.1 677.4 684.7 689.2 692.4 689.7 673.5 648.8 621.7 585.5 557.9 544.6 531.4 524 523.3 535 563.6 582.4 597.9 623.2 638.4 656.8 674.5 690.5 707.2 719.8 744.2 766.2 786.7 805.8 822.6 839.3 852.7 861.4 869.5 867.1 814.2 785.9 764 710.6 660.7 626.9 600 585.3 573.1 562.7 549.7 539.4 528.7 524.3 524.6 529.3 536.5 548.8 557.9 569.8 577.2 585.7 602.7 610.1 612.8 619.7 627.5 639.9 665.3 701.8
708.4 698.6 679.7 658.3 634.7 609.2 588.4 572.7 559.4 548 537.1 526.6 517.1 506.2 494.8 481.1 467 451.2 440.3 433.6 430 437.6 451.7 469.1 485.3 502.8 514.4 517.4 522.6 524.8 523 520.8 520.4 521.4 520.9 522.1 527.3 534.4 545.7 555.6 562.5 572.5 585.3 599.8 613.8 618.5 619 626.7 633.8 644.9 650.2 662 671.8 678.4 693.2 711.3 743.4 780.3 826.5 851.3 871.7 878.9 853.9 825.7 798.2 776.7 757.4 736 723.9 714.7 704.8 693.3 681.4 671.4 662.1 652.7 644.9 642.9 642.3 628.9 612.5 611.2 604.5 602.2 609.4 614.4 620 631.1 648.9 657.5 655.2 658.1 666.9 675.3 691.9 699.3 712.5 721.4 732.2 740.9 749 753.6 757.9 766.6 780.3 794.1 807.1 813.2 820.2 825.8 837.1 850.1 870.9 881.8 887.7 892.1 890.9 887.6 879.6 868.2 857.8 846.6 835.6 816.5 803 791.2 777.9 761.9 756 740.1 728.9 694.4 656.3 647.7 647.9 643.5 658.7 664.1 678.8 681.8 675.9 647.3 622.4 592.2 566 551.5 542.1 535.1 530.1 539 556.9 574.6 592.1 611.2 627.9 645.4 657.4 674.6 688 704.4 724.4 751.3 772.5 791.3 806.5 822.8 834.5 842.9 851.3 850.4 803.6 760.9 739.7 699.9 641.2 608.2 586.7 569.5 560.7 557.2 542.9 534.1 528.8 521.4 521.3 521 530.6 543.4 552.3 564.1 573.6 582.8 596.5 604.5 611.5 622.8 630.5 641.9 664.9 687.4
684.1 674.6 658.4 634.6 609.5 589.2 574.7 560.5 548.4 538.3 527.3 516.9 508.9 501.2 492.1 481.4 466.2 454 444.2 432.9 436.4 444.4 459.7 472.6 491.8 507.1 516 518.8 523.5 524.6 523.8 523.3 523.8 525.5 528.3 529.1 530 534.9 544.9 556 563.6 572.7 584.2 598.9 609.5 616 621.7 629.1 635.5 642 643.2 654.3 668.5 677.9 693.9 712.3 739.4 777.3 819.8 843 858 866.7 840.1 807.6 785.9 762.2 739.7 723.1 714.1 704.7 693.1 682 669.9 657.9 646 629.9 621.6 614.1 605.9 599.4 588.8 579.1 576.1 572.1 582.6 587.5 594.4 602 612.6 625 640 644.2 653.9 657.6 665.2 675 686.3 699 712 723.2 733.7 740.5 745.6 754.6 765.1 779.1 790.4 796 799.9 807 815 826.4 847.7 862.5 870.4 874.9 876.3 872.5 866.4 857.9 848.8 838.8 827.4 808.7 790.8 780.6 765.6 750.9 746.4 736.9 715.7 682.4 645.3 633.1 623.5 628.9 635.3 636.3 654.1 665.4 671.9 660.6 628.6 607.1 577.7 557.8 557.3 548.8 539.6 546.3 554.6 568 586.1 599.1 615.2 631.3 647.1 659.8 675.9 690.4 704 731.1 755.2 774.7 792.2 808 818.9 829.3 835.5 831 777.6 725.9 710.7 688.8 640.4 591.7 571.3 553.4 552.5 548.8 538.3 532.9 525.9 517.5 515.7 516.3 525.9 539 548 558.3 568.8 579.9 595.3 606.1 615.9 624.6 632 647.1 663.6 684
662 651.1 634 612.1 592.4 576.4 562.7 550.4 538.9 530.1 519.2 509 499.2 491.7 483.1 473.3 462.1 453.1 440.8 436.6 442.4 449.5 467.7 482 498.5 505.6 510.4 519.7 528.4 527.7 528.8 530.8 530.5 530 533.3 534.7 532.5 538.3 548.5 559.1 564.7 571.3 584.3 596.9 602.9 609.4 619 625.7 631.9 637.9 637.5 649.2 663.4 672.1 687.5 708.5 735.8 768.5 801.5 829.2 845.9 851.7 829.1 796.7 769.5 747.6 731 716.5 706.4 695.6 684.7 673.5 660.7 645.4 631.5 614.9 602.1 591.2 585.4 576.1 563.1 555.6 550.2 549.2 548.6 552.8 560.7 570.1 575.3 589.7 605 614.4 636.4 646.8 646.8 652.1 663.6 677.6 688.4 696.4 708.6 719.4 727.3 736.6 746.6 760.7 770.3 777 781.7 785.1 793.7 806 822.3 840.6 850.4 855.4 858.5 857.2 853 846.3 839.8 831.8 820.4 808.4 787.2 772 756.1 745.5 741.5 729.9 685.6 656 627.6 615.6 602.8 609.4 614 619.6 625.4 632.4 639.2 659 635.4 622.2 594.1 568.4 557.5 552.9 553 551.9 551.9 563.7 579.3 592.3 607.2 623 636.3 646 662.3 675.9 692.2 709.1 735.1 756.4 775.9 794.2 805.9 816.1 821.3 790.2 738 700.3 673.2 660.9 616.4 573.3 560.7 549.7 540.3 541.7 535.9 531.3 524.6 513.7 509.4 510.6 519.8 531.9 541.9 554.8 568.5 581.6 594.8 607.7 618.9 626.3 634.6 648.1 663.5 683.1
642.2 627.2 612 596.4 580.5 567.5 554.6 541.2 529.2 518.7 509.5 501.8 490.2 483.4 473.2 464.4 453.7 443.6 439 438.9 447 456.9 477.4 491.1 501.1 503.9 514.3 532 538.5 536.5 538.7 538.1 536.3 536.3 535 534 536.1 541.1 549.5 559.6 565 572 583.8 590.4 598.2 611.7 621.8 627 627.8 634 634 643.4 656.3 670 684.6 704.7 726.2 752.7 780.7 806.8 824.1 837.8 821 786.1 754 734.4 721.8 705 696.1 687.6 676.6 666 651.1 635.4 616.7 601.3 583 569.2 559.2 551.9 543.4 529.7 522.5 520.9 522 524.9 531.8 540.5 552 559.4 572.5 581.1 598.8 611.3 618.3 625.4 642.9 653.2 663.4 672.4 680.4 694 698.1 714.3 726.3 737.9 749.2 754.6 759.7 763.5 772.2 784.2 796.6 814.5 827.9 834.4 837.4 838.3 838 834.7 830.2 824.7 815 803.8 791.8 777.8 761 743.9 737.3 705.6 673.6 636.1 613.5 597.1 591.1 593.3 598.7 603.3 604.6 603.3 609.7 622.7 624.5 619.7 601.8 573.2 559.3 551.3 552.6 550.7 549.3 558.7 567.6 584.9 598.4 613.3 623.3 636 648.9 666.3 682.6 693.9 719.2 743.6 761 785.2 798.4 807.8 814.8 777.8 736.6 693.9 661 628.3 600 572.1 559.9 549.6 538.7 532.8 530.8 532.7 524.5 513.1 507 509.4 514.7 527.6 540.7 558.3 572 582.9 596 608.7 620.3 628.4 637.3 651 664.7 680.3
623.9 611.6 599.4 586.6 574.5 559 547.8 532.7 519.4 508.2 497.7 489.3 480.3 472.5 463 452.4 444.8 440 439.7 441.7 451.2 466.2 484.8 501.1 502.9 508.5 521.2 541.4 548.1 547.8 545.6 543.6 539.8 541.7 536.8 536.4 535.9 538.7 549.5 557.6 567.5 572.2 582.9 591.7 598.4 608.7 625.2 632.2 629.7 628.5 630.2 635.8 650.5 667.8 680.6 698.2 716.9 738.5 759.1 785.9 803.9 814.5 809.4 778 748.3 725.7 709.7 699.2 688.9 680.8 670.9 658.9 642.8 620.4 604 588.3 569.4 549.8 533.9 522.5 514.3 504.2 493.6 493.2 494.3 498.8 501.7 511.4 528 537.2 544.8 547.5 561.4 572.1 588.1 600.7 611.1 626.2 636.2 650 655.5 661.6 669.6 682.5 702.5 712.7 724.7 732.2 738.1 741.4 747.1 759 767.6 787.1 801.3 811.8 815.4 817.9 820.3 821.4 818.8 815.5 809.6 800.4 791.3 780.1 769.2 746.8 735.6 700.1 669.1 637 602.6 585.4 580.3 581 585.3 588.1 589.2 589.1 592 595.8 594.5 591.2 593.4 575.6 554.4 546.3 545.7 547.1 546.7 551.4 560 574.2 589.8 600.2 614.4 628.4 642.4 658.8 673.8 685.2 712 737.5 755.5 780.7 796.4 806.2 815 794.7 749.2 715.2 670 626.8 594.9 572.9 557.1 544.9 535.8 534 532.8 530 523.5 512.6 503.1 506.1 511.4 525.7 542.6 559 571.8 582.2 596.7 609.8 621.7 631.3 641.3 654.6 665.5 678.4
614 601.8 590.1 580.7 568.8 552.9 540.5 524.8 511.6 497.2 486.5 474.9 468.1 458.9 450.8 445.7 441.3 439.6 440.8 447 461.6 475.4 490.9 507.2 514.5 519.2 530.4 542 551.8 553.7 554 552.9 544.6 544.6 539.8 537.9 537 536.6 545.3 558.3 567.4 574 585.9 595.8 601.1 610.2 620.1 627.6 625.9 624.1 625.6 635.8 647 661.6 673.7 689.5 706.7 724.3 743.7 764 782.9 795.5 798.6 773.2 742 720.4 700.9 689.6 682.5 675.8 662.6 646.2 624.9 598.8 579.4 563.1 547.3 527.4 511.7 498.1 489 479.7 470.9 465.1 465.7 468 471.7 479.7 491.7 501.9 502 511.8 525.1 542.8 557.5 576.7 579.7 596.9 614.9 624.1 631.9 642.7 642.4 654.1 666.9 686 697.8 708.6 715.6 719 720.3 732.4 746.1 758.8 772.2 784.1 791.8 796.6 801.6 805.2 806.7 806.2 804.3 799 791 781.2 770.3 750.2 726.9 701.9 675.3 644.4 606.6 572.7 567.7 569 571.6 573.6 576 573.3 576.9 576.9 571.6 564.8 564.7 561.8 544.7 542.2 536.3 534.5 538.3 543.6 553.9 562.9 581.3 591 607.4 625.2 638.5 651.1 669.1 682.6 711.9 735.6 755 776.8 798.1 811.7 819.5 810.2 762.7 731.9 692.3 641.1 594.9 573.7 559.5 546.2 534.6 527.3 527.7 526.1 525.9 515.5 503.6 503.4 511.1 523.9 539.4 554.6 567.9 580.5 594 609.9 621.6 633.6 645.5 655.7 666.4 677
607.5 593.6 580.7 569.8 558.4 543.8 527.6 515.6 503.8 490.1 474.2 463.9 454.1 447.6 441.9 439.4 439.6 441.2 444.9 456.5 469.1 482.7 498 519.4 527.4 533.3 546.2 557.2 559.3 559.3 559.2 555.1 548 546.4 541.7 538.9 538.4 539 548.1 557.3 565.4 574.8 588.1 602 604.1 610.3 618.4 622.9 620.5 620.3 624.7 635.5 642.9 653 666.9 680.1 697.7 712.3 728.1 745.1 761.5 783.5 797 774.4 743.3 712.5 691.1 682.1 673.3 662.5 646.8 628.3 602.7 579 556.3 540.8 523.8 506.8 487.5 475.4 467 455.9 447.8 442.4 438.2 440.5 444.8 449.9 456.6 463.8 466.6 478.8 497.9 514.6 528.8 552.4 560 568.9 587.8 601.7 612.5 619.6 621.7 627.4 641.8 652.4 663 683.5 693.7 694.7 698.6 704.1 718.9 727.8 741.5 752.3 763.1 774 781.4 787.1 791.3 793 793.9 792.3 786.8 780.3 768.4 753.4 724.7 692.3 669.7 647.2 603.1 564.6 555.1 555.1 557.6 554.7 560.4 559.3 559.9 557.5 550 542.2 538.6 536.4 530.8 530.9 527.2 526.1 526.7 535.2 544.1 557.1 572.5 585.6 607.1 623.1 635.6 649.5 667.9 681.8 715 735 759.2 781.7 806.7 826.7 832.6 816.9 772.5 741.3 702.2 661.8 606.9 572 559.9 548.9 535.7 527.5 526 523.7 526.5 517.1 503.3 502.7 509.2 524.1 538.4 546.6 562.4 576.6 593.8 607.6 621.3 634.4 646.6 657.1 667.9 677.8
600.9 586.2 574.6 561.2 546.7 533.1 520 505.1 489.9 475.9 463.2 451.3 443.5 435.9 434.8 435.9 438.6 444.4 452.2 468 482 492.6 509.9 529.7 539.1 550 561.7 567.3 571.9 569.1 562.7 558.4 552 548.4 542.6 541.9 540.3 542 548 557.5 561.9 575.4 588 600.1 605.3 610.9 616.2 618.8 618.9 618.6 623.1 633.4 637.3 647.1 660.6 671.7 688.2 704.1 714.8 730.1 742.7 765.8 788.2 770.9 737.6 704.4 685.9 673.6 663.8 653.1 632.2 608.2 580.5 555 537 526.5 512.3 497.7 483.3 465.2 450.6 444.3 434.5 428.6 420.4 419.6 420.2 423.3 429.6 438.1 439.4 448.5 468.1 485.2 500 518.3 535.3 547.1 564.1 574.7 590.1 599.4 600.7 603.3 615.9 621.6 630.4 646.8 666.5 665 674.9 683.7 691.1 702.5 713.7 720.4 732.7 745.5 758 767 772.2 776.6 778.7 779.3 777.7 773.1 765.9 753 730.3 691.3 664.2 643.9 599 560.9 543 540.1 538.4 540.1 543 544.6 539.7 535 527.4 518.6 518.6 516.4 515.9 509.2 510.3 513 518.6 526.9 538.5 553.8 568.7 585.1 605.8 623 636.5 652.7 667.3 684.4 713.2 746.1 776.8 797.5 822.6 839 823.3 791.6 757.5 733.4 698.6 651.6 595.9 571.9 558.3 549.7 537.2 527.8 525.4 521.6 517.8 511.8 501.9 498.4 506.7 516.9 529.1 539.1 557 571.5 587.2 603.6 618.4 633 645.1 655.7 666.8 680
594.5 584.1 571.5 556.3 537.7 520.2 502.1 491.7 478.9 464.8 450.9 439.4 433.1 430.4 432.5 435 440.1 447.2 462.9 478.5 491.8 507.6 523.7 544.3 559.8 573.2 576.7 580.2 584.7 579.7 571.7 563.3 558.6 551.1 549.8 548.7 546.2 544.6 547.2 556.7 562.3 573.6 584.4 598.4 605.2 608.9 613 616.4 616.3 616 618.5 623.5 629 641.7 652.6 665.9 680.7 694.9 705.2 717.3 731.1 751 765.9 764.9 730 699.2 673.9 664 658.8 644.2 622.5 587.1 559.2 540.4 526.4 514.1 501.2 488.4 473.9 459.9 446.1 434.6 425.5 417.8 411.3 406.3 401.8 405.1 409.3 414.2 419 426.1 442 455.6 467.8 484.5 501.3 516.3 535.4 550.2 563.3 572.3 577.5 582.5 586.6 593.5 606 613.2 624.5 631.4 639.5 652.8 666 670.3 679.1 686.3 702.8 715.5 730.6 742.2 751.6 757.7 761.8 764.4 765 762.9 758.4 747 725.8 683 654.9 634.8 598 559.2 536.1 528 529.5 529.6 524 529.3 519.6 515.6 510.8 501.2 498.2 497 498.7 496.2 496.2 503.7 514.3 526.1 540.4 552.3 569.5 584.9 608.3 624.4 638.7 651.9 672.3 690.1 725.4 760.9 790 818.6 838.7 819.5 790.7 759 740.7 720.2 688.9 637.4 597.9 572.9 560.9 551.2 538.1 529.8 525.2 523.7 521 505.7 503 495.7 502.9 510.9 523.2 535 552 567.8 582.8 598.5 614.7 629.1 640.9 654 667.4 680.7
589.6 579.1 564 546.7 531.7 514.3 495.2 475.8 466.2 453.3 441.4 432.3 427 423.6 426.4 434.5 440.5 455.2 468.3 487.3 506.5 526.2 546.8 571.2 586.3 596.9 594.3 594.4 593.9 589.8 577.6 568 560.6 557 552.4 550.5 547.3 545 550.5 558.8 563 575 583.4 592.3 599.7 604.3 609.9 612.6 611.9 613.2 614.4 621.7 624.2 637.9 647.7 659.8 675.8 687.2 698 709.6 722.1 737.2 752.2 749.9 716.1 692.5 671.3 657.2 646.2 627.9 604.1 573.4 549.7 535.2 518.4 504.6 490.9 478.2 466.1 452.2 438.9 430.1 421.6 412.3 403.8 399.2 391.9 393.7 396.7 400.4 407.7 410.4 414.1 422.7 434.3 447.1 464.3 482.1 499.9 521.7 534.2 545.7 555 559.8 573.4 577.3 585.1 594.8 594.8 597.9 606.9 619.5 633.3 643.9 647.5 653.4 667.9 682.8 700.6 714.4 726.9 738.7 746.2 749.7 750.5 750.5 746.9 737 711.6 677.2 650.5 631.2 591.6 556.9 533.7 517.2 512.1 509.9 507.5 509.9 502.8 499.3 495.7 482.5 481.6 479.4 481.2 481.3 485.6 497.9 514.1 527.3 542.2 554.4 570.3 586.7 606.8 623.3 638.4 655.3 676.3 696.8 732.2 774 804.4 828.9 831.3 793.3 760.6 739.2 727.9 718 693.6 648.5 606.6 580.3 564.9 553.9 541 529.3 523.8 521.3 516.8 510.2 497.8 500.4 498.4 502.9 516.4 530.8 546.3 563.4 576.7 594 612.3 625.2 638.5 652.5 667.1 682.6
582.5 569.2 552.6 537.9 523.4 501.8 484.4 470.6 453.7 444.4 434.3 427.2 419.8 417 423.3 433.3 442.9 460.5 479.8 501 521.1 550.1 574.8 594.1 610.4 613.8 615.2 608.8 602.3 595.3 586.1 573 565.5 559.3 555.5 550.9 547.1 547 554.8 558 564.4 570.2 577.1 585.2 592 598.6 603.7 606.7 606.6 611.5 612.8 615.8 623.1 635.1 646.5 655.5 670.1 682.9 692.2 701.7 712.8 724.8 737.3 738.3 707.7 686.7 666.3 655.9 643.2 626.8 596.8 568.6 546.3 528.1 514.8 500.8 485.9 471.4 460.1 448 436.6 426.2 415.6 407.4 399.6 392 386.5 385 385.7 390.7 395.6 397.8 397.4 400.2 407.1 420.2 434.9 446.6 462.7 485.2 505.7 520.9 530 534.7 542.6 557.4 564.8 569.1 574.9 573.4 577.5 588.7 602 615.1 620.5 626.9 637.9 652 669.8 687.3 702.5 717.2 728.4 732.6 734.5 735.7 733 724.8 701 668.9 649.2 618 585 553.2 526.6 511 504.4 499.2 495.5 495 485.1 483.6 477.4 469.2 465.9 465.4 467.2 472.6 484 495.3 513.5 531.6 546.6 561.6 579.1 594.4 610.6 624.4 640.6 657.1 678.5 702.2 740.2 780.4 811.7 833.6 805.1 776.5 750.9 736.1 731.7 722.1 699.6 653 613.8 587.5 570.5 558.3 543.8 530.1 521.6 520 510.6 507.6 493.8 491.7 494.2 502.9 509.5 524.2 542.7 560.5 573 591.8 609.7 623.3 636.1 652.5 667.8 685.4
572.7 560.9 545.3 529.9 511.6 491 473.4 459 447.6 436.4 426.6 419.9 415.2 413.7 419.7 427.4 442.1 464 489 510.5 543.2 566.3 588.6 609.1 623.9 626.7 628.1 619.7 609.7 599.8 589.9 578.3 569.7 558.5 555.7 556.8 548 551 553.3 553.6 559.6 562.6 567.8 577.3 584.3 587.7 591.4 593.7 599.4 606.1 606.6 614.6 621.9 635 641.6 651.5 663.7 675.7 686.8 696.4 705.3 716.4 727.2 731 708 685.4 668.1 652.4 638.3 622.8 597.7 568.7 545.5 527 514.2 504 490.3 475.4 461.4 449.2 437.8 427.6 417.7 407.2 399.9 390.3 380.6 375.2 377.6 380 384.1 385.5 386.4 386.3 392.7 397.2 405.9 417.5 434 450.8 467.5 490.4 499.6 512 521.9 525.4 537 541.1 544.5 551.7 559.8 564.8 576.1 585 597.4 606.8 615.4 628.4 642.1 658.3 675.7 694 708.3 715.5 719.3 720.5 719.5 714.7 686.8 656.4 631.6 596.6 563.4 543.4 523.9 511.2 496 490.3 483.6 479.6 474.4 468.4 464.4 456.5 453.5 454.5 457 469.9 485.3 497.7 516.5 535.6 552.8 571.1 585.8 602.4 618.8 630.8 646.2 666.4 688.4 714.2 754 787.5 814.5 841.6 803 773.9 751 736.6 733.9 730.8 712 666.8 627.1 596.2 575.1 562.5 546.4 532.8 522.6 516.6 506 501.6 489.7 489.2 489.7 495.1 509.2 522.3 538.4 555.5 567.1 586.8 607 621.3 633.7 652.1 668.1 690
563.7 549.4 537.6 522.6 498.2 482.3 467.6 450.5 438.8 430.3 419.2 409.9 407 404.3 413.8 426 442.1 467.8 498.1 521 542.9 562.2 584.5 606.2 624.5 640 644.3 630 615 606.9 597.9 587 576.8 567.7 558.5 553.4 550.4 551 550.7 550.3 554.6 560.2 561.9 568.8 575.5 579.5 581.7 582.7 590.5 597.6 602.3 610.5 617.2 628.7 639.1 645.5 654.5 665.8 679.5 688.7 697.4 707.4 717.5 722.1 711.5 688.1 666.4 651.4 636.6 621 602.8 574.9 550.3 528 515.6 507.2 496.4 482 468.9 455.8 442.2 431.3 419 408.6 399.7 389.8 379.7 368.7 368.5 368.7 372.5 375.2 376.3 380.3 383.3 385.1 386.3 396.2 408.5 419.6 435.2 453.1 463.6 479.2 499.5 510.3 517.8 521.6 523.1 525.9 535.8 549 556.7 563.5 572.9 584.6 595.5 604.5 617.6 632.3 649.1 668.8 687.7 698.2 703.5 706.7 706.2 701.3 683.8 649.2 621.2 581.3 553.4 533.3 523.4 506.8 492.1 482.7 475.4 468 463.7 455.1 451.6 447.9 444.5 442.8 454.1 467.6 482.9 502.5 525 543.5 564.6 579.5 597.6 610.4 624.7 640.4 657.6 674.7 698.7 727.6 763.9 793.5 819.8 845.8 820.4 787.3 759.6 743.4 741 741.7 734 689.3 646 607.1 583.6 567.7 553.1 532.5 521.1 516.7 505.3 495.1 489.8 484.4 487.7 493.7 505.6 518.9 536.1 552.4 565.7 582.7 603.7 618.9 632.3 650.8 668.8 693.5
555.1 540.9 527.4 511.1 489.9 471.6 456.1 444.2 431.8 421.1 410.5 402 398 400.8 415.2 429.3 448.9 475.3 499 522.1 537.6 555 576.6 599.8 619.2 637.8 649.3 640.2 627.6 615.7 606.4 593.5 583.8 575.3 567 562.3 552.1 552.2 550.7 548.6 549.5 552.5 555 559.5 565.1 570.8 573.8 574.3 580.3 585.3 595.4 603.1 613.3 619.4 630.8 641.9 647.6 657.4 671.9 682.1 689.7 698.8 709.8 715.9 712.8 687 667.2 650.9 635.9 622.3 606.1 585.3 558.8 534.9 519.2 513.4 506.6 493.3 479.2 466 452.9 437.5 424.5 410.3 399.8 389.2 380.7 372.3 361.9 360.1 359 363.6 366.8 370.2 375.3 376.4 375.8 381.4 389.5 397.9 413.4 430.3 440.5 456 469.3 482.9 496.3 506.9 512 511.3 514.9 526.5 536.2 544.8 549.8 560.4 573.4 582.8 592.8 606.9 624.6 642.8 663.5 679 686.1 688.6 690.1 683.8 666.7 640.5 618.3 585.3 558.8 539.4 519.2 504.1 488.3 480.2 468.2 458.9 451.6 445.4 441.1 438.2 436.6 440.7 451.8 463.9 480.8 504.1 533.3 554 572.8 588.8 603.8 620.3 632.7 647.5 661.5 677.4 703 730.6 768.8 797 823.2 846.6 860.7 819.3 785.9 771.9 765.8 762.9 745.1 704.7 662.8 619.5 591.9 572.7 554.6 532.2 518.2 508.3 503.7 489.7 484 482.7 487 489.8 500.7 515.9 533 549.4 562.1 580.1 601.8 618 632.1 649.8 666.7 697.3
