ncols 200
nrows 82
xllcorner 280000
yllcorner 135850
cellsize 50
420.6 418.7 415.5 411.6 406.8 401 391.7 367.8 350.6 366.5 377.3 380.7 378.9 380.3 378.3 375.5 370.4 364.3 368.4 373.3 378.4 385.1 392.7 401.1 406.8 408.4 408.5 407.6 405.1 401.9 397 391.2 382.5 369.9 348.8 326.3 309.6 304.7 303.8 300 294.4 291.4 289.7 289.4 292.2 296.8 301.6 305.7 308.3 308.3 306.5 315.8 317.7 318.8 319.4 320.4 321.7 323.8 325.3 324.1 324 327.1 330.1 331.6 332.7 334.1 334.9 335.1 335.2 334.2 332.7 333.2 333.3 336.3 339.2 340.3 337.7 332.3 311.5 287.2 281.7 297.5 320.6 336.2 347.9 356.7 364.9 370.7 373.7 376.4 378.8 379.9 381.1 382.8 385.3 387 388.4 388.9 388.1 385.6 381.5 369.6 345.8 365.7 374.5 379.1 382.5 385.3 387.1 387.3 386 384.4 379.4 360.9 374.5 377.1 379.1 383 388.2 393.1 397.7 400.7 403.4 405.3 406.6 407 406.7 405.8 403.9 401.2 397.1 392.5 385.8 374 379.3 378.6 379.3 378.9 380.3 382.4 385.2 387.1 388.5 388.3 387.2 385 384.4 382.3 378.2 373.5 369.4 363.7 351.8 348.9 346.2 341.6 338.3 337.5 335.8 333.2 331.2 329.9 328.6 326.6 323.8 319.2 310.5 289.4 281.4 276.8 279.3 283.8 293.7 305.7 313.8 318.9 322.7 325.7 327.3 328.6 329.9 330.4 330.3 329.7 328.7 332.8 335.4 337.9 340.2 343.8 346.9 348.2 349.6 351.3 351.9 352.4 351.8 350.8 350 348.4
422.7 420.9 417.5 414.1 410.2 405.3 394 364.4 372 386.6 391.2 391.4 391.4 392.4 393 392.3 392.8 390.8 393.6 397.7 402.4 407.8 411.2 414.6 416.3 416.4 415.6 414.5 411.6 407.9 402.5 395.9 387.8 377.3 355.3 329 320.4 319.7 316.1 310.1 302.1 296.2 292.1 289.1 288.7 288.6 290.2 295 298.3 298.6 300.8 306.5 308.8 309.7 309.9 310.1 309.5 315.5 316.4 316.6 317.7 319.5 322.3 323.5 324.8 325.4 327 327.3 326.6 326.2 324.1 323.1 325.6 328.1 333.8 334.1 332.1 327.6 310.9 286.6 280.3 296 317.5 336.8 348.3 357.1 364.6 368.5 370.5 372.5 374.3 374.8 375.9 377.9 381 383.8 384.7 384.9 383.2 380.1 374 361.8 342 362.3 370.5 375.1 378.4 380.8 382.6 382.8 381 379.2 373.3 356 367 370.1 373.5 377.9 383.5 389.3 395.1 399.3 402.5 404.9 405.8 407 407.2 406.6 405.2 402.3 399.2 395.2 390.7 388.5 388 388.1 388.3 388.9 389.5 391.5 392.5 394.2 394.8 394.3 393.9 392.2 390.7 388.6 387 385.2 383.4 380.5 368.1 371.2 369.3 366.3 363.5 362 360.4 358.7 356 352.6 347.2 341.9 336.4 329.8 321.3 307.4 287.8 275 275.2 275.3 283.9 299.1 308 313 316.7 320.5 322.3 323.7 324.8 325.7 325.1 323.6 322.4 326.3 329.9 332 334.4 337.3 339.2 340.6 343.2 345.7 348.3 348.8 349.7 348.9 349 348.3
424.1 422.9 420 416.3 412 399.7 383.5 375.7 393.7 399.3 399.2 397.9 398.5 400 401.7 403.4 405.1 407.8 409.9 411.5 412.9 415.4 417.6 419.6 420.3 419.9 419.6 418.2 415.1 412.3 407.8 401.9 393.9 374.2 351.4 341.8 338.2 332.1 324.9 317.4 310.1 303.3 298 293.6 289.3 287.1 287.7 288.2 289 291.2 291.4 295.7 298.6 299.9 299.6 298.7 303.5 306.2 307.7 306.7 308.1 310.9 313.5 315.4 315.6 315.7 316.9 316.9 316 314.4 311.6 312.5 315.9 319.4 322.5 325.1 324.6 322.6 312.6 287.8 278.6 292 307.2 327.9 343.5 352.5 357.8 360.5 362.9 364.2 365.2 365.5 366.4 371.5 376.8 379.6 381.1 380.1 377.3 373.4 364.7 348 342.4 360 365.9 371.4 374.8 376.7 377.5 377.4 375.9 373 367 351.7 359.9 363.3 367.9 372.9 381.6 388.3 393.6 397.4 400.1 402.8 404.4 406 406.6 406.9 405.8 404.5 402.2 399.7 397.2 395.8 395.6 395.5 395.4 395.8 396.3 397.2 397.7 398.3 398.6 397.9 396.8 395.2 394 392.7 391.8 390 388.4 386.4 383.8 381.8 379.5 376.9 375.4 373 369.7 367.1 364.5 359.4 353.1 346.1 338.2 331.6 323.3 314 301.5 284.7 273 272.4 274.7 286 298 305.7 311.4 315.4 317.2 318.5 318.8 318.3 317.2 314.7 316.2 319.7 323.1 325.1 327.3 329.5 331.4 334.3 338.2 341.8 344.6 345.6 347.1 347.3 348.1 348.2
424.8 423.6 421.9 419.1 414.5 408 395 398.5 406.2 405.7 404.7 404.2 404.9 406.4 408.1 409.6 411.7 413.7 415.4 417 418.1 419.3 420.5 421.9 421.8 421.2 420.6 418.7 416.7 413.6 409.5 404.8 398.2 388.6 371.4 359.7 353.9 344.3 335.1 327.6 319.2 312 306.2 300.7 292.5 290.9 288.5 287.2 284.5 284.1 285.1 286.6 289.5 291 291.8 291 292.8 294.6 294.9 293.7 295.7 299.5 303 305.3 304.1 302.2 302.5 303 302.4 300.5 298 301.4 307.1 311.6 312.6 311.6 314.4 313.2 310.4 295 277.4 282.9 298.1 320.8 335.9 342.8 346.6 349.7 352.3 353.8 353.9 352.1 357.8 365.2 369.8 373.4 375.5 374.5 371.9 367.4 353.2 333.3 344.4 356.7 362.3 367.6 371.1 372.1 373 372.4 370.5 366.8 358.8 346.8 352.4 358.8 366.6 374.5 381.6 386.1 389.9 393.4 395.7 399.2 403 405.5 406.5 407.5 407.2 406.9 405.7 405.4 402.8 400.9 399.9 400.1 400.3 400.6 400.6 400.8 401.2 401.2 400.4 399 398 396.9 395.6 394.1 392.9 392.2 391 389.7 387 385.2 382.9 380.4 377.6 374.9 371.7 368.7 364.2 359 353.2 346.7 339.2 330.4 322.4 313.9 303.7 291.9 279.8 271.6 271.6 274.4 287.4 300.8 305.8 308.7 310.1 310 310.8 309.6 307.8 308 310.6 314.1 317 317.3 319.3 321.6 324.6 329.7 335 338.4 340.9 343.4 345.3 346.8 348.4 348.3
424 423.1 422.1 419.7 417.1 412.7 411.9 411.2 410.5 410.4 409.5 408.4 408.3 409.7 410.7 411.2 412.9 415.3 417.2 418.9 419.9 421.2 422.3 422.8 422.3 421.6 420.8 419 417.2 414.6 411.2 407.1 401.7 394.6 386.2 377.9 370.6 359.4 347.7 338.1 329.8 322.3 313.3 302.1 299.5 298.7 295.7 293.5 290.5 287.8 285.6 283.2 282.9 283.6 283.7 284.9 285.6 285.1 285.5 286 287.6 288.4 290.8 292 290.7 290 289.6 289.3 289 288.7 288.1 292.2 296.6 299.6 300.3 298.3 297.9 299.9 301.8 301.8 283.9 276 291.9 312.9 326.4 332.7 335.2 338.2 340.1 340.7 339.3 342.2 353.7 361.1 366.5 369.9 370.8 369.9 367.1 362.2 343.9 328.3 345.2 354 359.4 363.9 367.5 368.2 368.5 367.6 365.3 361.4 348.3 342.6 354.8 362.8 369.9 374.9 378.8 382.6 385.7 389.2 392.7 397.5 401.6 404.3 406.2 407.6 407.5 407.7 408.1 407.6 406.9 405.5 404.1 403.6 403 402.7 402.7 402.7 402.6 402.5 401.6 400.4 399.5 398 396.6 395.1 394 392.8 391.7 390.3 388.2 385.8 383.5 380.3 377.1 373.9 371 366.2 361.1 356.4 350.8 343.9 336.1 327.5 318.1 309.2 300.2 291.1 284.3 277.4 269.8 269.3 275.3 288.8 297.3 300.3 301.4 301.9 302.6 301.3 300.4 301.9 304.6 307.4 310.1 309.4 312.6 315.8 321 327 331.7 335.8 338.5 340.9 343.3 345 346.2 346.7
422.8 422.2 420.9 419.8 417.6 415.9 414 412.9 412 411.2 410.7 410.2 409.8 409.2 409.6 410.3 411.9 414.1 415.5 417.7 419.3 420.5 421.2 421.6 421.2 420.6 419.9 418.1 416.3 414.3 411.4 408 403.5 398.9 393.1 387.4 380.3 372.3 363.4 352.7 341.7 332.5 315.9 307.5 313.3 310.9 305.6 302.1 298.3 296.4 295.1 293.7 291.5 290.7 287 284.6 280.5 280.6 281.6 280.6 280 279.5 278.3 277.6 279.8 278.9 278.5 277.8 278.1 278 279.5 282 284.6 286.5 287.7 285.4 284.4 284.6 289 291.2 287.4 275.5 283.4 303.2 318.5 324.1 326.3 327.6 328.4 327.6 329.9 340.3 351.2 358.1 363.7 366.3 366.6 366.1 361.9 355.6 336.9 325.1 343.5 352.4 358.3 362.2 364.1 364.9 364.4 362.8 359.4 349.7 338.1 346.2 356.1 363.2 368.9 373.2 376.6 379.1 382 386.2 390.3 395.1 399.8 402.7 405.1 405.9 407.1 408.2 408.5 408.4 407.6 406.6 405.7 404.3 403.6 403.1 402.9 402.8 402.7 402.5 402 401.1 400.2 398.6 396.9 395.1 393.2 391.6 390.4 388.4 387.1 384.8 382.5 379.1 375 371.4 367.3 363.6 359.1 352.7 347.5 340.7 332.5 322.8 311.9 303.2 293.8 286.3 281 278.3 273.8 268.1 266.9 273.8 283.5 290.5 292.9 292.8 292.3 292.8 294.5 298.2 301.4 303.1 303.9 304 304.6 312.9 320.4 325.7 329.5 332.4 334.7 337.4 339.6 341.7 343.4 344.1
420.4 420.6 419.7 418.8 417.8 416.1 414.4 412.9 411 410.2 409.5 409.6 409.1 408.6 408.6 408.9 409.7 411 412.6 414.1 416.8 418.3 419 418.8 418.3 416.9 416.3 415.9 414.3 412.3 410.1 407.7 404 400.2 396.6 391.7 385.1 380 371.8 363.6 354.9 338.8 315.6 326.8 331.7 326.1 321.5 318.4 313.3 312.3 311.9 311.3 308.7 306.2 302.4 298.8 296.1 293.6 290.3 288.6 288 285.9 283.5 281.4 278 277.5 277.1 276.5 276.2 275.7 275.7 274.6 274.5 274.5 274.9 273.2 273.1 272.7 275.7 278.7 280.9 274.3 276.4 296.7 311.2 316.3 316.7 316.7 316.8 316.2 323.5 335.2 347.8 355.7 360.2 363.2 363.9 362.7 356.5 347.6 330.8 320.4 338.4 350.9 356.5 358.8 360.2 360.8 359.7 357.6 353.3 336.6 341 349.6 356.2 362.2 367.8 370.8 373.6 376.3 379.6 384.2 388.5 393.2 397.5 400.8 403.3 404.6 406.1 407.3 407.6 407.7 407.2 405.8 405 403.9 402.8 402.1 401.8 401.9 401.9 401.8 401.3 400.6 399.4 398.4 396.9 395 393.1 391 388.8 386.6 384.8 383.4 381 376.7 372.6 368.1 364 359.7 354.3 348.9 342.1 333.8 323.3 310.7 300.3 291.4 282.6 280.7 278.1 275 272.2 269.4 266.6 265.6 269.3 277.6 281.8 282 281.6 284.4 292.6 296.2 297.6 297.8 296.8 295.3 302.1 311.6 319 322.4 325 327.2 330 332.8 335.5 337.5 339.4 340.1
417.5 418.3 418.5 418 417.1 415.9 414.2 412.2 409.1 407.7 406.9 406.5 406 405.2 405 405.7 407 408 409.3 410.7 412.6 413.7 414.5 414.7 414.3 413.9 413.1 412 410.9 409.3 407.9 406 403.6 400.1 397.4 394.3 389.7 384.7 378.7 371.1 363.8 339 325.6 344.5 347 344.1 342.2 340.3 337.6 336.5 334.7 333.7 331.1 328.5 326 321.8 318.8 315.2 311.7 309.3 305.6 303.9 301.5 299.6 295.3 290.8 285.3 280.6 279.2 278.2 276.9 277.2 277.7 276.5 277.7 276.6 274.8 272.2 271.7 271.4 272.5 273 273.5 289.4 301.1 302.7 302.6 301 303 313 325.2 341.6 349.9 355.6 359.8 362.4 362.2 360.7 356.4 350 332.2 317.8 332.9 349 353.1 354.9 356.4 356.1 355.1 352.4 346.7 331.1 341.8 349.8 355.8 361.4 366.8 367.7 370 372.6 375.4 380.3 385.9 391 395.3 398.8 401.4 403.2 404.9 405.3 405.5 405.7 405.4 404.6 403.8 402 401.5 401 400.4 400.4 400.4 400.3 400.3 399.7 398.3 397.4 395.6 394.1 391.9 388.8 387.6 384.3 382.1 380.3 378 374.5 369.9 365.3 360.2 354.9 349.4 341.6 332.6 322.4 310.7 300.5 291.5 287.6 288.8 291.5 291.6 289.7 287.4 283 272 266 264.2 265.8 269.9 272.1 272.9 284.7 289 290.3 291 290.2 286.8 287.8 298.8 306.9 313 316 318 319.6 323.9 328 331.1 333 334.1 335.4
415.4 416.1 416.3 416.1 415.6 414.7 413.4 411 407.6 403.7 403.2 402.6 401.9 401.3 400.7 401 401.9 403 404.6 406.6 407.9 409.1 409.9 410.3 409.9 409.4 408.2 407.1 406.5 405 404.1 402.8 401 399.2 396.9 394.1 390.7 386.6 382.2 376.5 365.7 342.6 344.9 356.1 355.6 354.4 355.1 356.6 357.1 357.8 358.6 357.9 356.8 356.2 354.4 351.1 346.8 344.2 339.4 336.5 333.4 328.1 324.7 321.3 316.9 309.4 301.8 293.6 282.3 281.5 284.6 291.1 294.1 295.5 296.3 296.5 294.4 287.1 276.9 270.5 271.1 271 271.9 278.1 286.6 286 288.8 299.4 310.9 325.2 340.2 347.8 353.6 358.2 361.3 363.3 362.4 360.4 356.9 351.2 332.7 313.9 326.7 343.5 348.8 351.2 352.5 351.5 350.4 346.9 338.9 327 339.9 350.3 356.9 362 364.8 365.7 365.7 367.3 370.9 376 383 388.3 392.5 396 398.5 400.3 402 402.9 403.2 403.4 403.1 402.4 401.6 399.7 398.7 398.5 398.5 398.7 398.8 398 398.3 397.4 396.2 395.1 393.7 389.2 390.2 388.2 386.1 382.2 379.5 377 374.9 371.5 367.5 363.2 356.6 348.2 339.4 330.8 320 309.8 300 292.8 296.6 301.3 304.3 306.8 307.9 308 305.6 299.3 289.2 278.5 268.3 262.9 262.5 264 266 274.6 281.9 283.6 282.9 281.4 275.9 281 289.6 295.3 299.6 302.9 305 306.6 315.1 321 324.6 326.4 327.2 327.7
412 413.1 413.6 413.5 413.2 412.1 410.6 408.6 405.6 400.1 397.6 397.2 396.2 396.2 395.8 396.7 397.7 398.3 400.2 401.9 403.3 404 404.2 404 404.1 403.7 403 402.1 401.6 400.8 400 399 397.6 395.9 394 392.3 389.5 385.7 382.5 378.4 369 352.6 358.3 362.7 362 362 362.3 363.2 363.8 365.9 366.8 367.5 367.7 367.3 366.2 364.8 361.8 358.5 355 351.7 347.9 343.3 339.8 335.6 330.7 325.1 318.3 297.4 284 287.8 300.6 309 314.4 317.2 318 319.2 318.1 308.5 293.6 277.2 268.6 269.4 271.3 272.9 278.8 291.7 303.7 316 327.2 337.1 344.8 351.5 356 359.8 362 362.6 361.2 359 355.1 348.7 333 311.7 318.3 335.9 344.1 346.7 347.8 346.3 345.2 341.9 330.5 321.6 341.9 350.5 357.2 361.5 362.1 361 357.6 359 365 370.6 377.5 384.1 388.9 392.1 394.2 396.5 398.9 399.8 400.3 400.3 400.1 398.9 397.9 396.3 395.2 394.4 396 396.3 396.6 395.9 395.2 394.7 393.6 393.3 392.1 390.1 388 386.2 384 380.5 376.9 374.4 372.2 370.4 366.5 361.2 355.7 346.4 329.3 315.3 307.4 301.9 298.8 306.9 312.6 317.5 322.9 327.9 331.2 331.1 328 321.1 312.8 300.2 288 276.2 263.3 262.1 260.2 262.3 268.6 273 273.6 272.9 269.1 272.3 276.8 279.3 283 285 285.8 289.9 297.8 307.2 314.9 318.2 318 315.5
408.1 409.1 409.9 409.8 409.3 408.3 406.5 404.4 401 396.2 391.6 391.5 390.9 391.3 390.8 392.8 393.6 394.1 396 397.9 398.2 399 399.1 398.8 398.4 397.8 397 396.2 395.8 395.9 395.1 394.6 393.6 392.6 391 389.3 387.6 385 382.2 378.4 373.6 363.4 368.6 368.6 367.2 367.2 367.1 368.5 369.1 371.5 372.7 373.3 373.4 372 369.4 367.5 363.9 360.7 356.9 352.3 348.7 343.7 340.2 335.7 330.6 325.5 318.4 296.5 286.4 300 317.6 327.6 333 336.5 338.6 338.3 335.8 329.9 314.2 295.8 276.4 269.5 270.1 271.6 277.7 294.3 309.7 321.3 331 337.9 344.1 349.5 354 357.6 360.1 360.5 359.4 356.9 353 347.6 335.2 313 313.7 333.6 339.6 341.6 342.2 339.8 337.3 333.1 318.5 322.4 340.9 350.1 355.9 358.7 356.9 353.1 348 350.6 356.7 365.1 373.1 379.6 383.9 387.8 390.4 393.4 395.1 396.2 396.7 396.4 396.2 395.2 393.5 392 391.1 388.8 390.9 392.4 392.9 392.3 391.1 390.5 389.7 388.8 387.9 387.1 385.2 383.6 380.1 376.5 373.3 369.5 368.6 366.9 363.4 358.9 351.9 340.7 321.9 308.5 307.5 313.6 320.1 326.5 333.7 340.8 345.2 346.3 346.2 343.7 340 335.4 329.8 322.1 311.6 298.6 287.7 276.3 266.8 259 257.8 258.8 261 261.9 261.4 260.9 264.2 264.4 265.8 267.8 269.6 273.3 281 292.9 303.4 306.3 305.1 299.8
403.4 404.7 405.1 404.8 404.1 402.3 400.7 398.8 394.5 391.5 387.8 385.8 386.1 386.7 387.8 388.8 389.4 389.9 391.7 393 392.2 392.6 392.8 392.5 391.1 390.8 390.8 390.1 389.5 389.6 389.7 389.4 388.9 388.3 387.5 386.5 385.5 384.1 382.1 379.3 375.4 373.1 372.7 372.1 371.7 371.6 371.4 372.7 374.2 375.9 377 377.4 376.4 374.5 372.1 369.2 365.9 362.1 358.2 353.2 347.8 341.3 332.7 326.7 319.4 314.3 307.5 291.8 296.8 311.9 324.7 332.8 338.6 342.5 344.8 344.5 342.1 336.3 329 313.1 291.8 269.9 269.4 270.3 272.5 285.6 305.1 318.1 326.7 334.2 340.5 346.1 351.2 355.1 357.4 358 357.3 354.7 351 345.8 335.7 311.2 310.4 328.3 336 337.5 335.5 330.7 325.1 318.4 309 325.7 341.6 350.2 354.7 356.4 351.6 344.6 338.1 342 351.5 359.9 369.5 374.5 378.5 382.4 385.5 387.3 390.1 391.8 392.3 391.9 392.3 391.3 389.5 387.8 385.7 381.1 385 386.1 386.7 386.6 386.2 385.6 384.7 384.1 383.8 383 381.8 379.8 377.1 373.4 368.9 363.7 363.1 362.5 358.3 351.8 342.2 330.3 314.3 321.2 328.1 335.6 342.7 348.2 350.9 352.3 353.1 353.8 352.4 350 347.5 343.4 337.3 331 323.7 316.7 307.3 295.7 274.7 269.4 265.7 259.4 254.9 254.9 253.9 253.2 252.4 253 252.5 255.2 258 261.1 266 279.7 289.6 291.5 289.7 285
398.7 399.8 400.1 399.8 398.7 397 395.6 393.2 389.6 388 384.7 381.9 377.9 381 383.7 384.4 385 385.7 386.5 388 386.4 385.9 385.3 384.3 383.4 382.5 382.3 381.7 382.2 382.6 382.6 383 383.1 382.4 382.2 381.6 381.2 381 380 378.7 376.5 375.2 374.6 373.9 373.8 374.5 374.3 375.7 376.1 377.4 378.1 378.3 376.8 375 372.6 369.9 366.8 363.4 359.4 354.9 350.1 344.5 337.2 329.4 323.5 315.5 307.8 293.8 305.3 314.9 325.2 333.9 339.9 344 346.4 346.3 344.2 339.4 333.9 324.9 306.3 283 267.7 269.3 270.2 278.7 293.7 308.8 321.1 330.3 336.9 342.8 347.8 351.5 353.9 354.7 353.3 351 348.3 343.5 334.1 310 303.7 322 332.3 332.2 326.6 316.1 307.9 303.4 315.3 329.7 342.6 350.7 354.3 353.3 347.8 338.5 324.1 334.4 348.2 354.5 363.7 368.2 372.2 375.6 379.4 382.7 384.9 386.8 388.7 389.3 388.4 387.4 385.6 384.2 381.8 376.6 377.8 378.9 379.6 379.6 379.2 378.5 377.9 378.5 378.7 378.3 377.6 376 374 371 366.4 359.2 355.3 353.8 347.9 339.5 331.2 318.6 330 338.4 346.5 350.9 354.7 356.4 357.6 360 360.2 359.7 358.4 356.5 353.1 348.8 343.4 336.3 327.2 319.4 310.5 297.7 284 291.9 287.6 278.9 273 268.8 265.1 261.9 258.4 254.5 250.6 249.7 249.2 249.9 251.9 262.4 272.7 276.5 274.8 271
393.2 394.4 395.1 394.7 393.5 391.6 390 387.8 387.1 385.9 383.4 380.9 376.1 375.7 379.1 380.2 380.7 381 381.9 382.2 381.7 381 379.2 377.8 377.3 374.8 374.6 375 375.5 376.2 376.8 377.1 376.7 376.3 376.4 376.6 376.8 377.2 376.5 375.5 374 371.4 372.6 373.4 373.4 373.9 374.7 375.3 376.2 377.2 377.7 377.5 376.4 374 371.6 369.4 366.6 363.4 359.7 355.3 351 345.6 340.2 334.8 328.8 318.6 301.7 300.1 305 313.4 324.4 334.1 341.1 345.9 348.5 348.8 347 343.2 337.7 330.2 317.7 294.7 273.1 267.3 268 273.4 283.8 300.7 316.3 326.4 334.4 339.8 344.3 347.8 349.7 350.3 349 346.7 343.6 339.8 331.6 307.7 300 318.6 327.5 325.2 311.7 299.4 300.2 311.1 323.8 336.5 344.9 350.7 352.4 349.7 343 331.3 316.6 328 343.2 349.2 354.9 360.5 364.5 369.3 373.6 377.8 380.3 382.5 383.8 384.6 384.2 383.3 382.2 381 378.7 374.2 370.9 371.4 372.2 372.3 371.6 371.3 372.4 373.4 373.6 373.7 373.6 372.2 370.6 368.3 365.5 359.1 353 342.7 337.5 338.8 338.6 341.6 348.1 353.8 357 359.4 360.9 362 362.8 363.1 364.1 363.5 362.4 359.8 356.5 351.8 345.8 337.4 327.1 312.7 298.4 301.4 307.8 311.8 309.7 305.3 299.7 296.1 291.1 286.4 282 275.8 268.2 261 255.1 249.9 249 247.1 254.5 262.7 262.5 264.1
386 387.8 387.6 387.5 386.8 385.5 384.9 384.5 383.8 383.7 382 379.7 377.1 370.9 373 374.5 374.9 374.7 375.8 376 375.5 374.8 373.2 371.5 370.1 369 368 368.3 369.2 369.6 370.2 370.7 371.2 371.4 371.7 372 372.1 372 371.8 370.8 368.8 361.4 367.6 369.4 370.4 370.6 371.7 372.2 373 373.8 374.5 374.5 373.5 371.6 370.3 368.7 365.4 362.1 357.7 353.3 349.2 344.1 339.2 332.6 320.8 306.2 308.2 312.5 314.8 314 323.7 335.4 343.1 348.7 351.9 353.1 351.6 347.1 341 333.7 323.6 304.1 283.5 266.9 267.2 270.4 278.4 295.7 311.9 323.3 331.7 337.1 340.4 343.6 345.1 345.2 344 341.2 338.2 334.4 325.2 303.1 296.2 317.6 322.4 315.7 297.1 296.1 308.9 321.6 333.4 341.6 346.6 348.2 347.4 344.1 336.3 321.6 311.8 324.8 337.8 342 347.8 352.1 357 362.2 367.4 371.8 374.6 376.9 378.2 379.1 379.8 379.4 378.7 377.5 375.6 371.5 363.9 366 366.6 366.5 365.6 365.5 366 366.9 368.3 368.7 369.1 368.7 367.9 367.1 364.5 362.5 361.3 358.5 357.2 356.9 354.5 358.2 360.1 361.8 363.3 365.3 366.2 367.2 367.3 367.2 366.9 366.4 364.8 361.4 357.7 352 345.2 334.9 320.2 308.2 315.4 321.1 322.1 320.9 318.6 315.9 312.3 310 307.8 303.8 298.4 292.1 285.4 275.5 268.1 260 252.6 247.8 245.6 249.4 254.3 267.6
379.7 381.4 381.6 380.8 380.7 380.6 381.7 381.3 381 380.3 379.1 377.8 374.7 371.3 364 368.5 368.5 368.4 369.6 369.3 368.6 367.9 366.1 364.1 361.9 360.2 358.7 360.1 362.5 363.1 363.7 364.1 364.3 365.6 366 366.4 366.2 365.8 366 365.5 363.6 350 359.9 364 366 366.8 367.5 368.1 369 369.9 371.1 371.9 371.1 371 369.5 367.9 364.2 358.1 353 345.2 340.8 335.7 329.8 321.1 324.2 326.5 327 325.6 325.9 320.9 325.5 335.5 343.5 349.6 353.2 353.8 351.5 347.8 341.4 335 326.6 312.9 292.7 269.4 266.6 266.5 274.9 289.3 306.3 320.5 328.7 333.6 336.6 338.9 338.7 338.5 336.6 334.1 330.7 323.4 310.2 292.5 297.8 315.4 318.6 307.1 289.4 300.6 317.5 328.9 336.3 340.4 342.1 342.2 341 336.8 326.2 308.7 309.9 324 331.6 336 339.6 344.3 350.1 355.9 360.7 365.4 368.5 371.1 372.8 373.7 374.6 374.5 374.5 373.9 372.7 369.4 355.4 360.5 361 361.2 360.3 359 358.5 360.1 361.8 363.7 363.7 363.1 363 363.6 364.9 365.5 365.4 365.4 365 365.3 365.3 365.9 366.9 368.1 368.9 369.5 370.2 370.5 369.9 369.7 369 368.4 365.8 362.5 357.9 352.5 344.7 332.1 320.7 325.2 329.5 330.7 329.3 327.6 324.9 322.3 319.2 316.6 314.1 310.4 305.6 298.9 292.4 286 279.7 270.4 263.9 257.4 250.3 245.6 246.4 255.2
374 375 375.6 375.2 376 377.5 379.1 379.3 379 378.5 377.2 375.3 372.3 369.6 364.6 356.9 359.8 361.3 363.2 362.8 362.1 360.5 358.2 356 352.7 349.9 349.2 353.8 356.1 357.5 357.9 358 358.5 359 359.6 359.6 360.2 360.2 360.3 359.8 357.7 346.6 351.8 356.9 359.9 361.4 362 363 363.8 364.8 366.8 367.9 369.2 368.6 368 367.2 364.2 359.7 356.5 353.1 348.3 344.6 341 341.4 341.4 341.4 340.9 338.1 336.3 329.2 323 334.3 341.5 347.6 350.3 349.4 346.5 340.8 334.6 328.9 320.9 314.8 302.3 281.9 267.3 265.8 268.5 282.3 298.1 314.4 324 329.2 331.6 332.8 332.6 330.9 327.6 324 314.8 305 295.2 288 302.2 316.7 317.5 301.7 286.9 298.3 317.1 326.1 331.8 334.9 336 335.4 333.8 329 315 300.8 311.8 322.1 325.9 328.9 329.6 335.5 343.5 350 355 359.5 362.4 365 367 368 368.7 369.1 369.8 369.6 368.6 366.7 355.7 354.2 354.6 354.9 353.6 352.3 352.7 354.2 355.8 357.3 357.1 357.4 359.2 361.9 364.1 365.3 366.2 366.8 367.5 367 367 367.3 367.8 368.9 369.2 369.8 370.4 371.4 371.2 371.3 371 368.8 366.7 362.7 358 352.4 344.6 324.9 334.5 336.8 337.3 336.7 334.9 332.6 330.1 327.6 324.1 320.4 317.4 314.2 310.6 306.1 300.8 294.9 288.3 281.6 274.8 268 261.7 254.4 244.8 243.2
368.3 369.4 369.7 369.9 373.3 376.8 377.9 378.4 378.1 376.7 375 372.9 370.2 367.5 364.7 360.7 353.8 353.3 356.3 355.2 354.3 351.9 349.6 347.6 345.6 343.2 343.4 346.2 348.6 349.9 350.9 351.5 351.7 352.5 352.9 353 353.8 354.5 354.5 354.2 352.5 348 342.3 350.2 353.7 355.2 356.5 356.8 358.3 359.7 361.5 364.9 366.5 368.2 368.3 368.1 365.4 362.8 361.4 360.2 358.2 356.9 356.1 355.1 353.9 352.5 350.5 349.5 346.5 344.3 336 339.3 342.7 347.7 348.5 346 340.4 332 320.8 315.7 309.6 301.8 294.2 284.1 273.6 266.3 265.7 273.8 288.5 303.5 316.1 322.4 324.8 325.2 324.1 320.7 316.6 305.8 296 288.8 284.2 295.3 308.8 318.4 316.9 302.4 284.3 290 308.9 320.1 324.9 326.4 327.4 326.8 325.2 320.6 302.5 297.1 311 316.5 318.9 319.6 317.6 329.3 337.5 344.3 349.2 353.5 356.3 358.5 360.2 361.3 361.9 362.1 364.1 364.7 364.3 362.6 358.9 347.2 348 346.7 347.3 346.7 348.2 348.2 350 350.9 349.8 351.5 355.1 357.6 359.2 360.9 362 362.8 363.6 364.1 364 364.2 364.8 365.3 366.4 367.5 368.4 368.8 368.5 368.6 368.3 367.2 364.3 361.7 357.6 351.7 345.2 341.8 342.7 342.4 341.9 341 338.7 335.5 333.5 330.7 327.3 324.1 320.4 316.7 312.9 309.4 306.9 302.9 297.7 291.2 284.6 277.7 270.6 264.5 257 246.6
360.9 362.1 364.6 369.5 374.1 377 378.1 377.5 376.9 374.7 372.4 370.6 367.8 364.8 361.4 357.1 352.5 349.4 348.4 348.6 345.4 343.5 341.5 340.1 338.4 337.2 336.7 337.7 339.7 341.4 341.8 342.4 344.8 345.3 345.9 347.5 347.8 348.7 349 349 348 345.1 331.1 343.8 346.6 347.7 348.2 348.3 349.7 357.1 359.6 362.9 365.3 366.9 367.7 368.1 367.1 365.9 363.9 362.9 362.3 361.8 361.9 361.2 360.4 359.3 358.2 357 355.3 353.2 351.4 349.2 349.7 349.4 348.7 344.8 339.4 333.5 322.9 305 293.2 287.1 281.2 276.4 273.3 267.9 264.2 267.4 277.9 291.5 304.5 313.2 316.7 317.2 314.6 310.9 299.1 286.5 281.8 280.7 291 304.4 315.9 319.2 315.9 305.7 285.1 283.1 295.1 309.5 315.5 318.2 318.6 317.7 316 311.5 296 292.8 303.8 310.2 312.2 308.8 313.3 324.7 332.9 338.9 343.2 346.8 349.6 350.7 352.4 352.7 354.1 356.5 358 359 359.3 358.8 356.7 350.9 340.5 339.4 339.2 340.9 343 342.9 343.7 342.5 341.3 347.2 349.2 352.1 354.1 355.5 357.2 358.2 359.3 359.8 360 359.9 360.7 361.7 362.8 363.9 364.8 365.1 365 365.7 365.5 364.8 362.9 360.7 357.3 354.6 351.4 349 346.8 345 343 341.1 338.4 335.3 332.7 329.4 325.2 323.1 319.7 316 313.4 311.6 309.8 307.3 303.5 297.9 292.2 286.5 279.6 272.4 266.1 259.9
355.9 359.7 364.3 369.5 373.8 376.3 377.4 377 375.4 374.5 372.6 370.8 367.5 364.5 362.4 359.2 355.7 350.8 346.1 345.4 344.1 340.4 338.6 336.4 334.4 334.3 332.2 330.5 331 332.1 332.1 333.9 336.4 338.2 339.3 339.7 340.7 342.3 342.6 343.2 342.5 340.3 328.8 336.9 338 338.5 338.4 344.3 350.2 355.5 359.7 362.4 364.6 366.1 366.9 367.3 365.7 365 364.7 365.1 365.4 365.1 365.2 364.7 364.3 364.1 363.3 362.2 360.4 359.5 358.5 356.9 355.3 353.7 351.9 348.6 345.7 341.2 335.2 320.6 307.1 312.5 306.1 300 292 277.9 264.4 263.8 268.3 277.7 289 299.9 305.2 307.1 305 297.4 283.2 276.6 276.3 286.9 300.5 312 317.1 317.5 314.1 307.2 290.5 278.3 282.8 296.9 304.7 307.8 308.6 308.7 306.9 304.3 293.8 288.9 300.1 303.6 304 302.9 312.5 321.4 327.9 332.8 336.1 339.8 342.2 342.1 343.1 344.2 346.2 350.1 352.1 353.4 353.9 354 352.9 350.3 345 343.3 335.4 333 337.1 336.3 337.1 332.1 340.1 342.8 343.6 345.1 347.9 350.1 351.2 352.4 353.5 354 354.4 354.4 355.6 357.1 358 359.1 359.8 361 362 362.6 362 361.7 360.6 359.4 357.5 355.9 353.2 351 348.5 346.5 343.6 338.6 335.6 332.2 330.5 326.5 322.9 319.7 316.5 312.9 310.1 309.3 308.3 306.2 303.9 300.6 296.2 291.8 287.2 281.5 276.2 269.9
355.7 359.1 363.1 366.8 372.2 375.3 376.4 377.2 376.4 374.6 373.3 370.8 368.7 366.6 363.9 360.8 357.4 350 354.6 357 356.5 354.2 351.7 349.3 347.2 344.3 340.6 337 333.6 328.6 328.7 327.5 328.4 330.2 330.6 331 332.3 334.2 335.2 336.2 335.3 333.7 326.9 329.3 331.3 330.1 336.3 341.9 347.2 352.8 356.9 359.5 361 362.6 363.6 364.1 363.7 363.3 363 363.2 363 365 365.9 366.8 367.4 367.5 366.9 365.3 363.6 363 362.7 361.6 359.5 357.6 356.4 353.8 350.8 346.5 341.9 329.4 324.4 325 318.1 310.3 300.9 287.8 272.7 262.6 262.8 264 272 283.9 294.9 296.6 295.9 284.1 273.3 273.8 284.7 297 307.2 313.3 314.9 313.6 309.8 304.4 295.3 276.7 274.9 287.2 294.8 298.2 299.6 299.9 298.9 298 292.9 284.6 292.6 294.4 294.6 301.5 309.3 315 322.4 326.3 329.5 332.8 334.7 335.1 332.3 334.1 339.4 344 346.3 347.3 347.9 348.5 348 345.5 343.5 341.4 338.3 326.2 329.1 327.9 329.4 330 335.6 337.1 337.2 336.7 339.2 342 344.4 345.8 346.9 347.5 347.8 348.1 349.9 351.1 352.4 353.8 355.4 356.8 357.9 358.3 358.3 358.8 358.1 357.8 355.9 354.3 352.9 351.4 349.4 346.9 343.9 339.7 332.9 326.4 322.8 318.9 315.3 312.8 310 306.9 304.4 302.9 301.9 300.9 300 298.6 296.1 293 289.4 285.7 281.3 276.2
361.8 365 366.8 369.4 371.9 374.2 375.1 376.5 375.8 373.8 372 370 367.9 365.9 362.7 359.1 353.6 357.8 360.8 362.5 362.1 360.8 358.4 355 351.5 347.9 344.1 340.8 337.7 334.7 332.5 327.7 324.6 324.3 324.3 326.6 327.3 325.5 326.1 325.7 326.2 325.1 321.8 324 325.3 326.4 332.9 337.6 341.8 348.2 352.1 354.5 356.6 358.5 359.2 359.6 359.4 359 358.9 360.4 361.5 363.6 365.9 366.9 367.8 368.4 368.1 367 365.9 364.6 364.4 363.7 361.6 360.7 360.2 359.1 356.1 352.7 348.5 342.4 338.2 333 327 319.4 309.7 296.7 279.9 267 262.1 261.9 262.3 267 283.8 288.2 286.3 274.2 271.2 282.9 295.4 304 308.6 311.1 311.4 309.3 305.3 301.4 295.8 285.5 272.4 276.1 286 290.1 291.3 291.6 291 290 283 280.2 283.6 288.3 294.4 301.4 306.8 313.3 316.7 320.2 323 325.4 326.3 324.8 326.7 332.3 334.8 338.1 340.4 340.9 341.5 342.2 341.9 341 339.8 337.9 336.3 333.6 330.1 329 320.9 325.1 329.2 330.5 330.4 330.3 329 333.6 336.2 337.8 338.9 340 340.1 342.1 343.9 345.4 347.4 349 350.7 352 352.7 353.7 354.3 354.8 354.3 354.9 353.7 352.7 351.7 350.6 349.1 346.6 343.4 339.4 333.2 326.4 319 310.6 303.2 301.7 301.6 297.7 294.3 294 293.1 293.2 293.1 293.1 291.7 289.7 286.7 283.8 280 275.6
369.5 372 374.5 376.2 376.8 377.8 377.7 377.8 376.7 374.8 372.2 368.9 366.1 364 361.8 357.8 359.8 362.9 364.7 365.2 364.7 362.9 360.5 357.4 353.5 350 345.8 342.2 338.7 335.2 332.2 328.5 325.4 321.5 322.5 322.4 320.5 319.2 318 317.1 315.9 315.9 316.5 317.5 318.6 322.9 327.8 332.3 336.1 342.1 346.4 349.4 351.6 353.2 354.2 354.3 353.9 353.5 353.8 357 360.1 362.6 364.6 366.2 367.4 368.2 367.8 367.1 365.2 363.1 362.8 361.9 360.7 362.1 362.4 361.9 359.4 355.8 351.8 348.7 343.9 339 333.5 325.9 311.6 295 289.7 275.9 264 260.8 261.3 261.6 272.3 280.7 278.2 268.1 279 289.3 295.3 300 303.5 305.7 306.5 305 302.8 299.3 294.5 288.2 273.5 268.8 276.4 281.6 282.1 281 281.1 279.7 277.4 282.2 289.7 295.1 301.1 305.6 309.4 311 311.8 313.2 315.5 317.9 317 319.4 324.8 328.6 331.6 333.8 334.3 334.3 333.8 335.1 335.7 335.5 334.8 335 334.5 334 333.1 332.1 328.4 313.1 319.3 324.2 324.8 323.1 320.6 323.1 326.2 328.6 329.8 331.1 333.5 336 337.8 339.8 342.5 344 345.4 346.2 347.1 347.9 349.1 349.8 349.3 350.4 350.2 349.3 348.3 348.6 347.6 345.2 342.1 337.6 332.2 326.2 319.8 313.2 305.4 293.3 292.6 289.2 285.2 283.2 280.9 281.9 283.6 284.8 285.5 284 280.2 277 272.6 269.6
376.8 379 381.4 382.2 382.7 383.2 382.4 381.9 380.3 377.3 373.7 370.1 367.2 363.7 360 360.9 363 365.9 367.3 367.3 366.2 363.7 360.6 356.9 353.2 349.6 345.7 341.9 337.9 333.7 330.4 326.7 325.4 324.3 323.6 323.2 322.8 323.4 322.3 321.7 320.4 318.1 315.9 312.8 313.7 314.4 317.3 320.9 327.8 334.5 339.5 342.9 345.6 347.3 348.2 348.4 347.5 346.9 350.4 354.4 357.7 360.3 362.2 363.4 364.6 365.4 364.9 364 362.4 361.2 360.5 359.5 358.8 359.8 360.5 359.7 357.9 354.8 352.4 349.6 346.2 342.2 337 331.1 323.1 314.9 304.5 288.7 272.1 260.9 260.7 260.5 262.7 270.1 269.6 265.1 277 284.4 288.9 292.9 296.1 298.3 299.4 299.9 297.7 296.5 294.1 289.7 281.1 267.1 266.1 268.9 268.3 269 270.4 272 274.2 282.8 290.9 296.1 300.4 303.7 305.9 306.3 306.7 306.7 308.7 308.3 314.2 318.6 323.6 325.8 327.8 328.5 328.2 327.9 327.5 328.3 329.5 329.7 329.6 330.7 332.5 332.8 331.9 330.7 327.9 323 310.7 316.2 319.4 317.6 316.4 315.9 315.3 317.7 319.9 323.2 326.9 329.5 331.9 334.8 336.8 338.3 339.2 339.9 339.9 341.5 342.8 343.9 344.5 345.1 345 344.6 344.5 345.1 344.9 342.9 339.7 335.6 328.6 322.1 314.6 308.6 303 293.4 281.3 277.3 273.7 271.8 269.9 268.3 269.4 273.8 277.3 275.9 272.4 266.7 260.6 255.5
382 384.9 387 387.5 387.2 386.1 385.4 384.3 382.7 379.6 376.3 372.1 368.6 365.4 366.3 368.2 370.8 371.6 371.1 369.4 367.3 363.7 358.9 354.6 350.7 347.5 343.9 339.1 335.1 331.6 328.6 330 330.9 331 331.3 330.7 330.2 330.6 329.5 329.5 327.9 325.9 323.1 319.4 315.3 311.9 310.9 311.9 318 326.2 331.2 334.7 338 340.5 341.2 340.8 339.1 340.5 347.2 351.2 354.6 356.9 358.4 359.6 360.8 361.4 361 360.3 359.4 358.2 357.4 356.6 356.3 355.8 356.3 355.6 354.7 353.6 352.2 350.1 347.1 343.4 339 333.7 328.1 320.9 314.5 304.6 287 270 261.8 260.8 259.9 260.2 261 261.7 264.5 273.3 279.2 283.4 287.1 290.4 292.4 293.4 293.2 292.8 290.9 287.8 282.4 271 263.3 266.9 272.9 276.1 279.6 282.8 281.2 276.8 287.4 294.5 298.5 300.5 301.6 301.7 301.6 300.2 304.4 309.4 314.8 318.8 322 324.3 325.1 324.4 321.8 318.1 318.5 321.7 323.6 324 323.4 326.2 328.7 330 329.2 327.9 325.3 323.1 318.4 306.2 312 311.3 309.2 309.3 307.4 306.3 313.6 318.2 321.3 323.6 324.2 327.3 329.3 330.9 331.9 332.5 332.8 333.8 335.3 337.3 338.1 338.7 339 339.5 341.3 342.6 342 340.3 337.1 333 327.7 320.2 312.8 300.5 292 284.5 284.3 284.9 283.1 280.2 278.2 271.8 262 260.5 263 263.6 259.4 254.5 249.1 247.5
385 388.1 390 390.5 389.9 388.5 386.9 385.4 383.3 380.3 376.8 373.2 371 369.9 370.9 373.3 375 375.2 374.5 372.3 369.8 365.3 359.8 353.8 349.6 346.2 342.4 338.3 336.1 336.6 337.2 337.5 338.4 338.6 338.7 338.1 337.6 336.8 336.5 335 333.9 332.9 330.2 327.6 324 320.9 316.2 309.1 309.9 314.6 321.5 324.8 330.3 331.7 333.1 332.6 333.2 339.3 344.4 348 350.9 353.3 354.7 355.5 356.4 357 357.4 356.8 355.7 354.8 353.9 353.8 353.6 353.5 353.5 353.4 352.5 351.6 350 347.3 345.6 342.1 338.5 333.7 328.8 323.8 318.6 312.4 303.1 287.6 273.5 261.6 259.8 259 258.5 259.5 259.3 261.8 266.3 272.2 277.7 281.8 284.9 286 286.4 286.6 285.4 282.8 275.9 263.2 267 279.1 285.9 289.2 291.4 293.9 292.7 287.8 280.1 289.1 293.3 294.4 295.3 294.9 296.5 299.5 304.1 309.7 315 318.2 320.4 322.1 321.8 319.8 311.5 302.6 310.2 314.2 316.5 317.3 318.7 322.6 326.4 327.6 326.4 323.5 322.5 320.3 317.8 312.1 300.7 298.6 299.3 295.7 297.1 294.9 306.2 311.9 313.9 314.9 316.6 318 320.2 322.6 323.8 324.5 325.4 326.5 328.2 330.9 332.4 333.6 334.2 336.2 338.4 340.3 339.7 337.6 335.4 331.6 326.5 320.2 311.7 298.9 288.5 294.2 297.7 295.9 294.1 292.1 288.5 284.2 276.6 261 260.9 258.8 262.4 265.6 264.5 252.3
386.1 389.2 391.4 392.4 391.8 390.2 388.4 386.5 384.5 381.7 378.7 376.3 375.2 374.2 374.6 375.7 375.7 376.1 374.9 372 368.5 365.9 360.3 356.2 353.5 352.8 351 349.1 347 345.6 345.3 345 345.4 345.5 345.2 344.4 343.5 343.4 342.8 342.4 341.1 339.1 336.3 332.6 329.3 326.8 322.9 316.8 309 308.3 315.8 321.8 324.4 325.6 325.1 324.6 330.4 335.6 340 344.3 346.8 349 350.8 351.8 352.8 353.6 353.5 353.1 352 351.2 350.3 351.7 351.7 351.5 351.6 351.1 350.3 349.2 347.7 346.1 343.2 340 335.7 332.2 327.8 323.6 318.8 315.3 311.4 304.4 291.8 275.6 264.8 261.4 258.3 258.3 257.5 257.9 258.2 260.3 264.1 269.8 275.2 277.3 280 279 279.5 276.3 265.7 260.5 275.8 281.7 287.1 290.6 293.2 294.9 295.2 294.6 293.1 285.9 284.6 289.4 294.3 300 303.1 305.3 307.4 310.2 314 317.1 319 319 316.5 312.6 297.9 290.3 298.6 303.1 307.8 312.8 317.7 321.6 324.4 324.5 323.1 321.7 319.8 315.4 311.8 306.7 311.6 313.1 312.4 309.7 305.4 296.5 292.2 300.2 303.8 305.1 305.6 307.6 310.6 313.5 314.8 314.5 317.1 319.6 321.4 322.7 323.8 328.2 330 333.6 336.1 336.7 336.6 335.6 333.1 329.1 324.4 317 307.8 292.3 298.6 303.3 302.7 300.7 298.6 296.4 292.1 282.4 268.2 271.6 275 275.4 274.9 273.4 268 249.4
385 389.2 391.3 392.6 392 391 389.9 388.6 387.3 385.1 383.3 382.4 380.5 379.5 378.6 378.8 378.5 377.7 376.4 374.3 371.6 369.1 365.8 363.2 361.2 359.7 358.5 357.1 355 354.5 353.8 353.6 353.2 353 352.1 351.5 351.9 351 350.5 349.6 347.9 345.4 342.4 339.6 335.2 331 326 320.6 311.4 308.6 311.5 316.3 319 322.3 321.7 322.7 325.3 327.7 334.1 339.2 342.6 344.6 346.7 348.3 349.3 350 350 349.2 347.5 347.1 347.8 349.2 350.4 350.1 349.3 348.6 347.5 346.1 343.7 342.4 339.7 336.6 333.2 328.9 324.2 321.2 318.8 317.4 315.4 309.4 301.9 293.7 283.3 275 269 258.5 257.1 257.3 256.7 256.5 256.4 257.2 261.1 267.2 271.4 273 273.5 268.3 256.3 270 279.4 283.6 287.4 291.5 294.1 295.6 296.7 296.7 297.2 298 301 304.1 307.2 309 310.1 312 313.9 315.4 317.3 318.5 317.8 314.9 310.9 297.9 282.4 297.4 304.6 310 314.2 315.9 317.8 318.5 319 321.8 321.1 320.6 320.1 318.5 317.2 316.2 316.9 317.2 316 313.8 309.8 305.1 295.1 284.9 291 294.8 295 297 301 303.2 302.3 304.9 310.6 314.1 314.8 318.5 320.8 323 324.5 329.1 331.2 333.4 333.1 332.5 330.8 327 321.4 312.6 299.5 300.6 304.4 307.6 307 304.5 301.3 297.1 290.4 276.1 278 281.3 282.4 282.8 281.5 278.6 271.6 250.1
383.7 387.5 390.4 391.9 393.2 393.2 391.9 390.6 389.5 389.3 388.2 387 385.1 383.8 382.8 381.9 381.6 381 379.8 377.7 375.6 373.6 371.1 368.6 367.7 366.5 365.4 364.3 363.1 362.6 360.5 360.1 360.4 360.3 360.3 360 359.2 357.8 356.5 355 352.5 350 347.1 343.7 339.7 334.4 327.7 320.3 306.8 304.9 312.9 304.5 313 320.3 318.7 318.5 323.4 327.7 332.9 337.5 339.5 341 342.5 344.1 346.2 346.8 346.3 345.4 343.9 344.3 346.6 348.8 349.1 347.9 346.6 345.6 344.2 341.3 338.6 336.8 334.4 331.1 327.3 323.2 319.1 316.8 315.9 315.4 313.7 310.8 305.8 300.1 293.3 287.3 283.1 279 274 267.9 258.6 255.5 255.4 255.6 255.4 255.3 261.5 265.3 267.6 260.4 261.6 274.6 279.6 283.9 287.8 292.6 297.3 299.2 299 299.2 298.3 299.4 302.5 306.6 311.4 314.2 316.3 318.2 319.9 321 320.7 318.6 317.2 308.8 304.1 287.4 282.1 300.7 310 314.4 319.4 322 317.9 316.6 317.8 320.5 323.4 323.7 323 321.8 320.6 319.1 319.7 318.8 317.5 314.7 311.2 307.2 301.5 291.4 283.5 284.2 285.4 287.4 291.5 290.2 294.3 301.1 306.7 310.2 309.5 311.4 313.9 314.4 319.8 324 326.8 329 330.2 330.3 329.4 326.1 322.4 316.1 308.8 305.7 307 308.9 308.5 306 302.2 297 284.1 284.1 286.6 286.5 288.4 288.2 286 281.8 274.4 259.1
380.5 383.9 387.7 390.4 392.3 393.2 393.7 393.2 392 390.3 389.3 388.9 388.5 387 386.1 385.1 384.3 383.6 382.5 380.5 378.6 376.2 374.2 373.6 372.8 371.6 371.1 370.4 370.7 369.8 368.1 367.7 367.8 367.7 367.9 367.8 366.5 364.7 363.1 360.5 357.5 354.2 350.1 345.8 341.2 335.1 328.5 319.9 307.7 319.5 318.6 313.6 311.2 312.1 315.6 321.1 327.2 330.7 333.2 335.6 336.9 338.4 340.7 342.8 344 343.9 342.7 341.6 341.9 344.8 348.1 349.8 350.2 348.5 346.4 343.5 339.1 336.3 332.7 329.1 326.2 321.6 317.4 312.9 308 309.3 311.8 311.1 310.2 308.2 305.6 300.9 297.1 292.8 289 285.5 282.3 278.2 275.4 271.3 266.8 258.8 254.8 254.5 254.1 257 256.7 255.2 266.5 271.5 276.6 281.1 286.9 293.5 298.1 298.5 298.2 297.9 297.6 299.1 303.1 307.6 314.2 318.3 321.5 322.1 323.4 323.5 322.7 320.9 317.3 310.9 297.7 280.6 277.4 296.4 309.1 312.9 320.1 319.3 316.3 316.3 319.4 323.5 326.5 326.7 324.8 322.9 321.2 319.6 319.8 319.3 318 316.1 312.1 307.8 303 298.6 294.5 289.2 281.8 277.5 278.6 289.5 294.4 298.9 302.2 303.8 301.9 304.3 305.2 310.4 316.2 320.5 324 326.9 329.1 330.2 328.4 325.4 321.6 315.9 310.5 308.8 310.5 311 309 305.8 302.3 292.1 288.9 293.3 292.5 290.5 289.1 288.9 286.2 281.5 275.3 267.2
375.7 380 383.1 386.7 390.1 391.8 392.7 392.8 392.4 391.8 390.5 390.1 389.6 388.7 388 386.7 385.5 384.4 382.9 381 379 376.7 375.2 374.5 374.5 373.9 373.7 373.7 373.7 373.6 372.6 371.9 372.4 372.6 373.1 371.9 371 369.1 366.7 364.6 361.4 358.3 353.1 346.9 340.2 333.6 325.9 315.4 305.5 315.4 318.3 314.7 307.6 315.6 321.3 326.5 329.9 331.5 332.2 332.3 332.7 335.1 337.4 339.3 340 339.7 338.5 340.1 343.8 347.5 350.7 353.4 352.9 351 347.9 344.3 338.2 328.4 325.1 317.8 312.4 307.4 302.2 299.6 300.2 304 306.1 306 305.4 302.7 300.9 298.5 296 293.2 289.8 286.4 283.6 280.4 277.1 274 269.8 264.6 259.1 255.3 253.4 253.7 254 254.4 259.6 264.7 270.7 276.2 284.7 289.8 292.3 293.3 294.1 294.1 293.5 298.2 302.5 307 311.6 316.3 320.5 321 321 320.9 320.3 319.1 317.2 313.4 305 281.8 272.5 288.6 303.9 308.5 312.2 312.3 311.2 316.4 322 325.1 326.3 326.3 324.8 322.8 321.4 320.1 318.1 316.8 315.8 314.1 311.6 307.7 304.2 300.3 296.9 292.9 290.1 286.7 278.4 280.9 291.9 294.8 296.7 297.1 295.4 295.8 302.8 308.6 314.4 319.3 323.6 326 328 328 325.6 323.1 319.3 314.9 311.9 310.8 310.8 310.2 308 304.8 299.5 289.5 296.2 296.4 294.7 292.7 290.8 287.9 283.6 277.7 272.7 266.6
364.3 372 376.1 380 384.7 387.7 389.9 390.4 390.6 390.6 390.7 390.8 390.3 389.8 388.7 387.3 385.9 384.5 382.2 379.7 377.5 375.1 373.1 372.9 373 373 372.9 372.8 373.6 373.5 372.8 372.5 373.8 374.7 375 374 372.8 371 369 366.8 363.5 359.7 354.7 347.7 339.5 326.8 317.3 318.4 309.7 305.1 312.4 309.4 311.6 319.4 323.4 326.5 327.9 327.8 326 326.5 326.3 330 333.6 335.3 334.7 335.8 339.8 343.3 346.7 349.9 352.8 353.7 354.4 352.6 350.6 347.3 341.5 333.7 325.6 322.4 318 313.8 312.7 308.3 300.9 294 296.2 299.2 298.3 297.9 296.3 293.8 292.2 290.3 287.8 283.9 280.7 278.5 275.2 271.7 266.6 261.1 257.3 256.4 253.4 253.5 253.7 253.7 254.1 257 261.4 266.6 276.3 283.7 287.6 289.1 289.2 289.3 293.2 296.7 300.6 305 309 312.8 316.3 318.5 319.3 317.8 315.7 313.7 312.2 308.6 302.3 280.9 268.9 285.9 299.4 301.2 302.8 305.6 310.4 315.6 319.7 322.5 324.2 324.5 323.1 322 321.5 320.3 318.9 316.6 314.2 311.5 309.3 307.3 303 299.3 297.1 294.5 292.3 288.8 284.6 275.7 285.2 285.8 288.2 288.8 293.1 300 306 311.7 316.7 321.2 324.9 326.6 327.1 327.5 325.2 322.5 319 315.6 312.6 309.9 308.3 306.4 303.3 299.4 294.8 295.6 298.6 298 295.2 293.1 288.9 284.8 279.1 273.6 265.8 263.1
348.6 356.4 365.5 372.8 377.6 381.7 384.6 386.3 387.5 387.6 388 388.9 389.8 390.5 390.2 388.6 386.8 384.7 382.5 378.9 374.8 372.2 371.1 370.5 369.8 369.3 369.9 370.4 370.7 371.3 371.8 372 373.7 374.8 375.1 373.6 372.2 370.9 369 367 363.9 360.9 355.7 350.5 344.3 338.6 332.1 325.8 316.8 307.9 303.5 303.7 307.1 315.1 320.1 322.3 322.1 313.5 316.5 319.7 323.5 325.3 328.8 332.1 336.4 341.4 345.9 349 351.4 353.5 355.1 356.2 356.3 355.2 353.8 351.7 347.6 343 339.4 335.6 331.8 325.9 322.1 314 306.1 297.5 288.1 286.6 289.1 288.7 288 286.9 285.4 284.1 282.5 280.2 276.4 272.6 269.7 266.1 260 260.1 265.2 264.3 258.6 254.6 253.5 251.5 251.8 252.8 251.8 256 263.2 274.3 281.3 283.9 284.8 285.4 287.9 293 296.8 301.5 305.4 309.6 313.6 315.5 315.9 314.1 311.7 309 306.9 303.9 299.2 283.8 267.3 283.6 290.5 292.7 297.9 303 307.7 312.4 316.1 320 323.9 323.9 323.5 324 323.7 322.5 320.9 318 315.4 312.3 307.9 306 302.7 299.5 294 294.7 294.3 290.5 282.3 274.5 282.9 287 290.8 295.2 299.7 304.3 309 313 316.9 320.5 323.9 326.2 326.7 325.8 324.1 323.7 320.8 317.2 313.7 310.4 308.6 306.2 303.5 302 300.7 301.2 301.1 299.6 296.5 291.8 287 281.5 275.6 269.4 265.5 264.9
329.9 338.1 348.8 358.7 366 371.7 375.4 378.2 381.2 383.2 385 387 388.8 389.4 389.1 387.7 386.1 384.3 381.7 377.7 373.3 367.6 365.3 365.9 366.5 365.6 366.7 366.8 367 367.1 368.1 370.4 371.8 372.8 373.4 372.1 370.6 369.2 367.8 366 363.7 361 358 353.3 348.5 344.1 338 331.4 324.9 318.5 310.1 302.6 302.2 305.5 311.1 313.5 309.5 315.8 324.7 326.7 329 332.1 335.8 340.5 345.1 349.5 352.6 354.6 355.4 356.5 358.4 360.3 360.3 360.1 359.2 356.7 354.1 350.2 347 343.1 339 332.4 326.2 316.6 308.5 301.2 293.7 290.4 285.3 281.1 278.2 277.8 275.5 274.3 272.4 270.7 268.3 266.1 262 262.9 269.9 274.8 275.1 273.7 271.2 264.9 256.6 251.1 250.9 250 251.1 250.9 252 260.9 272.5 277.3 278.1 282.2 285.6 288.9 292.9 297.6 302.4 306.4 310.5 312.6 312.4 310.5 307.3 303.9 301.2 298.6 293.7 284.1 264.3 275.1 282.3 289.4 294.5 299.7 304.8 308.5 313.1 316.7 319.9 322.4 324.3 325.6 326.5 324.8 322.9 319.8 315.9 312.1 308.2 305.7 302 297.7 293.9 286 288.6 287.5 277.6 276 285.9 289.2 293.3 297.1 301.7 307.5 312.2 316 319.5 322 324.5 326.3 326.1 326.6 324.8 324.7 322.8 319.3 316.1 312.7 310.1 309.1 307.9 307 305.6 304.7 302.7 301.1 297.1 290.3 284.6 277 271.6 271.1 271.8 275.6
330.4 331.9 333.2 343.3 350.1 356.6 359.6 366.2 372.7 377.9 382.7 384.9 386.3 387.3 386.9 385.8 384 381.8 379.2 376 371.7 366.4 359.4 358.7 359.6 360.8 361.2 361.9 362.6 362.6 364.5 367.3 369.1 370.3 370.9 369.6 368.3 367 365.4 364.1 361.8 360.5 357.9 355.1 351.6 348.1 342.8 337.2 330.5 324.4 319.1 311.1 303.5 300.9 302.7 304.5 313.5 323.3 329.5 332.4 334.7 337.2 341.2 345.2 349.6 353.6 356.1 358 358.9 359.7 361.7 362.9 363.4 364.3 363.8 361.9 359.1 356.1 353.8 350 345.6 338.3 332.3 325.8 317.9 310.6 304.2 299.6 295.9 292.2 288.8 285.2 280.9 277.4 273.3 269.6 266.7 266.8 271 273.4 280.4 281.9 282 281.6 278.6 275.5 272.4 264.5 254.2 251.2 250.6 249.8 250.2 250.8 258.7 269.5 272.6 276.6 280.1 284.4 288.5 294.1 299.4 303.3 306.6 307.4 306.8 304.8 301.8 298.2 295.2 292.5 287.8 279 262.6 273 280.7 286 290.2 294.5 298.9 304.4 308.6 313.1 318 322.1 325.1 327 326.8 326.1 323.9 319.4 315.5 311.7 308 304.7 301 296.1 291 286.1 280.6 276.2 272.3 268.7 275.2 284 291.5 300.6 304.2 308.7 313.2 317.6 321.8 324 326.3 327.8 328.6 328.5 328.6 327 325 321.6 318.8 316.3 312.9 314.2 313.6 313.3 312.2 310.7 307.7 303.5 296.6 287.8 282.3 281.6 282.2 283.3 286.9 293.6
349 351.8 351.7 348.6 354.5 352.1 364.7 371.9 377.5 380.1 382.7 384.5 385.6 386.2 384.5 382.9 380.2 376.2 374.3 371.6 368.5 364.2 358 352 349.1 349.8 351.4 354 355 358.3 361.7 363.9 365.8 367 367.5 366.5 365.3 362.8 361.7 360.8 359.5 358.3 356.8 354.8 352.8 348.8 345.3 341.1 335.7 330.1 325 319.2 312.5 305.3 299.3 306.8 319.7 327.5 331.6 335.4 338 341.1 345.2 348.7 352.3 355.7 358.9 360.8 362.4 364 364.9 365.7 366.7 367.1 367 365.5 364.9 362.8 360.3 357.6 353.9 348.4 342.8 337.8 332.3 328.2 322.8 319.7 317 313.2 310.5 305.8 300.4 294.8 289.3 285.6 282.1 282.2 282.5 284.8 285.4 286.6 287.6 286.9 285.1 282.5 280.7 278 274.2 266.9 262.4 256.5 249.3 250.2 251.5 257.3 266.3 270.9 274.5 278.3 283.4 289.8 295.6 298.7 300.6 300.7 300.1 298.1 295.6 292 289.2 286 282.3 273.4 260.6 272.7 279.3 281.5 283.5 288 293.7 300.1 305.3 311.6 316.7 323.9 327.4 328.2 328.1 327.3 325.8 322.6 320.2 317.1 315 312.3 308.3 304.3 301.1 297.8 295.1 291 284.3 269.6 268.9 277.8 289.6 296.5 303.4 309.3 314 318.2 321.1 323.5 325.7 327.5 329 329.6 329.4 328.4 326.4 324.4 322.6 321.9 321 320.5 319 318.4 316.6 313.2 310.2 306 300 293.5 293.2 293.8 295.5 298.6 300.8 302.1
356.5 359.6 361.8 363.3 364.2 366.5 370.4 375.1 379.6 382.4 385.1 386.8 387.4 387 384.6 380.8 377.1 374.1 367.1 362.8 360.9 359 354.3 348.5 344.3 343.9 344 346.6 349.6 351.7 355.2 358.7 361 362.2 363.2 362.9 361 357.7 356.6 356.1 354.2 354.6 352.3 351.9 350.8 348.5 345.7 342.2 337.2 333.3 328.5 324.2 318.4 313.3 302.4 301.5 320.2 327.2 331 334.5 337.5 340.8 344.7 348.7 352.3 355.3 358.7 361.5 364 365.7 366.8 368.2 369.1 370 370.1 369.7 368.1 366.6 365 362.8 360.8 357.9 355.2 351.3 346.7 343.4 339.6 335.7 331.9 328.9 325.1 321.2 316.9 311.9 307.8 303.4 298.8 298.5 294.7 293.2 292.2 291.2 291.3 290.2 289.1 287.6 284.8 281.7 278.3 275.2 272.2 267.6 260.6 250 249.2 250.8 261.6 265.6 267.2 269.5 275.5 283.4 289 291.6 293 293.7 293.4 291.1 288.9 285.9 283 279.9 277.9 273.2 259.2 269.9 273.1 273.2 275.8 280.2 289 296 301.9 308.3 316.4 322.4 325.7 328 328.7 329.3 328.5 327.4 325.5 323.6 321.9 319.9 316.3 314.1 310.8 308.1 304.9 300.5 292.7 277 266.3 281.8 293.6 300.4 306 310 314 317.4 320.5 323.7 324.8 326.5 328.4 330.1 331 331.4 329.4 328.8 328.2 328.4 327.6 326.1 325.8 324.9 323.3 318.8 316.3 312.5 300.9 305.3 306 307 307.6 307.4 308.6 309.1
359.9 362.7 364.8 366.1 369.6 373 376.4 379.2 382.2 384.5 386.3 388.1 388.5 387.7 386.6 384.4 381.9 378.5 373.6 367.6 357.6 349.6 346.5 342.2 340.8 339.2 338.2 339.5 342.6 345.6 348 350.5 353.3 354.1 355.4 355.1 353.2 350.5 347.1 343.6 341.4 342.2 341.9 341.9 342 341.6 339.8 337.7 335.1 331.7 328.5 324.9 321.6 317 308.1 298.1 313.8 323.9 327.1 330.9 333.2 336.9 340.8 344.4 348.3 352 356.1 359.6 362.9 365 366.7 368.2 369.3 370.7 371.2 371 371.1 369.9 369.4 367.8 366.1 363.9 361.6 359.7 357.6 353.9 349.9 346.3 343 339.3 335.1 330.8 325.9 321.6 318.3 314.4 311.1 308.8 304.5 302.7 299.9 297.9 296.7 295.3 293.8 291.5 287.5 283 278.1 274 270.2 266.5 262.1 255.6 246.9 248.5 252.4 260.7 260.5 263 268.1 275.7 282.5 285.7 287 287.1 287 284.6 281.9 279.5 276.6 274.4 274.3 271.4 254.2 260.5 264.3 268.6 274.7 281.8 286.5 293.4 298 305.3 312.5 318.8 324.5 328.3 330.3 331.9 332.2 331.7 331 330.3 328.6 326.9 324.5 322.1 319.1 315.7 311.5 305.3 293.2 272.3 266.7 280.2 294.6 301 305.9 309.2 311.7 316.5 319.8 320.6 324.7 327.2 331.1 333.8 335.1 335.2 334.9 334.3 334.3 334.2 333.3 332.2 330.9 329.8 327.6 325.6 322.5 318.4 315.6 315.7 315.7 315.6 315.4 314.5 314.9 315.2
359.5 361.7 365.4 368.3 372.7 376.5 379.7 382.7 385.2 387.2 388.5 389.6 390.8 389.6 388.3 387 384.2 380.7 374.3 362 359.3 355.3 346.3 346.7 344.6 342.7 338.8 335.7 334.9 336.9 339.5 342.1 344.8 346.2 345.3 342.4 337.5 333.7 329.6 328.3 327.6 327.4 325.9 326.5 325.6 326.1 327 326.6 324.7 321.6 321.5 319.4 318.3 315.3 310.2 297.7 306.5 316.3 319.2 321.5 325.1 328.6 332.7 335.4 338.3 344 349.3 355 359.5 361.8 364.1 365.7 367.4 369.5 370.3 371.2 371.8 371.2 370.9 370.8 370.9 369.8 368.8 365.6 363.8 361.1 358.4 354.9 351.2 346.5 342.1 337.9 334.1 328.8 324.8 321.1 317.4 314.8 312.4 309.3 306.1 302.7 299.9 297.4 293.8 290 285.3 280.3 275.1 269 263 259 254.8 249.7 248.2 248 248.9 252.9 256.3 259.5 266 271.1 277 279.7 280.8 280.3 279.6 277.4 274.1 271.5 270.2 270 270 266.9 252.4 254.8 264.4 273.6 280.4 287.5 292.7 298.3 303.4 309.3 316.5 322.2 326.7 330.5 332.9 334.4 335.6 337 337 336.4 335.4 333.4 331.2 329.3 326.1 321.9 316.7 308.7 289.2 269.9 266.7 285.8 293.9 300.3 303.8 303 305.4 309 313.5 321.4 327.6 332.4 337.2 340.3 341 341.9 341.6 341.2 339.5 339.3 338.1 337.1 335.6 333.9 332.5 330.3 327.9 325.1 323.6 323.4 323 322.7 322 321.4 320.6 319
356.2 361.5 366.9 371.7 375.5 379.5 382.6 385.7 388.1 390 390.7 391.6 392.9 391.8 390.5 389.2 386.4 382.7 376.7 372.6 367.8 361.6 357.8 357.7 354.3 349 344.2 339.4 336 333.8 330.8 327.7 327.7 328.4 329.6 324.1 321.5 324.8 325.8 322.3 316.7 315.3 313 311.4 310.7 309.9 309.6 311.3 309.9 310.6 311.1 310.1 310.8 309.8 306.8 300.6 297.9 302.9 306 308.8 311.8 315 318.3 321.8 325.7 329.9 335.8 343.9 352.1 357.8 360.9 362.3 363.5 365 366.9 368.1 369 369.2 369.3 370.5 371 371.2 370.9 370 368.4 366.8 364.7 361.6 358.2 354.1 349.7 345.4 340.6 335.7 330.8 326.2 322.3 318 315 311.8 308.7 305 301.2 297.3 293.2 287.9 281.9 273.9 265.9 259.5 253.9 252.6 250.5 249.3 248.5 248 247.8 248.5 255.6 262.2 266 269.4 273 274.3 274.5 273.7 271.9 269.1 265.2 262.7 265.1 268.6 267.9 259.5 248.6 255.9 269.1 276.5 282.1 287.8 293.1 297.9 302.8 308.2 315.8 323.5 328 332.4 336.2 338.4 340.9 342.3 342.9 342.6 340.6 338.4 336.5 334.4 331 326.6 321.2 310.1 288.7 269.9 266.1 285.3 294.4 300.6 292.2 294.3 308.1 315.4 320.7 325.8 330.8 334.9 338.2 340.9 344.1 346.1 347.1 346.4 344.8 343.5 342.2 340.9 339.6 338.1 337.1 335 332.8 331.5 330.5 329.2 329.2 328.4 326.8 325.8 324.4 322.5
357.8 364.7 370.8 374.7 378.5 382.1 385 388 391 392.9 393.8 394.4 395 394.5 393.1 391.6 389.4 386.8 382.8 371.5 364.3 364.4 369.3 367.6 363.2 358.5 354 348.6 344.7 338.8 334.1 335.5 335.5 335.5 336 338.2 341.9 342.8 342.6 340.4 338.9 335.6 332.1 328.6 325.4 323 317.9 311.1 306 304.1 303.5 302.4 300.7 300.5 298.9 297.6 297.7 293.4 294.1 294.3 294.2 297.5 301.1 304.9 308.3 313.2 318.9 325.7 335.7 343.6 352.9 355.4 356.4 358.2 360 360.8 362.3 363.7 365.6 366.8 367.4 369.1 369.6 369.7 369.1 367.8 365.7 363.3 359.8 355.7 351.4 346.6 342.4 337.7 333 328.3 324.5 319.2 314 309.9 306.9 302.9 299.1 295.1 290.6 285 274.8 265 256.7 254.2 257.5 258.6 256.3 251.6 247.9 246.6 247.6 259.8 268.3 271.5 270.2 269.1 269.4 269.1 268.1 265.9 263.4 259.6 257.9 261.9 265.7 267.3 266.3 257.1 248.1 262.2 270.1 274 278.1 283.7 287.9 293.4 299.2 308 318.9 327.6 334.5 339.4 342.6 345.5 347.4 347.3 346.8 345.5 343.8 341.9 339.9 337.2 334.4 329.8 323.3 304.8 287.1 271.7 263.1 275.8 292.2 286.6 282.3 298.9 314.8 322.2 327.5 331.7 335.2 337 338 339.6 342.2 344.4 346.7 346.3 346.6 345.3 344 342.7 341.7 341.8 341.5 339.7 337.9 336.5 335.4 334.2 333.3 332 330.1 328.1 326.6 324.2
364.4 371 375.3 378.9 381 384.2 387.3 390.5 393.6 395.7 397 397.6 398.4 398.2 397.8 396.3 394.9 392.5 388.8 385.7 383.4 379.2 379.6 376.9 373 368.7 364.2 360.2 355.3 345 346.5 348.7 349.3 352.1 355 357.7 361.2 362 362.4 361 359.6 359.5 356.4 351.5 346.5 341.1 333.2 322.3 309.1 307.1 306.5 304.5 304.2 306.1 310.1 312.5 314.4 314 312.5 308.7 304.6 298.2 292.1 291.1 291.8 294.4 300 306.2 315.3 324.2 335.6 343.6 348.1 350.5 352.2 352.8 353.8 355.1 358.3 360.7 361.8 364.8 365.3 365.5 365.4 365.1 363.3 361.7 357.7 353.3 347.5 342.5 336.8 330.9 325.1 319.8 314.8 308.2 305.1 300.9 297.5 294.5 292.6 290.1 286.1 278.1 265.7 260.2 264.9 273.1 276.7 275.1 269 256.2 247.7 246.9 256 268.8 272.8 272.7 269.4 265.5 263.5 261.6 258.6 255.8 254.4 251 256.6 259.2 261.6 262.4 261.2 253.8 250.6 261.5 265 268.2 272.2 279.8 284.9 294.4 306.1 318.2 327.4 335.5 341.7 346.5 349.9 352.7 353.7 353.3 352.6 351.4 350.3 348.2 344.9 340.2 336 329.4 313.8 295.4 277.8 264 262.2 264.9 280.9 281 280.1 297.2 318 325 330.6 333.8 334.9 335.2 336 337.7 339.2 341.2 342.6 342.9 344.4 345.2 344.8 343.9 342.1 342.8 342.7 341.8 340.3 339 337.6 336.6 334.9 333.7 331.3 329.4 326.4 323
372.4 377.4 379.8 382.7 384.8 387.5 389.8 392.9 396 398.6 400.2 401 401.7 401.4 401.2 400.9 399.8 398.5 396.7 394.2 391.6 389.2 387.3 385.4 382.3 378.5 374.6 370.3 364.2 345.2 356.1 358.4 359.8 364 367.4 370.3 371.6 372.5 372.8 372.4 371.3 369.4 366.9 363 356.8 350.5 340 318.7 317 317.9 314.5 312.4 310.6 318.4 325.2 329.9 331.6 334.1 334.9 333.4 330.7 324.9 315.7 306.7 297 289 289.9 289.4 296 306.5 319 330.9 338 342.5 343.9 344.7 344.8 345.2 347.8 351.1 352.7 356.1 358.7 360.3 360.8 360.8 359.2 356.4 351 342.6 334.1 325.1 317.6 311.6 304.3 301.1 295.4 291 287.9 285.5 283.8 282.5 282.5 279.9 274.5 265.2 260.1 272.6 282 286.7 286.9 284 276.9 262.8 248.2 246 255.3 270.4 271.7 270.1 267.1 262 254.9 248.2 244.9 242.9 243.3 244.7 248.3 250.4 250.9 250 250.8 243.9 247.8 256.2 256.2 264.4 274.4 286 298.4 310.2 320.4 328.9 336.5 342.9 348.3 352.5 355.3 357.5 358.7 359.2 358.3 357.3 355.4 351.7 347.9 342.4 336.1 320.9 303.2 282.4 274.6 277.1 272.9 260.1 260.5 268.2 274.7 291.9 307.8 319.7 326.3 329 329.9 330.7 331.4 333 334.5 335.9 337.8 339 339.8 340.5 341.2 341.7 342.1 341.4 342.1 341.2 339.9 338.6 337.8 336.9 334.8 333 330.3 327.8 324.9 321
378 381.2 383.6 385.5 388 390.3 393.1 395.8 398.6 401.1 402.8 403.9 404.5 405.2 404.8 404.3 403.7 402.7 401.9 400.1 398.3 396.5 394.4 392 389.5 386.9 383.7 379.1 368.1 359.7 368.8 370.2 372.1 373.6 375.8 377.6 378.4 378.4 377.9 377.2 376 374.1 371 367 360.5 353 333.6 327.4 336.3 338.3 334.8 323.6 325 332.4 339 344.2 347.2 348.8 350.8 352 352.3 351 344.7 333.5 323 314 303.8 295.2 288.7 288.5 301.1 315.1 325.3 329.6 332.8 334.2 334.6 334.8 334.6 338.2 341.4 346.9 350.7 353.9 355 354.9 352.2 345.9 339.1 328 314.7 308.8 302.9 299.8 294.5 288.8 286 282.9 279.1 276 273.1 271.8 270.5 269.6 266.6 262.7 270 283 291.7 295.9 296.2 293 286.5 270.5 250.3 246.3 247 264.1 267.8 266.5 262.5 253.7 244.9 243.4 243.3 242.6 241.9 240.4 241.3 240.6 240.4 241 240.7 241.2 242 245.2 252.7 270.8 286.3 299.7 311.6 320.6 328.1 335.4 342.2 348.1 353.6 356.8 359.2 361.3 362.2 362.4 360.8 359 356.2 352.7 347.1 340 325.5 310.4 292.1 280.3 287.8 294.6 291.4 277.3 266.4 256.8 263.4 278.1 290.5 302 315 321.4 322.1 321.9 322.2 323.3 325.3 326.7 327.5 328.9 330.6 331.6 333.1 334.1 336.1 338.4 339.1 339.4 338.4 337.8 337.6 336.8 334.3 332 329.7 326.7 322.5 318.5
380.1 382.3 385.9 388.3 390.7 392.8 395.5 398.5 400.7 403.1 404.9 406.3 407 407.5 407.9 407.5 406.6 406.3 405.7 404.6 403.1 401.3 399.5 397.2 395.2 393 389.6 385.3 365.3 377.2 378.2 379.1 380.7 381.5 382.6 383 383.4 383.1 382.5 381 379.5 377 373.7 369.2 348.2 341.5 334.3 349.1 354.2 353.8 350.9 335.6 340.5 347.3 350.6 354.9 357.8 360.7 361.9 362 362.2 361.9 360.5 356.4 348.9 336.7 323.5 313.5 301.7 292.3 287.1 304.7 310.8 317.6 320.7 321.7 320.5 319.8 319.5 324.1 330.2 336.4 343 347.4 350.6 349.9 348.4 344.2 339 335.3 332.4 314.8 319 314.2 309 304.3 300.2 296.9 292.5 287.6 283.4 277.4 272.8 273.8 272.7 268.5 271.7 284.1 294.9 299.9 300.7 296.4 290.6 277.2 261.6 246.4 245.4 252.8 260.9 259.7 253.1 245.5 243.2 243.8 246.1 248.9 247 245.5 243.4 241.6 240.6 240 239 239.9 240.7 240.8 245.2 267.6 292.8 305.8 316 325.1 332.5 339.9 347 352.4 356.5 360.5 362.4 363.4 363.4 362 360.2 357.1 354 348.6 341.6 326.7 311.4 298.4 284.9 292.8 302.5 309.5 306.1 297.3 283.2 267.5 256 261.3 273.5 284 295.9 310.2 311.6 310.5 308.8 308.2 308.5 309.9 311 312.2 314.6 316.3 317.5 320.6 325.1 328.9 331.3 333 332.5 331.2 331.8 332 331.6 330.6 328.6 326.5 323.3 318.8
380.7 382.8 385.3 388 390.9 393.7 396.1 398.8 401.5 403.8 405.9 406.9 408.2 409 409.3 409.7 409 408.9 408.5 407.4 406.2 404.8 403.2 401.5 399.7 397.4 394.7 386.9 379.6 386.8 387.4 388 388.4 388.9 388.5 388.4 387.6 386.6 385.8 384.2 381.7 379.3 376.2 369.1 366.3 363.5 353.8 362.7 363.1 361.8 359.6 348.8 353.9 357 359.3 361.4 365.5 368 369.3 369.9 370 370.2 369.3 366 361.4 353.4 343.2 329.4 314.9 302.8 292.5 291.4 296.3 302.7 305.4 305.6 307.7 307 310.3 313.9 321.9 328.6 337.9 344.1 347.7 349 350.4 350.5 348.1 346.9 343.2 324.8 333.5 334.6 332.8 330.5 328.2 322.8 317.7 313.8 308.9 300.1 293.5 287.4 285.8 277.2 271.7 280.1 292.1 297.3 297.8 295.2 290.1 282.9 274 259.2 244.9 245.6 246.4 248.8 245.2 244.3 258 268 272.3 274 273.6 272.9 271 268.7 266.1 259.8 252.3 244.1 239 239.4 241.6 262.7 289.6 303.9 315.5 325.4 334.8 342.9 349.4 355 359.7 363.2 364.5 364.7 363.3 360 356.5 352.4 347.9 341.1 327 312.3 297.8 290.3 295.7 305.3 316 322.3 318.6 310.8 301 284.7 267.3 256.3 255.8 267.4 278.1 291.7 296.9 295.6 293.2 291.1 291.8 291 290.5 292.2 294 294.5 295.9 302.2 309.6 313 317 319.6 320.4 321 322.9 325.3 326.9 326.6 325.7 323.9 321.4 317.3
379.6 381.7 384.8 387.2 390.1 392.8 395.8 398.7 401.5 403.8 405.5 407.4 408.4 409.5 410.3 410.7 411.1 410.6 410.2 409.6 408.3 407 405.7 404.4 403 400.7 398.2 393.5 392.3 393.9 394.4 394.5 394.5 393.9 393.6 392.5 391.7 390.5 388.8 386.5 383.8 381.3 378.3 374.4 372.1 369.7 368.2 368.9 368.3 366.8 364.8 359 362.2 363 364.6 366.7 370.3 372.5 373.9 375.1 374.8 374.6 373.5 371.3 368.3 362.7 355.5 344.2 329.2 314.7 303.3 294.8 284.5 289.7 292.1 297 302.8 309.6 314 316.8 321.1 328 335.5 342.6 347.2 350.6 352.6 354 353.3 352.1 350.1 346.4 346.9 348.2 348.2 348.7 348.2 346.9 344.7 340.8 335.6 326.7 319 310.4 300.8 286.1 274.4 279 288.1 292.5 292.8 290.6 287.3 282.2 276.7 271 258.7 245.9 244 244.1 247.8 263.3 274.7 288.1 295.4 298.3 297.9 295.6 291.1 285.4 277.7 270.3 263.1 255.3 241.7 238.9 240.5 262.2 280.1 292.3 305.4 320.3 333.7 343.2 351.2 357.4 361.8 365.4 366.1 365.1 362.6 357.7 352.7 346.8 339.5 327.6 313.4 299.3 297.1 297.5 305 314.8 324 328.7 326.5 321.9 312.5 301.9 282.4 265.1 254 252.1 262 274.2 277.8 276.8 274 273.3 273.3 273.1 271.5 271.8 273.4 275.7 276.4 280 286.8 294.4 297.7 300.1 302.6 306.5 312 317.6 319.9 320.6 319.9 318.2 315.2 310.4
377.8 380.5 383.7 386.6 388.7 391.6 394.8 397.9 400.3 402.9 404.9 406.4 407.7 409.6 410.5 411.2 411.5 411.7 411.1 410.5 409.6 408.6 407.4 406.3 405 403.5 401.4 398.3 398 398.1 398.3 398.8 398.1 398.2 397.2 396 394.9 393.3 391.1 388.9 386.3 384.1 380.8 378.7 376.4 374.7 373.8 372.8 371.4 369.8 368.5 367.2 367.2 367.6 368.4 370.4 372.2 375.3 376.8 377.6 377.8 377.3 376.4 374.3 371.1 366.8 360.6 352.5 340.2 326.5 316.8 315.4 291.2 284.2 294 302.2 307.3 316.6 319.9 324 329.7 333.5 337.2 341.5 346.7 350.4 353.2 354.6 355.1 354.8 354.5 353.4 354 354.6 355.5 356.6 356.7 355.9 354 351 346.3 341.2 335 328.2 316.9 294.7 279.3 287 287.7 286.4 285.7 283.3 281.5 278.3 275.2 272.3 267.9 260.8 248.1 260 267.8 278.4 289.4 298.3 304.4 307.8 306.7 302.3 297.4 290.3 279.6 267.6 258.7 251.8 240.4 238.8 241 257.5 266.8 277 289.3 305.3 324.9 343 352.6 358.7 362.9 365.7 366.9 364.8 360.4 355.1 348 339.7 328.4 315.4 303.4 305.7 309.6 313.7 316.5 321.4 328 332.3 333.4 328.8 321.1 310.2 297.3 278.9 263.1 252.3 249.4 254 258.9 258.1 257.1 256.2 255.8 255 254.4 255 255.9 257.5 259.9 262.8 266.7 272.1 276.4 280 283.3 288.9 298.6 306.3 310.6 311.5 311.5 309.9 306.7 300.6
375.7 379 381.9 385.1 387.7 390.6 393.7 396.8 399.5 401.7 404 405.5 407.1 408.9 410.1 410.8 411.7 411.4 411.2 411.1 410.4 409.8 408.8 407.8 406.8 405.6 403.7 402 401.3 401.4 401.2 401.2 401.1 400.5 399.4 398.3 397.3 395.3 393.2 391.1 388.8 386.1 384.3 382 380.2 378.8 377.4 375.9 374.1 372.4 370.8 370.3 370.7 371.4 372.2 373.6 375.1 376.5 378.7 379.2 379.4 378.8 377.6 375.1 372.1 368.6 362.8 355.3 344.4 332.2 316.4 308.9 301.3 284.6 303.3 305.6 313.8 323.3 328 333.4 337.5 340.4 342.6 345 347.5 351.1 353.4 355.1 356.2 356.4 356.7 357.4 358.2 359.2 360.7 361.6 362.1 361.7 359.6 356.5 352.9 347.6 341.6 334.7 322.7 296.5 286.2 296.6 291.2 285 279.9 276 273 270.2 267.4 264.1 262 257.1 252.4 265.8 273.3 281.5 290.6 298.7 303.7 305.6 304.6 300.8 293.5 281.9 267.5 255.4 246.9 241 237.9 239 241.9 248.1 254.7 262.6 275.3 291.4 312.7 334.2 349.6 357.7 362.3 365.1 365.4 362.2 357.1 349.6 340.6 330.6 319.5 316.8 321.8 324.5 327.6 331.2 332.7 332.9 334.4 337.5 336.7 333 327.5 319.5 308.3 295 276.3 260.2 253.2 248.5 246.4 245 244.6 244.7 242.8 242.6 242.7 241.7 242.6 243.9 246.2 248.9 251.3 255.2 259.6 263.7 268 274.9 287 295.4 300.1 301.2 301.4 299.9 294.5 286.3
372.4 376.9 380.2 383.5 386.7 389.6 392.4 395.2 397.7 399.9 402.4 404.4 406.3 408 409.2 410.4 411 411.4 411.4 410.9 410.7 410 409.1 408.3 407.3 406.2 404.7 403.8 403.7 403.5 403.3 402.7 402.2 402.4 401.5 399.7 398.2 396.9 395.2 393.3 391 388.9 387 384.7 383 381.5 379.9 377.9 375.5 373.9 372.6 372.3 372.8 372.8 373.2 373.6 375 376.6 377.7 378.6 379.1 378.7 377.4 374.6 371.7 368.2 362.9 356.6 346.9 329.4 315.2 309 302.6 283.9 288.1 293.1 306.2 319.2 330 336 339.2 341.9 344.7 346.7 348.8 351.3 353.4 355.6 357.5 359 359.5 360.6 361.5 363.3 365.1 366.4 366.8 366.2 364.2 362 357.9 353.5 347.7 338.6 317 296.3 303.3 306.7 299.2 289.4 280.3 274.1 269.9 268.2 263.9 259.5 257.5 256.2 256.2 262.5 268.6 276.6 284.2 291.9 298.4 300 298.6 293.9 281.7 266.8 253.7 243.3 237.9 236.9 237.1 238.4 245.4 256.7 261 262.1 269.8 282.9 299.8 319.9 340.9 351.3 356.8 360.8 361.3 360 355.4 350.3 345.2 339.2 338.9 340.7 341.5 342 344.2 344.1 344.5 344.4 343.6 343.9 342.1 338.9 334.6 329 320.9 307.3 288.1 269.6 263.7 257.5 254.4 250.8 248.2 248.6 247.4 246.9 245.5 242.8 239 237.2 236.6 238 239.7 242.2 246.2 251.5 259.1 273.4 284.8 291.7 292.8 292.6 291.1 287.5 278.8 273.5
369.7 374.9 378.5 381.8 385 387.9 390.8 393.5 396.2 397.9 400.7 402.7 404.4 406.2 407.6 408.9 409.9 410.2 410.6 410.3 409.9 409.2 407.8 407.2 406.3 406.1 405.2 404.5 404.3 404.1 403.6 403.3 403.3 402.7 401.4 400.8 399.6 398.1 396.4 394.5 392.4 390.4 388.8 387.2 385.1 383.1 381.6 379.5 377.2 375.6 374 372.1 372.3 372.5 373 373.4 374.6 375.8 377 377.6 378 377.6 376.1 373.6 371 367.5 362.3 356.1 343.2 334.7 340.3 333.1 320.6 303 284.1 284.8 292.9 305.6 319.5 331.6 337.6 340.6 343.4 345.1 347.2 349.5 352.7 355.8 358.5 360.3 362.1 363.5 365.9 367.5 369.4 370.6 370.9 369.7 367.9 366.2 363.6 359.7 354.3 333.7 314.3 316.5 321.1 317.7 310.8 298.7 283.3 278.5 277.9 276.9 274.6 273.4 272.6 270 268.8 271.3 275.8 280.5 288.5 291.7 297.2 297.9 290.5 281.4 267.1 253.2 241.3 237.2 237.2 236.5 238.4 241.6 254.6 269.2 281.9 285.4 281.9 291.1 296 308.8 325.3 339.4 350.4 357.7 361.8 363.1 362.4 359.3 359.2 357.7 356.9 356.1 355.5 355.3 355.6 355.5 355.2 354.1 353.8 352 349.9 346.3 342.4 337.5 332 316.9 290.7 288.1 281.6 276.5 269.5 266.8 264.5 264.4 265.2 264.8 262.6 259.4 255.1 250.4 244.8 238.2 234.1 234.4 235.7 242.5 256.1 275.6 285 287.2 285.9 284.3 280.3 273.3 266.8 267.3
368 372.9 376.7 380 383.1 386.2 389.1 391.7 394.3 396.7 399.2 400.7 402.3 404.3 405.6 406.8 407.9 408.4 408.7 408.8 408.2 407.5 406.6 405.6 404.7 405 404.4 404.1 404.2 404 403.9 403.4 403.3 403 401.5 400.5 399.6 398.2 396.5 394.8 393.1 391.6 390 388.1 386.4 384.7 382.7 380.1 377.6 375 372.9 371.3 369.6 370.4 370.7 371.8 373.5 374.8 375.9 376.6 376.9 376.5 374.7 372.2 369.8 366.2 360.3 353.2 350.7 351.3 351.1 346.9 339.6 321.6 302.1 287.2 280.3 290.9 302.9 313 324.4 335.8 340.2 342 342.8 347.6 351.3 354.7 357.8 360.3 363 365.2 367.6 369.6 371.3 372.5 372.7 372.1 371.7 370.2 368.3 365.5 361 345.1 350.5 344.3 338.4 329.9 321.5 299.6 290.6 291 291.7 291.2 290.6 290.7 292.7 291.5 291.1 295.4 299.5 299.1 301.7 300.4 300.2 295.6 278 266.4 254.1 241.4 236.9 235.1 241.6 246.5 250.4 258.2 267 278.8 293.2 304.7 307.8 311.2 322.8 326 337.1 351.6 359.4 364.9 367.5 369.3 369.9 369.1 370.1 368.7 367.6 366 365.3 364.4 364.6 364.4 364 363.1 361.6 360 357.3 353.8 349.5 345.9 340 329.7 316.6 310.7 304.6 298.5 294.4 288.6 288 287.3 287.1 287 285.1 280.1 277.7 273 264.8 254.3 245.9 238.1 233.1 235.5 247.5 261.4 279.3 285.6 278.3 273.1 266.6 261.3 258.7 265.3
367.6 370.5 373.8 377.7 380.9 383.5 386.1 388.9 391.5 394.7 397 398.9 400.7 402.1 403.3 404.6 405.8 406.4 406.4 406 405 404 403.5 403.1 402.2 402.4 402.4 402.3 402.3 402.5 402.7 402.1 401.4 401.2 400.5 399.4 398.9 397.6 396.6 394.5 392.9 390.8 389.7 387.7 386 384.4 382 379.5 377.2 374.7 371.3 369.1 368.3 368.6 369.2 370.2 371.3 373.3 374.3 375.4 375.9 375.4 374.4 373 370.5 368 363.8 360.1 360 359.1 357.2 354.1 348 337.6 317.2 302 289.4 278.3 285.3 289.2 296.2 311.7 332.6 335.9 339.1 343.4 347.9 353 356.9 359.5 362.1 365.2 367.4 369.8 371.5 373.2 374.5 374.1 373.9 373.8 372.2 371.1 368.6 365.5 362.6 358.5 351.6 343.6 321.3 306.9 309.4 311.6 314.7 315.6 316.9 318.9 322.5 320.1 320.7 322.3 322.8 320 314.8 308.7 301.9 278.4 262.4 253.5 244.4 236.4 234.6 238.8 245.1 251.8 257.2 266.4 277.8 290.2 304.8 321.7 331.6 328.8 342.2 351.9 357.2 363.1 367.9 371.5 374.6 376.5 377.3 377.5 376.8 375.8 374.6 372.3 370.2 370.1 370.3 370.3 370.3 368.6 368 365.8 362.9 359.3 357.1 353.2 350.2 346.3 339.9 338.1 331.6 327.6 322.1 318.3 316.5 316.2 315.6 313.4 311.2 306.9 300 290.2 278.5 266.5 254 243.3 236.7 233.1 242.5 256.8 263.7 272.9 269.4 260.8 254.4 249.9 255 263.5
365.7 368.3 371.2 374.4 377.3 379.4 382.8 386 388.7 391.9 394.4 396.3 398.2 399.3 400.6 401.9 402.8 403.3 403.2 402.4 401.3 400.2 400 399.3 399.4 399.8 399.6 400 400.3 400.5 400.4 400.2 400.1 399.3 398.4 397.9 397 396.4 395.5 394.2 392 390.4 388.6 387 385.6 383.8 380.7 378.1 376.1 373.5 370.7 368 366.4 365.9 367.7 368.7 370.2 371.1 372.1 373.1 373.9 374.4 374 372.1 370.6 368.6 366.5 365 363.9 362.3 360.8 357.7 353.3 345.6 331.9 313.1 299.9 289 276.4 285.4 287.6 293.7 312.8 322.9 333.8 339.2 345.4 350.8 354.5 357.9 361.2 364.4 367 369.3 371.7 373.4 375.2 376.1 376.1 376.9 376.7 375.7 375.1 374.2 372 368 362.5 355.9 335.4 328 334.3 336.7 338.8 339.1 340.4 342.6 343.2 343.3 342.9 341.8 338.5 334.3 327.9 318.3 293.7 271.5 252.9 241.1 236.4 235.6 235.5 239.9 249.2 255.5 262.5 273.9 287.3 304.5 318.8 333.2 343.1 349.3 354.7 360.7 365.5 370.3 374.2 377.5 379.7 381.5 382 382.2 381.2 379.7 377.2 375.3 374.1 373.1 372.9 372.2 371.4 371.1 370.4 368.6 366.2 364.1 361.8 360.2 357.4 355.4 353.7 351.6 350.2 348.8 347.8 345.7 344.4 342.5 339.2 334.5 328.8 321 311.5 299 285.1 265.2 250.2 245.2 239.4 234.7 231.9 248.1 253.3 254.4 252.1 247.2 244.5 251 259.1 268.4
362.8 364.6 367.9 370.9 372.9 374.8 377.6 381.2 385 388.7 391.2 393.6 395.6 396.7 397.4 399.2 399.8 400 399.2 398.1 397.5 396.4 395.8 395.5 396.2 396.4 396.5 397.1 397.9 397.9 397.6 397.8 397.9 396.7 396 395.8 395.5 394.5 393.8 392.2 390.7 389.2 387.6 386.9 384.1 382.5 379.9 377.1 374.9 372.3 369.5 367 365.3 364.4 365.2 366.7 368.1 369.1 370.3 371.5 372.2 373.1 372.7 371.4 370.1 368.7 367.2 366.1 364.9 363.9 362.3 359.9 357 352.4 345.4 332.5 314.1 298.7 288.3 277.2 281.7 280 289.2 306.3 325.7 335.6 343.4 348.3 352.6 356.7 360.2 363.9 366.7 369.5 372.3 374.1 375.8 377.6 378.4 379.7 380.6 380.6 380 379.9 378.9 374.9 371.5 365.5 346 354.5 356.3 356 355.7 355.6 355.5 355.3 354.9 354.9 353.9 352.2 348.5 343.3 335.3 314.4 288.3 265.8 248.1 235.8 235.2 234.9 236.9 247.8 255.9 263.7 271.1 281.5 300.2 318.8 332.6 342.8 351.3 357.5 362.6 367.4 371.7 375.7 378.8 381.4 382.9 384.3 384.9 385.1 383.2 380.9 379 377.2 375.9 374.5 373.1 372 371.4 370.8 369.3 368.3 366.5 365.3 364.1 363.6 362.8 361.6 360.4 358.8 357.9 356.9 355.5 354.3 352.4 350.1 346.1 341.1 334.7 326.9 317.1 302.7 277.9 262.3 258.3 251.2 243.3 238.1 231.2 232.6 241 244.7 237.7 239.9 248 258.1 270 280.7
357.3 360.7 364.7 366.9 369.4 371.3 373.8 377.5 381 384.1 387.5 390.2 392.6 394.1 394.7 396.1 396.8 396.3 394.5 393.3 392.9 392.3 391.4 391.5 392.1 392.8 393.4 393.4 394.6 394.5 394.6 395.4 394.9 394.7 394.4 393.8 392.5 392.1 391.3 390.7 389.1 388 387.2 385.9 383.4 381.5 379.2 376.1 373.8 371.6 368.5 366.1 364.2 363.3 363.2 364.4 365.3 367.3 368.6 370.2 370.8 371.4 371.5 370.9 369.6 367.7 367 366.2 365 364 362.6 360.9 358.2 355 350.3 343.6 329.7 315.1 303.7 292.4 280.1 276.1 276.8 290.6 310.2 328 336.1 340.6 349.8 355.6 359.6 363.7 367.3 370.2 373 375.2 377.1 379.1 380.9 382.4 383.6 384.5 384.7 384.7 383.8 382.5 380.2 376.5 370.1 370.1 368 367.1 366.1 365.5 365.3 365.1 364.8 363.3 361.2 358.7 355.9 350.6 332.3 305.6 281.1 260.4 242.4 234.5 234.6 233.8 244.9 255.8 264.4 273.5 286.8 297.4 310 328.2 340.5 349.9 357.2 363.1 367.6 371.1 374.7 378 381.7 383 384.4 385 385 384.4 383 381.1 378.7 376.6 375.1 373 370.7 369.7 368.5 367.5 366.6 365.6 364.8 364.4 364.3 365.5 365.6 365.4 365.2 363.6 363 362.1 361.2 359.6 357.6 354.6 350.9 345.9 340.1 332.6 322.1 306.7 281.2 277 272.1 263.7 256 246.5 238.8 230.7 230.5 235.2 235.7 246.7 261.1 272.9 285.3 301.5
353 355.7 361.3 364.1 365 366.3 371.6 375.1 378 381.5 384.1 386.6 388.9 390.7 391.8 392.2 392.8 392.4 390.9 389.1 387.6 387.1 386.4 386.5 386.7 388.5 388.3 390.1 391 391.7 392 392.4 392.4 392 391.6 390.9 390.1 389.1 388.1 387.5 387.5 386.3 385.5 384.6 383 380.9 378.5 376.6 373.9 371.3 369.1 367.6 365.8 363 360.7 362.2 363.6 364.9 366.3 367.5 368.8 369.6 369.1 369.4 368.2 366.7 365.6 364.5 363.6 362.5 361.7 360.6 358.4 354.9 351.8 347.8 341.9 334.8 325.7 313.7 299.4 283.4 274.8 280.5 296.5 310.5 319.8 337.9 350 355.3 359.8 363.9 367.4 370.5 373.2 375.8 378.3 380.8 382.2 383.6 385.6 387.1 387.5 387.7 387.1 386.4 384.8 383 381 377.4 376.3 374.2 372.4 371.3 370.2 369.9 369.3 368.1 366.3 364.2 360.9 355.8 327.1 300.6 275.4 253 235.2 234 233.5 242.3 254.6 268.8 281.8 295 308.2 315 324.1 335.1 345.6 353.8 360.5 365.5 369.8 372.7 375.5 378.4 380.9 382.4 383.3 383.6 383.1 382.5 380.9 379 376.8 374.1 371.3 369 367.2 365.8 364.7 362.9 361.2 361.8 361.5 361.3 362.9 364.4 365.6 365.5 365.9 366.3 366.6 365.9 364.3 362.5 360.2 357 353.4 349.5 344 336.8 326.7 307.5 301.3 294.4 288.1 280.9 272.9 262.9 251.7 241.2 229.3 228.5 234.4 256.7 273 286.8 303.3 311.4
345.2 351.2 354.3 354.1 353 364.5 370.2 373.9 376.7 379.1 381.4 383.9 385.7 387.4 388.8 389.2 389.4 388.7 387.2 384.8 381.9 381.3 380.2 380.3 381.8 383 384.2 385.6 387.4 388.2 388.6 388.6 388.8 388.4 388.1 387.7 386.9 385.8 385.2 384.1 385.1 384.9 384.1 382.9 381.3 380.1 378 376.1 373.8 371.6 369.5 367.8 364.9 362.5 359.8 359.2 360.7 362.9 364.3 365.6 367 367.2 366.9 367.2 366.1 364.6 363.2 362.2 361.7 361.1 360.6 359 357.3 354.6 351.6 348.7 345.1 340.6 334.4 326.7 314.7 294.3 274.1 280 305.4 320.5 337 345.6 351 355.8 359.9 364.1 367.5 370.6 373.1 375.7 378 380.4 382.8 384.3 386.3 388.7 389.4 389.9 389.6 388.9 387.8 386.3 385.1 382.6 380.5 378.3 376.6 375 374.1 373.2 372.7 371.7 370.4 367.8 363.5 355.6 324 296.9 271.6 249.1 232.9 232 239.5 255.6 272.5 287.4 301 311.8 320.7 327.5 333.5 342.3 350.5 356.5 361.4 366 369.2 371.7 374.6 377.3 379 380.3 380.9 380.8 380.4 379.3 377.8 375.5 372.8 369.9 367.1 364.8 362.6 360.5 358.9 356.6 354.5 355.6 356.6 357.8 359.5 361.5 363.4 365.4 366.7 367.6 368 368.4 367.3 365.1 362.4 359.5 355.7 351.9 347.2 340.9 332.4 323.5 316.3 309.8 304.6 298.2 290.9 283.1 271.4 258.3 242.7 228 233.5 254.4 286.3 302.5 310.3 317.7
334.9 341.4 343.1 338.5 353.3 361.1 367.1 371.9 374.2 376.9 379.2 381.4 383.3 385.1 386.4 386.7 386.4 385.7 383.3 380.3 375.7 372.8 371.7 373.3 376.1 377.9 379.6 381.8 383 383.6 384 384.4 385.2 385.4 384.2 383.5 382.1 380.1 379.6 380.7 381.6 382.5 382.4 382.1 380.4 379 377.5 375.6 373.7 371.6 369.3 367.6 365 362.8 359.4 357.9 358.5 360.6 362.8 364.4 365.2 365.9 365.2 365 364.1 362.2 361.1 359.8 359 358.9 358.5 357.3 355.2 353.1 350.9 347.9 344.2 339.5 333 325.7 314.9 292.3 273.4 282.5 307.4 330.4 340.7 346.5 351.6 355.7 359.5 363.3 366.4 369.3 372 374.6 377.2 379.8 382.6 384.6 386.9 388.4 389.7 390.3 390.6 390.5 390 389 387.5 385.8 383.3 380.9 378.8 377.2 376.1 375.3 375.1 373.7 372.5 369.1 364 352.5 322 294.1 268.6 247.3 232.4 237.3 248.2 263.5 283.8 299.9 312.5 323.6 332.4 339.3 345 350.1 354.4 358.7 363 365.6 367.9 370.2 371.9 374.1 376.5 377.3 377.8 377.1 376.4 375.3 373.2 370.8 368 365.1 361.3 358.9 356.6 353.9 351.6 348.9 347.4 346.9 349 352 354.5 357.7 360.8 363.6 365.5 366.8 368.2 368.7 368.3 366.6 364 361.3 357.7 353.9 349.9 345 339.5 334.4 329 323.6 318.8 313.5 306.7 298.8 288.8 273.9 254.7 231.8 231.4 257.3 287.1 302.2 312.1 321.3
323.9 329.6 329.2 332 345.8 354.7 361 367 371.1 373.8 376.3 378.3 380.3 382.4 383.8 383.7 383.3 381.2 379 375.1 371.3 366.8 365.6 366.6 369.8 372.8 374.6 377.5 378.7 379.9 380.4 380.9 381.7 382.4 381.6 379.6 377.2 373.3 375.6 377.5 379.5 381.1 380.6 380.8 379.4 377.2 375.6 373.9 371.7 370.4 368.9 367.2 365.2 361.9 359.4 357.4 357 357.8 361 362.5 362.7 363.7 363.6 362.9 361.8 360.3 358.6 357.2 355.9 356 356.3 354.9 353.7 352.1 349.5 346.5 342 337.2 330.8 323.2 307.1 286.8 272.6 282.2 303.6 327.9 339.9 345.6 350.7 354.4 358.2 361.7 365.1 367.6 369.9 372.4 375 377.6 380.4 382.6 385.6 387.2 388.5 389 390.6 390.4 390.3 390 389 387.4 385.1 382 379 376.9 374.7 374.1 373.6 372.2 370.6 368.2 362.7 354.6 324.7 295.2 269.4 245.9 232.6 241.6 252.8 271.1 292.4 307.3 319.6 331.3 339.6 346.3 350.8 355.1 358.6 360.9 363.5 365.3 366.5 368.7 370.3 370.7 372.4 373.2 373.3 372.6 371.1 369.6 368.2 365.3 362.6 359.8 356.9 354 351.5 348.2 345.4 344 341.9 341.8 342 344.2 347.2 351.5 356.3 360.6 363.4 365 366.4 367.5 368 366.4 364.3 362.5 359.3 355.5 352 348.6 344.8 340.2 336 331.1 327.6 321.7 315.7 308.4 300.3 288 263.5 238.9 227.4 249.5 276.6 296.9 312.2 323.2
313.4 317.3 318.3 326.8 335.4 346 354.4 361.6 366.9 370.3 373.3 375.2 377.2 379.1 379.9 379.9 379 376.7 373.1 368.7 365.6 360.6 359.5 361.7 363.8 366.7 369.8 371.9 373.8 374.7 376.1 376.9 378.1 378.3 377.3 375.7 373.6 367.2 372.2 375.4 377.9 378.4 378.7 378.6 376.8 375.4 373.9 371.5 369.9 368.7 367 365.6 363.5 360.8 358.1 355.3 356.2 357.6 360 360.8 361.2 361.8 361.8 360.8 359.6 358.2 355.9 354.4 352.7 353.6 353.9 353.1 352 351.1 348.3 345 340.9 335.7 329 315.2 300.1 281.5 272.5 280.4 300.8 324.4 336.4 342.9 348.8 352.3 356.2 359 361.8 364.9 367.5 370.1 372.6 375 378.1 380.9 382.8 384.9 386.6 387.9 388.6 389.4 390 389.6 388.2 386.2 384 381 377.4 373.7 371.7 370.2 369.8 369.1 367.8 365.3 360.8 353.6 332.2 300.4 272.6 247.1 233.1 244 256.9 277.9 296.8 312.8 327.1 338.8 347.1 352.4 356.9 359.5 361.5 363.2 364.1 365.5 366.4 366.9 368.1 368.5 368.7 369.4 369.4 367.8 367 364.6 362.6 359.7 356.9 353.7 350.9 348 345.6 343.2 340.4 337.2 335.4 334.5 335.6 337.7 340.9 345.8 351.7 356.1 360 361.9 363.7 364.6 365.1 365 364.3 362.5 359.9 356.2 352.8 349.5 346.2 342.5 338.8 334.6 330 325.2 319.6 313 305.6 296.6 271.7 242 225 243.9 267.2 289.9 311.1 323.6
294.9 299.2 300.9 314 327 339.5 349.4 358.1 362.6 366.3 369.5 371.9 373.4 374.6 374.2 373.8 371.8 368.6 365.4 362 357.4 353 351.8 357.1 359.6 361.8 363.8 365.3 367 369.1 371.9 373.2 374.1 374.2 373.5 371.9 363.8 364.4 371.2 375 376.6 377.2 376.8 376.5 375.4 373.7 371.5 369.8 368.2 366.6 365.5 363.2 362 360.2 357 354 355.3 358.1 359.3 359.3 360 360.1 359.6 358.7 357.1 354.7 352.7 350.7 349.3 350.1 351.5 351.1 350.7 349.3 347.1 343.8 338.9 334.1 329.1 322.5 309.6 288.9 273 276.6 295.3 318 332.7 340.5 345.9 349.3 352.9 356.4 359 361.5 364.3 367.6 369.9 372.4 375.5 377.9 379.7 382.9 383.9 385.4 386.6 387.8 388 387.8 386.5 384.7 382.4 378.6 374.2 369.8 365.9 364.6 364.5 363.9 362.7 360.7 356.6 350.6 337 306 277.4 250.7 232.1 245.1 266.3 287.8 305.1 321.9 336.7 346.4 352 356.7 357.9 360.6 362 363.3 364.5 365.2 365.4 364.9 365.4 365.2 365.5 365.7 365.2 363.8 361.7 358.9 356.3 353.7 350.9 348 345 342.7 339.4 336 332.7 328.5 315.3 321.5 326.1 329.9 334 340.3 346 351 356.3 358.9 360.9 361.8 362.5 362.4 362 361 359 356.1 352.5 349 346.3 342.8 339.1 334.7 330.1 324.6 318.7 311.8 302.1 282.7 265.5 241.9 223.3 240.6 263.8 289.2 311.7 323.9
277.6 283.4 288 296.2 312.4 332.8 343.4 350.6 357.6 362.4 365.1 367.4 367.7 367.3 366.6 365.5 363.5 360.7 357.5 353.1 349.3 345.9 345 350.2 352.9 356.5 358.7 360.6 362.1 364.8 366.8 368.3 369.4 368.2 368.3 364.9 357.4 366.2 370.7 373.3 374.6 375.2 374.8 373.6 372.3 371.1 369 367.7 365.9 363.6 363 361.3 360.1 358.5 354.5 352.7 356.2 357.7 358.2 358.4 358.5 358.3 357.7 356.1 354.1 351.6 349 346.4 345.5 346.2 347.5 348.5 348.2 347.1 345.4 342.5 338.8 333.9 328.6 323.5 313.5 296.6 276.4 272.4 288.6 307 328.3 338.3 343 345.8 349.3 353 356.4 359 361.4 364 367.1 369.2 371.9 373.7 376.4 377.9 379.7 381.9 383.4 384.6 385.5 385.3 384.1 382.1 379 374.4 369.7 364.4 355.9 354.8 356.5 356.6 355.3 352.8 349.7 344.9 336.9 309.1 280.4 252.7 230 248 269.4 292.3 310.8 326.4 338.9 347.4 352.2 355 357.5 359.2 360.7 361.4 362.2 362.8 362.5 361.9 361.3 361.8 360.9 359.9 360.3 359 356.3 353.2 349.7 346.9 343.7 341.7 340 337.6 334.5 330 323.8 316.9 298.1 301.9 313.2 320.4 326 332.5 339.8 347.1 352.3 355 356.1 358.1 358.9 359.1 359.3 358.4 356.1 353.7 350.9 347.8 344.5 341.1 337.4 332.9 327.5 318.6 313.2 305.5 287.9 267.9 250.2 232 221.7 243.5 265.7 291.7 312 323.5
271.6 272.9 276.6 284 296.7 314.5 334 344.9 352.9 357.9 360.4 361.4 361 358.9 357.4 355.4 352.7 349.6 347 344.4 342 333.6 337.8 341 345.6 350 352.5 355.2 357.4 360 361.6 362.6 362.4 361.2 360.6 352.3 356.4 364.6 368.1 370.8 372.1 372.4 371.9 371.1 368.6 367.2 365.4 364.6 363.8 361.9 360.1 359.2 358.1 356.7 353.7 351.1 355.6 356.6 356.7 356.8 356.3 355.5 354.7 353.6 351.2 348.7 345.4 341.8 341.6 343.5 345.4 345.8 345.6 345 343.5 340.7 337.3 333.8 329.3 324.2 316.7 302.1 283.5 270.4 280.7 299.8 319.5 334.4 339.5 343.1 346 349 352.2 355.5 358.3 361 363.6 365.7 367.9 369.7 371.7 373.7 375.8 378.2 380.2 381.4 381.3 381.1 380.1 376.9 373.2 368.2 364.1 357.8 341.7 340.2 345.3 344.4 344.1 341.3 335.6 330.4 325.3 311.9 280.5 251.5 230.1 249.2 271.7 292 310.6 327.5 336.6 343.3 348.8 351.2 353.6 355.4 356.7 357.2 358.2 358.5 357.9 357.1 356.9 356 355 354.1 353.9 352.7 349.5 345.6 342.3 340.5 338.8 337.1 335 332.7 328.9 323.7 312.5 301 285 287.9 300.8 310.5 319.6 329 338.1 343.9 348.5 350.7 351.8 352.8 354.3 355.8 355.6 354.7 353.2 350.7 347.5 344.4 341.5 337.3 332.5 327.7 320.5 313.9 307.6 295.9 271.5 253.1 236.7 219.8 226.9 248.3 270.1 292.7 311 322.2
277.6 272.1 271.2 272.9 283.3 297.8 319.8 339.6 347.2 352.4 354.4 354.7 354.1 352.5 350.8 347.5 345.5 343.4 340.4 337.8 334.2 325.9 331.8 333.1 339.4 342.7 343.7 347.7 350.6 354.6 357 357.9 357.5 356 355.7 338.1 354.3 362.2 365.5 367.8 369 369 368.6 367 365.6 364.1 362.4 361.2 360.1 358.7 358.3 357.6 357.1 355.7 352.7 348.5 354 354.4 354.4 353.8 352.8 352.4 351.5 350.6 348.8 346.5 342.8 338.6 336.6 338.6 341.1 342.7 342.7 342.4 341 338.6 335.6 333.7 329.4 324.2 318.7 311.6 298.3 275.5 273.6 292.7 313.2 329.1 337.5 340.5 342.6 344.9 348.1 351.7 354.4 356.9 359.2 361.5 363.8 366 368.1 370.5 372.5 374.7 377 378.5 379.3 378.8 377.1 374.4 369.6 364.5 356.9 349.3 338.9 322.4 328 327.2 323.3 319.4 315.9 310.8 304.7 296.7 280.9 252.2 230.7 249.3 268.7 284.9 305 322.9 331.9 335.9 341.7 346.1 348.5 350.6 351.2 352.1 352.6 352.8 352.6 352.2 350.8 349.7 348.8 347 346 344 341.3 338.3 336.4 334.2 331.8 331.3 329.7 327.5 323.2 317.8 308.6 284.2 269.8 274.6 291.9 306.7 316.5 325.5 333.7 339.7 343.3 345.8 347.3 348.6 350.1 351 351.2 350.5 349.4 347.3 344 340.2 336.7 332.7 328.1 323.2 316.9 310.4 302.5 290.4 264.1 242.2 225.3 216.4 230.3 250.6 271.9 291.6 309.1 319.9
287.8 278.2 271.8 271.1 271.7 285.8 307.1 327 342.7 347.4 349.2 348.9 347.2 344.8 342 339.5 337 334 331.5 329.1 324.2 319.3 324.6 325.1 330.6 334.5 335.8 338.6 343.8 348.7 350.4 351.8 350.7 345.5 341.9 331.9 352.2 359.3 362.8 364.5 365.6 365.5 365.1 363.7 361.9 360.6 359.1 357.7 356.7 356 356.2 356.2 356 355.1 353.6 348.6 347.6 351.5 351.4 350.7 349.1 349.1 348.2 347.4 346.9 345.1 341.9 338.6 332.5 333.8 337.3 339.5 339.6 338.9 338.6 336.5 334 332.2 329.4 325.4 320.5 315.7 303.7 279.7 272.1 291.5 314.6 329 335.3 338 339.7 341.2 344.3 347.7 350.3 352.6 354.6 356.5 359.1 361.4 364.2 367.4 369.5 372.4 374.5 376.7 377.7 376.8 375.4 372.2 366 354.2 343 330.6 322.2 314.3 308.4 304.5 299.8 296.3 294.8 292.5 286.6 276.6 264.4 247.1 230.7 246.8 259.5 274.8 294.7 312.5 322.2 326.9 331.1 337.1 341.6 344.2 345.6 346.1 346.4 346.6 346.3 345.5 343.4 341.5 339.6 336.2 335.4 332.9 330.7 328.2 326.4 325.1 324.2 324 323.9 322.3 318.5 313.1 303.3 280 259.2 265.6 283.7 299.4 309.3 317.6 324.5 330.9 336.6 339.3 341.7 344 344.7 345.8 346.1 346.1 344.2 342 338.8 334.9 331.2 327.1 322.7 317.4 311.9 305.6 297.7 289.2 270.2 244.2 222.6 214.7 231.6 251.4 272.9 294.2 309.4 319
292.9 284.9 274.8 271.2 270.3 276 294.3 312.6 334.9 342.4 344.6 344.2 342.9 340.9 338.2 334.8 331.7 328.5 324.9 322.1 313.9 312.1 316.3 315.2 320.8 322.8 324.3 328.5 336.5 341.3 343.3 342.5 338.7 329.2 322.5 325.2 348.3 355 358.8 361 361.4 361.6 361 360.3 358.3 356.4 354 352.6 352.3 352.8 353.1 353.2 353.3 353 352.4 350.9 346.2 344 344.7 344.2 344.5 345.3 345 344.5 343.9 343.1 340.4 337.8 333.7 330.8 333.2 335.6 336.2 336.1 335.6 334.4 333.1 331.3 328.3 324.6 320.5 314.8 299 273.8 270.6 293.2 314.5 328.8 332.7 335.2 336 337.8 341 344.7 346.7 348.2 348.6 349.3 352.1 355 359.4 363.1 366.9 370.2 373 375.5 376.9 376.5 375.4 373 368.9 363.9 357.5 349.8 334.6 311.5 311.2 306.4 306.2 299.5 289.7 275.3 266.7 257.2 251.2 240.6 228.6 238.5 247.8 262.9 282.3 297 306.4 310.7 315.6 322.9 329.4 335 338.3 340.1 341.3 341.1 339.2 338.5 336 333.2 328.5 322.8 319.2 316.4 313.4 312.7 312.3 311.4 313.1 317.2 318.1 316.8 312.9 307.6 300.4 283 253.7 251.9 270.6 284.4 295.5 303.6 310.5 316.8 326.7 333.8 335.5 337 338.5 338.1 338.9 339 338.4 335.8 332.8 329.1 325.2 319.6 315.1 310.7 304.5 297.8 290.5 283.2 267.2 241.5 221.4 214.3 235.3 255.9 277.1 297 309.1 317.6
293.9 285.6 277.4 271.7 270 270.9 283.9 302.2 326.1 336.1 339 339.5 338.7 336.9 334.5 331.3 326.8 322.5 318.6 314.7 305.1 304.5 308.1 307.2 311.3 311 311.1 321 328.5 331.7 332.3 330.1 326.2 312.5 305.7 331.3 343.9 349.4 351.9 355.6 356.8 357 356.2 355.4 353.4 350.8 348.1 341.1 343.9 349.2 349.6 349.9 350.2 350.2 350 348.7 347.8 346.5 344.6 341.6 337.7 336 338.6 340.8 340.7 340 339 336.7 333.7 329.1 326.2 331.3 332.2 332.5 331.8 331.4 330.3 329.1 326.7 323.4 318.5 311.7 291.4 269.8 269 290.6 309.6 324.1 329.3 331.3 331.2 333.6 338.3 342 343.7 344.7 343.8 343.7 345.7 349.5 354.8 360.4 365 368.9 371.7 374.2 376.3 376.4 375.7 374.3 370.7 367.3 362.9 355.5 332.3 317.7 330.8 330.9 326.6 323.4 318.5 311 304.9 297.9 289 265.8 241.3 229.4 235.4 248.6 265.8 279.2 286.3 290.4 295 302.5 311.2 321.3 329.5 333.8 335.9 336 333.5 330.9 326.6 321.6 314.9 306.2 297.8 295.5 295.7 297.3 299.1 303.3 308.7 312.9 313.4 310.2 305.3 299.8 292 274.4 251.2 240.7 256.5 268 277 285.3 293.3 300 310.2 321.2 326.3 329.1 330.4 331.1 332.7 332.5 331.5 329 325.5 322 317.2 311.7 306.8 302 296.7 289.5 283.5 276.3 259.5 235.5 214.4 218.3 238.5 257.9 279.7 298.4 308.8 316
293.1 285.9 279 272.2 270.5 269.6 274.8 295.1 319.4 328.5 331.2 331.3 332.8 331.7 330.5 327.6 324.1 320.4 315.5 309.2 299.3 292 299.3 296.7 301.7 298.3 304.8 314.9 319.8 321.6 320.8 317.1 305.1 294.3 311.3 331.2 339.8 344 346.6 348.5 348.6 347.8 347.5 346.2 344.3 341.6 338.9 326.8 339.8 344.8 346.2 346.5 346.1 346.7 346.8 346.5 345.9 346.1 346.3 345.5 344.4 341.6 333.9 333.9 336.9 338.5 337 334.9 332.7 329.3 322.5 325.4 328.4 328.4 328.7 328 328 326.5 324.1 320.8 316.5 309.2 287.6 268 265.2 282.3 299.9 316.6 323.3 325.6 324.4 331.1 336 338.8 340.2 340.2 337.3 336.1 341.5 347.7 353.3 359 363.2 367.4 370.4 372.8 375.6 376.6 376.1 375.1 373.2 369.6 365.1 354 325.9 341 347.5 349.1 347.9 345.3 343.6 340.4 336.4 330.5 317.9 288.5 262.3 245.6 230.1 237.3 249.9 258.9 265.5 269.9 274.6 282.3 292 302.6 314.6 326.8 328.4 327.6 324.7 320.4 314.3 307 298 289.4 280.4 279.3 281.6 287.1 294.5 302.2 310.2 311.4 309.7 305.2 298.2 288.1 271.4 256.6 241.4 229.1 238.3 243.7 254.9 265 271.6 280.8 292.5 304.2 316.6 321.3 323.9 324.8 324.9 324.9 322.7 321.2 317.8 314 308.8 302.8 297.5 292 286.9 281.3 275.5 266.3 245.5 226.8 209.8 223.8 243.3 262.6 284.6 298.8 307.4 313.8
299.8 292.1 285.1 277.2 270.8 269.3 271.5 289 311.2 318 321 321.9 323.5 324.4 324.4 323.1 320.3 316.6 311.8 306.4 299 284.3 289.5 287.5 290.5 288.6 295.2 302.8 308.4 311.1 309.8 300.3 288.5 301.9 319.1 329.1 334.7 337.7 340.2 341.8 341.6 339.5 337.4 335.6 334.4 331.9 326.4 319.9 336.1 340.3 340.9 342.3 343.3 343.4 343.4 344.2 344 344.3 345 345.2 344.6 343.3 340.3 329 328.6 332.1 333.2 331.9 330 328.2 324.1 317.2 322.2 324.4 325.1 325.1 326.7 324.5 322.7 319.4 314.8 305.2 287 269.3 262.9 272.6 289 306.4 313.2 313.9 320.7 329.7 333.3 334.9 336 334.4 329.1 335.7 341.2 347.7 353.5 357.8 362.1 366.1 369.5 372 374.9 376.7 377 376.7 374.8 372.1 368.3 358.6 339 352 355.9 356.8 356.5 354 351 349 346 341.7 333.4 306.3 277.5 258.8 243.6 228.3 237.5 243.7 246 250 254.4 260.3 270 283.4 299.1 315.5 319.3 317.8 314.9 310.1 304.6 294.7 285.5 275.4 268.9 271.3 277.7 289.6 300.9 306.8 308.6 307.6 306.3 300.8 289.8 273.1 252.8 236.6 223.7 215.6 214.3 217.5 228.7 241.4 250.3 261.8 274.2 289.7 305.3 311.7 314.6 316 316.2 316.1 314.6 312.7 309.3 306.2 299.8 293.7 287.6 281.2 274.5 268.9 262 243.9 232.3 218.5 212.4 230.9 250.3 270 288.2 298.1 304.8 309.1
303.2 296.4 287.8 279.3 273 269.2 269.6 279.9 301 307.1 310.4 312.9 314 313.9 315 313.3 311.6 308.5 303.8 297 290.6 282.6 275.7 277.5 278.5 278.2 284.7 288.7 294.5 297.8 294.1 281.6 293.3 309.4 319.6 325.5 328.5 331 332.8 333.7 332.8 331.5 329.2 326.3 323.4 322.4 311.1 321.1 329 332.8 333.7 336.6 336.6 338.2 339.4 340 340.8 341 342.2 342 342 342.5 341.8 338.6 331.9 323.3 323.7 326.3 327.1 325.9 324.8 320.3 313.5 318.5 319.5 321.8 323.7 323.1 321.4 318.4 314 306.4 297 281.2 263.7 263.8 277.6 295.2 298.6 310 321.7 327.5 330.5 331.9 332.6 330 327.7 336 341.6 347.9 352.7 356.9 360.9 364.8 368.7 371.4 374.1 375.7 377.6 378.1 377.1 374.8 372 366.4 349.4 359.4 361.3 361.9 361.3 359.8 356.6 353.5 352.3 348.6 342.9 325.1 293.4 272.6 256.5 241.6 227.3 229.5 231 232.8 235.2 240.4 250.5 264.3 282.1 301.4 307.9 307.5 305.3 300.7 295.6 287.6 279.1 264.9 257.4 269 284 292.9 297.1 300.3 301.7 300.6 298.2 290.9 280.4 256.8 235.8 216.3 213.6 214.5 217.7 212.9 212.7 216.8 230.8 243 256.6 272.1 291.2 301.3 306.1 307.9 308.6 308.7 307.2 303.9 301.6 298.7 291.8 284.5 276.9 269.5 261 254.1 244.9 224.8 214 208.9 222.4 241 257.8 275.4 287.2 295 300.1 303.6
303 296.2 286.7 277.2 272 270 268.6 269.9 286.3 298.7 301.7 303.1 303 302.9 303.1 302 299.5 296.3 291.1 284 278.3 271.6 269.1 268.8 268.6 268.9 270.7 274.3 278.2 283.7 275.9 288.3 302.4 311 317.1 319.6 322.8 325.2 326.3 326.1 324.3 322.4 320.3 317.9 314.7 311.6 301.1 317.6 323.2 325.3 325.1 326.6 328.3 329.7 331.4 333.3 334.5 335.7 337.9 339.5 340.4 341.2 340.5 339.7 337 333.4 326.2 318.8 317.6 321.2 322 318.9 311.5 312 313.2 315.7 318.5 320.7 320 318.3 314.5 308.2 302.5 294.8 276.2 260.4 267.8 279.7 298.7 312.6 321.1 325.9 327.9 329 328.9 318.6 328.3 335.7 341 345.4 349.9 354.3 358.9 363 366.7 370.3 373 374.9 376.9 378 377.6 376 373.8 370.4 363.1 362.9 364.6 365.7 365.2 364.1 361.8 358.6 356.4 354 350.3 343.3 313.7 289.9 272.4 260.4 246.6 236.8 230.3 226.3 225.5 226.5 233.4 246.9 265.8 282.8 295.6 295.5 294.1 290.6 285 279.1 271.4 259.1 250.3 266.5 276.6 282.8 287.9 291.5 292.5 291 287.4 281.3 269 246.3 219.3 215.3 218.1 230.3 232.1 226.5 213.9 211.5 213.8 224.9 237.2 257.4 275.3 287.6 294.4 298.3 300.1 300.6 299.6 297.9 295.1 289.6 280.8 269.6 262.5 255.8 248.1 241.2 230.3 210.1 206.5 217 234.2 250.9 267.8 277.4 283.5 289.8 294.1 298.1
297.9 292.6 293.9 291.3 280.3 269.5 268.1 268.4 269.9 285.3 292.5 294.2 294.5 292.2 290.6 290 287.4 283.6 278.4 273.1 267.6 264.9 264.8 263.8 263.4 263.2 263 263.8 264 265.8 270.8 285.1 300.6 307.8 311.9 313.5 315.6 317.4 318.3 317 313.7 311.8 310.2 309 306.8 302.5 299.9 311.8 314.6 314.7 311.2 314.4 316.1 317.1 318.8 321.4 325.2 327.8 332 335.1 336.7 337.9 337.9 338.3 336.9 335.1 331.4 327.3 320.5 312.7 311.2 307.8 303.9 299.3 298.4 295.6 305.8 314.8 317.4 316.1 313.8 309 303.6 299.1 287.3 264.6 261.8 286.9 302.8 311 317.5 321.3 324.8 325.4 325.4 312.1 327.2 333.1 337.9 342.7 345.7 350.5 355.7 360.1 364.2 367.9 370.8 373.7 375.7 377.6 377.5 376.9 374.1 371.9 367.3 364.2 367.3 368.3 368.2 367.5 366 363.5 361.3 358.6 355.1 351.6 342.2 314 296.2 284.7 275.6 267.1 259.1 251.8 243.4 230.1 224.4 226.5 246.8 264.3 275.9 278.2 277.3 275.9 272.6 268.5 264.5 253.2 245.1 257.7 265.7 271.3 276.1 279.3 280.4 280.5 278.2 272.9 262.6 239.3 216 218.2 234.9 248.1 250.5 247.9 236.6 224 213.1 210.7 219.1 240.2 257.4 268.5 274.5 279.7 285.8 289.9 289.7 288.4 284.8 278.7 266.1 253 243.8 241.8 239.2 231.1 222.8 206.5 206.9 225.3 242.7 259.7 272.9 277.7 281.9 286 290.8 294.8
302.8 303.3 300.7 297.2 291.6 272.8 268.3 268.1 268.2 271.5 285.4 287.3 287.1 284.5 282.8 280.4 277.4 275.6 269.7 264.7 263.5 264.2 263.3 264.7 263 263.6 263 262.3 262.3 263.3 263 267.4 284.9 301.9 304.7 304.8 303 301.5 300.8 299.9 297.5 297.1 295.5 299.6 302.5 298.9 287.4 302.2 305.6 303.8 300.1 300 301 303.1 305.1 307.8 312.4 317.1 320.6 324.5 328.1 331.2 334.2 334.4 334.7 335.1 333.8 331.7 328.5 325.2 321.7 319.4 317.9 317.1 314.3 306.4 290.2 302.6 310.9 312.2 311.4 307.7 303 298 290.7 270.3 259.5 284.5 301.9 308.8 314.4 318.3 320.3 321.9 321.4 307.5 322.2 329.1 333.2 337.2 341.3 345.4 351.9 356.7 360.9 365.2 368.8 372.3 374.9 376.4 376.7 376.7 375.3 372.8 370.2 367.4 369.6 370.5 371 370.3 368.9 367.3 365.8 362.6 359.1 355.6 351.4 343.5 324.8 314.8 307.8 299.6 292.9 279.4 263.8 251.9 234.6 224.8 230.1 245.7 252.7 254.4 258.1 259.4 257.5 254.7 252.5 245.8 236.7 244 249 253 259.5 267.5 270.8 271.1 268 262.9 254 233.5 215.1 235.6 252.8 269.2 275 266.6 257.8 248.1 234.9 220.9 210.3 221.3 239.9 248.7 254.5 258.6 263.7 268.9 273 273.9 270.6 262.6 249.8 239 232.8 227.1 222.2 217.4 209.4 204.5 204.5 222.1 235.9 250.7 263.7 272 277.6 282 286.8 290.5
309.2 307.8 305 301.7 296 287.6 272.9 267.2 267.3 268 277 280.2 280.8 278.9 275.9 273.1 267.1 263.6 264.8 264.9 280.8 289.3 296.6 299.2 296.3 290.2 283.2 272.8 261.7 262.3 261.7 261.8 271.2 293 292.3 289.4 285.6 281.3 279.4 275.1 272.2 272.3 278.3 282.4 290.2 294.5 282.4 288.1 295.2 294.3 290.1 286.7 286.3 286.4 288.9 293.3 297.6 302.1 306.6 310.5 315.9 320.5 324.4 329 330.5 334.1 335.9 337 336.5 335.4 333.5 333 331.4 328.4 323.5 315.8 305.7 286.8 297.9 305.7 307.1 304.7 300.6 295.5 289.2 274 258.9 282.1 300.1 306.6 310.5 314.2 315.7 317.1 316.8 308.2 313.5 324 328.4 331.6 336.7 340.5 347.1 353.4 358.6 363.2 367.3 371.1 374.1 375.5 375.6 376.5 376.4 373.8 371.5 370.5 372.1 373 373.4 373.1 372.5 371 369.2 366.5 362.8 358.8 353.7 348.4 340.9 330.9 316.8 299.2 279.5 265.5 254 241.2 235.1 232.1 223.7 227.5 232.2 236.3 241.2 245.5 245.4 243.3 240.6 236 230.6 228.8 232.6 235.9 243.5 252.1 258 257.8 255.2 250.7 242.9 226.5 216.2 241 266.3 284.1 287 276.9 265.7 252.7 239.1 225.9 213.6 210 219.8 230 234.5 238.3 241.8 245 248.6 252.7 250.7 243.3 233.9 224.1 218.8 213.4 207 203.9 203 204.7 202.2 205 219.2 236.9 251.5 262.7 269.4 276 280.5 283.2
315.1 312.7 308.2 303.3 297.2 289.6 281.4 270 267 267.1 267.1 267.1 268.5 266.6 266.2 265.6 265.1 265.7 268.5 283.5 296.7 303.7 305.4 305.2 303.7 300 294.2 286.5 279.4 270 261.7 261.4 261.3 280.4 278.1 275.3 271.6 268.6 264.4 259.9 259.6 259.4 258.5 259.1 264.8 279.8 285.8 272.8 282.3 281.9 278.2 272.4 270.8 269.5 270 272.3 276.2 281.4 287.8 293.4 300.6 305.5 311.3 318.7 324.7 329.4 335.5 339.4 342.1 343.5 343.5 342.5 340.8 337.8 332.7 326.1 315.4 295.8 281.8 290.1 298 297.4 292.5 288.3 284 271 257.9 273.4 290.5 300.7 306.5 309.7 311.5 312.1 312.1 309.2 305.4 317.7 322.8 327.2 330.7 336.2 343.8 350.5 356.3 361.6 366.1 370 373.2 375.5 376.6 377.6 377 375.4 373.2 374 374.6 375.7 376 376.2 376.2 374.6 372.6 369.1 365.3 359.4 352.3 344 333.2 318.2 300.6 282.9 267.8 262.4 256.7 250.5 241.6 233.2 226 223.9 225.3 224.8 229.5 233.2 234.9 233.8 232.4 228.4 225.9 225 222.9 221.1 225.4 231.3 236.6 239.2 237.3 235 230.2 217 225.9 256.2 278.7 291.7 292.4 286.1 275.5 263.2 247.6 231.3 216.9 209.2 210.6 211.6 215.8 218.5 220.9 223.6 226.1 227.7 227.6 223 216.5 211.1 207.1 204.1 206.2 216.3 224.9 224.3 211 201 206.8 225.4 237.2 244.5 251.6 260.8 268.1 271.6
322.4 319.8 314.4 308.8 301.3 293.2 282.9 275.3 269.3 266.7 266.8 266.7 265.3 265.7 265.8 265.7 267.1 272.7 288.7 299.8 305.1 308.1 309.1 308.6 305.9 302.2 295.8 287.1 280.2 272.6 265.1 262.5 261.1 266.2 268.2 266.3 263.9 260.4 258.9 259.3 258.7 259 258.8 258.4 258 257.8 272.4 271.9 267.2 268 263.7 261.1 257.9 256.6 256.6 255.4 256.2 257.3 264.6 271.7 278 284 293.3 300.3 311.4 320.7 328.9 336.2 343.1 345.3 347.1 347.4 347.6 344.7 340.8 333.9 325.3 312 293.8 277.5 278.8 286.4 285.7 279.2 270.1 260.1 257.4 260 274.9 291.7 300.7 304.1 306.4 308.3 308.3 302.1 301.3 308.3 314.1 322.1 330.1 338.5 345.2 351.2 356.1 361.1 365 369.2 372.8 375.3 377.1 377.9 377.3 377.1 376.6 377.5 378.1 378.6 379.6 379.8 379.6 378.4 376.2 372.4 366.9 358.6 342.2 329.3 317.2 307.1 301.1 295.1 286.6 281 275.4 263.9 252.8 240.3 233 225.7 223.8 223.1 223.1 222.7 222.1 222.1 221.7 221.5 220.8 220 219.7 219.3 218.1 218.6 218.4 218.2 217.7 217 217.1 227.9 250.5 269.8 288.7 298 297.2 293.8 286.9 277 262.9 243.9 226 211.5 209.7 208.9 208.2 208.3 209.2 209.7 210 212 208.1 206.9 205.4 205.2 204.8 211.9 225.1 236.9 246.7 245.4 232.6 208.6 200.8 208.1 218.1 226.1 233.5 241.2 251.1 258.9
326.9 324.5 318.9 312.1 304.6 293.2 279.3 272.9 269.4 268 267.4 267.2 267.7 268.3 268.3 275.3 278.8 288.8 295.6 304.2 309.3 311.4 312 310.9 308.1 303.4 297.5 288.6 279.2 272.1 265.3 263.6 262.6 260.1 260.4 260.4 259.6 258.5 267 268 266.4 265.3 264.3 262.7 258.8 257.9 257.7 259.2 259.1 257.2 257.1 256.4 256.7 256.6 260.1 259.2 256.9 255.6 255.5 254.7 256.2 259.2 269.5 278.3 288.1 299.5 312.3 324.4 336.7 343.9 348 349.3 348.8 348 345.8 341.5 332.3 323.8 311 296.4 282.2 272 270.7 265.1 264.1 270.8 267.3 256.1 262.2 279.8 293.2 297.7 299.8 301.6 301.2 285.8 300.6 312.6 321.8 329.8 337.3 343.1 347.5 351.8 356.2 361.3 365.4 368.5 372.4 374.9 377 378.1 378.8 378.9 379.7 379.7 381 381.9 382.3 382.6 382.1 381.3 379.2 375.9 371.3 366.1 358.8 348.6 340.4 332.3 324.1 317 311.1 306.7 297.9 281.5 267.2 254.7 245.5 237.3 230.7 223.9 222.9 221.9 221.5 221.8 221.5 223.4 226.4 228.4 231.6 234.1 233.9 231.1 228 226.3 229 233.1 237.2 252 268.8 287.2 299.8 304.9 304.2 301.4 296.9 290.3 280.1 264.4 243.4 225.6 217.8 210.7 209.1 208.6 207.8 207.5 207 207.3 206.9 205.6 206.3 210 222 234.8 247.3 258.7 264.8 262.5 250.7 225.9 203.1 200.7 203.2 209 216.6 225 233.3 243.8
328.5 325.7 320.2 312.6 302.5 286.9 278 271.3 269.9 268.9 267.9 273.1 279.4 281.5 283.6 289.3 292.4 298 303.2 306.5 310.1 313 312.7 311.2 307.9 303.4 297.4 288.8 280.4 272.7 268.1 264.2 262.8 263 261.8 258.7 259.1 275.3 278.5 277.5 275.3 272.5 270.4 267.5 264.6 259.4 258.2 257.3 257.6 257.4 256.4 257.1 266.7 275 277 276.3 271.5 261.6 256 254.8 255.1 255.4 255 254.9 261.1 273.8 287.5 304.9 324.2 335.7 344.1 347.5 348.3 347.7 346.9 342.3 336 328.8 321.4 311.2 298.5 288.2 284.1 287.5 290.3 289 279.5 265 255.4 269.1 284.5 289.7 293 293.9 281.9 289 305.4 316.6 324.3 331.9 338 343.4 347.8 351.9 356.2 360.8 365.1 368.7 372 374.3 376.2 377.4 378.8 379.6 379.4 380.4 381.3 381.6 382.2 383 382.9 382 381 378.4 376.2 373.8 370.5 365.7 361.5 356.5 350.1 345.8 341.9 338.2 327.5 308.5 288.5 273.9 262.8 250.9 246.3 237.5 229.3 226 225.8 228.2 231.9 240.4 244.6 250.9 255.2 256.9 256.1 251.9 248.8 248.3 251.1 255.8 261.7 275.5 287.5 298.9 306.5 310 310.7 309.7 306.7 302.9 297.6 287.2 269.7 250.3 240.1 235.9 235 233.9 230.7 228.4 226.6 224.5 224 224.5 226.3 233.2 242.8 253.8 267 274.2 275.2 272.7 263.8 244 218 204.4 200.5 200.6 201.1 209.3 215.1 224.8
327.6 325.5 319.9 312.5 298.6 282.3 275.5 270.7 269.9 268.6 273 276.6 283.8 287.3 294.2 298.7 302.9 307.7 311.7 312.5 313.4 314 312.6 310.7 306.5 301.8 294.5 288.2 281 272.5 268.9 266.2 266.1 265.5 266.4 269.8 276.7 282.2 283.8 283.8 282.5 280.5 277.5 275.1 271.8 268.5 266.5 263.5 260.6 266.2 274.4 282.8 288.8 292.3 293.6 292.3 288.2 282.4 271.4 263.6 254.7 254.9 255 254.4 254.6 254.8 263.4 285.4 305 325.8 337.1 342.3 344.5 344.6 343.5 340.6 335.9 330.6 324.8 318.3 313.9 309.5 306.6 305.6 304.3 297.7 288.7 275.6 256.8 256.6 270.6 277.6 282 276.8 274.1 292.2 308.1 316.7 323.4 330.6 336.7 341.5 345.6 349.4 354.2 359 363.4 367.5 370.5 372.5 374.1 375.6 376.7 377.7 377.7 378.6 379.9 380.8 381.3 382.5 382.5 382.2 381.1 379.9 378.3 376.2 374 371.5 368 364.7 361.7 358 353.4 348.2 340.3 329.6 313 297.6 285.2 273.5 262 253.6 243.7 239.7 241.7 245.6 251.6 261.6 268.2 274.6 279.6 279.9 277.7 275.2 272.5 273.2 274.5 278.9 285.6 294.2 303.3 310 313.2 316 317.6 318.5 317.8 314.9 311.6 304.9 296 280.7 269 264.3 260.5 257.5 252.8 247.9 245.4 244.4 243.5 244 246.8 252.5 259.9 268.1 277 283 283.7 282.2 275.9 261 236 222.4 211.1 202.5 199.6 200 202.8 208.6
323.7 320.2 315.7 309.5 293.9 279 271.8 269.4 269.2 274.3 275.3 280.1 289.3 301.3 308.2 312.4 316.2 318.6 320.2 319.6 317.9 316.5 313.9 311.6 307.9 302.5 293.5 281.5 276.3 271.5 270.2 270 271.1 272.1 274.1 278 283.3 287.5 289.8 289.8 290.3 288.8 286.8 284.6 282.4 280.2 279.4 281.9 286.4 292.4 299.5 302.9 302.6 301.5 300.5 299.2 297.4 293.4 287.8 283.4 275.8 259.6 253.8 254 254.2 254.3 254.7 254.9 285.5 312.8 332.2 336.8 338.9 339.2 338.4 335.8 332.7 327.8 324.8 321.3 317.5 315 313.3 310.5 307.4 302.6 294.3 283.3 269.3 253.2 254.8 260.3 266.4 260.1 279.4 296.1 307.9 316.2 322.5 328.4 333.8 338.7 342.7 346.6 351 355.9 360.5 364.3 367.1 369.5 371.1 372.3 373.2 374.4 374.9 376 377.4 378.6 379.9 380.3 380.5 380.2 379.8 378.9 377.4 375.9 374.4 372.2 370.2 367.8 364.8 361.2 357.2 352.2 346.2 338.6 329.5 318.9 305.9 292 278.2 267 253 252.9 263.5 268.7 274.2 284 292.4 298.7 300.1 299.6 298.4 296.7 296.5 298.4 300.9 303.7 309.5 315.9 320.1 326.4 330.5 333.2 335 335.8 334.1 331.7 326.2 322.2 314.7 305.7 295.2 285.3 280.2 274.9 270.4 266.2 264 262.2 261.3 262.2 265.1 269.7 277.5 284.7 291.2 296.6 298.9 299.2 296 284.4 261.2 242.2 228.4 214.8 204.4 198.9 198.8 199.5
310.6 309.2 305.5 299.5 287.6 275.9 270.7 274.9 279.6 281.1 280.4 282.7 291 307.8 316.9 321.5 324.3 326 326.4 324.7 322.1 319.5 316.2 312.3 306.2 294.9 284.1 277.5 275.9 275.3 277.2 278.6 280 281.8 284.2 287.5 291.3 295.5 297.4 297.3 296.9 296.4 294.8 293.8 293.3 292.3 292.7 296.6 304.6 302.7 307.9 308.3 307.7 305.7 302.1 300.9 298.7 294.8 291.4 288.2 283.1 275.6 258.7 253 252.8 254.1 254.4 254.3 278.7 312.1 326.8 331.2 333 332.9 332.3 330.1 327.5 325.2 322.1 320 317.3 314.9 312.8 309.3 305.9 300.6 295.8 289.8 280.5 267.9 257.5 250.9 251.7 255.3 269.7 291.7 303.9 312.8 319.9 325.8 330.4 334.6 338.8 342.9 346.2 351.3 356 359.4 361.3 363.7 366.8 367.6 368.1 368.8 370.6 372.5 374.2 375.9 377.1 377.8 378.4 378.2 377.6 376.5 375.2 374.5 373.1 371.5 369.7 368.2 365.5 361.9 357.8 353 347.8 341.2 333.5 324.3 312.7 300.6 289.4 273.5 254.1 265.4 274.3 281.7 291.2 301 309.7 314.5 316.2 316.7 315.6 315.9 315.5 318.6 323.7 327.7 332 338.3 343.8 347.8 350.3 352.3 353 352.3 350 348.3 344.5 340 334.3 326.9 319 309.9 301.8 295.2 289.4 287.5 284.1 283.1 280.9 281.9 285.6 290.2 298.2 306.9 312.5 315.9 317.9 317.7 314.1 304.8 286.4 268.4 253.8 240.8 230.1 217.3 206.1 198.6
